ply
format ascii 1.0
element vertex 1598
property float32 x
property float32 y
property float32 z
property float32 I
end_header
3.1300 -7.0682 -2.0015 0.9686
5.8790 -5.0193 -2.0015 0.9686
6.3039 -4.4740 -2.0015 0.9686
6.6784 -3.8930 -2.0015 0.9686
6.9995 -3.2808 -2.0015 0.9686
7.2645 -2.6425 -2.0015 0.9686
7.6188 -1.3075 -2.0015 0.9686
7.7052 -0.6217 -2.0015 0.9686
7.4349 2.1162 -2.0015 0.9686
6.6077 4.0118 -2.0015 0.9686
6.2229 4.5860 -2.0015 0.9686
5.7884 5.1236 -2.0015 0.9686
4.7843 6.0718 -2.0015 0.9686
1.6837 7.5261 -1.9968 0.9686
6.8060 1.9144 -2.0015 0.9710
6.3567 3.0950 -2.0015 0.9710
5.7045 4.1767 -2.0015 0.9710
4.8702 5.1252 -2.0015 0.9710
3.8804 5.9100 -2.0015 0.9710
2.7668 6.5062 -2.0015 0.9710
2.1745 6.7274 -2.0015 0.9710
0.3130 7.0631 -2.0015 0.9710
-0.9489 7.0061 -2.0015 0.9710
-2.1805 6.7254 -2.0015 0.9710
-2.7726 6.5037 -2.0015 0.9710
-4.3978 5.5358 -2.0015 0.9710
-4.8747 5.1208 -2.0015 0.9710
-5.3127 4.6649 -2.0015 0.9710
-5.7082 4.1717 -2.0015 0.9710
-6.0580 3.6450 -2.0015 0.9710
-6.8077 1.9083 -2.0015 0.9710
-6.9509 1.2926 -2.0015 0.9710
-7.0386 0.6665 -2.0015 0.9710
-6.8262 -1.8408 -2.0015 0.9710
-6.3897 -3.0262 -2.0015 0.9710
-6.0938 -3.5849 -2.0015 0.9710
-5.3586 -4.6120 -2.0015 0.9710
-4.9252 -5.0723 -2.0015 0.9710
-4.4524 -5.4920 -2.0015 0.9710
-3.9440 -5.8678 -2.0015 0.9710
-3.4040 -6.1967 -2.0015 0.9710
-1.0183 -6.9964 -2.0015 0.9710
2.7022 -6.5333 -2.0015 0.9710
3.2751 -6.2658 -2.0015 0.9710
5.2620 -4.7220 -2.0015 0.9710
5.6628 -4.2330 -2.0015 0.9710
6.3257 -3.1578 -2.0015 0.9710
6.5825 -2.5800 -2.0015 0.9710
6.7867 -1.9817 -2.0015 0.9710
7.0692 -0.1113 -2.0015 0.9710
7.0509 0.5206 -2.0015 0.9710
6.9762 1.1484 -2.0015 0.9710
6.4220 2.9570 -2.0015 0.9710
4.9797 5.0189 -2.0015 0.9710
3.4707 6.1596 -2.0015 0.9710
1.0937 6.9850 -2.0015 0.9710
0.4654 7.0547 -2.0015 0.9710
-1.4218 6.9256 -2.0015 0.9710
-2.0348 6.7709 -2.0015 0.9710
-2.6316 6.5621 -2.0015 0.9710
-3.2072 6.3008 -2.0015 0.9710
-4.7631 5.2249 -2.0015 0.9710
-5.2108 4.7785 -2.0015 0.9710
-6.2912 3.2259 -2.0015 0.9710
-6.5543 2.6509 -2.0015 0.9710
-6.7649 2.0548 -2.0015 0.9710
-6.8644 -1.6930 -2.0015 0.9710
-6.4535 -2.8875 -2.0015 0.9710
-6.1698 -3.4525 -2.0015 0.9710
-4.5699 -5.3946 -2.0015 0.9710
-3.5370 -6.1217 -2.0015 0.9710
-2.3912 -6.6534 -2.0015 0.9710
0.7216 -7.0332 -2.0015 0.9710
1.3470 -6.9406 -2.0015 0.9710
1.9616 -6.7925 -2.0015 0.9710
2.5606 -6.5901 -2.0015 0.9710
3.1390 -6.3350 -2.0015 0.9710
4.2163 -5.6753 -2.0015 0.9710
4.7064 -5.2760 -2.0015 0.9710
5.1589 -4.8345 -2.0015 0.9710
5.5701 -4.3543 -2.0015 0.9710
6.2561 -3.2936 -2.0015 0.9710
6.5253 -2.7215 -2.0015 0.9710
6.9054 -1.5169 -2.0015 0.9710
7.0133 -0.8940 -2.0015 0.9710
6.8823 1.6188 -2.0015 0.9710
6.7101 2.2272 -2.0015 0.9710
6.4843 2.8177 -2.0015 0.9710
6.2067 3.3857 -2.0015 0.9710
5.8794 3.9266 -2.0015 0.9710
5.5052 4.4361 -2.0015 0.9710
5.0869 4.9102 -2.0015 0.9710
4.6279 5.3450 -2.0015 0.9710
4.1319 5.7370 -2.0015 0.9710
3.6029 6.0832 -2.0015 0.9710
2.4629 6.6272 -2.0015 0.9710
1.8610 6.8207 -2.0015 0.9710
1.2443 6.9597 -2.0015 0.9710
-0.0141 7.0701 -2.0015 0.9710
-0.6456 7.0405 -2.0015 0.9710
-2.4893 6.6174 -2.0015 0.9710
-3.6271 6.0688 -2.0015 0.9710
-4.1547 5.7205 -2.0015 0.9710
-4.6492 5.3265 -2.0015 0.9710
-5.8950 3.9032 -2.0015 0.9710
-6.2202 3.3609 -2.0015 0.9710
-6.7189 2.2004 -2.0015 0.9710
-6.8886 1.5914 -2.0015 0.9710
-7.0033 0.9697 -2.0015 0.9710
-7.0619 0.3402 -2.0015 0.9710
-7.0097 -0.9219 -2.0015 0.9710
-6.7338 -2.1546 -2.0015 0.9710
-5.1396 -4.8550 -2.0015 0.9710
-4.1936 -5.6921 -2.0015 0.9710
-3.6683 -6.0440 -2.0015 0.9710
-0.6935 -7.0360 -2.0015 0.9710
-0.0622 -7.0698 -2.0015 0.9710
0.5696 -7.0471 -2.0015 0.9710
1.1968 -6.9680 -2.0015 0.9710
1.8145 -6.8333 -2.0015 0.9710
2.4177 -6.6439 -2.0015 0.9710
3.0016 -6.4013 -2.0015 0.9710
4.5914 -5.3764 -2.0015 0.9710
5.8526 -3.9665 -2.0015 0.9710
6.6948 -2.2728 -2.0015 0.9710
6.9924 -1.0452 -2.0015 0.9710
7.0578 -0.4164 -2.0015 0.9710
7.0668 0.2158 -2.0015 0.9710
6.5437 2.6771 -2.0015 0.9710
6.2783 3.2509 -2.0015 0.9710
3.7334 6.0040 -2.0015 0.9710
2.6054 6.5725 -2.0015 0.9710
0.1385 7.0687 -2.0015 0.9710
-1.7407 6.8525 -2.0015 0.9710
-2.3458 6.6696 -2.0015 0.9710
-3.4953 6.1457 -2.0015 0.9710
-4.9996 4.9990 -2.0015 0.9710
-5.8094 4.0295 -2.0015 0.9710
-6.4337 2.9314 -2.0015 0.9710
-6.9807 1.1206 -2.0015 0.9710
-7.0529 0.4925 -2.0015 0.9710
-7.0280 -0.7704 -2.0015 0.9710
-6.7787 -2.0087 -2.0015 0.9710
-6.3131 -3.1830 -2.0015 0.9710
-6.0035 -3.7342 -2.0015 0.9710
-4.7985 -5.1923 -2.0015 0.9710
-2.0809 -6.7569 -2.0015 0.9710
-0.8452 -7.0194 -2.0015 0.9710
0.4173 -7.0577 -2.0015 0.9710
2.2737 -6.6945 -2.0015 0.9710
2.8627 -6.4646 -2.0015 0.9710
3.4287 -6.1830 -2.0015 0.9710
4.9454 -5.0526 -2.0015 0.9710
5.7656 -4.0920 -2.0015 0.9710
6.1081 -3.5606 -2.0015 0.9710
6.4017 -3.0007 -2.0015 0.9710
6.6442 -2.4168 -2.0015 0.9710
6.9682 -1.1959 -2.0015 0.9710
6.9457 1.3203 -2.0015 0.9710
6.8000 1.9355 -2.0015 0.9710
6.5999 2.5352 -2.0015 0.9710
6.3471 3.1146 -2.0015 0.9710
6.0434 3.6692 -2.0015 0.9710
5.6915 4.1944 -2.0015 0.9710
5.2941 4.6860 -2.0015 0.9710
4.8543 5.1402 -2.0015 0.9710
4.3757 5.5533 -2.0015 0.9710
2.7466 6.5148 -2.0015 0.9710
2.1537 6.7341 -2.0015 0.9710
1.5435 6.8995 -2.0015 0.9710
0.9210 7.0098 -2.0015 0.9710
6.2642 1.7620 -2.0015 0.9731
6.0817 2.3145 -2.0015 0.9731
5.5728 3.3598 -2.0015 0.9731
5.2504 3.8442 -2.0015 0.9731
4.4825 4.7172 -2.0015 0.9731
4.0432 5.0988 -2.0015 0.9731
2.5465 5.9883 -2.0015 0.9731
1.4403 6.3458 -2.0015 0.9731
0.8676 6.4492 -2.0015 0.9731
-0.2938 6.5006 -2.0015 0.9731
-0.8734 6.4484 -2.0015 0.9731
-1.4459 6.3446 -2.0015 0.9731
-2.5519 5.9860 -2.0015 0.9731
-3.5764 5.4364 -2.0015 0.9731
-4.0477 5.0951 -2.0015 0.9731
-4.4867 4.7132 -2.0015 0.9731
-4.8898 4.2935 -2.0015 0.9731
-5.5758 3.3549 -2.0015 0.9731
-6.0838 2.3091 -2.0015 0.9731
-6.4783 0.6134 -2.0015 0.9731
-6.2828 -1.6943 -2.0015 0.9731
-6.1063 -2.2488 -2.0015 0.9731
-5.8810 -2.7853 -2.0015 0.9731
-5.6087 -3.2995 -2.0015 0.9731
-4.0979 -5.0548 -2.0015 0.9731
-2.0681 -6.1699 -2.0015 0.9731
-1.5087 -6.3299 -2.0015 0.9731
-0.9372 -6.4394 -2.0015 0.9731
0.2237 -6.5034 -2.0015 0.9731
0.8037 -6.4574 -2.0015 0.9731
1.3774 -6.3598 -2.0015 0.9731
1.9400 -6.2113 -2.0015 0.9731
3.0143 -5.7670 -2.0015 0.9731
3.5175 -5.4746 -2.0015 0.9731
4.8431 -4.3461 -2.0015 0.9731
5.5392 -3.4149 -2.0015 0.9731
6.0585 -2.3747 -2.0015 0.9731
6.5064 -0.1025 -2.0015 0.9731
6.3007 1.6264 -2.0015 0.9731
5.6440 3.2388 -2.0015 0.9731
4.9776 4.1914 -2.0015 0.9731
4.1523 5.0103 -2.0015 0.9731
3.6881 5.3612 -2.0015 0.9731
3.1944 5.6692 -2.0015 0.9731
2.1346 6.1472 -2.0015 0.9731
1.5769 6.3133 -2.0015 0.9731
1.0067 6.4289 -2.0015 0.9731
0.4283 6.4931 -2.0015 0.9731
-0.1534 6.5054 -2.0015 0.9731
-1.3086 6.3743 -2.0015 0.9731
-4.3839 4.8089 -2.0015 0.9731
-5.7904 2.9691 -2.0015 0.9731
-6.0325 2.4399 -2.0015 0.9731
-6.3704 1.3275 -2.0015 0.9731
-6.4635 0.7531 -2.0015 0.9731
-6.4944 -0.4091 -2.0015 0.9731
-6.4319 -0.9876 -2.0015 0.9731
-6.3179 -1.5583 -2.0015 0.9731
-5.9398 -2.6577 -2.0015 0.9731
-5.6786 -3.1776 -2.0015 0.9731
-5.0225 -4.1374 -2.0015 0.9731
-4.2061 -4.9652 -2.0015 0.9731
-3.7458 -5.3211 -2.0015 0.9731
-3.2554 -5.6344 -2.0015 0.9731
-2.2008 -6.1238 -2.0015 0.9731
-0.4984 -6.4881 -2.0015 0.9731
1.2398 -6.3881 -2.0015 0.9731
1.8055 -6.2518 -2.0015 0.9731
2.3567 -6.0655 -2.0015 0.9731
2.8891 -5.8307 -2.0015 0.9731
3.3985 -5.5493 -2.0015 0.9731
4.3317 -4.8560 -2.0015 0.9731
4.7482 -4.4496 -2.0015 0.9731
5.4642 -3.5337 -2.0015 0.9731
5.7580 -3.0314 -2.0015 0.9731
6.0058 -2.5049 -2.0015 0.9731
6.4550 -0.8228 -2.0015 0.9731
6.4984 0.3390 -2.0015 0.9731
6.4421 0.9181 -2.0015 0.9731
6.1759 2.0499 -2.0015 0.9731
5.9681 2.5934 -2.0015 0.9731
5.7126 3.1162 -2.0015 0.9731
5.4114 3.6140 -2.0015 0.9731
5.0669 4.0830 -2.0015 0.9731
4.6819 4.5193 -2.0015 0.9731
4.2595 4.9195 -2.0015 0.9731
1.7129 6.2778 -2.0015 0.9731
-0.0130 6.5072 -2.0015 0.9731
-1.1707 6.4011 -2.0015 0.9731
-2.2911 6.0906 -2.0015 0.9731
-2.8260 5.8616 -2.0015 0.9731
-3.3384 5.5857 -2.0015 0.9731
-3.8240 5.2651 -2.0015 0.9731
-4.6999 4.5006 -2.0015 0.9731
-5.9784 2.5696 -2.0015 0.9731
-6.1841 2.0252 -2.0015 0.9731
-6.1977 -1.9831 -2.0015 0.9731
-5.9958 -2.5288 -2.0015 0.9731
-5.7459 -3.0543 -2.0015 0.9731
-5.4501 -3.5554 -2.0015 0.9731
-3.8597 -5.2389 -2.0015 0.9731
-3.3763 -5.5628 -2.0015 0.9731
-1.7805 -6.2589 -2.0015 0.9731
-1.2143 -6.3929 -2.0015 0.9731
-0.0573 -6.5070 -2.0015 0.9731
0.5242 -6.4861 -2.0015 0.9731
1.6701 -6.2893 -2.0015 0.9731
2.2252 -6.1150 -2.0015 0.9731
2.7626 -5.8917 -2.0015 0.9731
5.9503 -2.6340 -2.0015 0.9731
6.5042 0.1986 -2.0015 0.9731
6.3651 1.3529 -2.0015 0.9731
6.2188 1.9161 -2.0015 0.9731
6.0227 2.4639 -2.0015 0.9731
5.7785 2.9921 -2.0015 0.9731
5.1539 3.9727 -2.0015 0.9731
3.9161 5.1970 -2.0015 0.9731
3.4362 5.5260 -2.0015 0.9731
2.9288 5.8109 -2.0015 0.9731
2.3979 6.0493 -2.0015 0.9731
1.2832 6.3795 -2.0015 0.9731
0.7082 6.4686 -2.0015 0.9731
0.1275 6.5060 -2.0015 0.9731
-1.0323 6.4248 -2.0015 0.9731
-1.6021 6.3069 -2.0015 0.9731
-2.6988 5.9212 -2.0015 0.9731
-3.2170 5.6564 -2.0015 0.9731
-3.7094 5.3464 -2.0015 0.9731
-4.1722 4.9937 -2.0015 0.9731
-4.6016 4.6010 -2.0015 0.9731
-5.6569 3.2162 -2.0015 0.9731
-5.9216 2.6980 -2.0015 0.9731
-6.1389 2.1583 -2.0015 0.9731
-6.4250 1.0314 -2.0015 0.9731
-6.5060 -0.1284 -2.0015 0.9731
-6.2391 -1.8488 -2.0015 0.9731
-6.0490 -2.3988 -2.0015 0.9731
-5.5256 -3.4369 -2.0015 0.9731
-3.9719 -5.1544 -2.0015 0.9731
-3.4956 -5.4886 -2.0015 0.9731
-2.9913 -5.7790 -2.0015 0.9731
-2.4631 -6.0231 -2.0015 0.9731
-1.9152 -6.2190 -2.0015 0.9731
-1.3520 -6.3652 -2.0015 0.9731
-0.7780 -6.4606 -2.0015 0.9731
0.3841 -6.4959 -2.0015 0.9731
0.9629 -6.4356 -2.0015 0.9731
2.0927 -6.1616 -2.0015 0.9731
4.5517 -4.6504 -2.0015 0.9731
4.9489 -4.2252 -2.0015 0.9731
5.3066 -3.7662 -2.0015 0.9731
5.8921 -2.7618 -2.0015 0.9731
6.5070 0.0582 -2.0015 0.9731
6.4758 0.6392 -2.0015 0.9731
5.2384 3.8605 -2.0015 0.9731
4.0274 5.1112 -2.0015 0.9731
3.5547 5.4506 -2.0015 0.9731
2.5280 5.9961 -2.0015 0.9731
1.9822 6.1980 -2.0015 0.9731
1.4206 6.3503 -2.0015 0.9731
0.8477 6.4518 -2.0015 0.9731
5.7963 1.6304 -2.0015 0.9749
5.6275 2.1417 -2.0015 0.9749
4.8582 3.5571 -2.0015 0.9749
4.5210 3.9769 -2.0015 0.9749
4.1477 4.3649 -2.0015 0.9749
3.3048 5.0333 -2.0015 0.9749
2.8419 5.3084 -2.0015 0.9749
1.8519 5.7294 -2.0015 0.9749
1.3327 5.8719 -2.0015 0.9749
0.8028 5.9675 -2.0015 0.9749
0.2665 6.0153 -2.0015 0.9749
-0.2719 6.0151 -2.0015 0.9749
-0.8081 5.9667 -2.0015 0.9749
-1.3379 5.8707 -2.0015 0.9749
-1.8570 5.7277 -2.0015 0.9749
-4.1516 4.3612 -2.0015 0.9749
-4.5246 3.9729 -2.0015 0.9749
-4.8614 3.5528 -2.0015 0.9749
-5.4160 2.6310 -2.0015 0.9749
-5.7977 1.6252 -2.0015 0.9749
-5.9197 1.1008 -2.0015 0.9749
-5.9944 0.5676 -2.0015 0.9749
-6.0211 0.0298 -2.0015 0.9749
-5.9997 -0.5082 -2.0015 0.9749
-5.6503 -2.0808 -2.0015 0.9749
-5.4418 -2.5772 -2.0015 0.9749
-5.1898 -3.0531 -2.0015 0.9749
-3.7919 -4.6773 -2.0015 0.9749
-3.3589 -4.9973 -2.0015 0.9749
-2.4160 -5.5153 -2.0015 0.9749
-1.9137 -5.7090 -2.0015 0.9749
-0.3315 -6.0121 -2.0015 0.9749
1.2745 -5.8848 -2.0015 0.9749
2.3014 -5.5641 -2.0015 0.9749
3.6943 -4.7547 -2.0015 0.9749
4.8227 -3.6050 -2.0015 0.9749
5.6060 -2.1973 -2.0015 0.9749
5.7799 -1.6877 -2.0015 0.9749
5.9075 -1.1646 -2.0015 0.9749
5.9879 -0.6323 -2.0015 0.9749
5.9413 0.9781 -2.0015 0.9749
5.6724 2.0197 -2.0015 0.9749
5.4693 2.5183 -2.0015 0.9749
4.2409 4.2743 -2.0015 0.9749
3.4127 4.9608 -2.0015 0.9749
2.4754 5.4889 -2.0015 0.9749
1.9752 5.6881 -2.0015 0.9749
0.3963 6.0082 -2.0015 0.9749
-0.1420 6.0196 -2.0015 0.9749
-0.6792 5.9828 -2.0015 0.9749
-1.2109 5.8982 -2.0015 0.9749
-1.7330 5.7665 -2.0015 0.9749
-2.7314 5.3660 -2.0015 0.9749
-3.1999 5.1006 -2.0015 0.9749
-4.0565 4.4498 -2.0015 0.9749
-4.7836 3.6569 -2.0015 0.9749
-5.0911 3.2150 -2.0015 0.9749
-5.5819 2.2577 -2.0015 0.9749
-5.7613 1.7500 -2.0015 0.9749
-5.8946 1.2283 -2.0015 0.9749
-6.0093 -0.3786 -2.0015 0.9749
-5.9515 -0.9139 -2.0015 0.9749
-5.8460 -1.4419 -2.0015 0.9749
-4.2868 -4.2283 -2.0015 0.9749
-3.8920 -4.5943 -2.0015 0.9749
-3.4660 -4.9236 -2.0015 0.9749
-3.0123 -5.2136 -2.0015 0.9749
-1.5221 -5.8257 -2.0015 0.9749
-0.4611 -6.0035 -2.0015 0.9749
1.6706 -5.7848 -2.0015 0.9749
2.6734 -5.3952 -2.0015 0.9749
3.5908 -4.8334 -2.0015 0.9749
4.0082 -4.4933 -2.0015 0.9749
4.7438 -3.7083 -2.0015 0.9749
5.3280 -2.8050 -2.0015 0.9749
5.5573 -2.3178 -2.0015 0.9749
5.8810 -1.2919 -2.0015 0.9749
5.9729 -0.7614 -2.0015 0.9749
5.9610 0.8496 -2.0015 0.9749
5.7147 1.8968 -2.0015 0.9749
5.5224 2.3997 -2.0015 0.9749
5.2859 2.8834 -2.0015 0.9749
4.6885 3.7780 -2.0015 0.9749
3.0684 5.1808 -2.0015 0.9749
2.5933 5.4341 -2.0015 0.9749
0.5259 5.9982 -2.0015 0.9749
-0.0120 6.0212 -2.0015 0.9749
-0.5498 5.9961 -2.0015 0.9749
-2.1200 5.6357 -2.0015 0.9749
-2.6150 5.4238 -2.0015 0.9749
-3.9595 4.5363 -2.0015 0.9749
-5.5319 2.3777 -2.0015 0.9749
-5.7222 1.8740 -2.0015 0.9749
-5.9643 0.8258 -2.0015 0.9749
-5.9698 -0.7852 -2.0015 0.9749
-5.8758 -1.3153 -2.0015 0.9749
-5.7348 -1.8350 -2.0015 0.9749
-5.5480 -2.3399 -2.0015 0.9749
-5.0430 -3.2898 -2.0015 0.9749
-4.3771 -4.1347 -2.0015 0.9749
-3.9902 -4.5092 -2.0015 0.9749
-3.1241 -5.1473 -2.0015 0.9749
-2.6518 -5.4058 -2.0015 0.9749
-2.1583 -5.6211 -2.0015 0.9749
-1.1236 -5.9155 -2.0015 0.9749
-0.5906 -5.9922 -2.0015 0.9749
-0.0530 -6.0210 -2.0015 0.9749
0.4851 -6.0017 -2.0015 0.9749
1.0193 -5.9343 -2.0015 0.9749
2.0590 -5.6582 -2.0015 0.9749
3.0331 -5.2015 -2.0015 0.9749
3.9103 -4.5788 -2.0015 0.9749
4.3037 -4.2111 -2.0015 0.9749
5.2662 -2.9193 -2.0015 0.9749
5.7016 -1.9356 -2.0015 0.9749
5.9551 -0.8901 -2.0015 0.9749
6.0108 -0.3546 -2.0015 0.9749
5.8897 1.2518 -2.0015 0.9749
5.7543 1.7730 -2.0015 0.9749
5.5729 2.2799 -2.0015 0.9749
5.3470 2.7686 -2.0015 0.9749
4.7689 3.6759 -2.0015 0.9749
4.4215 4.0873 -2.0015 0.9749
4.0387 4.4659 -2.0015 0.9749
3.6236 4.8088 -2.0015 0.9749
3.1795 5.1133 -2.0015 0.9749
2.7100 5.3769 -2.0015 0.9749
2.2189 5.5975 -2.0015 0.9749
1.7099 5.7733 -2.0015 0.9749
1.1874 5.9030 -2.0015 0.9749
-0.9552 5.9450 -2.0015 0.9749
-1.4824 5.8359 -2.0015 0.9749
-1.9978 5.6801 -2.0015 0.9749
-2.4973 5.4790 -2.0015 0.9749
-2.9767 5.2340 -2.0015 0.9749
-3.4324 4.9471 -2.0015 0.9749
-3.8606 4.6207 -2.0015 0.9749
-4.9476 3.4317 -2.0015 0.9749
-5.2344 2.9760 -2.0015 0.9749
-5.4793 2.4965 -2.0015 0.9749
-5.6804 1.9971 -2.0015 0.9749
-6.0201 -0.1188 -2.0015 0.9749
-5.9854 -0.6561 -2.0015 0.9749
-5.9028 -1.1882 -2.0015 0.9749
-5.7731 -1.7107 -2.0015 0.9749
-5.5972 -2.2196 -2.0015 0.9749
-5.1129 -3.1802 -2.0015 0.9749
-4.8083 -3.6242 -2.0015 0.9749
-4.4653 -4.0393 -2.0015 0.9749
-4.0867 -4.4220 -2.0015 0.9749
-3.6753 -4.7694 -2.0015 0.9749
-2.7679 -5.3473 -2.0015 0.9749
-2.2791 -5.5732 -2.0015 0.9749
-0.1830 -6.0184 -2.0015 0.9749
0.8909 -5.9550 -2.0015 0.9749
1.9364 -5.7014 -2.0015 0.9749
2.4380 -5.5056 -2.0015 0.9749
2.9201 -5.2658 -2.0015 0.9749
3.3788 -4.9839 -2.0015 0.9749
3.8105 -4.6621 -2.0015 0.9749
4.2118 -4.3031 -2.0015 0.9749
4.5793 -3.9096 -2.0015 0.9749
4.9103 -3.4849 -2.0015 0.9749
5.2019 -3.0323 -2.0015 0.9749
5.4520 -2.5555 -2.0015 0.9749
5.6585 -2.0583 -2.0015 0.9749
5.8198 -1.5445 -2.0015 0.9749
6.0017 -0.4843 -2.0015 0.9749
5.9921 0.5915 -2.0015 0.9749
5.9153 1.1244 -2.0015 0.9749
5.7912 1.6483 -2.0015 0.9749
5.6208 2.1591 -2.0015 0.9749
5.4055 2.6526 -2.0015 0.9749
4.8472 3.5721 -2.0015 0.9749
4.5087 3.9909 -2.0015 0.9749
4.1342 4.3777 -2.0015 0.9749
3.7265 4.7295 -2.0015 0.9749
3.2892 5.0435 -2.0015 0.9749
2.8255 5.3171 -2.0015 0.9749
1.3145 5.8760 -2.0015 0.9749
5.2309 1.9907 -2.0015 0.9765
4.5158 3.3064 -2.0015 0.9765
4.2024 3.6966 -2.0015 0.9765
3.8554 4.0572 -2.0015 0.9765
3.0719 4.6786 -2.0015 0.9765
2.6416 4.9343 -2.0015 0.9765
0.7463 5.5469 -2.0015 0.9765
-0.2527 5.5912 -2.0015 0.9765
-0.7512 5.5462 -2.0015 0.9765
-1.2436 5.4570 -2.0015 0.9765
-2.1949 5.1486 -2.0015 0.9765
-3.0760 4.6758 -2.0015 0.9765
-3.8590 4.0538 -2.0015 0.9765
-4.2057 3.6929 -2.0015 0.9765
-4.5188 3.3024 -2.0015 0.9765
-4.7957 2.8855 -2.0015 0.9765
-5.2327 1.9861 -2.0015 0.9765
-5.3891 1.5107 -2.0015 0.9765
-5.5720 0.5276 -2.0015 0.9765
-5.5968 0.0277 -2.0015 0.9765
-5.5124 -0.9687 -2.0015 0.9765
-5.4039 -1.4572 -2.0015 0.9765
-5.2521 -1.9342 -2.0015 0.9765
-2.6947 -4.9055 -2.0015 0.9765
-2.2457 -5.1266 -2.0015 0.9765
-1.2976 -5.4444 -2.0015 0.9765
-0.8061 -5.5385 -2.0015 0.9765
-0.3081 -5.5884 -2.0015 0.9765
1.1847 -5.4701 -2.0015 0.9765
1.6686 -5.3424 -2.0015 0.9765
2.5926 -4.9602 -2.0015 0.9765
3.4339 -4.4197 -2.0015 0.9765
3.8150 -4.0952 -2.0015 0.9765
4.1656 -3.7381 -2.0015 0.9765
4.7643 -2.9371 -2.0015 0.9765
5.2109 -2.0425 -2.0015 0.9765
5.4912 -1.0826 -2.0015 0.9765
5.5660 -0.5877 -2.0015 0.9765
5.5962 -0.0881 -2.0015 0.9765
5.5226 0.9091 -2.0015 0.9765
5.4193 1.3988 -2.0015 0.9765
5.0839 2.3409 -2.0015 0.9765
4.2812 3.6050 -2.0015 0.9765
3.5714 4.3093 -2.0015 0.9765
2.3010 5.1020 -2.0015 0.9765
1.3563 5.4301 -2.0015 0.9765
0.8658 5.5295 -2.0015 0.9765
-0.1320 5.5953 -2.0015 0.9765
-1.1256 5.4826 -2.0015 0.9765
-2.0832 5.1948 -2.0015 0.9765
-2.5389 4.9879 -2.0015 0.9765
-4.1250 3.7828 -2.0015 0.9765
-4.4464 3.3992 -2.0015 0.9765
-4.9804 2.5537 -2.0015 0.9765
-5.1886 2.0986 -2.0015 0.9765
-5.3553 1.6267 -2.0015 0.9765
-5.4792 1.1418 -2.0015 0.9765
-5.5593 0.6477 -2.0015 0.9765
-5.5858 -0.3519 -2.0015 0.9765
-5.5321 -0.8495 -2.0015 0.9765
-5.2926 -1.8203 -2.0015 0.9765
-4.8842 -2.7331 -2.0015 0.9765
-4.3199 -3.5586 -2.0015 0.9765
-3.2217 -4.5767 -2.0015 0.9765
-1.8929 -5.2671 -2.0015 0.9765
-0.4287 -5.5805 -2.0015 0.9765
1.5529 -5.3772 -2.0015 0.9765
3.3377 -4.4928 -2.0015 0.9765
4.0839 -3.8271 -2.0015 0.9765
4.6998 -3.0393 -2.0015 0.9765
5.4666 -1.2009 -2.0015 0.9765
5.5520 -0.7077 -2.0015 0.9765
5.5893 0.2916 -2.0015 0.9765
5.5409 0.7897 -2.0015 0.9765
5.3119 1.7631 -2.0015 0.9765
4.9134 2.6802 -2.0015 0.9765
4.3581 3.5118 -2.0015 0.9765
3.6636 4.2312 -2.0015 0.9765
3.2709 4.5416 -2.0015 0.9765
2.4106 5.0512 -2.0015 0.9765
1.4732 5.3995 -2.0015 0.9765
0.9850 5.5095 -2.0015 0.9765
0.4889 5.5755 -2.0015 0.9765
-1.4947 5.3936 -2.0015 0.9765
-1.9706 5.2385 -2.0015 0.9765
-2.8713 4.8042 -2.0015 0.9765
-3.2890 4.5285 -2.0015 0.9765
-4.9241 2.6606 -2.0015 0.9765
-5.1421 2.2101 -2.0015 0.9765
-5.3189 1.7419 -2.0015 0.9765
-5.4533 1.2598 -2.0015 0.9765
-5.5921 -0.2312 -2.0015 0.9765
-5.5491 -0.7298 -2.0015 0.9765
-5.4617 -1.2226 -2.0015 0.9765
-5.1570 -2.1750 -2.0015 0.9765
-4.0686 -3.8434 -2.0015 0.9765
-3.7090 -4.1915 -2.0015 0.9765
-3.3198 -4.5060 -2.0015 0.9765
-2.0062 -5.2250 -2.0015 0.9765
-1.5314 -5.3833 -2.0015 0.9765
-1.0444 -5.4986 -2.0015 0.9765
-0.5490 -5.5699 -2.0015 0.9765
-0.0493 -5.5967 -2.0015 0.9765
0.4509 -5.5787 -2.0015 0.9765
1.9139 -5.2595 -2.0015 0.9765
2.3761 -5.0675 -2.0015 0.9765
2.8193 -4.8350 -2.0015 0.9765
3.2400 -4.5638 -2.0015 0.9765
3.6347 -4.2561 -2.0015 0.9765
4.6331 -3.1400 -2.0015 0.9765
5.1179 -2.2655 -2.0015 0.9765
5.2998 -1.7992 -2.0015 0.9765
5.4394 -1.3186 -2.0015 0.9765
5.5872 -0.3296 -2.0015 0.9765
5.5943 0.1708 -2.0015 0.9765
5.5567 0.6699 -2.0015 0.9765
4.4329 3.4169 -2.0015 0.9765
4.1099 3.7992 -2.0015 0.9765
2.5190 4.9980 -2.0015 0.9765
1.5895 5.3665 -2.0015 0.9765
0.6091 5.5637 -2.0015 0.9765
-0.8879 5.5260 -2.0015 0.9765
-1.8571 5.2798 -2.0015 0.9765
-2.3213 5.0928 -2.0015 0.9765
-3.1905 4.5985 -2.0015 0.9765
-3.9579 3.9573 -2.0015 0.9765
-5.2801 1.8563 -2.0015 0.9765
-5.5833 0.3899 -2.0015 0.9765
-5.5636 -0.6099 -2.0015 0.9765
-5.4868 -1.1044 -2.0015 0.9765
-5.3662 -1.5902 -2.0015 0.9765
-5.2027 -2.0632 -2.0015 0.9765
-4.4695 -3.3688 -2.0015 0.9765
-3.7987 -4.1104 -2.0015 0.9765
-3.0066 -4.7208 -2.0015 0.9765
-2.1185 -5.1805 -2.0015 0.9765
-1.1629 -5.4748 -2.0015 0.9765
-0.6691 -5.5568 -2.0015 0.9765
-0.1701 -5.5943 -2.0015 0.9765
0.3304 -5.5871 -2.0015 0.9765
1.3193 -5.4392 -2.0015 0.9765
2.7143 -4.8947 -2.0015 0.9765
3.5420 -4.3336 -2.0015 0.9765
3.9149 -3.9998 -2.0015 0.9765
4.2566 -3.6341 -2.0015 0.9765
5.4096 -1.4357 -2.0015 0.9765
5.5788 -0.4501 -2.0015 0.9765
5.5967 0.0500 -2.0015 0.9765
5.5698 0.5498 -2.0015 0.9765
5.3831 1.5322 -2.0015 0.9765
5.0245 2.4656 -2.0015 0.9765
4.1909 3.7096 -2.0015 0.9765
3.8428 4.0692 -2.0015 0.9765
2.1743 5.1573 -2.0015 0.9765
1.7049 5.3309 -2.0015 0.9765
1.2219 5.4619 -2.0015 0.9765
5.0277 1.4142 -2.0015 0.9779
4.8813 1.8577 -2.0015 0.9779
4.4728 2.6967 -2.0015 0.9779
4.2140 3.0855 -2.0015 0.9779
3.5977 3.7861 -2.0015 0.9779
2.4651 4.6045 -2.0015 0.9779
2.0439 4.8063 -2.0015 0.9779
0.2312 5.2177 -2.0015 0.9779
-0.2358 5.2175 -2.0015 0.9779
-0.7010 5.1756 -2.0015 0.9779
-1.1605 5.0923 -2.0015 0.9779
-2.4692 4.6023 -2.0015 0.9779
-3.2488 4.0895 -2.0015 0.9779
-3.6011 3.7829 -2.0015 0.9779
-3.9246 3.4461 -2.0015 0.9779
-4.6979 2.2821 -2.0015 0.9779
-5.1348 0.9548 -2.0015 0.9779
-5.1440 -0.9039 -2.0015 0.9779
-5.0427 -1.3599 -2.0015 0.9779
-4.9011 -1.8049 -2.0015 0.9779
-3.9586 -3.4070 -2.0015 0.9779
-3.6384 -3.7470 -2.0015 0.9779
-2.9135 -4.3347 -2.0015 0.9779
-2.5146 -4.5776 -2.0015 0.9779
-2.0957 -4.7840 -2.0015 0.9779
-1.6599 -4.9521 -2.0015 0.9779
-0.2875 -5.2149 -2.0015 0.9779
0.1795 -5.2198 -2.0015 0.9779
1.1055 -5.1045 -2.0015 0.9779
2.4194 -4.6287 -2.0015 0.9779
3.2044 -4.1243 -2.0015 0.9779
3.5600 -3.8215 -2.0015 0.9779
3.8872 -3.4882 -2.0015 0.9779
4.6730 -2.3327 -2.0015 0.9779
4.8627 -1.9060 -2.0015 0.9779
5.0135 -1.4639 -2.0015 0.9779
5.1242 -1.0102 -2.0015 0.9779
5.1940 -0.5484 -2.0015 0.9779
5.2222 -0.0822 -2.0015 0.9779
5.2087 0.3846 -2.0015 0.9779
4.7441 2.1844 -2.0015 0.9779
4.2797 2.9938 -2.0015 0.9779
3.9951 3.3641 -2.0015 0.9779
3.6786 3.7076 -2.0015 0.9779
3.3327 4.0213 -2.0015 0.9779
0.3438 5.2115 -2.0015 0.9779
-0.5891 5.1895 -2.0015 0.9779
-1.5032 5.0019 -2.0015 0.9779
-1.9440 4.8476 -2.0015 0.9779
-2.3693 4.6545 -2.0015 0.9779
-2.7756 4.4243 -2.0015 0.9779
-3.8493 3.5300 -2.0015 0.9779
-4.6475 2.3830 -2.0015 0.9779
-4.9974 1.5180 -2.0015 0.9779
-5.1130 1.0655 -2.0015 0.9779
-5.1877 0.6044 -2.0015 0.9779
-5.2125 -0.3284 -2.0015 0.9779
-5.0709 -1.2507 -2.0015 0.9779
-4.9389 -1.6987 -2.0015 0.9779
-4.7674 -2.1331 -2.0015 0.9779
-4.5578 -2.5504 -2.0015 0.9779
-4.3117 -2.9474 -2.0015 0.9779
-4.0312 -3.3208 -2.0015 0.9779
-2.1984 -4.7376 -2.0015 0.9779
-1.3203 -5.0532 -2.0015 0.9779
0.0668 -5.2224 -2.0015 0.9779
0.9951 -5.1272 -2.0015 0.9779
1.4491 -5.0178 -2.0015 0.9779
2.3189 -4.6798 -2.0015 0.9779
3.1146 -4.1925 -2.0015 0.9779
4.6215 -2.4331 -2.0015 0.9779
4.9807 -1.5718 -2.0015 0.9779
5.1012 -1.1206 -2.0015 0.9779
5.1809 -0.6604 -2.0015 0.9779
5.2192 -0.1950 -2.0015 0.9779
5.2158 0.2721 -2.0015 0.9779
4.3433 2.9007 -2.0015 0.9779
4.0668 3.2771 -2.0015 0.9779
3.7578 3.6273 -2.0015 0.9779
3.4187 3.9485 -2.0015 0.9779
3.0523 4.2381 -2.0015 0.9779
1.3748 5.0387 -2.0015 0.9779
0.9192 5.1413 -2.0015 0.9779
0.4562 5.2029 -2.0015 0.9779
-0.0104 5.2228 -2.0015 0.9779
-0.4769 5.2010 -2.0015 0.9779
-1.3949 5.0331 -2.0015 0.9779
-1.8389 4.8884 -2.0015 0.9779
-2.2682 4.7046 -2.0015 0.9779
-3.0692 4.2259 -2.0015 0.9779
-3.4345 3.9348 -2.0015 0.9779
-4.3548 2.8834 -2.0015 0.9779
-4.7984 2.0624 -2.0015 0.9779
-5.2168 0.2513 -2.0015 0.9779
-5.1783 -0.6811 -2.0015 0.9779
-5.0967 -1.1409 -2.0015 0.9779
-4.9744 -1.5917 -2.0015 0.9779
-4.8123 -2.0297 -2.0015 0.9779
-4.6118 -2.4515 -2.0015 0.9779
-4.3743 -2.8536 -2.0015 0.9779
-3.4612 -3.9113 -2.0015 0.9779
-2.7099 -4.4648 -2.0015 0.9779
-2.3002 -4.6890 -2.0015 0.9779
2.6309 -4.5118 -2.0015 0.9779
3.0234 -4.2588 -2.0015 0.9779
3.7330 -3.6528 -2.0015 0.9779
4.0444 -3.3047 -2.0015 0.9779
5.2204 0.1594 -2.0015 0.9779
4.8340 1.9776 -2.0015 0.9779
4.6380 2.4015 -2.0015 0.9779
3.8352 3.5453 -2.0015 0.9779
2.3507 4.6640 -2.0015 0.9779
1.4832 5.0078 -2.0015 0.9779
-1.2859 5.0621 -2.0015 0.9779
-1.7329 4.9270 -2.0015 0.9779
-4.0085 3.3482 -2.0015 0.9779
-4.2916 2.9767 -2.0015 0.9779
-5.0623 1.2852 -2.0015 0.9779
-5.2102 0.3638 -2.0015 0.9779
-5.1917 -0.5691 -2.0015 0.9779
-5.0076 -1.4839 -2.0015 0.9779
-4.8550 -1.9253 -2.0015 0.9779
-3.8733 -3.5037 -2.0015 0.9779
-3.5448 -3.8357 -2.0015 0.9779
-3.1880 -4.1370 -2.0015 0.9779
-2.8056 -4.4053 -2.0015 0.9779
-2.4009 -4.6383 -2.0015 0.9779
-1.9769 -4.8342 -2.0015 0.9779
-0.6244 -5.1854 -2.0015 0.9779
-0.1587 -5.2204 -2.0015 0.9779
1.2312 -5.0757 -2.0015 0.9779
2.5329 -4.5676 -2.0015 0.9779
2.9308 -4.3230 -2.0015 0.9779
4.2592 -3.0228 -2.0015 0.9779
4.7291 -2.2167 -2.0015 0.9779
4.9082 -1.7854 -2.0015 0.9779
5.2059 -0.4200 -2.0015 0.9779
5.1310 0.9753 -2.0015 0.9779
5.0233 1.4298 -2.0015 0.9779
4.8755 1.8728 -2.0015 0.9779
4.6887 2.3008 -2.0015 0.9779
4.4644 2.7105 -2.0015 0.9779
3.9109 3.4617 -2.0015 0.9779
2.8530 4.3747 -2.0015 0.9779
2.4508 4.6121 -2.0015 0.9779
2.0290 4.8126 -2.0015 0.9779
0.6804 5.1783 -2.0015 0.9779
4.5705 1.7394 -2.0015 0.9791
2.6841 4.0879 -2.0015 0.9791
2.3081 4.3114 -2.0015 0.9791
1.9138 4.5003 -2.0015 0.9791
1.5041 4.6533 -2.0015 0.9791
1.0824 4.7690 -2.0015 0.9791
0.2165 4.8855 -2.0015 0.9791
-0.2208 4.8854 -2.0015 0.9791
-0.6564 4.8461 -2.0015 0.9791
-1.0866 4.7681 -2.0015 0.9791
-1.5082 4.6519 -2.0015 0.9791
-2.6877 4.0855 -2.0015 0.9791
-3.0419 3.8291 -2.0015 0.9791
-3.9483 2.8855 -2.0015 0.9791
-4.3988 2.1369 -2.0015 0.9791
-4.7088 1.3200 -2.0015 0.9791
-2.1927 0.4077 -0.9128 0.9904
-1.9030 0.0094 -0.7789 0.9918
-4.4197 -2.0932 -2.0015 0.9791
-3.9767 -2.8463 -2.0015 0.9791
-3.0797 -3.7988 -2.0015 0.9791
-2.7280 -4.0587 -2.0015 0.9791
-2.3545 -4.2862 -2.0015 0.9791
-1.9622 -4.4794 -2.0015 0.9791
-1.5542 -4.6368 -2.0015 0.9791
-1.1338 -4.7571 -2.0015 0.9791
-0.7043 -4.8393 -2.0015 0.9791
-0.2692 -4.8829 -2.0015 0.9791
0.1681 -4.8874 -2.0015 0.9791
0.6040 -4.8529 -2.0015 0.9791
3.3334 -3.5782 -2.0015 0.9791
4.5531 -1.7846 -2.0015 0.9791
4.6943 -1.3707 -2.0015 0.9791
4.8897 -0.0770 -2.0015 0.9791
4.4421 2.0453 -2.0015 0.9791
4.0072 2.8032 -2.0015 0.9791
3.7408 3.1499 -2.0015 0.9791
2.4007 4.2605 -2.0015 0.9791
2.0105 4.4579 -2.0015 0.9791
0.7565 4.8315 -2.0015 0.9791
-0.5516 4.8591 -2.0015 0.9791
-0.9835 4.7904 -2.0015 0.9791
-1.4075 4.6834 -2.0015 0.9791
-1.8202 4.5390 -2.0015 0.9791
-2.2184 4.3582 -2.0015 0.9791
-3.2946 3.6140 -2.0015 0.9791
-3.6042 3.3053 -2.0015 0.9791
-4.1349 2.6111 -2.0015 0.9791
-4.3516 2.2313 -2.0015 0.9791
-4.5335 1.8337 -2.0015 0.9791
-4.6792 1.4213 -2.0015 0.9791
-4.6244 -1.5905 -2.0015 0.9791
-4.4639 -1.9973 -2.0015 0.9791
-3.7745 -3.1094 -2.0015 0.9791
-3.1610 -3.7314 -2.0015 0.9791
-2.8150 -3.9989 -2.0015 0.9791
-2.4465 -4.2344 -2.0015 0.9791
-1.6540 -4.6021 -2.0015 0.9791
-0.8086 -4.8230 -2.0015 0.9791
0.9317 -4.8008 -2.0015 0.9791
2.9164 -3.9256 -2.0015 0.9791
3.2554 -3.6494 -2.0015 0.9791
3.8528 -3.0118 -2.0015 0.9791
4.5135 -1.8825 -2.0015 0.9791
4.7764 -1.0493 -2.0015 0.9791
4.8511 -0.6184 -2.0015 0.9791
4.8414 0.6900 -2.0015 0.9791
3.8079 3.0684 -2.0015 0.9791
3.5186 3.3963 -2.0015 0.9791
3.2011 3.6971 -2.0015 0.9791
2.8580 3.9683 -2.0015 0.9791
1.7036 4.5840 -2.0015 0.9791
1.2873 4.7179 -2.0015 0.9791
0.8606 4.8140 -2.0015 0.9791
-0.4466 4.8699 -2.0015 0.9791
-0.8798 4.8105 -2.0015 0.9791
-1.7218 4.5772 -2.0015 0.9791
-2.1238 4.4051 -2.0015 0.9791
-4.0776 2.6998 -2.0015 0.9791
-4.4929 1.9311 -2.0015 0.9791
-4.7648 1.1008 -2.0015 0.9791
-1.9475 0.2696 -0.8047 0.9915
-1.9505 -0.2565 -0.8052 0.9915
-4.7722 -1.0683 -2.0015 0.9791
-4.6577 -1.4903 -2.0015 0.9791
-4.3182 -2.2954 -2.0015 0.9791
-3.8408 -3.0272 -2.0015 0.9791
-1.3381 -4.7037 -2.0015 0.9791
-0.9126 -4.8044 -2.0015 0.9791
0.8279 -4.8198 -2.0015 0.9791
1.2551 -4.7265 -2.0015 0.9791
1.6723 -4.5955 -2.0015 0.9791
2.0762 -4.4277 -2.0015 0.9791
2.4634 -4.2246 -2.0015 0.9791
2.8309 -3.9876 -2.0015 0.9791
3.1758 -3.7188 -2.0015 0.9791
3.4954 -3.4202 -2.0015 0.9791
3.7869 -3.0943 -2.0015 0.9791
4.0482 -2.7436 -2.0015 0.9791
4.2771 -2.3710 -2.0015 0.9791
4.4718 -1.9795 -2.0015 0.9791
4.6308 -1.5721 -2.0015 0.9791
4.8366 -0.7229 -2.0015 0.9791
4.8552 0.5853 -2.0015 0.9791
4.7835 1.0167 -2.0015 0.9791
4.5262 1.8517 -2.0015 0.9791
4.1245 2.6276 -2.0015 0.9791
3.5910 3.3196 -2.0015 0.9791
3.2801 3.6271 -2.0015 0.9791
2.9430 3.9056 -2.0015 0.9791
1.3888 4.6890 -2.0015 0.9791
0.0958 4.8894 -2.0015 0.9791
-0.7758 4.8284 -2.0015 0.9791
-2.0282 4.4499 -2.0015 0.9791
-2.4176 4.2509 -2.0015 0.9791
-4.0183 2.7872 -2.0015 0.9791
-4.2512 2.4171 -2.0015 0.9791
-4.4502 2.0276 -2.0015 0.9791
-4.6135 1.6220 -2.0015 0.9791
-2.0416 0.3277 -0.8463 0.9911
-4.6888 -1.3894 -2.0015 0.9791
-4.5459 -1.8027 -2.0015 0.9791
-4.1526 -2.5829 -2.0015 0.9791
-3.9052 -2.9435 -2.0015 0.9791
-3.3191 -3.5915 -2.0015 0.9791
-2.9850 -3.8736 -2.0015 0.9791
-2.6270 -4.1248 -2.0015 0.9791
-2.2480 -4.3430 -2.0015 0.9791
-1.8511 -4.5265 -2.0015 0.9791
-1.4393 -4.6737 -2.0015 0.9791
-1.0161 -4.7836 -2.0015 0.9791
-0.5847 -4.8553 -2.0015 0.9791
-0.1486 -4.8881 -2.0015 0.9791
0.2887 -4.8818 -2.0015 0.9791
3.4207 -3.4949 -2.0015 0.9791
3.7192 -3.1753 -2.0015 0.9791
4.2249 -2.4628 -2.0015 0.9791
4.4280 -2.0755 -2.0015 0.9791
4.7267 -1.2544 -2.0015 0.9791
4.8901 0.0437 -2.0015 0.9791
4.1802 2.5379 -2.0015 0.9791
3.3577 3.5555 -2.0015 0.9791
3.0266 3.8412 -2.0015 0.9791
2.2948 4.3185 -2.0015 0.9791
1.4897 4.6579 -2.0015 0.9791
4.4209 1.2435 -2.0015 0.9802
3.7054 2.7131 -2.0015 0.9802
3.4483 3.0332 -2.0015 0.9802
2.8535 3.5984 -2.0015 0.9802
2.5206 3.8390 -2.0015 0.9802
0.6123 4.5515 -2.0015 0.9802
0.2033 4.5880 -2.0015 0.9802
-1.0205 4.4777 -2.0015 0.9802
-2.1712 4.0469 -2.0015 0.9802
-2.5240 3.8367 -2.0015 0.9802
-3.4510 3.0302 -2.0015 0.9802
-3.7079 2.7098 -2.0015 0.9802
-3.9351 2.3677 -2.0015 0.9802
-4.2936 1.6297 -2.0015 0.9802
-1.5636 0.4383 -0.7077 0.9929
-1.4975 0.2785 -0.6638 0.9934
-1.5271 0.1446 -0.6685 0.9933
-1.5283 -0.1295 -0.6684 0.9933
-1.5023 -0.2640 -0.6648 0.9934
-1.5574 -0.4200 -0.7030 0.9930
-1.5975 -0.5883 -0.7419 0.9926
-3.7345 -2.6729 -2.0015 0.9802
-3.1993 -3.2948 -2.0015 0.9802
-2.8921 -3.5674 -2.0015 0.9802
-1.4596 -4.3544 -2.0015 0.9802
-1.0648 -4.4674 -2.0015 0.9802
-0.2528 -4.5855 -2.0015 0.9802
0.5672 -4.5573 -2.0015 0.9802
1.7553 -4.2438 -2.0015 0.9802
2.4825 -3.8637 -2.0015 0.9802
3.1304 -3.3603 -2.0015 0.9802
3.4181 -3.0673 -2.0015 0.9802
3.6784 -2.7496 -2.0015 0.9802
3.9093 -2.4100 -2.0015 0.9802
4.4084 -1.2873 -2.0015 0.9802
4.5800 0.3382 -2.0015 0.9802
4.4468 1.1478 -2.0015 0.9802
4.1715 1.9208 -2.0015 0.9802
3.7631 2.6325 -2.0015 0.9802
3.5129 2.9581 -2.0015 0.9802
3.2346 3.2601 -2.0015 0.9802
2.6029 3.7837 -2.0015 0.9802
2.2545 4.0011 -2.0015 0.9802
0.3023 4.5825 -2.0015 0.9802
-0.1083 4.5912 -2.0015 0.9802
-0.9236 4.4987 -2.0015 0.9802
-1.3218 4.3982 -2.0015 0.9802
-3.0939 3.3939 -2.0015 0.9802
-3.3848 3.1040 -2.0015 0.9802
-4.0866 2.0954 -2.0015 0.9802
-4.2574 1.7220 -2.0015 0.9802
-1.5756 0.4786 -0.7177 0.9928
-1.5140 0.3155 -0.6740 0.9933
-1.5229 0.1774 -0.6682 0.9933
-1.5296 -0.0964 -0.6679 0.9933
-1.5116 -0.2321 -0.6665 0.9933
-4.0077 -2.2426 -2.0015 0.9802
-3.2696 -3.2250 -2.0015 0.9802
-2.9685 -3.5042 -2.0015 0.9802
-1.9331 -4.1658 -2.0015 0.9802
-1.5532 -4.3219 -2.0015 0.9802
-1.1610 -4.4433 -2.0015 0.9802
-0.3517 -4.5790 -2.0015 0.9802
1.2742 -4.4122 -2.0015 0.9802
2.7387 -3.6865 -2.0015 0.9802
3.0571 -3.4271 -2.0015 0.9802
4.3796 -1.3821 -2.0015 0.9802
4.5556 -0.5807 -2.0015 0.9802
4.3587 1.4467 -2.0015 0.9802
4.2120 1.8303 -2.0015 0.9802
4.0317 2.1992 -2.0015 0.9802
3.5760 2.8816 -2.0015 0.9802
3.3043 3.1895 -2.0015 0.9802
2.6840 3.7266 -2.0015 0.9802
1.5998 4.3048 -2.0015 0.9802
1.2089 4.4305 -2.0015 0.9802
-0.0092 4.5925 -2.0015 0.9802
-0.4194 4.5733 -2.0015 0.9802
-0.8262 4.5176 -2.0015 0.9802
-1.2265 4.4257 -2.0015 0.9802
-1.6170 4.2984 -2.0015 0.9802
-1.9945 4.1368 -2.0015 0.9802
-3.0199 3.4599 -2.0015 0.9802
-3.3170 3.1763 -2.0015 0.9802
-3.5874 2.8673 -2.0015 0.9802
-4.2193 1.8135 -2.0015 0.9802
-1.5317 0.3539 -0.6851 0.9932
-1.5293 0.0737 -0.6673 0.9933
-1.5190 -0.1998 -0.6677 0.9933
-1.5263 -0.3417 -0.6817 0.9932
-1.5827 -0.5064 -0.7242 0.9928
-4.2315 -1.7847 -2.0015 0.9802
-4.0552 -2.1556 -2.0015 0.9802
-3.8464 -2.5092 -2.0015 0.9802
-3.3385 -3.1536 -2.0015 0.9802
-1.2566 -4.4172 -2.0015 0.9802
-0.4505 -4.5704 -2.0015 0.9802
0.3700 -4.5776 -2.0015 0.9802
1.1787 -4.4387 -2.0015 0.9802
2.3134 -3.9673 -2.0015 0.9802
2.9824 -3.4923 -2.0015 0.9802
3.2825 -3.2119 -2.0015 0.9802
3.5563 -2.9059 -2.0015 0.9802
4.0166 -2.2266 -2.0015 0.9802
4.4632 -1.0820 -2.0015 0.9802
4.5420 -0.6789 -2.0015 0.9802
4.5904 0.1402 -2.0015 0.9802
4.5595 0.5497 -2.0015 0.9802
4.4922 0.9548 -2.0015 0.9802
4.2506 1.7389 -2.0015 0.9802
3.8733 2.4676 -2.0015 0.9802
3.6374 2.8037 -2.0015 0.9802
3.0804 3.4062 -2.0015 0.9802
2.4251 3.9000 -2.0015 0.9802
2.0670 4.1011 -2.0015 0.9802
1.6924 4.2693 -2.0015 0.9802
1.3042 4.4034 -2.0015 0.9802
0.9056 4.5023 -2.0015 0.9802
0.4998 4.5652 -2.0015 0.9802
0.0900 4.5916 -2.0015 0.9802
-1.1307 4.4511 -2.0015 0.9802
-2.6179 3.7733 -2.0015 0.9802
-2.9446 3.5243 -2.0015 0.9802
-3.5247 2.9441 -2.0015 0.9802
-3.7736 2.6174 -2.0015 0.9802
-3.9923 2.2699 -2.0015 0.9802
-1.5476 0.3929 -0.6959 0.9931
-1.5089 0.2422 -0.6660 0.9934
-1.5294 0.1068 -0.6682 0.9933
-1.5081 -0.3036 -0.6704 0.9933
-1.5720 -0.4658 -0.7146 0.9929
-4.1008 -2.0675 -2.0015 0.9802
-3.8997 -2.4256 -2.0015 0.9802
-3.4058 -3.0808 -2.0015 0.9802
-2.4670 -3.8736 -2.0015 0.9802
-2.1111 -4.0785 -2.0015 0.9802
-1.3517 -4.3891 -2.0015 0.9802
-0.9542 -4.4923 -2.0015 0.9802
-0.1395 -4.5904 -2.0015 0.9802
1.0826 -4.4631 -2.0015 0.9802
1.8595 -4.1992 -2.0015 0.9802
2.2272 -4.0163 -2.0015 0.9802
2.5771 -3.8013 -2.0015 0.9802
3.7451 -2.6580 -2.0015 0.9802
3.9676 -2.3128 -2.0015 0.9802
4.4388 -1.1780 -2.0015 0.9802
4.5263 -0.7768 -2.0015 0.9802
4.5776 -0.3694 -2.0015 0.9802
4.5117 0.8576 -2.0015 0.9802
3.9256 2.3834 -2.0015 0.9802
3.4389 3.0439 -2.0015 0.9802
3.1532 3.3389 -2.0015 0.9802
2.5087 3.8467 -2.0015 0.9802
2.1550 4.0555 -2.0015 0.9802
1.7841 4.2318 -2.0015 0.9802
1.3990 4.3742 -2.0015 0.9802
0.5982 4.5534 -2.0015 0.9802
4.1624 1.1708 -2.0015 0.9811
3.8876 1.8928 -2.0015 0.9811
3.4888 2.5544 -2.0015 0.9811
3.2466 2.8559 -2.0015 0.9811
2.3732 3.6145 -2.0015 0.9811
1.6921 3.9791 -2.0015 0.9811
1.3299 4.1144 -2.0015 0.9811
0.9570 4.2167 -2.0015 0.9811
0.5765 4.2853 -2.0015 0.9811
-0.1952 4.3195 -2.0015 0.9811
-0.5803 4.2848 -2.0015 0.9811
-0.9608 4.2159 -2.0015 0.9811
-1.3336 4.1132 -2.0015 0.9811
-2.0442 3.8102 -2.0015 0.9811
-2.3764 3.6124 -2.0015 0.9811
-2.9813 3.1318 -2.0015 0.9811
-3.2492 2.8530 -2.0015 0.9811
-3.7050 2.2293 -2.0015 0.9811
-1.3317 0.5055 -0.6594 0.9937
-1.3140 0.2443 -0.6187 0.9941
-1.3176 -0.2315 -0.6193 0.9941
-3.5161 -2.5166 -2.0015 0.9811
-3.2772 -2.8207 -2.0015 0.9811
-2.7230 -3.3588 -2.0015 0.9811
-2.4121 -3.5887 -2.0015 0.9811
-2.0818 -3.7898 -2.0015 0.9811
-1.0025 -4.2061 -2.0015 0.9811
-0.6228 -4.2789 -2.0015 0.9811
0.1486 -4.3214 -2.0015 0.9811
0.9152 -4.2260 -2.0015 0.9811
1.6526 -3.9957 -2.0015 0.9811
2.3373 -3.6378 -2.0015 0.9811
2.6529 -3.4145 -2.0015 0.9811
3.2182 -2.8879 -2.0015 0.9811
3.4633 -2.5888 -2.0015 0.9811
4.1506 -1.2120 -2.0015 0.9811
4.2423 -0.8363 -2.0015 0.9811
4.3234 -0.0681 -2.0015 0.9811
4.3122 0.3184 -2.0015 0.9811
4.2665 0.7024 -2.0015 0.9811
3.9276 1.8085 -2.0015 0.9811
3.3075 2.7851 -2.0015 0.9811
3.0455 3.0695 -2.0015 0.9811
2.7591 3.3292 -2.0015 0.9811
2.1226 3.7671 -2.0015 0.9811
1.7776 3.9416 -2.0015 0.9811
1.0479 4.1951 -2.0015 0.9811
0.6689 4.2719 -2.0015 0.9811
0.2846 4.3146 -2.0015 0.9811
-0.4877 4.2964 -2.0015 0.9811
-0.8696 4.2356 -2.0015 0.9811
-1.2445 4.1410 -2.0015 0.9811
-1.6094 4.0133 -2.0015 0.9811
-1.9615 3.8535 -2.0015 0.9811
-2.2979 3.6628 -2.0015 0.9811
-3.4352 2.6261 -2.0015 0.9811
-3.8476 1.9729 -2.0015 0.9811
-1.3052 0.2720 -0.6171 0.9941
-1.3368 0.0355 -0.6190 0.9941
-1.3385 -0.0843 -0.6208 0.9941
-1.3246 -0.2034 -0.6203 0.9941
-1.3179 -0.5897 -0.6683 0.9937
-3.5696 -2.4401 -2.0015 0.9811
-3.0784 -3.0364 -2.0015 0.9811
-2.7949 -3.2993 -2.0015 0.9811
-1.8201 -3.9222 -2.0015 0.9811
-1.4624 -4.0691 -2.0015 0.9811
-1.0931 -4.1835 -2.0015 0.9811
-0.7150 -4.2644 -2.0015 0.9811
-0.3312 -4.3112 -2.0015 0.9811
0.8180 -4.2149 -1.9874 0.9813
1.1997 -4.1542 -2.0015 0.9811
1.9198 -3.8744 -2.0015 0.9811
2.2582 -3.6874 -2.0015 0.9811
2.5786 -3.4709 -2.0015 0.9811
2.8784 -3.2267 -2.0015 0.9811
3.1551 -2.9567 -2.0015 0.9811
3.9908 -1.6645 -2.0015 0.9811
4.2892 -0.5467 -2.0015 0.9811
4.2807 0.6101 -2.0015 0.9811
3.5958 2.4015 -2.0015 0.9811
3.1110 3.0030 -2.0015 0.9811
1.8623 3.9024 -2.0015 0.9811
1.5063 4.0531 -2.0015 0.9811
1.1382 4.1715 -2.0015 0.9811
0.7610 4.2565 -2.0015 0.9811
0.3777 4.3074 -2.0015 0.9811
-0.0086 4.3239 -2.0015 0.9811
-1.5224 4.0471 -2.0015 0.9811
-1.8778 3.8949 -2.0015 0.9811
-2.2183 3.7116 -2.0015 0.9811
-3.3777 2.6996 -2.0015 0.9811
-3.8041 2.0555 -2.0015 0.9811
-1.3227 0.5685 -0.6664 0.9937
-1.3315 0.4361 -0.6486 0.9938
-1.2985 -0.2907 -0.6159 0.9942
-3.8181 -2.0295 -2.0015 0.9811
-3.6215 -2.3625 -2.0015 0.9811
-3.1433 -2.9692 -2.0015 0.9811
-2.2435 -3.6964 -2.0015 0.9811
-1.9043 -3.8820 -2.0015 0.9811
-1.5499 -4.0366 -2.0015 0.9811
-0.8069 -4.2480 -2.0015 0.9811
-0.4242 -4.3031 -2.0015 0.9811
-0.0381 -4.3238 -2.0015 0.9811
0.3483 -4.3099 -2.0015 0.9811
0.7297 -4.2484 -1.9953 0.9812
1.4786 -4.0633 -2.0015 0.9811
2.8080 -3.2881 -2.0015 0.9811
3.3483 -2.7359 -2.0015 0.9811
3.5793 -2.4259 -2.0015 0.9811
3.9539 -1.7502 -2.0015 0.9811
4.2022 -1.0187 -2.0015 0.9811
4.3164 -0.2546 -2.0015 0.9811
4.2295 0.8990 -2.0015 0.9811
4.1323 1.2732 -2.0015 0.9811
4.0020 1.6372 -2.0015 0.9811
2.2833 3.6719 -2.0015 0.9811
1.5934 4.0197 -2.0015 0.9811
1.2279 4.1459 -2.0015 0.9811
0.8527 4.2390 -2.0015 0.9811
0.4706 4.2983 -2.0015 0.9811
-0.3018 4.3134 -2.0015 0.9811
-0.6859 4.2692 -2.0015 0.9811
-1.0646 4.1908 -2.0015 0.9811
-1.4347 4.0790 -2.0015 0.9811
-2.1376 3.7586 -2.0015 0.9811
-2.4649 3.5526 -2.0015 0.9811
-3.0577 3.0573 -2.0015 0.9811
-3.5529 2.4644 -2.0015 0.9811
-3.7589 2.1371 -2.0015 0.9811
-1.3154 0.5993 -0.6691 0.9936
-1.3111 0.3329 -0.6262 0.9941
-1.3361 -0.0264 -0.6186 0.9941
-1.3347 -0.1463 -0.6215 0.9941
-1.3248 -0.3926 -0.6396 0.9939
-1.3295 -0.5272 -0.6620 0.9937
-3.8610 -1.9466 -2.0015 0.9811
-2.6393 -3.4250 -2.0015 0.9811
-1.9877 -3.8400 -2.0015 0.9811
-1.6367 -4.0022 -2.0015 0.9811
-1.2726 -4.1324 -2.0015 0.9811
-0.8984 -4.2296 -2.0015 0.9811
-0.5169 -4.2929 -2.0015 0.9811
-0.1314 -4.3219 -2.0015 0.9811
0.2552 -4.3164 -2.0015 0.9811
0.6398 -4.2763 -2.0015 0.9811
1.3906 -4.0942 -2.0015 0.9811
1.7508 -3.9537 -2.0015 0.9811
2.4264 -3.5790 -2.0015 0.9811
3.0245 -3.0901 -2.0015 0.9811
3.2885 -2.8076 -2.0015 0.9811
3.7356 -2.1776 -2.0015 0.9811
4.0635 -1.4781 -2.0015 0.9811
4.2616 -0.7314 -2.0015 0.9811
4.3099 -0.3478 -2.0015 0.9811
4.3238 0.0386 -2.0015 0.9811
4.3030 0.4247 -2.0015 0.9811
4.0364 1.5505 -2.0015 0.9811
3.8818 1.9049 -2.0015 0.9811
3.6961 2.2440 -2.0015 0.9811
3.4808 2.5652 -2.0015 0.9811
3.2378 2.8659 -2.0015 0.9811
2.9688 3.1437 -2.0015 0.9811
2.3620 3.6218 -2.0015 0.9811
2.0290 3.8183 -2.0015 0.9811
1.6798 3.9843 -2.0015 0.9811
0.9440 4.2196 -2.0015 0.9811
0.5633 4.2871 -2.0015 0.9811
3.9279 1.1048 -2.0015 0.9820
3.6686 1.7862 -2.0015 0.9820
3.4944 2.1068 -2.0015 0.9820
3.2922 2.4105 -2.0015 0.9820
2.8107 2.9579 -2.0015 0.9820
1.9258 3.5972 -2.0015 0.9820
1.2550 3.8825 -2.0015 0.9820
0.9031 3.9791 -2.0015 0.9820
-0.1842 4.0762 -2.0015 0.9820
-0.5476 4.0434 -2.0015 0.9820
-0.9067 3.9783 -2.0015 0.9820
-1.2584 3.8814 -2.0015 0.9820
-2.2425 3.4088 -2.0015 0.9820
-2.5381 3.1949 -2.0015 0.9820
-2.8133 2.9554 -2.0015 0.9820
-3.2943 2.4076 -2.0015 0.9820
-1.1331 0.5504 -0.6179 0.9944
-1.1535 0.4378 -0.6052 0.9945
-1.1588 0.3248 -0.5903 0.9947
-1.1957 0.0059 -0.5865 0.9947
-1.1585 -0.3124 -0.5886 0.9947
-3.0926 -2.6617 -2.0015 0.9820
-1.6372 -3.7374 -2.0015 0.9820
-1.2968 -3.8688 -2.0015 0.9820
-0.9460 -3.9691 -2.0015 0.9820
-0.5877 -4.0378 -2.0015 0.9820
-0.2246 -4.0741 -2.0015 0.9820
0.5040 -4.0491 -2.0015 0.9820
0.8637 -3.9879 -2.0015 0.9820
1.8901 -3.6161 -2.0015 0.9820
2.2056 -3.4328 -2.0015 0.9820
2.7813 -2.9856 -2.0015 0.9820
3.6507 -1.8224 -2.0015 0.9820
4.0033 -0.7892 -2.0015 0.9820
4.0578 -0.4285 -2.0015 0.9820
4.0261 0.6628 -2.0015 0.9820
3.7063 1.7066 -2.0015 0.9820
3.3435 2.3389 -2.0015 0.9820
2.8739 2.8965 -2.0015 0.9820
2.3126 3.3617 -2.0015 0.9820
1.6775 3.7196 -2.0015 0.9820
1.3385 3.8545 -2.0015 0.9820
0.2686 4.0715 -2.0015 0.9820
-0.0962 4.0792 -2.0015 0.9820
-0.4602 4.0543 -2.0015 0.9820
-1.5187 3.7871 -2.0015 0.9820
-2.4685 3.2489 -2.0015 0.9820
-3.2416 2.4781 -2.0015 0.9820
-3.4500 2.1786 -2.0015 0.9820
-1.1500 0.4651 -0.6085 0.9945
-1.1589 0.3520 -0.5941 0.9946
-1.1909 0.1388 -0.5881 0.9947
-1.1958 -0.0753 -0.5877 0.9947
-1.1848 -0.1819 -0.5880 0.9947
-1.1604 -0.2862 -0.5863 0.9947
-3.3685 -2.3026 -2.0015 0.9820
-1.7175 -3.7012 -2.0015 0.9820
-1.3800 -3.8399 -2.0015 0.9820
-1.0315 -3.9478 -2.0015 0.9820
-0.6747 -4.0242 -2.0015 0.9820
1.1321 -3.9201 -2.0015 0.9820
2.4333 -3.2754 -2.0015 0.9820
2.7162 -3.0449 -2.0015 0.9820
2.9773 -2.7901 -2.0015 0.9820
3.4263 -2.2157 -2.0015 0.9820
3.7659 -1.5707 -2.0015 0.9820
3.9853 -0.8755 -2.0015 0.9820
4.0476 -0.5160 -2.0015 0.9820
4.0775 -0.1523 -2.0015 0.9820
3.9719 0.9343 -2.0015 0.9820
3.7423 1.6262 -2.0015 0.9820
3.5820 1.9540 -2.0015 0.9820
3.1772 2.5602 -2.0015 0.9820
2.9358 2.8338 -2.0015 0.9820
2.6709 3.0847 -2.0015 0.9820
2.0793 3.5108 -2.0015 0.9820
1.4214 3.8247 -2.0015 0.9820
1.0740 3.9364 -2.0015 0.9820
0.3564 4.0647 -2.0015 0.9820
-0.0081 4.0803 -2.0015 0.9820
-1.7721 3.6754 -2.0015 0.9820
-2.0933 3.5024 -2.0015 0.9820
-2.3978 3.3014 -2.0015 0.9820
-2.9470 2.8221 -2.0015 0.9820
-3.4022 2.2526 -2.0015 0.9820
-1.1138 0.6018 -0.6210 0.9944
-1.1456 0.4924 -0.6117 0.9945
-1.1876 0.1644 -0.5881 0.9947
-1.1964 -0.0495 -0.5874 0.9947
-3.4174 -2.2294 -2.0015 0.9820
-3.2046 -2.5258 -2.0015 0.9820
-2.9662 -2.8019 -2.0015 0.9820
-1.7970 -3.6633 -2.0015 0.9820
-1.4626 -3.8092 -2.0015 0.9820
-0.0359 -4.0802 -2.0015 0.9820
0.6907 -4.0214 -2.0015 0.9820
1.0472 -3.9436 -2.0015 0.9820
1.7323 -3.6944 -2.0015 0.9820
2.0554 -3.5248 -2.0015 0.9820
2.9164 -2.8537 -2.0015 0.9820
3.1597 -2.5818 -2.0015 0.9820
3.3777 -2.2892 -2.0015 0.9820
3.5687 -1.9783 -2.0015 0.9820
3.7311 -1.6516 -2.0015 0.9820
4.0732 -0.2403 -2.0015 0.9820
3.6234 1.8762 -2.0015 0.9820
3.4413 2.1924 -2.0015 0.9820
2.9962 2.7697 -2.0015 0.9820
2.7368 3.0263 -2.0015 0.9820
2.4555 3.2587 -2.0015 0.9820
1.8365 3.6437 -2.0015 0.9820
1.5036 3.7932 -2.0015 0.9820
0.8046 4.0002 -2.0015 0.9820
0.4441 4.0561 -2.0015 0.9820
-0.2848 4.0704 -2.0015 0.9820
-0.6473 4.0286 -2.0015 0.9820
-1.3538 3.8492 -2.0015 0.9820
-2.0172 3.5468 -2.0015 0.9820
-2.3260 3.3524 -2.0015 0.9820
-2.6162 3.1312 -2.0015 0.9820
-1.1403 0.5195 -0.6146 0.9944
-1.1954 0.0835 -0.5878 0.9947
-1.1963 -0.0236 -0.5869 0.9947
-1.1739 -0.2363 -0.5874 0.9947
-1.1590 -0.3434 -0.5929 0.9946
-1.1512 -0.4565 -0.6075 0.9945
-1.1282 -0.5688 -0.6197 0.9944
-3.2584 -2.4560 -2.0015 0.9820
-3.0260 -2.7372 -2.0015 0.9820
-2.4906 -3.2320 -2.0015 0.9820
-2.1919 -3.4416 -2.0015 0.9820
-1.5445 -3.7767 -2.0015 0.9820
-0.8478 -3.9913 -2.0015 0.9820
-0.4878 -4.0511 -2.0015 0.9820
1.9788 -3.5684 -2.0015 0.9820
3.6946 -1.7317 -2.0015 0.9820
3.9438 -1.0467 -2.0015 0.9820
4.0085 0.7620 -2.0015 0.9820
3.8090 1.4631 -2.0015 0.9820
3.6630 1.7975 -2.0015 0.9820
3.0553 2.7044 -2.0015 0.9820
2.5253 3.2050 -2.0015 0.9820
1.9147 3.6032 -2.0015 0.9820
1.5852 3.7598 -2.0015 0.9820
3.6058 1.3723 -2.0015 0.9828
3.4688 1.6889 -2.0015 0.9828
3.1129 2.2792 -2.0015 0.9828
2.8968 2.5482 -2.0015 0.9828
2.3971 3.0230 -2.0015 0.9828
2.1175 3.2250 -2.0015 0.9828
1.8210 3.4013 -2.0015 0.9828
1.1866 3.6711 -2.0015 0.9828
0.8539 3.7624 -2.0015 0.9828
0.1708 3.8543 -2.0015 0.9828
-0.5178 3.8232 -2.0015 0.9828
-0.8573 3.7616 -2.0015 0.9828
-1.1899 3.6700 -2.0015 0.9828
-1.5130 3.5490 -2.0015 0.9828
-1.8240 3.3997 -2.0015 0.9828
-2.3998 3.0209 -2.0015 0.9828
-2.8991 2.5456 -2.0015 0.9828
-1.1046 -0.0936 -0.5751 0.9950
-1.0657 -0.2874 -0.5726 0.9950
-1.0391 -0.4921 -0.5965 0.9948
-3.1373 -2.2455 -2.0015 0.9828
-2.9242 -2.5168 -2.0015 0.9828
-2.6876 -2.7679 -2.0015 0.9828
-2.1522 -3.2020 -2.0015 0.9828
-1.8575 -3.3815 -2.0015 0.9828
-1.2262 -3.6580 -2.0015 0.9828
-0.8945 -3.7529 -2.0015 0.9828
-0.2124 -3.8522 -2.0015 0.9828
0.1326 -3.8558 -2.0015 0.9828
0.8166 -3.7707 -2.0015 0.9828
1.1502 -3.6826 -2.0015 0.9828
1.7872 -3.4192 -2.0015 0.9828
2.0855 -3.2459 -2.0015 0.9828
2.3671 -3.0466 -2.0015 0.9828
3.4519 -1.7232 -2.0015 0.9828
3.5920 -1.4079 -2.0015 0.9828
3.8476 0.2841 -2.0015 0.9828
3.8068 0.6267 -2.0015 0.9828
3.6346 1.2941 -2.0015 0.9828
3.3463 1.9202 -2.0015 0.9828
3.1614 2.2115 -2.0015 0.9828
2.7174 2.7387 -2.0015 0.9828
1.8940 3.3612 -2.0015 0.9828
1.2656 3.6446 -2.0015 0.9828
0.9350 3.7431 -2.0015 0.9828
0.2539 3.8497 -2.0015 0.9828
-0.4352 3.8335 -2.0015 0.9828
-0.7759 3.7793 -2.0015 0.9828
-1.4360 3.5809 -2.0015 0.9828
-1.7502 3.4383 -2.0015 0.9828
-2.0503 3.2682 -2.0015 0.9828
-2.5991 2.8512 -2.0015 0.9828
-2.8435 2.6076 -2.0015 0.9828
-3.0650 2.3431 -2.0015 0.9828
-1.0531 0.4259 -0.5893 0.9949
-1.0633 0.3230 -0.5765 0.9950
-1.0838 0.2259 -0.5744 0.9950
-1.1066 0.0294 -0.5743 0.9950
-1.0957 -0.1683 -0.5751 0.9950
-1.0062 -0.5630 -0.5982 0.9948
-3.1850 -2.1772 -2.0015 0.9828
-2.9778 -2.4530 -2.0015 0.9828
-2.7468 -2.7092 -2.0015 0.9828
-2.2208 -3.1548 -2.0015 0.9828
-1.6240 -3.4996 -2.0015 0.9828
-0.2955 -3.8467 -2.0015 0.9828
0.7350 -3.7874 -2.0015 0.9828
1.0704 -3.7066 -2.0015 0.9828
1.7129 -3.4570 -2.0015 0.9828
2.8152 -2.6381 -2.0015 0.9828
3.2397 -2.0951 -2.0015 0.9828
3.5608 -1.4851 -2.0015 0.9828
3.8554 -0.1440 -2.0015 0.9828
3.8528 0.2010 -2.0015 0.9828
3.8195 0.5444 -2.0015 0.9828
3.6617 1.2153 -2.0015 0.9828
3.0041 2.4208 -2.0015 0.9828
2.2547 3.1306 -2.0015 0.9828
1.9661 3.3195 -2.0015 0.9828
1.3440 3.6164 -2.0015 0.9828
1.0155 3.7220 -2.0015 0.9828
0.6790 3.7979 -2.0015 0.9828
0.3370 3.8433 -2.0015 0.9828
-0.0077 3.8581 -2.0015 0.9828
-0.3523 3.8420 -2.0015 0.9828
-0.6941 3.7951 -2.0015 0.9828
-1.0304 3.7179 -2.0015 0.9828
-1.6755 3.4753 -2.0015 0.9828
-1.9793 3.3117 -2.0015 0.9828
-3.0137 2.4088 -2.0015 0.9828
-3.2169 2.1299 -2.0015 0.9828
-1.0621 0.3478 -0.5798 0.9950
-1.1066 -0.0457 -0.5745 0.9950
-1.0993 -0.1446 -0.5752 0.9950
-1.0797 -0.2417 -0.5740 0.9950
-1.0501 -0.4429 -0.5912 0.9949
-1.0177 -0.5410 -0.5979 0.9948
-3.2313 -2.1080 -2.0015 0.9828
-3.0301 -2.3882 -2.0015 0.9828
-2.8046 -2.6493 -2.0015 0.9828
-2.5567 -2.8893 -2.0015 0.9828
-2.2884 -3.1061 -2.0015 0.9828
-1.6991 -3.4638 -2.0015 0.9828
-1.0557 -3.7108 -2.0015 0.9828
-0.7199 -3.7903 -2.0015 0.9828
-0.3785 -3.8395 -2.0015 0.9828
0.3108 -3.8455 -2.0015 0.9828
0.9902 -3.7288 -2.0015 0.9828
2.7576 -2.6983 -2.0015 0.9828
2.9876 -2.4412 -2.0015 0.9828
3.3743 -1.8705 -2.0015 0.9828
3.8514 -0.2272 -2.0015 0.9828
3.8563 0.1178 -2.0015 0.9828
3.8303 0.4618 -2.0015 0.9828
3.5708 1.4608 -2.0015 0.9828
3.4260 1.7740 -2.0015 0.9828
3.2539 2.0729 -2.0015 0.9828
2.8330 2.6189 -2.0015 0.9828
2.3218 3.0812 -2.0015 0.9828
2.0373 3.2763 -2.0015 0.9828
1.7364 3.4452 -2.0015 0.9828
1.0956 3.6992 -2.0015 0.9828
0.0756 3.8573 -2.0015 0.9828
-0.6120 3.8092 -2.0015 0.9828
-0.9499 3.7393 -2.0015 0.9828
-1.9073 3.3536 -2.0015 0.9828
-2.1993 3.1698 -2.0015 0.9828
-2.9610 2.4733 -2.0015 0.9828
-3.1701 2.1989 -2.0015 0.9828
-1.0600 0.3727 -0.5829 0.9949
-1.0708 0.2718 -0.5731 0.9950
-1.1022 -0.1208 -0.5752 0.9950
-1.0857 -0.2185 -0.5745 0.9950
-1.0636 -0.3152 -0.5755 0.9950
-1.0543 -0.4181 -0.5884 0.9949
-2.6185 -2.8334 -2.0015 0.9828
-2.3549 -3.0560 -2.0015 0.9828
-1.7735 -3.4263 -2.0015 0.9828
-1.4604 -3.5710 -2.0015 0.9828
-0.8016 -3.7739 -2.0015 0.9828
0.2277 -3.8513 -2.0015 0.9828
0.9095 -3.7494 -2.0015 0.9828
2.1649 -3.1934 -2.0015 0.9828
2.4416 -2.9872 -2.0015 0.9828
2.6987 -2.7572 -2.0015 0.9828
3.1462 -2.2329 -2.0015 0.9828
3.7290 -0.9897 -2.0015 0.9828
3.8025 -0.6526 -2.0015 0.9828
3.6015 1.3834 -2.0015 0.9828
3.4635 1.6996 -2.0015 0.9828
3.1058 2.2888 -2.0015 0.9828
2.8889 2.5571 -2.0015 0.9828
2.6489 2.8050 -2.0015 0.9828
1.4988 3.5550 -2.0015 0.9828
0.8423 3.7650 -2.0015 0.9828
3.2856 1.5997 -2.0015 0.9835
2.7438 2.4136 -2.0015 0.9835
2.2705 2.8633 -2.0015 0.9835
1.4301 3.3629 -2.0015 0.9835
1.1240 3.4772 -2.0015 0.9835
-0.4905 3.6213 -2.0015 0.9835
-0.8120 3.5630 -2.0015 0.9835
-1.4331 3.3616 -2.0015 0.9835
-2.0084 3.0529 -2.0015 0.9835
-2.2731 2.8613 -2.0015 0.9835
-2.5196 2.6468 -2.0015 0.9835
-0.8502 0.6214 -0.5768 0.9952
-0.9050 0.5446 -0.5785 0.9952
