ply
format ascii 1.0
element vertex 1595
property float32 x
property float32 y
property float32 z
property float32 I
end_header
1.5224 -10.5391 -2.0015 0.9576
2.4570 -10.3611 -2.0015 0.9576
5.9276 -8.8461 -2.0015 0.9576
6.6936 -8.2816 -2.0015 0.9576
7.4061 -7.6511 -2.0015 0.9576
9.1686 -5.4154 -2.0015 0.9576
9.6153 -4.5754 -2.0015 0.9576
10.2757 -2.7928 -2.0015 0.9576
10.4840 -1.8644 -2.0015 0.9576
10.6085 -0.9211 -2.0015 0.9576
10.4735 1.9225 -2.0015 0.9576
10.2601 2.8497 -2.0015 0.9576
9.9647 3.7542 -2.0015 0.9576
9.5898 4.6287 -2.0015 0.9576
9.1384 5.4662 -2.0015 0.9576
8.0208 7.0040 -2.0015 0.9576
7.3377 7.6650 -1.9945 0.9577
6.1729 7.7247 -1.8586 0.9606
5.4315 8.2036 -1.8493 0.9607
3.8862 9.0387 -1.8493 0.9607
3.0639 9.3495 -1.8493 0.9607
-0.4018 9.8305 -1.8493 0.9607
-1.2777 9.7554 -1.8493 0.9607
-2.1434 9.6024 -1.8493 0.9607
-3.8167 9.0682 -1.8493 0.9607
-4.6109 8.6913 -1.8493 0.9607
-5.3683 8.2451 -1.8493 0.9607
-7.3043 7.7483 -2.0015 0.9576
-7.9668 7.0654 -2.0015 0.9576
-8.5657 6.3260 -2.0015 0.9576
-9.0961 5.5362 -2.0015 0.9576
-9.5540 4.7021 -2.0015 0.9576
-9.9356 3.8305 -2.0015 0.9576
-10.2379 2.9284 -2.0015 0.9576
-10.5954 1.0613 -2.0015 0.9576
-10.4980 -1.7839 -2.0015 0.9576
-10.2968 -2.7138 -2.0015 0.9576
-10.0135 -3.6221 -2.0015 0.9576
-9.2098 -5.3449 -2.0015 0.9576
-8.6960 -6.1457 -2.0015 0.9576
-8.1127 -6.8974 -2.0015 0.9576
-7.4646 -7.5940 -2.0015 0.9576
-6.7570 -8.2300 -2.0015 0.9576
-5.9954 -8.8003 -2.0015 0.9576
-5.1859 -9.3003 -2.0015 0.9576
-4.3350 -9.7261 -2.0015 0.9576
-2.5365 -10.3419 -2.0015 0.9576
-1.6032 -10.5271 -2.0015 0.9576
0.2942 -10.6444 -2.0015 0.9576
2.1822 -10.4224 -2.0015 0.9576
4.8656 -9.4718 -2.0015 0.9576
6.4723 -8.4557 -2.0015 0.9576
7.2012 -7.8442 -2.0015 0.9576
8.4813 -6.4387 -2.0015 0.9576
9.8841 -3.9616 -2.0015 0.9576
10.1983 -3.0635 -2.0015 0.9576
10.6455 -0.2520 -2.0015 0.9576
10.0605 3.4894 -2.0015 0.9576
9.7089 4.3735 -2.0015 0.9576
9.2798 5.2227 -2.0015 0.9576
8.7765 6.0302 -2.0015 0.9576
8.2032 6.7895 -2.0015 0.9576
7.5496 7.4800 -1.9976 0.9577
6.5088 7.7174 -1.8976 0.9597
5.6465 8.0571 -1.8493 0.9607
4.9047 8.5290 -1.8493 0.9607
4.1238 8.9328 -1.8493 0.9607
2.4698 9.5237 -1.8493 0.9607
1.6098 9.7061 -1.8493 0.9607
-0.1418 9.8377 -1.8493 0.9607
-1.8888 9.6557 -1.8493 0.9607
-3.5756 9.1660 -1.8493 0.9607
-5.1485 8.3841 -1.8493 0.9607
-0.2694 8.7445 -1.8493 0.9649
-1.0489 8.6855 -1.8493 0.9649
-3.3126 8.0973 -1.8493 0.9649
-5.0718 7.9635 -1.9957 0.9621
-7.0206 6.3535 -2.0015 0.9620
-7.5597 5.7014 -2.0015 0.9620
-8.0385 5.0039 -2.0015 0.9620
-8.4530 4.2664 -2.0015 0.9620
-9.0770 2.6953 -2.0015 0.9620
-9.2813 1.8743 -2.0015 0.9620
-9.3503 -1.4923 -2.0015 0.9620
-9.1798 -2.3210 -2.0015 0.9620
-8.9360 -3.1311 -2.0015 0.9620
-8.6208 -3.9163 -2.0015 0.9620
-8.2368 -4.6702 -2.0015 0.9620
-7.7871 -5.3868 -2.0015 0.9620
-6.0816 -7.2574 -2.0015 0.9620
-5.4095 -7.7713 -2.0015 0.9620
-4.6942 -8.2232 -2.0015 0.9620
-2.3478 -9.1730 -2.0015 0.9620
-1.5196 -9.3460 -2.0015 0.9620
1.0109 -9.4146 -2.0015 0.9620
1.8472 -9.2868 -2.0015 0.9620
4.2417 -8.4655 -2.0015 0.9620
4.9804 -8.0531 -2.0015 0.9620
6.3330 -7.0392 -2.0015 0.9620
6.9360 -6.4458 -2.0015 0.9620
7.9716 -5.1097 -2.0015 0.9620
8.3959 -4.3778 -2.0015 0.9620
9.4633 -0.3192 -2.0015 0.9620
9.4540 0.5268 -2.0015 0.9620
9.3693 1.3685 -2.0015 0.9620
8.9766 3.0127 -2.0015 0.9620
8.6719 3.8020 -2.0015 0.9620
8.2979 4.5609 -2.0015 0.9620
7.8576 5.2833 -2.0015 0.9620
7.3546 5.9636 -2.0015 0.9620
6.7930 6.5963 -2.0015 0.9620
6.1770 7.1764 -2.0015 0.9620
5.4921 7.6716 -1.9943 0.9622
4.5424 7.7183 -1.8931 0.9640
3.0259 8.2087 -1.8493 0.9649
-0.0381 8.7486 -1.8493 0.9649
-0.8189 8.7102 -1.8493 0.9649
-1.5931 8.6024 -1.8493 0.9649
-6.2393 7.1223 -2.0015 0.9620
-7.9034 5.2147 -2.0015 0.9620
-8.7047 3.7262 -2.0015 0.9620
-9.2285 2.1191 -2.0015 0.9620
-9.3808 1.2868 -2.0015 0.9620
-9.2380 -2.0775 -2.0015 0.9620
-8.3574 -4.4508 -2.0015 0.9620
-6.8796 -6.5060 -2.0015 0.9620
-5.6131 -7.6256 -2.0015 0.9620
-2.5895 -9.1077 -2.0015 0.9620
-1.7662 -9.3025 -2.0015 0.9620
-0.9288 -9.4230 -2.0015 0.9620
-0.0839 -9.4683 -2.0015 0.9620
2.4277 -9.1522 -2.0015 0.9620
3.2349 -8.8990 -2.0015 0.9620
4.0163 -8.5747 -2.0015 0.9620
4.7657 -8.1819 -2.0015 0.9620
6.1446 -7.2041 -2.0015 0.9620
7.8337 -5.3187 -2.0015 0.9620
8.2772 -4.5982 -2.0015 0.9620
8.9629 -3.0531 -2.0015 0.9620
9.1997 -2.2409 -2.0015 0.9620
9.3630 -1.4108 -2.0015 0.9620
9.4646 0.2766 -2.0015 0.9620
9.4022 1.1203 -2.0015 0.9620
4.8182 7.7129 -1.9223 0.9635
3.9543 7.8040 -1.8493 0.9649
0.9732 8.6944 -1.8493 0.9649
-1.3651 8.6415 -1.8493 0.9649
-2.8799 8.2611 -1.8493 0.9649
-5.3708 7.7904 -2.0002 0.9621
-6.6749 6.7157 -2.0015 0.9620
-7.7627 5.4218 -2.0015 0.9620
-8.9218 3.1714 -2.0015 0.9620
-9.4675 -0.1515 -2.0015 0.9620
-9.4162 -0.9959 -2.0015 0.9620
-9.2897 -1.8325 -2.0015 0.9620
-8.4722 -4.2282 -2.0015 0.9620
-6.4567 -6.9258 -2.0015 0.9620
-4.3910 -8.3890 -2.0015 0.9620
-3.6247 -8.7474 -2.0015 0.9620
-2.0115 -9.2525 -2.0015 0.9620
1.3537 -9.3714 -2.0015 0.9620
2.1848 -9.2132 -2.0015 0.9620
3.7882 -8.6779 -2.0015 0.9620
6.5856 -6.8034 -2.0015 0.9620
7.1666 -6.1884 -2.0015 0.9620
7.6904 -5.5240 -2.0015 0.9620
8.1528 -4.8155 -2.0015 0.9620
8.5501 -4.0685 -2.0015 0.9620
9.1372 -2.4834 -2.0015 0.9620
9.3224 -1.6578 -2.0015 0.9620
9.4285 0.8713 -2.0015 0.9620
9.1233 2.5340 -2.0015 0.9620
8.8607 3.3382 -2.0015 0.9620
8.1259 4.8606 -2.0015 0.9620
7.1322 6.2280 -2.0015 0.9620
6.5478 6.8398 -2.0015 0.9620
5.1027 7.7070 -1.9538 0.9629
1.9715 8.5236 -1.8493 0.9649
-0.3573 8.7414 -1.8493 0.9649
-1.9059 8.5385 -1.8493 0.9649
-2.6605 8.3343 -1.8493 0.9649
-3.3938 8.0635 -1.8493 0.9649
-5.8541 7.4421 -2.0015 0.9620
-7.0841 6.2826 -2.0015 0.9620
-8.4955 4.1812 -2.0015 0.9620
-9.2997 1.7809 -2.0015 0.9620
-9.4215 0.9437 -2.0015 0.9620
-9.4392 -0.7466 -2.0015 0.9620
-8.9041 -3.2208 -2.0015 0.9620
-8.1895 -4.7527 -2.0015 0.9620
-7.7325 -5.4648 -2.0015 0.9620
-5.3311 -7.8253 -2.0015 0.9620
-4.6113 -8.2699 -2.0015 0.9620
-3.8547 -8.6485 -2.0015 0.9620
-3.0673 -8.9581 -2.0015 0.9620
-1.4256 -9.3608 -2.0015 0.9620
-0.5843 -9.4506 -2.0015 0.9620
0.2616 -9.4651 -2.0015 0.9620
1.1054 -9.4039 -2.0015 0.9620
2.7600 -9.0575 -2.0015 0.9620
3.5574 -8.7750 -2.0015 0.9620
4.3265 -8.4224 -2.0015 0.9620
5.0611 -8.0026 -2.0015 0.9620
5.7552 -7.5189 -2.0015 0.9620
6.4034 -6.9751 -2.0015 0.9620
7.0004 -6.3757 -2.0015 0.9620
8.4395 -4.2931 -2.0015 0.9620
9.2753 -1.9037 -2.0015 0.9620
9.4082 -1.0682 -2.0015 0.9620
9.4660 -0.2241 -2.0015 0.9620
9.4483 0.6217 -2.0015 0.9620
9.3550 1.4627 -2.0015 0.9620
9.1871 2.2919 -2.0015 0.9620
8.9459 3.1028 -2.0015 0.9620
8.6332 3.8889 -2.0015 0.9620
8.2516 4.6440 -2.0015 0.9620
7.8041 5.3621 -2.0015 0.9620
6.7263 6.6643 -2.0015 0.9620
6.1046 7.2381 -2.0015 0.9620
3.6669 7.9431 -1.8493 0.9649
2.9433 8.2387 -1.8493 0.9649
1.4314 8.6308 -1.8493 0.9649
-0.1261 8.7477 -1.8493 0.9649
-0.9064 8.7016 -1.8493 0.9649
-2.4392 8.4017 -1.8493 0.9649
-3.1794 8.1505 -1.8493 0.9649
0.4607 7.8551 -1.8493 0.9682
-0.9434 7.8118 -1.8493 0.9682
-1.6432 7.7258 -1.8564 0.9681
-3.1611 7.7269 -1.9621 0.9663
-4.5747 7.1831 -2.0015 0.9656
-5.1976 6.7461 -2.0015 0.9656
-6.3143 5.7143 -2.0015 0.9656
-6.7992 5.1279 -2.0015 0.9656
-7.2298 4.5005 -2.0015 0.9656
-7.9148 3.1432 -2.0015 0.9656
-8.1638 2.4242 -2.0015 0.9656
-8.4959 -0.5861 -2.0015 0.9656
-8.4097 -1.3422 -2.0015 0.9656
-8.2563 -2.0875 -2.0015 0.9656
-8.0370 -2.8162 -2.0015 0.9656
-3.5449 -7.7433 -2.0015 0.9656
-2.8396 -8.0288 -2.0015 0.9656
0.1497 -8.5148 -2.0015 0.9656
0.9092 -8.4675 -2.0015 0.9656
1.6614 -8.3525 -2.0015 0.9656
5.6959 -6.3310 -2.0015 0.9656
6.2383 -5.7973 -2.0015 0.9656
6.7308 -5.2173 -2.0015 0.9656
7.1697 -4.5957 -2.0015 0.9656
7.5513 -3.9374 -2.0015 0.9656
8.5113 -0.2871 -2.0015 0.9656
8.4267 1.2309 -2.0015 0.9656
7.0672 4.7518 -2.0015 0.9656
6.6148 5.3637 -2.0015 0.9656
6.1096 5.9328 -2.0015 0.9656
5.5556 6.4544 -2.0015 0.9656
4.9573 6.9246 -2.0015 0.9656
4.3163 7.3342 -2.0001 0.9656
3.6341 7.6684 -1.9944 0.9657
2.0852 7.7208 -1.8796 0.9677
-0.7365 7.8340 -1.8493 0.9682
-1.4329 7.7371 -1.8493 0.9682
-2.9223 7.7196 -1.9399 0.9667
-3.7041 7.6434 -1.9962 0.9657
-4.3832 7.3015 -2.0015 0.9656
-5.0175 6.8811 -2.0015 0.9656
-6.1611 5.8793 -2.0015 0.9656
-7.4986 4.0369 -2.0015 0.9656
-8.3001 1.9059 -2.0015 0.9656
-8.5068 0.3996 -2.0015 0.9656
-8.4423 -1.1194 -2.0015 0.9656
-8.3086 -1.8685 -2.0015 0.9656
-7.8440 -3.3161 -2.0015 0.9656
-6.6851 -5.2758 -2.0015 0.9656
-6.1875 -5.8515 -2.0015 0.9656
-5.6405 -6.3804 -2.0015 0.9656
-5.0484 -6.8584 -2.0015 0.9656
-3.7484 -7.6468 -2.0015 0.9656
-2.3290 -8.1915 -2.0015 0.9656
-1.5885 -8.3667 -2.0015 0.9656
0.6850 -8.4886 -2.0015 0.9656
2.1834 -8.2315 -2.0015 0.9656
2.9095 -8.0037 -2.0015 0.9656
3.6123 -7.7121 -2.0015 0.9656
4.9260 -6.9469 -2.0015 0.9656
5.5265 -6.4794 -2.0015 0.9656
7.0457 -4.7837 -2.0015 0.9656
7.4445 -4.1356 -2.0015 0.9656
7.7840 -3.4546 -2.0015 0.9656
8.0613 -2.7460 -2.0015 0.9656
8.5007 -0.5121 -2.0015 0.9656
8.1424 2.4952 -2.0015 0.9656
7.8872 3.2121 -2.0015 0.9656
7.5690 3.9033 -2.0015 0.9656
6.2643 5.7692 -2.0015 0.9656
5.7243 6.3053 -2.0015 0.9656
5.1387 6.7911 -2.0015 0.9656
4.5120 7.2227 -2.0015 0.9656
3.0751 7.7077 -1.9503 0.9665
2.3052 7.7183 -1.8931 0.9674
0.1738 7.8666 -1.8493 0.9682
-1.2278 7.7722 -1.8493 0.9682
-1.9395 7.7223 -1.8713 0.9678
-2.6890 7.7133 -1.9198 0.9670
-3.4973 7.7310 -1.9942 0.9657
-4.8338 7.0114 -2.0015 0.9656
-6.0034 6.0401 -2.0015 0.9656
-6.5187 5.4801 -2.0015 0.9656
-6.9818 4.8764 -2.0015 0.9656
-8.4036 1.3800 -2.0015 0.9656
-8.4932 0.6244 -2.0015 0.9656
-8.5151 -0.1362 -2.0015 0.9656
-8.3551 -1.6481 -2.0015 0.9656
-8.1747 -2.3874 -2.0015 0.9656
-7.9289 -3.1075 -2.0015 0.9656
-7.2500 -4.4679 -2.0015 0.9656
-6.3400 -5.6858 -2.0015 0.9656
-5.8072 -6.2291 -2.0015 0.9656
-5.2280 -6.7226 -2.0015 0.9656
-3.9493 -7.5450 -2.0015 0.9656
0.4603 -8.5037 -2.0015 0.9656
3.4071 -7.8049 -2.0015 0.9656
4.0902 -7.4696 -2.0015 0.9656
4.7406 -7.0747 -2.0015 0.9656
5.9231 -6.1190 -2.0015 0.9656
6.4456 -5.5658 -2.0015 0.9656
6.9167 -4.9683 -2.0015 0.9656
7.3326 -4.3310 -2.0015 0.9656
7.6899 -3.6592 -2.0015 0.9656
8.4842 -0.7367 -2.0015 0.9656
8.5161 0.0236 -2.0015 0.9656
8.3762 1.5375 -2.0015 0.9656
7.9693 3.0024 -2.0015 0.9656
7.3085 4.3716 -2.0015 0.9656
6.4147 5.6015 -2.0015 0.9656
5.3164 6.6529 -2.0015 0.9656
3.3123 7.7039 -1.9708 0.9661
2.5284 7.7155 -1.9082 0.9672
1.7865 7.7238 -1.8632 0.9679
1.0817 7.7938 -1.8493 0.9682
0.3817 7.8593 -1.8493 0.9682
-1.7243 7.7247 -1.8602 0.9680
-2.4632 7.7163 -1.9037 0.9673
-3.2533 7.7296 -1.9710 0.9661
-5.8417 6.1968 -2.0015 0.9656
-6.8504 5.0593 -2.0015 0.9656
-7.6409 3.7606 -2.0015 0.9656
-7.9460 3.0635 -2.0015 0.9656
-8.3642 1.6018 -2.0015 0.9656
-8.5157 0.0890 -2.0015 0.9656
-8.4896 -0.6715 -2.0015 0.9656
-8.3958 -1.4267 -2.0015 0.9656
-6.9547 -4.9150 -2.0015 0.9656
-6.4882 -5.5162 -2.0015 0.9656
-4.1474 -7.4380 -2.0015 0.9656
-3.4669 -7.7785 -2.0015 0.9656
-2.7588 -8.0569 -2.0015 0.9656
-1.2822 -8.4191 -2.0015 0.9656
-0.5255 -8.4999 -2.0015 0.9656
0.2353 -8.5129 -2.0015 0.9656
0.9942 -8.4579 -2.0015 0.9656
3.8913 -7.5751 -2.0015 0.9656
4.5519 -7.1975 -2.0015 0.9656
5.7592 -6.2734 -2.0015 0.9656
6.2962 -5.7343 -2.0015 0.9656
6.7829 -5.1494 -2.0015 0.9656
7.2155 -4.5234 -2.0015 0.9656
7.9049 -3.1683 -2.0015 0.9656
8.1561 -2.4500 -2.0015 0.9656
8.3423 -1.7122 -2.0015 0.9656
8.4618 -0.9607 -2.0015 0.9656
8.5138 -0.2016 -2.0015 0.9656
7.7647 3.4977 -2.0015 0.9656
7.0190 4.8227 -2.0015 0.9656
6.0496 5.9939 -2.0015 0.9656
5.4905 6.5100 -2.0015 0.9656
2.0024 7.7217 -1.8748 0.9678
-0.8152 7.8262 -1.8493 0.9682
-1.5123 7.7312 -1.8515 0.9681
-2.2410 7.7190 -1.8891 0.9675
-3.7822 7.6087 -1.9970 0.9657
-0.2372 7.6973 -1.9939 0.9687
-2.2744 7.3800 -1.9995 0.9686
-2.9270 7.1546 -2.0015 0.9686
-4.1525 6.5202 -2.0015 0.9686
-6.1718 4.6546 -2.0015 0.9686
-6.5626 4.0852 -2.0015 0.9686
-6.9011 3.4831 -2.0015 0.9686
-7.1844 2.8531 -2.0015 0.9686
-7.4104 2.2005 -2.0015 0.9686
-7.7119 -0.5320 -2.0015 0.9686
-7.0380 -3.1972 -2.0015 0.9686
-6.7245 -3.8127 -2.0015 0.9686
-6.3573 -4.3978 -2.0015 0.9686
-5.9394 -4.9477 -2.0015 0.9686
-4.4163 -6.3445 -2.0015 0.9686
-3.8324 -6.7134 -2.0015 0.9686
-2.5776 -7.2878 -2.0015 0.9686
-1.9167 -7.4888 -2.0015 0.9686
-1.2406 -7.6300 -2.0015 0.9686
-0.5546 -7.7103 -2.0015 0.9686
0.1359 -7.7290 -2.0015 0.9686
1.5081 -7.5817 -2.0015 0.9686
2.8321 -7.1927 -2.0015 0.9686
3.4629 -6.9112 -2.0015 0.9686
4.0660 -6.5745 -2.0015 0.9686
4.6366 -6.1853 -2.0015 0.9686
5.1702 -5.7468 -2.0015 0.9686
5.6625 -5.2623 -2.0015 0.9686
6.5080 -4.1716 -2.0015 0.9686
7.1461 -2.9479 -2.0015 0.9686
7.6717 -0.9492 -2.0015 0.9686
7.7258 -0.2606 -2.0015 0.9686
6.4149 4.3133 -2.0015 0.9686
5.5458 5.3852 -2.0015 0.9686
3.3104 6.9855 -2.0015 0.9686
0.6541 7.6746 -1.9943 0.9687
-1.4037 7.5797 -1.9959 0.9687
-2.0775 7.4341 -1.9986 0.9686
-2.7368 7.2295 -2.0015 0.9686
-3.9787 6.6277 -2.0015 0.9686
-5.0938 5.8146 -2.0015 0.9686
-6.4523 4.2573 -2.0015 0.9686
-6.8066 3.6643 -2.0015 0.9686
-7.1065 3.0421 -2.0015 0.9686
-7.5341 1.7300 -2.0015 0.9686
-7.7217 0.3628 -2.0015 0.9686
-7.7232 -0.3280 -2.0015 0.9686
-5.6165 -5.3115 -2.0015 0.9686
-4.5825 -6.2255 -2.0015 0.9686
-4.0085 -6.6097 -2.0015 0.9686
-3.4025 -6.9411 -2.0015 0.9686
-1.4419 -7.5945 -2.0015 0.9686
-0.7582 -7.6929 -2.0015 0.9686
-0.0685 -7.7299 -2.0015 0.9686
0.6218 -7.7052 -2.0015 0.9686
1.3071 -7.6189 -2.0015 0.9686
1.9819 -7.4718 -2.0015 0.9686
2.6410 -7.2651 -2.0015 0.9686
3.2789 -7.0003 -2.0015 0.9686
3.8907 -6.6797 -2.0015 0.9686
5.0165 -5.8814 -2.0015 0.9686
6.7575 -3.7540 -2.0015 0.9686
7.3173 -2.4926 -2.0015 0.9686
7.5106 -1.8295 -2.0015 0.9686
7.7162 -0.4648 -2.0015 0.9686
7.7269 0.2258 -2.0015 0.9686
7.6759 0.9146 -2.0015 0.9686
7.5636 1.5962 -2.0015 0.9686
7.1593 2.9156 -2.0015 0.9686
6.8704 3.5431 -2.0015 0.9686
5.6862 5.2367 -2.0015 0.9686
5.1961 5.7234 -2.0015 0.9686
4.6644 6.1644 -2.0015 0.9686
2.8645 7.1799 -2.0015 0.9686
0.8569 7.6558 -1.9946 0.9687
-0.5179 7.6843 -1.9941 0.9687
-1.8794 7.4833 -1.9977 0.9686
-3.1861 7.0431 -2.0015 0.9686
-4.3877 6.3643 -2.0015 0.9686
-5.9171 4.9744 -2.0015 0.9686
-6.7073 3.8430 -2.0015 0.9686
-7.2837 2.5891 -2.0015 0.9686
-7.5841 -1.4960 -2.0015 0.9686
-6.5809 -4.0556 -2.0015 0.9686
-5.7549 -5.1611 -2.0015 0.9686
-5.2713 -5.6542 -2.0015 0.9686
-4.1819 -6.5014 -2.0015 0.9686
-3.5848 -6.8487 -2.0015 0.9686
-0.9614 -7.6702 -2.0015 0.9686
1.7837 -7.5216 -2.0015 0.9686
3.0927 -7.0846 -2.0015 0.9686
4.8592 -6.0120 -2.0015 0.9686
5.3764 -5.5543 -2.0015 0.9686
5.8508 -5.0522 -2.0015 0.9686
6.9802 -3.3215 -2.0015 0.9686
7.2489 -2.6852 -2.0015 0.9686
7.6108 -1.3534 -2.0015 0.9686
7.7012 -0.6687 -2.0015 0.9686
7.7302 0.0214 -2.0015 0.9686
7.6974 0.7114 -2.0015 0.9686
7.6032 1.3956 -2.0015 0.9686
5.8227 5.0846 -2.0015 0.9686
4.8258 6.0389 -2.0015 0.9686
4.2675 6.4455 -2.0015 0.9686
3.0534 7.1016 -2.0015 0.9686
1.7380 7.5145 -1.9970 0.9686
0.3736 7.6922 -1.9940 0.9687
-0.3145 7.6947 -1.9940 0.9687
-1.0006 7.6395 -1.9949 0.9687
-2.3489 7.3581 -1.9999 0.9686
-2.9988 7.1249 -2.0015 0.9686
-4.2179 6.4781 -2.0015 0.9686
-4.7793 6.0757 -2.0015 0.9686
-5.7835 5.1291 -2.0015 0.9686
-6.2182 4.5924 -2.0015 0.9686
-6.6033 4.0190 -2.0015 0.9686
-6.9357 3.4135 -2.0015 0.9686
-7.2127 2.7808 -2.0015 0.9686
-7.4322 2.1258 -2.0015 0.9686
-7.5922 1.4539 -2.0015 0.9686
-7.7061 -0.6095 -2.0015 0.9686
-7.6210 -1.2950 -2.0015 0.9686
-7.2693 -2.6295 -2.0015 0.9686
-6.6859 -3.8801 -2.0015 0.9686
-6.3128 -4.4614 -2.0015 0.9686
-5.8894 -5.0071 -2.0015 0.9686
-4.9052 -5.9745 -2.0015 0.9686
-4.3523 -6.3885 -2.0015 0.9686
-3.7647 -6.7515 -2.0015 0.9686
-3.1470 -7.0606 -2.0015 0.9686
-1.8414 -7.5077 -2.0015 0.9686
2.9043 -7.1639 -2.0015 0.9686
4.6985 -6.1384 -2.0015 0.9686
6.1570 -4.6742 -2.0015 0.9686
6.8900 -3.5049 -2.0015 0.9686
7.1753 -2.8759 -2.0015 0.9686
7.4034 -2.2239 -2.0015 0.9686
7.5724 -1.5542 -2.0015 0.9686
7.7281 -0.1830 -2.0015 0.9686
7.6374 1.1941 -2.0015 0.9686
7.0481 3.1749 -2.0015 0.9686
6.3713 4.3776 -2.0015 0.9686
5.9551 4.9288 -2.0015 0.9686
4.9838 5.9092 -2.0015 0.9686
3.8536 6.7012 -2.0015 0.9686
2.6000 7.2779 -2.0010 0.9686
1.2610 7.6032 -1.9955 0.9687
0.5769 7.6804 -1.9942 0.9687
-0.7981 7.6618 -1.9945 0.9687
-2.8093 7.2017 -2.0015 0.9686
-3.4409 6.9221 -2.0015 0.9686
0.4139 7.0580 -2.0015 0.9710
-0.8477 7.0191 -2.0015 0.9710
-2.0822 6.7565 -2.0015 0.9710
-2.6770 6.5437 -2.0015 0.9710
-3.2504 6.2786 -2.0015 0.9710
-4.7978 5.1930 -2.0015 0.9710
-5.6447 4.2572 -2.0015 0.9710
-6.0022 3.7363 -2.0015 0.9710
-6.3117 3.1856 -2.0015 0.9710
-6.7776 2.0125 -2.0015 0.9710
-6.9302 1.3995 -2.0015 0.9710
-7.0274 0.7753 -2.0015 0.9710
-6.9817 -1.1143 -2.0015 0.9710
-6.1503 -3.4871 -2.0015 0.9710
-5.8145 -4.0222 -2.0015 0.9710
-5.4322 -4.5252 -2.0015 0.9710
-5.0066 -4.9920 -2.0015 0.9710
-3.5051 -6.1401 -2.0015 0.9710
-2.9430 -6.4284 -2.0015 0.9710
-2.3574 -6.6655 -2.0015 0.9710
-1.1347 -6.9784 -2.0015 0.9710
0.7548 -7.0297 -2.0015 0.9710
3.7188 -6.0131 -2.0015 0.9710
4.2406 -5.6571 -2.0015 0.9710
6.2691 -3.2688 -2.0015 0.9710
7.0166 -0.8682 -2.0015 0.9710
7.0661 -0.2384 -2.0015 0.9710
7.0591 0.3933 -2.0015 0.9710
6.9959 1.0219 -2.0015 0.9710
6.8767 1.6423 -2.0015 0.9710
6.7027 2.2495 -2.0015 0.9710
6.4751 2.8388 -2.0015 0.9710
6.1959 3.4055 -2.0015 0.9710
5.0722 4.9254 -2.0015 0.9710
4.6123 5.3585 -2.0015 0.9710
1.8434 6.8255 -2.0015 0.9710
1.2268 6.9628 -2.0015 0.9710
-0.0308 7.0700 -2.0015 0.9710
-0.6618 7.0390 -2.0015 0.9710
-1.2875 6.9519 -2.0015 0.9710
-2.5031 6.6122 -2.0015 0.9710
-3.0833 6.3623 -2.0015 0.9710
-3.6389 6.0617 -2.0015 0.9710
-4.6588 5.3181 -2.0015 0.9710
-5.1149 4.8810 -2.0015 0.9710
-5.9013 3.8937 -2.0015 0.9710
-6.7220 2.1910 -2.0015 0.9710
-6.8908 1.5823 -2.0015 0.9710
-7.0623 0.3318 -2.0015 0.9710
-6.8978 -1.5512 -2.0015 0.9710
-6.2403 -3.3233 -2.0015 0.9710
-5.1368 -4.8579 -2.0015 0.9710
-4.1912 -5.6939 -2.0015 0.9710
-3.1120 -6.3484 -2.0015 0.9710
-2.5329 -6.6008 -2.0015 0.9710
-1.9335 -6.8005 -2.0015 0.9710
-0.0627 -7.0698 -2.0015 0.9710
1.1954 -6.9683 -2.0015 0.9710
2.9989 -6.4025 -2.0015 0.9710
4.5881 -5.3792 -2.0015 0.9710
5.0499 -4.9482 -2.0015 0.9710
5.4714 -4.4776 -2.0015 0.9710
5.8493 -3.9714 -2.0015 0.9710
6.1804 -3.4334 -2.0015 0.9710
6.4622 -2.8680 -2.0015 0.9710
6.6925 -2.2797 -2.0015 0.9710
6.8692 -1.6732 -2.0015 0.9710
7.0573 -0.4251 -2.0015 0.9710
6.2837 3.2405 -2.0015 0.9710
5.9694 3.7885 -2.0015 0.9710
5.6074 4.3062 -2.0015 0.9710
3.7458 5.9962 -2.0015 0.9710
3.1956 6.3067 -2.0015 0.9710
2.6199 6.5667 -2.0015 0.9710
2.0233 6.7744 -2.0015 0.9710
-1.1032 6.9835 -2.0015 0.9710
-1.7222 6.8571 -2.0015 0.9710
-2.3274 6.6760 -2.0015 0.9710
-2.9140 6.4416 -2.0015 0.9710
-3.4774 6.1558 -2.0015 0.9710
-4.5165 5.4394 -2.0015 0.9710
-4.9841 5.0145 -2.0015 0.9710
-5.4118 4.5496 -2.0015 0.9710
-6.1345 3.5148 -2.0015 0.9710
-6.8465 1.7639 -2.0015 0.9710
-6.9766 1.1457 -2.0015 0.9710
-7.0511 0.5184 -2.0015 0.9710
-7.0692 -0.1131 -2.0015 0.9710
-6.9364 -1.3683 -2.0015 0.9710
-6.5826 -2.5798 -2.0015 0.9710
-6.3260 -3.1571 -2.0015 0.9710
-6.0190 -3.7092 -2.0015 0.9710
-5.6638 -4.2317 -2.0015 0.9710
-5.2635 -4.7203 -2.0015 0.9710
-4.3403 -5.5811 -2.0015 0.9710
-3.8248 -5.9462 -2.0015 0.9710
-3.2787 -6.2639 -2.0015 0.9710
-2.7065 -6.5315 -2.0015 0.9710
-2.1127 -6.7471 -2.0015 0.9710
-1.5020 -6.9087 -2.0015 0.9710
-0.2496 -7.0657 -2.0015 0.9710
0.3821 -7.0597 -2.0015 0.9710
1.0108 -6.9975 -2.0015 0.9710
3.3957 -6.2012 -2.0015 0.9710
4.4442 -5.4986 -2.0015 0.9710
5.7422 -4.1246 -2.0015 0.9710
6.6298 -2.4559 -2.0015 0.9710
6.8226 -1.8543 -2.0015 0.9710
6.9609 -1.2379 -2.0015 0.9710
7.0701 0.0196 -2.0015 0.9710
7.0401 0.6506 -2.0015 0.9710
6.9539 1.2764 -2.0015 0.9710
6.8122 1.8921 -2.0015 0.9710
6.0675 3.6293 -2.0015 0.9710
5.7193 4.1564 -2.0015 0.9710
4.8891 5.1071 -2.0015 0.9710
2.7926 6.4952 -2.0015 0.9710
1.5932 6.8882 -2.0015 0.9710
0.3430 7.0618 -2.0015 0.9710
-0.2887 7.0642 -2.0015 0.9710
-3.8577 5.9249 -2.0015 0.9710
-4.3712 5.5569 -2.0015 0.9710
-4.8497 5.1445 -2.0015 0.9710
-5.6872 4.2002 -2.0015 0.9710
-6.0394 3.6758 -2.0015 0.9710
-6.5968 2.5433 -2.0015 0.9710
-7.0349 0.7046 -2.0015 0.9710
-6.8366 -1.8019 -2.0015 0.9710
-6.6485 -2.4049 -2.0015 0.9710
-6.4073 -2.9888 -2.0015 0.9710
-6.1149 -3.5488 -2.0015 0.9710
-5.7737 -4.0804 -2.0015 0.9710
-4.9562 -5.0421 -2.0015 0.9710
-3.9806 -5.8430 -2.0015 0.9710
-1.6841 -6.8666 -2.0015 0.9710
-1.0645 -6.9895 -2.0015 0.9710
0.1953 -7.0674 -2.0015 0.9710
2.6563 -6.5521 -2.0015 0.9710
3.2305 -6.2889 -2.0015 0.9710
5.6312 -4.2750 -2.0015 0.9710
6.5626 -2.6303 -2.0015 0.9710
6.9257 -1.4215 -2.0015 0.9710
7.0681 -0.1673 -2.0015 0.9710
6.9852 1.0921 -2.0015 0.9710
6.8599 1.7113 -2.0015 0.9710
6.6797 2.3168 -2.0015 0.9710
6.4462 2.9038 -2.0015 0.9710
5.4465 4.5079 -2.0015 0.9710
3.5245 6.1289 -2.0015 0.9710
2.3786 6.6580 -2.0015 0.9710
1.7748 6.8437 -2.0015 0.9710
0.5296 7.0502 -2.0015 0.9710
-0.7325 7.0320 -2.0015 0.9710
-1.3573 6.9386 -2.0015 0.9710
-1.9712 6.7897 -2.0015 0.9710
-2.5694 6.5867 -2.0015 0.9710
0.3810 6.4961 -2.0015 0.9731
-0.2004 6.5042 -2.0015 0.9731
-1.9165 6.2186 -2.0015 0.9731
-3.9716 5.1547 -2.0015 0.9731
-4.4158 4.7796 -2.0015 0.9731
-5.1953 3.9183 -2.0015 0.9731
-5.5244 3.4389 -2.0015 0.9731
-5.8093 2.9320 -2.0015 0.9731
-6.0478 2.4018 -2.0015 0.9731
-6.2380 1.8523 -2.0015 0.9731
-6.5059 0.1334 -2.0015 0.9731
-6.4918 -0.4479 -2.0015 0.9731
-6.3087 -1.5951 -2.0015 0.9731
-6.1412 -2.1518 -2.0015 0.9731
-3.7176 -5.3407 -2.0015 0.9731
-3.2261 -5.6513 -2.0015 0.9731
-2.7087 -5.9167 -2.0015 0.9731
-2.1698 -6.1348 -2.0015 0.9731
-1.0443 -6.4229 -2.0015 0.9731
-0.4668 -6.4905 -2.0015 0.9731
0.6947 -6.4701 -2.0015 0.9731
1.2695 -6.3822 -2.0015 0.9731
2.9150 -5.8178 -2.0015 0.9731
3.4227 -5.5344 -2.0015 0.9731
3.9031 -5.2068 -2.0015 0.9731
5.4784 -3.5116 -2.0015 0.9731
5.7700 -3.0086 -2.0015 0.9731
6.0155 -2.4815 -2.0015 0.9731
6.2130 -1.9346 -2.0015 0.9731
6.5035 -0.2194 -2.0015 0.9731
6.4972 0.3620 -2.0015 0.9731
6.4389 0.9405 -2.0015 0.9731
6.1691 2.0705 -2.0015 0.9731
5.4001 3.6309 -2.0015 0.9731
5.0544 4.0984 -2.0015 0.9731
3.7879 5.2911 -2.0015 0.9731
3.3005 5.6081 -2.0015 0.9731
1.6967 6.2822 -2.0015 0.9731
-0.0283 6.5072 -2.0015 0.9731
-1.1850 6.3985 -2.0015 0.9731
-2.3038 6.0858 -2.0015 0.9731
-5.0899 4.0542 -2.0015 0.9731
-5.4315 3.5837 -2.0015 0.9731
-5.7297 3.0846 -2.0015 0.9731
-6.1869 2.0166 -2.0015 0.9731
-6.4469 0.8844 -2.0015 0.9731
-6.5001 0.3054 -2.0015 0.9731
-6.3487 -1.4277 -2.0015 0.9731
-6.1959 -1.9887 -2.0015 0.9731
-5.9936 -2.5338 -2.0015 0.9731
-4.7279 -4.4711 -2.0015 0.9731
-3.3744 -5.5640 -2.0015 0.9731
-2.3312 -6.0753 -2.0015 0.9731
2.2231 -6.1157 -2.0015 0.9731
3.2752 -5.6229 -2.0015 0.9731
3.7640 -5.3081 -2.0015 0.9731
4.2228 -4.9510 -2.0015 0.9731
4.6479 -4.5543 -2.0015 0.9731
6.1597 -2.0982 -2.0015 0.9731
6.3224 -1.5400 -2.0015 0.9731
6.4955 -0.3913 -2.0015 0.9731
6.3670 1.3436 -2.0015 0.9731
6.2217 1.9066 -2.0015 0.9731
3.9265 5.1891 -2.0015 0.9731
3.4476 5.5189 -2.0015 0.9731
2.4113 6.0440 -2.0015 0.9731
1.8622 6.2351 -2.0015 0.9731
1.2982 6.3764 -2.0015 0.9731
0.1437 6.5057 -2.0015 0.9731
-1.0154 6.4275 -2.0015 0.9731
-1.5851 6.3112 -2.0015 0.9731
-2.1421 6.1446 -2.0015 0.9731
-2.6820 5.9288 -2.0015 0.9731
-3.6935 5.3575 -2.0015 0.9731
-4.1570 5.0064 -2.0015 0.9731
-6.1314 2.1795 -2.0015 0.9731
-6.3015 1.6235 -2.0015 0.9731
-6.4897 0.4771 -2.0015 0.9731
-6.5064 -0.1041 -2.0015 0.9731
-6.4711 -0.6844 -2.0015 0.9731
-6.3842 -1.2593 -2.0015 0.9731
-6.2463 -1.8242 -2.0015 0.9731
-5.8224 -2.9058 -2.0015 0.9731
-5.2129 -3.8948 -2.0015 0.9731
-4.8445 -4.3446 -2.0015 0.9731
-4.4373 -4.7597 -2.0015 0.9731
-3.0177 -5.7652 -2.0015 0.9731
-1.9445 -6.2099 -2.0015 0.9731
-1.3824 -6.3587 -2.0015 0.9731
-0.8093 -6.4567 -2.0015 0.9731
0.3517 -6.4977 -2.0015 0.9731
2.6034 -5.9638 -2.0015 0.9731
3.6224 -5.4058 -2.0015 0.9731
4.0904 -5.0609 -2.0015 0.9731
4.5259 -4.6756 -2.0015 0.9731
5.2851 -3.7963 -2.0015 0.9731
6.2795 -1.7067 -2.0015 0.9731
6.4067 -1.1393 -2.0015 0.9731
6.4829 -0.5629 -2.0015 0.9731
6.5072 0.0180 -2.0015 0.9731
6.4003 1.1748 -2.0015 0.9731
6.2699 1.7415 -2.0015 0.9731
5.5845 3.3404 -2.0015 0.9731
5.2640 3.8255 -2.0015 0.9731
4.9015 4.2801 -2.0015 0.9731
3.5923 5.4258 -2.0015 0.9731
0.3157 6.4996 -2.0015 0.9731
-0.8451 6.4521 -2.0015 0.9731
-1.9789 6.1991 -2.0015 0.9731
-2.5243 5.9977 -2.0015 0.9731
-3.0496 5.7484 -2.0015 0.9731
-3.5506 5.4532 -2.0015 0.9731
-4.4637 4.7350 -2.0015 0.9731
-4.8685 4.3176 -2.0015 0.9731
-5.2345 3.8658 -2.0015 0.9731
-6.0716 2.3408 -2.0015 0.9731
-6.2563 1.7895 -2.0015 0.9731
-6.3911 1.2239 -2.0015 0.9731
-6.4748 0.6485 -2.0015 0.9731
-6.4153 -1.0901 -2.0015 0.9731
-5.8972 -2.7508 -2.0015 0.9731
-5.6281 -3.2663 -2.0015 0.9731
-5.3141 -3.7556 -2.0015 0.9731
-4.9576 -4.2150 -2.0015 0.9731
-3.6638 -5.3778 -2.0015 0.9731
-3.1691 -5.6834 -2.0015 0.9731
-2.1080 -6.1563 -2.0015 0.9731
-0.9797 -6.4331 -2.0015 0.9731
0.1798 -6.5048 -2.0015 0.9731
1.3336 -6.3691 -2.0015 0.9731
1.8968 -6.2247 -2.0015 0.9731
2.4448 -6.0305 -2.0015 0.9731
2.9734 -5.7882 -2.0015 0.9731
5.5134 -3.4564 -2.0015 0.9731
5.8000 -2.9504 -2.0015 0.9731
6.2321 -1.8721 -2.0015 0.9731
6.4657 -0.7341 -2.0015 0.9731
6.1480 2.1324 -2.0015 0.9731
5.0129 4.1491 -2.0015 0.9731
4.1953 4.9743 -2.0015 0.9731
3.2440 5.6410 -2.0015 0.9731
2.7275 5.9081 -2.0015 0.9731
2.1892 6.1279 -2.0015 0.9731
1.6335 6.2989 -2.0015 0.9731
-0.0938 6.5066 -2.0015 0.9731
-0.6742 6.4722 -2.0015 0.9731
-1.2492 6.3862 -2.0015 0.9731
-1.8143 6.2492 -2.0015 0.9731
-2.3649 6.0623 -2.0015 0.9731
-2.8966 5.8270 -2.0015 0.9731
-3.4051 5.5452 -2.0015 0.9731
-1.7733 5.7542 -2.0015 0.9749
-2.2799 5.5729 -2.0015 0.9749
-3.2345 5.0787 -2.0015 0.9749
-5.1117 3.1820 -2.0015 0.9749
-5.3754 2.7130 -2.0015 0.9749
-5.9460 -0.9490 -2.0015 0.9749
-5.6825 -1.9911 -2.0015 0.9749
-5.2379 -2.9698 -2.0015 0.9749
-4.9519 -3.4255 -2.0015 0.9749
-4.2639 -4.2514 -2.0015 0.9749
-3.8673 -4.6151 -2.0015 0.9749
-3.4400 -4.9419 -2.0015 0.9749
-2.5064 -5.4748 -2.0015 0.9749
-2.0077 -5.6766 -2.0015 0.9749
-1.4930 -5.8332 -2.0015 0.9749
-0.9663 -5.9432 -2.0015 0.9749
-0.4320 -6.0057 -2.0015 0.9749
0.1058 -6.0203 -2.0015 0.9749
1.6971 -5.7771 -2.0015 0.9749
2.6973 -5.3833 -2.0015 0.9749
3.1671 -5.1210 -2.0015 0.9749
3.6115 -4.8179 -2.0015 0.9749
4.0272 -4.4763 -2.0015 0.9749
5.3390 -2.7839 -2.0015 0.9749
5.7490 -1.7901 -2.0015 0.9749
5.7083 1.9158 -2.0015 0.9749
4.6769 3.7923 -2.0015 0.9749
3.0540 5.1893 -2.0015 0.9749
1.5700 5.8129 -2.0015 0.9749
-0.0262 6.0212 -2.0015 0.9749
-0.5636 5.9948 -2.0015 0.9749
-1.6206 5.7990 -2.0015 0.9749
-2.1317 5.6312 -2.0015 0.9749
-2.6259 5.4185 -2.0015 0.9749
-3.0991 5.1624 -2.0015 0.9749
-3.5475 4.8652 -2.0015 0.9749
-4.3561 4.1569 -2.0015 0.9749
-5.8685 1.3475 -2.0015 0.9749
-5.9654 0.8183 -2.0015 0.9749
-6.0158 -0.2555 -2.0015 0.9749
-5.9690 -0.7914 -2.0015 0.9749
-5.0407 -3.2934 -2.0015 0.9749
-4.3748 -4.1372 -2.0015 0.9749
-3.9880 -4.5112 -2.0015 0.9749
-3.5694 -4.8492 -2.0015 0.9749
-3.1223 -5.1484 -2.0015 0.9749
-1.6467 -5.7917 -2.0015 0.9749
-1.1231 -5.9156 -2.0015 0.9749
-0.5906 -5.9922 -2.0015 0.9749
-0.0534 -6.0210 -2.0015 0.9749
0.4843 -6.0017 -2.0015 0.9749
1.0181 -5.9345 -2.0015 0.9749
3.0306 -5.2030 -2.0015 0.9749
3.4829 -4.9117 -2.0015 0.9749
4.9816 -3.3822 -2.0015 0.9749
5.2636 -2.9241 -2.0015 0.9749
5.6996 -1.9415 -2.0015 0.9749
5.8502 -1.4250 -2.0015 0.9749
6.0103 -0.3621 -2.0015 0.9749
6.0187 0.1759 -2.0015 0.9749
5.9789 0.7124 -2.0015 0.9749
5.7570 1.7642 -2.0015 0.9749
5.0838 3.2264 -2.0015 0.9749
4.7755 3.6674 -2.0015 0.9749
4.0473 4.4581 -2.0015 0.9749
3.6332 4.8016 -2.0015 0.9749
2.7215 5.3711 -2.0015 0.9749
1.7231 5.7694 -2.0015 0.9749
1.2012 5.9002 -2.0015 0.9749
0.6698 5.9839 -2.0015 0.9749
0.1330 6.0198 -2.0015 0.9749
-0.9395 5.9475 -2.0015 0.9749
-1.4667 5.8399 -2.0015 0.9749
-1.9821 5.6856 -2.0015 0.9749
-2.4817 5.4860 -2.0015 0.9749
-3.4177 4.9573 -2.0015 0.9749
-3.8465 4.6324 -2.0015 0.9749
-4.2447 4.2706 -2.0015 0.9749
-4.6089 3.8746 -2.0015 0.9749
-5.2245 2.9934 -2.0015 0.9749
-5.4708 2.5151 -2.0015 0.9749
-5.8308 1.5022 -2.0015 0.9749
-6.0205 -0.0963 -2.0015 0.9749
-5.9074 -1.1653 -2.0015 0.9749
-5.6060 -2.1971 -2.0015 0.9749
-5.3876 -2.6888 -2.0015 0.9749
-5.1260 -3.1590 -2.0015 0.9749
-4.4826 -4.0201 -2.0015 0.9749
-2.7923 -5.3346 -2.0015 0.9749
-1.7992 -5.7461 -2.0015 0.9749
-1.2791 -5.8838 -2.0015 0.9749
-0.7488 -5.9745 -2.0015 0.9749
1.3894 -5.8587 -2.0015 0.9749
1.9068 -5.7113 -2.0015 0.9749
2.8919 -5.2813 -2.0015 0.9749
4.5573 -3.9353 -2.0015 0.9749
4.8904 -3.5128 -2.0015 0.9749
5.4371 -2.5872 -2.0015 0.9749
5.6463 -2.0915 -2.0015 0.9749
5.8105 -1.5792 -2.0015 0.9749
6.0212 0.0167 -2.0015 0.9749
5.9223 1.0871 -2.0015 0.9749
5.1674 3.0909 -2.0015 0.9749
4.8708 3.5398 -2.0015 0.9749
3.7589 4.7038 -2.0015 0.9749
2.3783 5.5316 -2.0015 0.9749
1.8751 5.7218 -2.0015 0.9749
1.3568 5.8664 -2.0015 0.9749
0.8278 5.9641 -2.0015 0.9749
-0.2459 6.0162 -2.0015 0.9749
-0.7820 5.9702 -2.0015 0.9749
-1.3118 5.8766 -2.0015 0.9749
-2.3358 5.5497 -2.0015 0.9749
-2.8219 5.3191 -2.0015 0.9749
-3.2854 5.0459 -2.0015 0.9749
-3.7227 4.7325 -2.0015 0.9749
-4.1303 4.3813 -2.0015 0.9749
-4.5049 3.9952 -2.0015 0.9749
-5.6181 2.1660 -2.0015 0.9749
-5.7891 1.6559 -2.0015 0.9749
-6.0025 -0.4748 -2.0015 0.9749
-5.8224 -1.5345 -2.0015 0.9749
-5.6622 -2.0481 -2.0015 0.9749
-4.2209 -4.2941 -2.0015 0.9749
-2.4512 -5.4997 -2.0015 0.9749
-1.9506 -5.6965 -2.0015 0.9749
-0.9065 -5.9526 -2.0015 0.9749
0.7030 -5.9800 -2.0015 0.9749
1.7551 -5.7598 -2.0015 0.9749
2.7513 -5.3559 -2.0015 0.9749
3.2184 -5.0889 -2.0015 0.9749
3.6598 -4.7813 -2.0015 0.9749
4.7958 -3.6408 -2.0015 0.9749
5.3668 -2.7300 -2.0015 0.9749
5.5890 -2.2401 -2.0015 0.9749
6.0195 -0.1425 -2.0015 0.9749
5.8422 1.4574 -2.0015 0.9749
5.6888 1.9731 -2.0015 0.9749
5.4899 2.4730 -2.0015 0.9749
5.2473 2.9532 -2.0015 0.9749
4.9627 3.4098 -2.0015 0.9749
3.8820 4.6028 -2.0015 0.9749
3.4556 4.9309 -2.0015 0.9749
2.5237 5.4668 -2.0015 0.9749
2.0257 5.6702 -2.0015 0.9749
0.9852 5.9401 -2.0015 0.9749
-0.0868 6.0206 -2.0015 0.9749
-0.1724 5.5942 -2.0015 0.9765
-0.6710 5.5565 -2.0015 0.9765
-2.1192 5.1802 -2.0015 0.9765
-3.4159 4.4336 -2.0015 0.9765
-3.7981 4.1110 -2.0015 0.9765
-4.1499 3.7555 -2.0015 0.9765
-4.4685 3.3701 -2.0015 0.9765
-4.9966 2.5218 -2.0015 0.9765
-5.2017 2.0658 -2.0015 0.9765
-5.3653 1.5932 -2.0015 0.9765
-5.4861 1.1079 -2.0015 0.9765
-5.5631 0.6138 -2.0015 0.9765
-5.5957 0.1147 -2.0015 0.9765
-5.5836 -0.3852 -2.0015 0.9765
-4.8687 -2.7605 -2.0015 0.9765
-4.3003 -3.5823 -2.0015 0.9765
-3.9634 -3.9518 -2.0015 0.9765
-3.1975 -4.5936 -2.0015 0.9765
-2.7747 -4.8607 -2.0015 0.9765
-1.3878 -5.4221 -2.0015 0.9765
-0.8982 -5.5243 -2.0015 0.9765
0.0984 -5.5960 -2.0015 0.9765
1.5775 -5.3700 -2.0015 0.9765
2.0505 -5.2077 -2.0015 0.9765
3.3570 -4.4783 -2.0015 0.9765
3.7434 -4.1608 -2.0015 0.9765
4.4236 -3.4289 -2.0015 0.9765
4.9628 -2.5877 -2.0015 0.9765
5.3438 -1.6640 -2.0015 0.9765
5.4710 -1.1803 -2.0015 0.9765
5.5545 -0.6873 -2.0015 0.9765
5.5937 -0.1887 -2.0015 0.9765
5.5882 0.3114 -2.0015 0.9765
5.5381 0.8089 -2.0015 0.9765
5.4438 1.3001 -2.0015 0.9765
5.1259 2.2473 -2.0015 0.9765
4.9048 2.6959 -2.0015 0.9765
4.6446 3.1230 -2.0015 0.9765
3.6512 4.2419 -2.0015 0.9765
1.9358 5.2515 -2.0015 0.9765
0.9712 5.5120 -2.0015 0.9765
-0.0244 5.5968 -2.0015 0.9765
-0.5239 5.5723 -2.0015 0.9765
-1.0192 5.5033 -2.0015 0.9765
-1.5064 5.3904 -2.0015 0.9765
-2.4408 5.0366 -2.0015 0.9765
-2.8807 4.7986 -2.0015 0.9765
-3.6880 4.2099 -2.0015 0.9765
-4.3779 3.4871 -2.0015 0.9765
-5.1453 2.2026 -2.0015 0.9765
-5.3213 1.7345 -2.0015 0.9765
-5.4549 1.2526 -2.0015 0.9765
-5.5450 0.7606 -2.0015 0.9765
-5.4605 -1.2280 -2.0015 0.9765
-4.9400 -2.6308 -2.0015 0.9765
-4.0665 -3.8456 -2.0015 0.9765
-3.7070 -4.1933 -2.0015 0.9765
-2.9023 -4.7856 -2.0015 0.9765
-0.5490 -5.5699 -2.0015 0.9765
-0.0496 -5.5967 -2.0015 0.9765
1.9121 -5.2601 -2.0015 0.9765
2.8170 -4.8363 -2.0015 0.9765
3.6321 -4.2583 -2.0015 0.9765
3.9977 -3.9171 -2.0015 0.9765
4.3314 -3.5446 -2.0015 0.9765
5.1157 -2.2704 -2.0015 0.9765
5.2980 -1.8047 -2.0015 0.9765
5.5868 -0.3365 -2.0015 0.9765
5.5945 0.1635 -2.0015 0.9765
5.1835 2.1110 -2.0015 0.9765
4.4390 3.4089 -2.0015 0.9765
4.1170 3.7915 -2.0015 0.9765
3.7621 4.1439 -2.0015 0.9765
3.3772 4.4632 -2.0015 0.9765
2.9653 4.7468 -2.0015 0.9765
1.6017 5.3628 -2.0015 0.9765
1.1166 5.4844 -2.0015 0.9765
0.1236 5.5955 -2.0015 0.9765
-1.3633 5.4283 -2.0015 0.9765
-2.3068 5.0994 -2.0015 0.9765
-3.1768 4.6079 -2.0015 0.9765
-3.9455 3.9696 -2.0015 0.9765
-4.2841 3.6016 -2.0015 0.9765
-5.0852 2.3378 -2.0015 0.9765
-5.5229 0.9070 -2.0015 0.9765
-5.4911 -1.0832 -2.0015 0.9765
-5.2110 -2.0423 -2.0015 0.9765
-4.4837 -3.3499 -2.0015 0.9765
-3.8166 -4.0938 -2.0015 0.9765
-3.0278 -4.7072 -2.0015 0.9765
-2.5955 -4.9587 -2.0015 0.9765
-2.1425 -5.1706 -2.0015 0.9765
-0.6961 -5.5534 -2.0015 0.9765
0.8002 -5.5394 -2.0015 0.9765
1.2914 -5.4459 -2.0015 0.9765
1.7724 -5.3088 -2.0015 0.9765
2.6881 -4.9091 -2.0015 0.9765
3.1156 -4.6496 -2.0015 0.9765
3.8927 -4.0215 -2.0015 0.9765
4.2361 -3.6579 -2.0015 0.9765
4.8191 -2.8464 -2.0015 0.9765
5.0539 -2.4049 -2.0015 0.9765
5.2484 -1.9441 -2.0015 0.9765
5.5104 -0.9799 -2.0015 0.9765
5.5049 1.0105 -2.0015 0.9765
5.3928 1.4978 -2.0015 0.9765
5.2375 1.9732 -2.0015 0.9765
4.5276 3.2904 -2.0015 0.9765
4.2158 3.6814 -2.0015 0.9765
3.0898 4.6667 -2.0015 0.9765
2.6609 4.9239 -2.0015 0.9765
2.2107 5.1418 -2.0015 0.9765
0.7694 5.5437 -2.0015 0.9765
0.2715 5.5903 -2.0015 0.9765
-0.7268 5.5495 -2.0015 0.9765
-1.7020 5.3318 -2.0015 0.9765
-2.1712 5.1586 -2.0015 0.9765
-3.0539 4.6903 -2.0015 0.9765
-3.4603 4.3990 -2.0015 0.9765
-4.1874 3.7136 -2.0015 0.9765
-4.5022 3.3250 -2.0015 0.9765
-4.7810 2.9099 -2.0015 0.9765
-5.3811 1.5392 -2.0015 0.9765
-5.4970 1.0527 -2.0015 0.9765
-5.5966 0.0585 -2.0015 0.9765
-5.5795 -0.4413 -2.0015 0.9765
-5.4121 -1.4264 -2.0015 0.9765
-5.0722 -2.3660 -2.0015 0.9765
-4.8408 -2.8093 -2.0015 0.9765
-4.2641 -3.6253 -2.0015 0.9765
-3.5515 -4.3257 -2.0015 0.9765
-3.1512 -4.6255 -2.0015 0.9765
-2.7257 -4.8883 -2.0015 0.9765
-2.2785 -5.1121 -2.0015 0.9765
-1.3332 -5.4358 -2.0015 0.9765
-0.8427 -5.5331 -2.0015 0.9765
0.1546 -5.5948 -2.0015 0.9765
0.6534 -5.5586 -2.0015 0.9765
1.1470 -5.4781 -2.0015 0.9765
1.6314 -5.3539 -2.0015 0.9765
2.9916 -4.7303 -2.0015 0.9765
3.4019 -4.4444 -2.0015 0.9765
3.7850 -4.1230 -2.0015 0.9765
4.1379 -3.7687 -2.0015 0.9765
4.4578 -3.3842 -2.0015 0.9765
4.7421 -2.9728 -2.0015 0.9765
5.1951 -2.0822 -2.0015 0.9765
5.4826 -1.1253 -2.0015 0.9765
5.5612 -0.6314 -2.0015 0.9765
5.5848 0.3675 -2.0015 0.9765
5.2879 1.8340 -2.0015 0.9765
3.6084 4.2784 -2.0015 0.9765
3.2121 4.5834 -2.0015 0.9765
2.3459 5.0815 -2.0015 0.9765
1.8829 5.2706 -2.0015 0.9765
0.9157 5.5215 -2.0015 0.9765
0.4192 5.5812 -2.0015 0.9765
-0.0806 5.5963 -2.0015 0.9765
-0.5799 5.5668 -2.0015 0.9765
-2.4913 5.0118 -2.0015 0.9765
-2.9288 4.7694 -2.0015 0.9765
-1.5382 4.9912 -2.0015 0.9779
-1.9776 4.8340 -2.0015 0.9779
-2.8056 4.4053 -2.0015 0.9779
-3.1876 4.1373 -2.0015 0.9779
-3.5442 3.8362 -2.0015 0.9779
-3.8725 3.5045 -2.0015 0.9779
-4.1699 3.1449 -2.0015 0.9779
-4.4340 2.7601 -2.0015 0.9779
-4.6626 2.3533 -2.0015 0.9779
-4.8541 1.9277 -2.0015 0.9779
-5.1195 1.0339 -2.0015 0.9779
-5.2218 0.1071 -2.0015 0.9779
-5.2105 -0.3595 -2.0015 0.9779
-5.1576 -0.8231 -2.0015 0.9779
-5.0635 -1.2802 -2.0015 0.9779
-4.2953 -2.9713 -2.0015 0.9779
-3.6985 -3.6877 -2.0015 0.9779
-3.3546 -4.0031 -2.0015 0.9779
-2.9838 -4.2866 -2.0015 0.9779
-1.7415 -4.9240 -2.0015 0.9779
-1.2950 -5.0598 -2.0015 0.9779
-0.8382 -5.1552 -2.0015 0.9779
0.0918 -5.2220 -2.0015 0.9779
1.9135 -4.8597 -2.0015 0.9779
2.3397 -4.6695 -2.0015 0.9779
3.1327 -4.1791 -2.0015 0.9779
5.1054 -1.1015 -2.0015 0.9779
5.0800 1.2132 -2.0015 0.9779
4.9514 1.6618 -2.0015 0.9779
4.7833 2.0971 -2.0015 0.9779
4.5770 2.5157 -2.0015 0.9779
4.3342 2.9143 -2.0015 0.9779
4.0568 3.2895 -2.0015 0.9779
3.7469 3.6385 -2.0015 0.9779
3.4072 3.9584 -2.0015 0.9779
2.2367 4.7197 -2.0015 0.9779
1.8065 4.9005 -2.0015 0.9779
1.3618 5.0422 -2.0015 0.9779
0.9063 5.1436 -2.0015 0.9779
0.4435 5.2040 -2.0015 0.9779
-0.4889 5.1999 -2.0015 0.9779
-0.9511 5.1355 -2.0015 0.9779
-3.0771 4.2201 -2.0015 0.9779
-3.4416 3.9286 -2.0015 0.9779
-4.0853 3.2540 -2.0015 0.9779
-4.3594 2.8764 -2.0015 0.9779
-4.5988 2.4757 -2.0015 0.9779
-5.0904 1.1689 -2.0015 0.9779
-5.1744 0.7098 -2.0015 0.9779
-5.2171 0.2451 -2.0015 0.9779
-5.0956 -1.1459 -2.0015 0.9779
-4.9730 -1.5962 -2.0015 0.9779
-4.8106 -2.0337 -2.0015 0.9779
-4.6099 -2.4550 -2.0015 0.9779
-4.0999 -3.2356 -2.0015 0.9779
-2.7083 -4.4658 -2.0015 0.9779
-2.2989 -4.6897 -2.0015 0.9779
-1.8711 -4.8762 -2.0015 0.9779
-0.9742 -5.1312 -2.0015 0.9779
-0.5123 -5.1977 -2.0015 0.9779
-0.0463 -5.2226 -2.0015 0.9779
1.3391 -5.0483 -2.0015 0.9779
1.7843 -4.9086 -2.0015 0.9779
2.2154 -4.7297 -2.0015 0.9779
3.0211 -4.2604 -2.0015 0.9779
3.7305 -3.6553 -2.0015 0.9779
4.0419 -3.3077 -2.0015 0.9779
4.5656 -2.5363 -2.0015 0.9779
4.9439 -1.6841 -2.0015 0.9779
5.1646 -0.7782 -2.0015 0.9779
5.2206 0.1526 -2.0015 0.9779
5.1862 0.6180 -2.0015 0.9779
4.8371 1.9699 -2.0015 0.9779
3.8418 3.5382 -2.0015 0.9779
3.5107 3.8670 -2.0015 0.9779
3.1515 4.1649 -2.0015 0.9779
2.7671 4.4296 -2.0015 0.9779
2.3607 4.6589 -2.0015 0.9779
1.9354 4.8510 -2.0015 0.9779
1.4946 5.0044 -2.0015 0.9779
1.0420 5.1179 -2.0015 0.9779
0.5810 5.1904 -2.0015 0.9779
-0.3512 5.2110 -2.0015 0.9779
-0.8150 5.1589 -2.0015 0.9779
-1.2722 5.0655 -2.0015 0.9779
-1.7193 4.9318 -2.0015 0.9779
-2.5688 4.5474 -2.0015 0.9779
-3.3365 4.0182 -2.0015 0.9779
-4.2819 2.9906 -2.0015 0.9779
-5.2088 0.3829 -2.0015 0.9779
-5.1939 -0.5493 -2.0015 0.9779
-5.1241 -1.0108 -2.0015 0.9779
-5.0134 -1.4641 -2.0015 0.9779
-4.8627 -1.9058 -2.0015 0.9779
-3.5615 -3.8202 -2.0015 0.9779
-3.2063 -4.1229 -2.0015 0.9779
-1.9994 -4.8250 -2.0015 0.9779
-1.5607 -4.9842 -2.0015 0.9779
-1.1095 -5.1036 -2.0015 0.9779
0.2823 -5.2152 -2.0015 0.9779
1.6540 -4.9540 -2.0015 0.9779
2.9074 -4.3388 -2.0015 0.9779
3.9530 -3.4135 -2.0015 0.9779
4.2419 -3.0470 -2.0015 0.9779
4.8976 -1.8142 -2.0015 0.9779
5.0400 -1.3698 -2.0015 0.9779
5.2033 -0.4518 -2.0015 0.9779
5.2007 0.4806 -2.0015 0.9779
5.1370 0.9429 -2.0015 0.9779
4.8875 1.8414 -2.0015 0.9779
4.4822 2.6811 -2.0015 0.9779
4.2250 3.0705 -2.0015 0.9779
3.6117 3.7728 -2.0015 0.9779
3.2605 4.0801 -2.0015 0.9779
2.8833 4.3549 -2.0015 0.9779
2.4830 4.5949 -2.0015 0.9779
0.7180 5.1733 -2.0015 0.9779
0.2534 5.2167 -2.0015 0.9779
-0.2133 5.2185 -2.0015 0.9779
-0.6783 5.1786 -2.0015 0.9779
-1.1378 5.0974 -2.0015 0.9779
-1.5883 4.9755 -2.0015 0.9779
-3.5826 3.8004 -2.0015 0.9779
-4.2013 3.1028 -2.0015 0.9779
-5.1968 0.5205 -2.0015 0.9779
-5.1490 -0.8750 -2.0015 0.9779
-4.7332 -2.2079 -2.0015 0.9779
-4.2652 -3.0143 -2.0015 0.9779
-3.9791 -3.3830 -2.0015 0.9779
-3.6612 -3.7247 -2.0015 0.9779
-3.3141 -4.0366 -2.0015 0.9779
-2.5436 -4.5616 -2.0015 0.9779
-1.6919 -4.9412 -2.0015 0.9779
-1.2441 -5.0725 -2.0015 0.9779
-0.7863 -5.1633 -2.0015 0.9779
-0.3223 -5.2129 -2.0015 0.9779
0.1443 -5.2209 -2.0015 0.9779
0.6098 -5.1871 -2.0015 0.9779
1.0703 -5.1120 -2.0015 0.9779
1.5224 -4.9961 -2.0015 0.9779
1.9623 -4.8402 -2.0015 0.9779
2.3865 -4.6457 -2.0015 0.9779
3.1745 -4.1473 -2.0015 0.9779
3.5321 -3.8474 -2.0015 0.9779
4.4252 -2.7742 -2.0015 0.9779
4.6552 -2.3681 -2.0015 0.9779
5.1162 -1.0501 -2.0015 0.9779
5.2116 0.3429 -2.0015 0.9779
4.9345 1.7115 -2.0015 0.9779
4.7620 2.1451 -2.0015 0.9779
4.3047 2.9577 -2.0015 0.9779
4.0235 3.3301 -2.0015 0.9779
3.3672 3.9925 -2.0015 0.9779
2.9974 4.2771 -2.0015 0.9779
2.6037 4.5276 -2.0015 0.9779
1.3111 5.0556 -2.0015 0.9779
-0.0752 5.2223 -2.0015 0.9779
-0.5411 5.1947 -2.0015 0.9779
-1.8981 4.8657 -2.0015 0.9779
-2.3248 4.6769 -2.0015 0.9779
-2.7330 4.4507 -2.0015 0.9779
-0.1506 4.8880 -2.0015 0.9791
-0.5863 4.8551 -2.0015 0.9791
-1.0174 4.7833 -2.0015 0.9791
-1.4403 4.6734 -2.0015 0.9791
-1.8517 4.5262 -2.0015 0.9791
-2.6270 4.1248 -2.0015 0.9791
-2.9847 3.8739 -2.0015 0.9791
-3.3186 3.5920 -2.0015 0.9791
-4.1517 2.5844 -2.0015 0.9791
-4.3658 2.2035 -2.0015 0.9791
-4.5450 1.8050 -2.0015 0.9791
-4.6880 1.3921 -2.0015 0.9791
-1.9565 0.2159 -0.8056 0.9915
-1.9513 -0.1346 -0.8005 0.9916
-2.0341 -0.3246 -0.8430 0.9911
-4.7411 -1.1987 -2.0015 0.9791
-4.6152 -1.6171 -2.0015 0.9791
-4.4524 -2.0227 -2.0015 0.9791
-4.2541 -2.4120 -2.0015 0.9791
-2.7939 -4.0137 -2.0015 0.9791
-2.4244 -4.2470 -2.0015 0.9791
-2.0356 -4.4465 -2.0015 0.9791
-1.6306 -4.6105 -2.0015 0.9791
-0.7848 -4.8269 -2.0015 0.9791
-0.3508 -4.8777 -2.0015 0.9791
0.5221 -4.8624 -2.0015 0.9791
1.7917 -4.5503 -2.0015 0.9791
2.1907 -4.3722 -2.0015 0.9791
2.5722 -4.1592 -2.0015 0.9791
3.5823 -3.3291 -2.0015 0.9791
4.3363 -2.2610 -2.0015 0.9791
4.5208 -1.8649 -2.0015 0.9791
4.8876 -0.1649 -2.0015 0.9791
4.8828 0.2721 -2.0015 0.9791
4.8390 0.7068 -2.0015 0.9791
4.7566 1.1359 -2.0015 0.9791
4.6362 1.5560 -2.0015 0.9791
4.4788 1.9636 -2.0015 0.9791
4.0583 2.7287 -2.0015 0.9791
3.1903 3.7064 -2.0015 0.9791
2.4804 4.2146 -2.0015 0.9791
1.6915 4.5885 -2.0015 0.9791
1.2751 4.7212 -2.0015 0.9791
-0.0213 4.8903 -2.0015 0.9791
-1.3162 4.7099 -2.0015 0.9791
-1.7314 4.5736 -2.0015 0.9791
-2.1327 4.4008 -2.0015 0.9791
-2.8812 3.9514 -2.0015 0.9791
-3.5379 3.3761 -2.0015 0.9791
-4.0819 2.6933 -2.0015 0.9791
-4.4957 1.9245 -2.0015 0.9791
-4.7663 1.0944 -2.0015 0.9791
-1.9481 0.2672 -0.8048 0.9915
-1.9389 0.0911 -0.7944 0.9916
-1.9501 -0.2586 -0.8051 0.9915
-4.7712 -1.0730 -2.0015 0.9791
-4.3164 -2.2987 -2.0015 0.9791
-3.8389 -3.0296 -2.0015 0.9791
-3.5531 -3.3602 -2.0015 0.9791
-3.2390 -3.6639 -2.0015 0.9791
-2.5359 -4.1815 -2.0015 0.9791
-2.1525 -4.3911 -2.0015 0.9791
-1.7520 -4.5657 -2.0015 0.9791
-0.4797 -4.8667 -2.0015 0.9791
-0.0433 -4.8901 -2.0015 0.9791
0.8269 -4.8199 -2.0015 0.9791
2.4614 -4.2258 -2.0015 0.9791
2.8288 -3.9892 -2.0015 0.9791
3.1735 -3.7208 -2.0015 0.9791
3.4930 -3.4226 -2.0015 0.9791
3.7846 -3.0972 -2.0015 0.9791
4.0459 -2.7470 -2.0015 0.9791
4.2750 -2.3749 -2.0015 0.9791
4.8357 -0.7286 -2.0015 0.9791
4.8560 0.5786 -2.0015 0.9791
4.7849 1.0098 -2.0015 0.9791
4.6757 1.4329 -2.0015 0.9791
4.3464 2.2414 -2.0015 0.9791
4.1290 2.6205 -2.0015 0.9791
3.8786 2.9786 -2.0015 0.9791
3.5972 3.3129 -2.0015 0.9791
3.2872 3.6208 -2.0015 0.9791
2.9508 3.8997 -2.0015 0.9791
2.2104 4.3623 -2.0015 0.9791
1.3995 4.6858 -2.0015 0.9791
0.1080 4.8891 -2.0015 0.9791
-0.7631 4.8304 -2.0015 0.9791
-1.1912 4.7430 -2.0015 0.9791
-1.6098 4.6178 -2.0015 0.9791
-2.0156 4.4556 -2.0015 0.9791
-2.4053 4.2579 -2.0015 0.9791
-2.7757 4.0262 -2.0015 0.9791
-3.1241 3.7624 -2.0015 0.9791
-3.7433 3.1469 -2.0015 0.9791
-4.2432 2.4312 -2.0015 0.9791
-4.7357 1.2201 -2.0015 0.9791
-2.0717 0.3402 -0.8592 0.9910
-1.9533 0.1436 -0.8016 0.9916
-1.9572 -0.2070 -0.8055 0.9915
-4.6942 -1.3709 -2.0015 0.9791
-4.5531 -1.7845 -2.0015 0.9791
-4.3757 -2.1838 -2.0015 0.9791
-4.1633 -2.5656 -2.0015 0.9791
-3.9176 -2.9270 -2.0015 0.9791
-3.6407 -3.2650 -2.0015 0.9791
-3.0021 -3.8604 -2.0015 0.9791
-2.2679 -4.3327 -2.0015 0.9791
-0.6082 -4.8524 -2.0015 0.9791
-0.1726 -4.8873 -2.0015 0.9791
0.6991 -4.8401 -2.0015 0.9791
1.5486 -4.6386 -2.0015 0.9791
1.9565 -4.4819 -2.0015 0.9791
3.0741 -3.8034 -2.0015 0.9791
3.4013 -3.5138 -2.0015 0.9791
4.4159 -2.1013 -2.0015 0.9791
4.7191 -1.2826 -2.0015 0.9791
4.8903 0.0136 -2.0015 0.9791
4.7120 1.3087 -2.0015 0.9791
4.1968 2.5104 -2.0015 0.9791
3.9560 2.8750 -2.0015 0.9791
3.3817 3.5326 -2.0015 0.9791
3.0529 3.8204 -2.0015 0.9791
1.5229 4.6472 -2.0015 0.9791
0.6723 4.8439 -2.0015 0.9791
0.2372 4.8846 -2.0015 0.9791
-0.6351 4.8489 -2.0015 0.9791
-1.4872 4.6587 -2.0015 0.9791
-2.2919 4.3200 -2.0015 0.9791
-3.0235 3.8437 -2.0015 0.9791
-3.3545 3.5584 -2.0015 0.9791
-4.1774 2.5425 -2.0015 0.9791
-4.3877 2.1595 -2.0015 0.9791
-4.5629 1.7592 -2.0015 0.9791
-4.7018 1.3449 -2.0015 0.9791
-2.1283 -0.3617 -0.8836 0.9907
-4.7288 -1.2463 -2.0015 0.9791
-4.5987 -1.6635 -2.0015 0.9791
-3.7258 -3.1676 -2.0015 0.9791
-3.4281 -3.4876 -2.0015 0.9791
-3.1032 -3.7796 -2.0015 0.9791
-1.9909 -4.4667 -2.0015 0.9791
0.1351 -4.8885 -2.0015 0.9791
0.5709 -4.8569 -2.0015 0.9791
1.0022 -4.7865 -2.0015 0.9791
1.8373 -4.5321 -2.0015 0.9791
2.6139 -4.1331 -2.0015 0.9791
3.6156 -3.2929 -2.0015 0.9791
4.6836 -1.4069 -2.0015 0.9791
4.8591 -0.5517 -2.0015 0.9791
4.4588 2.0085 -2.0015 0.9791
3.7673 3.1181 -2.0015 0.9791
3.4740 3.4419 -2.0015 0.9791
2.4379 4.2393 -2.0015 0.9791
2.0497 4.4400 -2.0015 0.9791
1.6452 4.6053 -2.0015 0.9791
1.2276 4.7337 -2.0015 0.9791
0.3663 4.8766 -2.0015 0.9791
-0.0705 4.8898 -2.0015 0.9791
-0.5067 4.8640 -2.0015 0.9791
-0.9388 4.7994 -2.0015 0.9791
-1.3635 4.6964 -2.0015 0.9791
-2.1768 4.3791 -2.0015 0.9791
-2.5590 4.1673 -2.0015 0.9791
0.2689 4.5846 -2.0015 0.9802
-0.5506 4.5594 -2.0015 0.9802
-2.1114 4.0784 -2.0015 0.9802
-2.8029 3.6379 -2.0015 0.9802
-3.1165 3.3732 -2.0015 0.9802
-3.4051 3.0816 -2.0015 0.9802
-3.8988 2.4270 -2.0015 0.9802
-4.0999 2.0693 -2.0015 0.9802
-4.2682 1.6950 -2.0015 0.9802
-1.5243 0.1682 -0.6684 0.9933
-1.5294 -0.1055 -0.6681 0.9933
-1.5093 -0.2409 -0.6661 0.9934
-3.9950 -2.2651 -2.0015 0.9802
-3.5286 -2.9394 -2.0015 0.9802
-3.2521 -3.2426 -2.0015 0.9802
-2.6237 -3.7692 -2.0015 0.9802
-1.5313 -4.3297 -2.0015 0.9802
-1.1387 -4.4491 -2.0015 0.9802
-0.7370 -4.5330 -2.0015 0.9802
-0.3295 -4.5807 -2.0015 0.9802
0.0807 -4.5918 -2.0015 0.9802
0.4903 -4.5663 -2.0015 0.9802
1.6826 -4.2732 -2.0015 0.9802
2.0573 -4.1059 -2.0015 0.9802
2.7546 -3.6747 -2.0015 0.9802
3.3641 -3.1263 -2.0015 0.9802
3.8664 -2.4783 -2.0015 0.9802
4.0722 -2.1233 -2.0015 0.9802
4.3848 -1.3654 -2.0015 0.9802
4.4892 -0.9685 -2.0015 0.9802
4.5578 -0.5639 -2.0015 0.9802
4.3538 1.4612 -2.0015 0.9802
4.2060 1.8440 -2.0015 0.9802
4.0246 2.2121 -2.0015 0.9802
3.8111 2.5625 -2.0015 0.9802
2.9960 3.4807 -2.0015 0.9802
2.3293 3.9579 -2.0015 0.9802
1.5884 4.3091 -2.0015 0.9802
1.1975 4.4336 -2.0015 0.9802
0.7969 4.5228 -2.0015 0.9802
-0.4299 4.5723 -2.0015 0.9802
-0.8363 4.5157 -2.0015 0.9802
-1.6259 4.2950 -2.0015 0.9802
-2.0028 4.1328 -2.0015 0.9802
-2.3637 3.9375 -2.0015 0.9802
-2.7058 3.7108 -2.0015 0.9802
-3.0262 3.4544 -2.0015 0.9802
-3.5922 2.8613 -2.0015 0.9802
-3.8333 2.5292 -2.0015 0.9802
-4.0437 2.1770 -2.0015 0.9802
-4.2219 1.8073 -2.0015 0.9802
-1.5850 0.5166 -0.7265 0.9928
-1.5173 0.2081 -0.6675 0.9933
-1.5292 0.0718 -0.6672 0.9933
-1.5831 -0.5081 -0.7246 0.9928
-4.2300 -1.7883 -2.0015 0.9802
-4.0535 -2.1587 -2.0015 0.9802
-3.8446 -2.5119 -2.0015 0.9802
-3.0417 -3.4408 -2.0015 0.9802
-2.0214 -4.1237 -2.0015 0.9802
-0.4505 -4.5704 -2.0015 0.9802
-0.0407 -4.5923 -2.0015 0.9802
0.3694 -4.5776 -2.0015 0.9802
1.1775 -4.4390 -2.0015 0.9802
1.5690 -4.3162 -2.0015 0.9802
1.9480 -4.1589 -2.0015 0.9802
2.3115 -3.9684 -2.0015 0.9802
3.5541 -2.9085 -2.0015 0.9802
3.7995 -2.5797 -2.0015 0.9802
4.0146 -2.2302 -2.0015 0.9802
4.3472 -1.4808 -2.0015 0.9802
4.4620 -1.0869 -2.0015 0.9802
4.4935 0.9483 -2.0015 0.9802
4.0817 2.1049 -2.0015 0.9802
3.3782 3.1111 -2.0015 0.9802
3.0870 3.4003 -2.0015 0.9802
0.9162 4.5002 -2.0015 0.9802
0.5109 4.5640 -2.0015 0.9802
0.1014 4.5914 -2.0015 0.9802
-0.3088 4.5821 -2.0015 0.9802
-0.7166 4.5363 -2.0015 0.9802
-2.2588 3.9986 -2.0015 0.9802
-2.6067 3.7810 -2.0015 0.9802
-3.2375 3.2573 -2.0015 0.9802
-3.5153 2.9553 -2.0015 0.9802
-3.7651 2.6297 -2.0015 0.9802
-3.9848 2.2831 -2.0015 0.9802
-4.1727 1.9183 -2.0015 0.9802
-1.5944 0.5668 -0.7375 0.9926
-1.5500 0.3993 -0.6976 0.9930
-1.5292 0.1124 -0.6683 0.9933
-1.5698 -0.4585 -0.7127 0.9929
-4.2758 -1.6758 -2.0015 0.9802
-3.4190 -3.0662 -2.0015 0.9802
-3.1316 -3.3591 -2.0015 0.9802
-2.4844 -3.8625 -2.0015 0.9802
-2.1297 -4.0688 -2.0015 0.9802
-1.7581 -4.2427 -2.0015 0.9802
-1.3723 -4.3827 -2.0015 0.9802
-0.5711 -4.5569 -2.0015 0.9802
0.2482 -4.5858 -2.0015 0.9802
1.4543 -4.3561 -2.0015 0.9802
2.2057 -4.0281 -2.0015 0.9802
2.8868 -3.5717 -2.0015 0.9802
3.1941 -3.2998 -2.0015 0.9802
3.9543 -2.3356 -2.0015 0.9802
4.4317 -1.2045 -2.0015 0.9802
4.5216 -0.8041 -2.0015 0.9802
4.4250 1.2290 -2.0015 0.9802
4.2976 1.6191 -2.0015 0.9802
3.7151 2.6999 -2.0015 0.9802
3.4592 3.0207 -2.0015 0.9802
3.1758 3.3174 -2.0015 0.9802
2.8670 3.5877 -2.0015 0.9802
1.4302 4.3641 -2.0015 0.9802
1.0349 4.4744 -2.0015 0.9802
0.6314 4.5489 -2.0015 0.9802
0.2228 4.5871 -2.0015 0.9802
-0.1876 4.5887 -2.0015 0.9802
-0.5964 4.5536 -2.0015 0.9802
-1.3966 4.3750 -2.0015 0.9802
-1.7815 4.2329 -2.0015 0.9802
-2.1523 4.0569 -2.0015 0.9802
