ply
format ascii 1.0
element vertex 1592
property float32 x
property float32 y
property float32 z
property float32 I
end_header
6.2906 1.6650 -2.0015 0.9731
5.6255 3.2707 -2.0015 0.9731
5.3115 3.7594 -2.0015 0.9731
4.9550 4.2181 -2.0015 0.9731
4.1269 5.0312 -2.0015 0.9731
3.6618 5.3792 -2.0015 0.9731
3.1675 5.6843 -2.0015 0.9731
2.6480 5.9441 -2.0015 0.9731
2.1073 6.1566 -2.0015 0.9731
-0.1783 6.5048 -2.0015 0.9731
-0.7576 6.4630 -2.0015 0.9731
-1.3310 6.3697 -2.0015 0.9731
-2.9695 5.7902 -2.0015 0.9731
-3.4741 5.5023 -2.0015 0.9731
-5.1786 3.9404 -2.0015 0.9731
-5.7962 2.9577 -2.0015 0.9731
-6.2294 1.8810 -2.0015 0.9731
-6.3724 1.3180 -2.0015 0.9731
-6.4939 -0.4158 -2.0015 0.9731
-6.3168 -1.5628 -2.0015 0.9731
-5.3717 -3.6727 -2.0015 0.9731
-5.0228 -4.1371 -2.0015 0.9731
-4.6338 -4.5686 -2.0015 0.9731
-4.2079 -4.9636 -2.0015 0.9731
-3.7485 -5.3191 -2.0015 0.9731
-3.2593 -5.6322 -2.0015 0.9731
-2.2069 -6.1216 -2.0015 0.9731
-0.5078 -6.4874 -2.0015 0.9731
0.6527 -6.4744 -2.0015 0.9731
2.8752 -5.8376 -2.0015 0.9731
3.8665 -5.2340 -2.0015 0.9731
4.7348 -4.4638 -2.0015 0.9731
5.1140 -4.0238 -2.0015 0.9731
5.4525 -3.5517 -2.0015 0.9731
5.9967 -2.5266 -2.0015 0.9731
6.1981 -1.9818 -2.0015 0.9731
6.3502 -1.4212 -2.0015 0.9731
6.4516 -0.8492 -2.0015 0.9731
6.5016 -0.2705 -2.0015 0.9731
6.4998 0.3104 -2.0015 0.9731
6.4463 0.8888 -2.0015 0.9731
6.1858 2.0198 -2.0015 0.9731
5.9811 2.5634 -2.0015 0.9731
5.7286 3.0866 -2.0015 0.9731
3.3502 5.5786 -2.0015 0.9731
0.0328 6.5072 -2.0015 0.9731
-1.1237 6.4095 -2.0015 0.9731
-1.6908 6.2838 -2.0015 0.9731
-2.2444 6.1079 -2.0015 0.9731
-2.7802 5.8834 -2.0015 0.9731
-3.2938 5.6121 -2.0015 0.9731
-3.7811 5.2960 -2.0015 0.9731
-4.2383 4.9377 -2.0015 0.9731
-4.6618 4.5400 -2.0015 0.9731
-5.3941 3.6397 -2.0015 0.9731
-5.9549 2.6236 -2.0015 0.9731
-6.1652 2.0821 -2.0015 0.9731
-6.4370 0.9537 -2.0015 0.9731
-6.2178 -1.9192 -2.0015 0.9731
-5.4880 -3.4966 -2.0015 0.9731
-4.7796 -4.4159 -2.0015 0.9731
-4.3667 -4.8245 -2.0015 0.9731
-3.4402 -5.5235 -2.0015 0.9731
-2.9339 -5.8083 -2.0015 0.9731
-2.4043 -6.0468 -2.0015 0.9731
-0.7180 -6.4675 -2.0015 0.9731
1.5887 -6.3103 -2.0015 0.9731
2.1451 -6.1435 -2.0015 0.9731
3.6947 -5.3566 -2.0015 0.9731
5.9116 -2.7198 -2.0015 0.9731
6.3007 -1.6264 -2.0015 0.9731
6.4207 -1.0580 -2.0015 0.9731
6.4894 -0.4812 -2.0015 0.9731
6.3853 1.2537 -2.0015 0.9731
6.2481 1.8181 -2.0015 0.9731
5.8257 2.8991 -2.0015 0.9731
5.2181 3.8879 -2.0015 0.9731
4.4444 4.7531 -2.0015 0.9731
0.8227 6.4550 -2.0015 0.9731
0.2438 6.5027 -2.0015 0.9731
-0.9152 6.4426 -2.0015 0.9731
-1.4861 6.3353 -2.0015 0.9731
-2.0452 6.1775 -2.0015 0.9731
-2.5879 5.9705 -2.0015 0.9731
-3.1100 5.7160 -2.0015 0.9731
-3.6074 5.4158 -2.0015 0.9731
-5.2733 3.8127 -2.0015 0.9731
-5.5923 3.3273 -2.0015 0.9731
-5.8667 2.8153 -2.0015 0.9731
-6.0944 2.2809 -2.0015 0.9731
-6.4808 0.5864 -2.0015 0.9731
-5.2804 -3.8028 -2.0015 0.9731
-4.9203 -4.2585 -2.0015 0.9731
-4.0855 -5.0649 -2.0015 0.9731
-3.6176 -5.4090 -2.0015 0.9731
-3.1208 -5.7101 -2.0015 0.9731
-0.9273 -6.4408 -2.0015 0.9731
0.2316 -6.5031 -2.0015 0.9731
0.8106 -6.4566 -2.0015 0.9731
1.3832 -6.3585 -2.0015 0.9731
1.9447 -6.2099 -2.0015 0.9731
3.0169 -5.7656 -2.0015 0.9731
3.9932 -5.1380 -2.0015 0.9731
5.2108 -3.8977 -2.0015 0.9731
5.8203 -2.9101 -2.0015 0.9731
6.0566 -2.3795 -2.0015 0.9731
6.5063 -0.1117 -2.0015 0.9731
6.4903 0.4690 -2.0015 0.9731
6.4226 1.0459 -2.0015 0.9731
6.3038 1.6145 -2.0015 0.9731
4.1671 4.9980 -2.0015 0.9731
3.2130 5.6587 -2.0015 0.9731
2.6955 5.9227 -2.0015 0.9731
0.4546 6.4914 -2.0015 0.9731
-1.2799 6.3801 -2.0015 0.9731
-2.9230 5.8138 -2.0015 0.9731
-3.4298 5.5300 -2.0015 0.9731
-4.3576 4.8327 -2.0015 0.9731
-4.7712 4.4249 -2.0015 0.9731
-5.4814 3.5069 -2.0015 0.9731
-5.7723 3.0041 -2.0015 0.9731
-6.4583 0.7963 -2.0015 0.9731
-6.5036 0.2172 -2.0015 0.9731
-6.3291 -1.5121 -2.0015 0.9731
-5.7031 -3.1334 -2.0015 0.9731
-5.4010 -3.6296 -2.0015 0.9731
-5.0558 -4.0967 -2.0015 0.9731
-3.7911 -5.2889 -2.0015 0.9731
-2.7912 -5.8782 -2.0015 0.9731
-2.2559 -6.1037 -2.0015 0.9731
-1.7026 -6.2806 -2.0015 0.9731
-0.5598 -6.4831 -2.0015 0.9731
0.0206 -6.5072 -2.0015 0.9731
-4.2097 4.3050 -2.0015 0.9749
-5.4492 2.5614 -2.0015 0.9749
-5.9329 1.0277 -2.0015 0.9749
-6.0009 0.4945 -2.0015 0.9749
-5.9933 -0.5794 -2.0015 0.9749
-5.9177 -1.1115 -2.0015 0.9749
-5.4124 -2.6383 -2.0015 0.9749
-5.1556 -3.1105 -2.0015 0.9749
-4.8577 -3.5578 -2.0015 0.9749
-2.8452 -5.3066 -2.0015 0.9749
-2.3607 -5.5392 -2.0015 0.9749
-1.8573 -5.7276 -2.0015 0.9749
-1.3391 -5.8704 -2.0015 0.9749
-0.8102 -5.9665 -2.0015 0.9749
-0.2750 -6.0149 -2.0015 0.9749
0.2625 -6.0155 -2.0015 0.9749
0.7980 -5.9681 -2.0015 0.9749
1.8455 -5.7314 -2.0015 0.9749
2.8343 -5.3125 -2.0015 0.9749
4.1394 -4.3727 -2.0015 0.9749
4.5128 -3.9862 -2.0015 0.9749
5.1492 -3.1211 -2.0015 0.9749
5.9154 -1.1238 -2.0015 0.9749
6.0019 0.4821 -2.0015 0.9749
5.9350 1.0154 -2.0015 0.9749
5.8208 1.5407 -2.0015 0.9749
5.4545 2.5502 -2.0015 0.9749
4.9147 3.4786 -2.0015 0.9749
4.2186 4.2963 -2.0015 0.9749
3.8187 4.6554 -2.0015 0.9749
3.3883 4.9774 -2.0015 0.9749
2.4502 5.5002 -2.0015 0.9749
1.9499 5.6968 -2.0015 0.9749
0.9069 5.9525 -2.0015 0.9749
0.3725 6.0097 -2.0015 0.9749
-1.2316 5.8939 -2.0015 0.9749
-1.7523 5.7606 -2.0015 0.9749
-4.7918 3.6460 -2.0015 0.9749
-5.5860 2.2476 -2.0015 0.9749
-5.8964 1.2196 -2.0015 0.9749
-5.9817 0.6889 -2.0015 0.9749
-5.6928 -1.9615 -2.0015 0.9749
-5.4952 -2.4614 -2.0015 0.9749
-5.2538 -2.9416 -2.0015 0.9749
-4.6476 -3.8281 -2.0015 0.9749
-2.5391 -5.4597 -2.0015 0.9749
-1.5288 -5.8239 -2.0015 0.9749
0.0673 -6.0208 -2.0015 0.9749
1.1358 -5.9131 -2.0015 0.9749
2.1682 -5.6173 -2.0015 0.9749
3.1316 -5.1428 -2.0015 0.9749
3.5777 -4.8430 -2.0015 0.9749
3.9954 -4.5047 -2.0015 0.9749
4.7321 -3.7233 -2.0015 0.9749
5.3182 -2.8234 -2.0015 0.9749
5.5488 -2.3379 -2.0015 0.9749
5.8759 -1.3150 -2.0015 0.9749
6.0160 -0.2503 -2.0015 0.9749
6.0144 0.2872 -2.0015 0.9749
5.5344 2.3719 -2.0015 0.9749
5.3008 2.8560 -2.0015 0.9749
4.3557 4.1573 -2.0015 0.9749
3.5479 4.8649 -2.0015 0.9749
2.6273 5.4178 -2.0015 0.9749
1.6231 5.7984 -2.0015 0.9749
0.5672 5.9945 -2.0015 0.9749
-1.0398 5.9308 -2.0015 0.9749
-3.4987 4.9004 -2.0015 0.9749
-3.9218 4.5689 -2.0015 0.9749
-4.3136 4.2010 -2.0015 0.9749
-4.6711 3.7995 -2.0015 0.9749
-4.9913 3.3679 -2.0015 0.9749
-5.2717 2.9093 -2.0015 0.9749
-5.5102 2.4276 -2.0015 0.9749
-6.0112 0.3478 -2.0015 0.9749
-5.8888 -1.2557 -2.0015 0.9749
-5.7534 -1.7759 -2.0015 0.9749
-4.4226 -4.0861 -2.0015 0.9749
-4.0406 -4.4642 -2.0015 0.9749
-3.6264 -4.8067 -2.0015 0.9749
-1.7169 -5.7713 -2.0015 0.9749
-1.1954 -5.9014 -2.0015 0.9749
-0.1280 -6.0199 -2.0015 0.9749
0.4094 -6.0073 -2.0015 0.9749
0.9434 -5.9469 -2.0015 0.9749
1.9849 -5.6847 -2.0015 0.9749
2.9631 -5.2417 -2.0015 0.9749
3.4188 -4.9565 -2.0015 0.9749
3.8472 -4.6319 -2.0015 0.9749
4.2449 -4.2704 -2.0015 0.9749
4.6088 -3.8748 -2.0015 0.9749
5.2238 -2.9944 -2.0015 0.9749
5.4701 -2.5167 -2.0015 0.9749
6.0047 -0.4453 -2.0015 0.9749
6.0205 0.0920 -2.0015 0.9749
5.9883 0.6285 -2.0015 0.9749
5.6084 2.1912 -2.0015 0.9749
5.3906 2.6826 -2.0015 0.9749
5.1299 3.1526 -2.0015 0.9749
4.4883 4.0138 -2.0015 0.9749
3.2658 5.0587 -2.0015 0.9749
2.3151 5.5583 -2.0015 0.9749
1.2909 5.8812 -2.0015 0.9749
0.7613 5.9729 -2.0015 0.9749
0.2256 6.0170 -2.0015 0.9749
-0.3119 6.0131 -2.0015 0.9749
-1.3751 5.8621 -2.0015 0.9749
-2.3946 5.5246 -2.0015 0.9749
-2.8777 5.2890 -2.0015 0.9749
-3.3379 5.0113 -2.0015 0.9749
-3.7715 4.6937 -2.0015 0.9749
-4.5454 3.9490 -2.0015 0.9749
-4.8794 3.5280 -2.0015 0.9749
-5.4285 2.6050 -2.0015 0.9749
-5.9244 1.0752 -2.0015 0.9749
-5.9967 0.5426 -2.0015 0.9749
-5.9977 -0.5313 -2.0015 0.9749
-5.9265 -1.0641 -2.0015 0.9749
-5.4334 -2.5948 -2.0015 0.9749
-5.1804 -3.0690 -2.0015 0.9749
-4.8860 -3.5188 -2.0015 0.9749
-4.5528 -3.9405 -2.0015 0.9749
-4.1832 -4.3308 -2.0015 0.9749
-3.3474 -5.0050 -2.0015 0.9749
-2.4050 -5.5201 -2.0015 0.9749
-1.9031 -5.7126 -2.0015 0.9749
-1.3861 -5.8595 -2.0015 0.9749
-0.8581 -5.9598 -2.0015 0.9749
0.7501 -5.9743 -2.0015 0.9749
3.2562 -5.0648 -2.0015 0.9749
3.6949 -4.7542 -2.0015 0.9749
4.4807 -4.0222 -2.0015 0.9749
4.8216 -3.6066 -2.0015 0.9749
5.1240 -3.1623 -2.0015 0.9749
5.9871 -0.6398 -2.0015 0.9749
6.0056 0.4340 -2.0015 0.9749
5.9429 0.9678 -2.0015 0.9749
4.9425 3.4391 -2.0015 0.9749
4.6161 3.8661 -2.0015 0.9749
4.2529 4.2624 -2.0015 0.9749
2.9730 5.2361 -2.0015 0.9749
2.4942 5.4803 -2.0015 0.9749
1.9956 5.6809 -2.0015 0.9749
1.4810 5.8363 -2.0015 0.9749
0.4207 6.0065 -2.0015 0.9749
-1.7060 5.7745 -2.0015 0.9749
-3.6173 4.8135 -2.0015 0.9749
-5.3412 2.7797 -2.0015 0.9749
-5.7500 1.7867 -2.0015 0.9749
-5.9760 0.7368 -2.0015 0.9749
-6.0179 0.2009 -2.0015 0.9749
-5.7083 -1.9158 -2.0015 0.9749
-4.9976 -3.3585 -2.0015 0.9749
-4.6782 -3.7908 -2.0015 0.9749
-4.3215 -4.1928 -2.0015 0.9749
-3.5079 -4.8938 -2.0015 0.9749
-2.5827 -5.4392 -2.0015 0.9749
-2.0874 -5.6478 -2.0015 0.9749
-1.0509 -5.9288 -2.0015 0.9749
-0.5180 -5.9989 -2.0015 0.9749
0.0190 -6.0212 -2.0015 0.9749
-4.2543 3.6367 -2.0015 0.9765
-4.5617 3.2429 -2.0015 0.9765
-4.8327 2.8231 -2.0015 0.9765
-5.0652 2.3809 -2.0015 0.9765
-5.2574 1.9197 -2.0015 0.9765
-5.4076 1.4432 -2.0015 0.9765
-5.5148 0.9553 -2.0015 0.9765
-5.5967 -0.0396 -2.0015 0.9765
-5.5709 -0.5386 -2.0015 0.9765
-5.3866 -1.5196 -2.0015 0.9765
-4.7923 -2.8913 -2.0015 0.9765
-4.5153 -3.3071 -2.0015 0.9765
-4.2024 -3.6966 -2.0015 0.9765
-3.0741 -4.6771 -2.0015 0.9765
-2.1943 -5.1488 -2.0015 0.9765
-1.7264 -5.3240 -2.0015 0.9765
-0.7532 -5.5460 -2.0015 0.9765
-0.2556 -5.5911 -2.0015 0.9765
0.2440 -5.5916 -2.0015 0.9765
0.7417 -5.5475 -2.0015 0.9765
1.2335 -5.4593 -2.0015 0.9765
3.0644 -4.6835 -2.0015 0.9765
3.4699 -4.3915 -2.0015 0.9765
3.8477 -4.0646 -2.0015 0.9765
4.1948 -3.7053 -2.0015 0.9765
4.5085 -3.3164 -2.0015 0.9765
5.0259 -2.4628 -2.0015 0.9765
5.3835 -1.5308 -2.0015 0.9765
5.5967 -0.0512 -2.0015 0.9765
5.5167 0.9439 -2.0015 0.9765
5.4106 1.4321 -2.0015 0.9765
4.8385 2.8132 -2.0015 0.9765
4.5684 3.2334 -2.0015 0.9765
3.5496 4.3273 -2.0015 0.9765
0.8430 5.5330 -2.0015 0.9765
-1.1448 5.4786 -2.0015 0.9765
-2.0998 5.1881 -2.0015 0.9765
-5.4809 1.1336 -2.0015 0.9765
-5.5601 0.6403 -2.0015 0.9765
-5.5854 -0.3576 -2.0015 0.9765
-5.5313 -0.8543 -2.0015 0.9765
-5.2916 -1.8233 -2.0015 0.9765
-4.8835 -2.7343 -2.0015 0.9765
-4.6202 -3.1589 -2.0015 0.9765
-4.3201 -3.5584 -2.0015 0.9765
-3.6193 -4.2692 -2.0015 0.9765
-3.2241 -4.5749 -2.0015 0.9765
-2.3601 -5.0749 -2.0015 0.9765
-0.9326 -5.5186 -2.0015 0.9765
-0.4368 -5.5798 -2.0015 0.9765
1.0558 -5.4964 -2.0015 0.9765
2.0154 -5.2214 -2.0015 0.9765
2.4730 -5.0209 -2.0015 0.9765
3.3256 -4.5017 -2.0015 0.9765
3.7138 -4.1872 -2.0015 0.9765
4.0724 -3.8394 -2.0015 0.9765
4.3986 -3.4609 -2.0015 0.9765
4.6897 -3.0549 -2.0015 0.9765
4.9434 -2.6245 -2.0015 0.9765
5.3310 -1.7046 -2.0015 0.9765
5.4618 -1.2224 -2.0015 0.9765
5.5490 -0.7304 -2.0015 0.9765
5.5921 -0.2326 -2.0015 0.9765
5.5905 0.2670 -2.0015 0.9765
5.5444 0.7645 -2.0015 0.9765
5.4542 1.2558 -2.0015 0.9765
5.3205 1.7372 -2.0015 0.9765
4.6708 3.0836 -2.0015 0.9765
4.3773 3.4878 -2.0015 0.9765
3.6880 4.2099 -2.0015 0.9765
3.2979 4.5221 -2.0015 0.9765
2.8815 4.7981 -2.0015 0.9765
1.9833 5.2337 -2.0015 0.9765
0.5272 5.5720 -2.0015 0.9765
0.0282 5.5968 -2.0015 0.9765
-0.9665 5.5128 -2.0015 0.9765
-1.4543 5.4047 -2.0015 0.9765
-2.3912 5.0604 -2.0015 0.9765
-2.8330 4.8269 -2.0015 0.9765
-3.6454 4.2469 -2.0015 0.9765
-4.0096 3.9049 -2.0015 0.9765
-4.3419 3.5318 -2.0015 0.9765
-5.1218 2.2565 -2.0015 0.9765
-5.3027 1.7908 -2.0015 0.9765
-5.5364 0.8203 -2.0015 0.9765
-5.5875 0.3233 -2.0015 0.9765
-5.5561 -0.6744 -2.0015 0.9765
-5.4738 -1.1672 -2.0015 0.9765
-5.3479 -1.6507 -2.0015 0.9765
-4.7202 -3.0074 -2.0015 0.9765
-3.7558 -4.1496 -2.0015 0.9765
-2.5235 -4.9957 -2.0015 0.9765
-2.0679 -5.2009 -2.0015 0.9765
-1.5959 -5.3645 -2.0015 0.9765
-1.1111 -5.4855 -2.0015 0.9765
-0.6175 -5.5627 -2.0015 0.9765
-0.1190 -5.5956 -2.0015 0.9765
0.3805 -5.5840 -2.0015 0.9765
0.8769 -5.5278 -2.0015 0.9765
1.8450 -5.2841 -2.0015 0.9765
2.7543 -4.8723 -2.0015 0.9765
3.1778 -4.6072 -2.0015 0.9765
3.9458 -3.9694 -2.0015 0.9765
4.2840 -3.6017 -2.0015 0.9765
4.5881 -3.2053 -2.0015 0.9765
5.0846 -2.3393 -2.0015 0.9765
5.4920 1.0783 -2.0015 0.9765
5.2131 2.0368 -2.0015 0.9765
5.0107 2.4936 -2.0015 0.9765
4.7684 2.9305 -2.0015 0.9765
4.1720 3.7309 -2.0015 0.9765
3.8226 4.0881 -2.0015 0.9765
2.6042 4.9541 -2.0015 0.9765
2.1520 5.1666 -2.0015 0.9765
1.1999 5.4668 -2.0015 0.9765
0.2097 5.5930 -2.0015 0.9765
-0.2899 5.5894 -2.0015 0.9765
-0.7872 5.5413 -2.0015 0.9765
-3.5057 4.3629 -2.0015 0.9765
-4.5355 3.2793 -2.0015 0.9765
-4.8099 2.8618 -2.0015 0.9765
-5.0460 2.4215 -2.0015 0.9765
-5.2418 1.9618 -2.0015 0.9765
-5.5069 0.9994 -2.0015 0.9765
-5.5741 0.5044 -2.0015 0.9765
-5.5751 -0.4939 -2.0015 0.9765
-5.5088 -0.9891 -2.0015 0.9765
-5.3986 -1.4764 -2.0015 0.9765
-5.2455 -1.9520 -2.0015 0.9765
-5.0505 -2.4120 -2.0015 0.9765
-4.8153 -2.8527 -2.0015 0.9765
-4.5417 -3.2708 -2.0015 0.9765
-4.2319 -3.6628 -2.0015 0.9765
-3.8884 -4.0256 -2.0015 0.9765
-2.6842 -4.9113 -2.0015 0.9765
-2.2355 -5.1311 -2.0015 0.9765
-1.7690 -5.3100 -2.0015 0.9765
-0.3004 -5.5888 -2.0015 0.9765
0.6972 -5.5533 -2.0015 0.9765
1.6726 -5.3411 -2.0015 0.9765
2.5949 -4.9590 -2.0015 0.9765
3.4345 -4.4192 -2.0015 0.9765
4.1650 -3.7388 -2.0015 0.9765
4.4818 -3.3525 -2.0015 0.9765
5.2093 -2.0466 -2.0015 0.9765
5.5823 0.4034 -2.0015 0.9765
5.4219 1.3887 -2.0015 0.9765
4.8609 2.7743 -2.0015 0.9765
4.5942 3.1967 -2.0015 0.9765
3.9532 3.9620 -2.0015 0.9765
3.5841 4.2987 -2.0015 0.9765
3.1865 4.6012 -2.0015 0.9765
0.8873 5.5261 -2.0015 0.9765
-0.6071 5.5639 -2.0015 0.9765
-2.5141 5.0005 -2.0015 0.9765
-3.3624 4.4743 -2.0015 0.9765
-4.7146 3.0163 -2.0015 0.9765
-4.9648 2.5838 -2.0015 0.9765
-5.1754 2.1308 -2.0015 0.9765
-5.4716 1.1775 -2.0015 0.9765
-5.5938 0.1868 -2.0015 0.9765
-5.5881 -0.3128 -2.0015 0.9765
-5.5380 -0.8099 -2.0015 0.9765
-5.4437 -1.3005 -2.0015 0.9765
-5.3060 -1.7808 -2.0015 0.9765
-5.1261 -2.2469 -2.0015 0.9765
-4.6454 -3.1218 -2.0015 0.9765
-4.3485 -3.5236 -2.0015 0.9765
-4.0169 -3.8974 -2.0015 0.9765
-3.6534 -4.2400 -2.0015 0.9765
-3.2607 -4.5490 -2.0015 0.9765
-2.8420 -4.8216 -2.0015 0.9765
-1.9403 -5.2498 -2.0015 0.9765
-1.4644 -5.4019 -2.0015 0.9765
-0.9768 -5.5110 -2.0015 0.9765
-0.4815 -5.5761 -2.0015 0.9765
0.0177 -5.5969 -2.0015 0.9765
0.5167 -5.5730 -2.0015 0.9765
-3.6515 3.7342 -2.0015 0.9779
-3.9700 3.3937 -2.0015 0.9779
-4.9060 1.7914 -2.0015 0.9779
-5.1462 0.8914 -2.0015 0.9779
-5.2227 -0.0370 -2.0015 0.9779
-5.1986 -0.5026 -2.0015 0.9779
-5.1331 -0.9642 -2.0015 0.9779
-4.8802 -1.8607 -2.0015 0.9779
-4.4720 -2.6980 -2.0015 0.9779
-4.2136 -3.0861 -2.0015 0.9779
-3.9216 -3.4496 -2.0015 0.9779
-2.4680 -4.6030 -2.0015 0.9779
-1.1615 -5.0921 -2.0015 0.9779
-0.2385 -5.2174 -2.0015 0.9779
0.6921 -5.1768 -2.0015 0.9779
1.6008 -4.9715 -2.0015 0.9779
2.0377 -4.8089 -2.0015 0.9779
2.8596 -4.3705 -2.0015 0.9779
3.5905 -3.7929 -2.0015 0.9779
3.9145 -3.4576 -2.0015 0.9779
4.2072 -3.0948 -2.0015 0.9779
4.4664 -2.7073 -2.0015 0.9779
4.6901 -2.2982 -2.0015 0.9779
4.8763 -1.8708 -2.0015 0.9779
5.0237 -1.4285 -2.0015 0.9779
5.1311 -0.9748 -2.0015 0.9779
5.1976 -0.5133 -2.0015 0.9779
5.2061 0.4182 -2.0015 0.9779
5.1480 0.8808 -2.0015 0.9779
4.9097 1.7813 -2.0015 0.9779
4.7313 2.2120 -2.0015 0.9779
4.5152 2.6252 -2.0015 0.9779
3.9770 3.3855 -2.0015 0.9779
3.3123 4.0381 -2.0015 0.9779
2.5423 4.5623 -2.0015 0.9779
1.6914 4.9414 -2.0015 0.9779
0.3231 5.2128 -2.0015 0.9779
-0.1431 5.2209 -2.0015 0.9779
-0.6081 5.1873 -2.0015 0.9779
-1.5199 4.9968 -2.0015 0.9779
-2.3834 4.6473 -2.0015 0.9779
-4.4219 2.7793 -2.0015 0.9779
-4.8453 1.9496 -2.0015 0.9779
-5.1146 1.0579 -2.0015 0.9779
-5.2212 0.1324 -2.0015 0.9779
-5.2122 -0.3337 -2.0015 0.9779
-4.9379 -1.7015 -2.0015 0.9779
-4.7665 -2.1350 -2.0015 0.9779
-4.3114 -2.9478 -2.0015 0.9779
-3.0087 -4.2692 -2.0015 0.9779
-2.6160 -4.5205 -2.0015 0.9779
-2.2024 -4.7358 -2.0015 0.9779
-1.7713 -4.9133 -2.0015 0.9779
-1.3261 -5.0517 -2.0015 0.9779
-0.4076 -5.2069 -2.0015 0.9779
0.0584 -5.2225 -2.0015 0.9779
0.9852 -5.1291 -2.0015 0.9779
1.4387 -5.0208 -2.0015 0.9779
1.8807 -4.8725 -2.0015 0.9779
3.4656 -3.9074 -2.0015 0.9779
3.8003 -3.5828 -2.0015 0.9779
4.3763 -2.8507 -2.0015 0.9779
4.6131 -2.4491 -2.0015 0.9779
4.8131 -2.0279 -2.0015 0.9779
4.9747 -1.5906 -2.0015 0.9779
5.0897 1.1719 -2.0015 0.9779
4.8005 2.0574 -2.0015 0.9779
4.5979 2.4773 -2.0015 0.9779
4.0847 3.2547 -2.0015 0.9779
3.4416 3.9286 -2.0015 0.9779
3.0775 4.2198 -2.0015 0.9779
2.6889 4.4775 -2.0015 0.9779
2.2789 4.6994 -2.0015 0.9779
0.0263 5.2228 -2.0015 0.9779
-1.3571 5.0435 -2.0015 0.9779
-1.8014 4.9023 -2.0015 0.9779
-2.6436 4.5044 -2.0015 0.9779
-4.0517 3.2957 -2.0015 0.9779
-4.9483 1.6711 -2.0015 0.9779
-5.1664 0.7655 -2.0015 0.9779
-5.2141 0.3017 -2.0015 0.9779
-5.2203 -0.1645 -2.0015 0.9779
-5.1848 -0.6294 -2.0015 0.9779
-5.1080 -1.0892 -2.0015 0.9779
-4.9905 -1.5404 -2.0015 0.9779
-4.8333 -1.9793 -2.0015 0.9779
-4.6375 -2.4024 -2.0015 0.9779
-4.4048 -2.8064 -2.0015 0.9779
-4.1369 -3.1881 -2.0015 0.9779
-2.7612 -4.4333 -2.0015 0.9779
-2.3548 -4.6619 -2.0015 0.9779
-1.4892 -5.0060 -2.0015 0.9779
-1.0369 -5.1189 -2.0015 0.9779
-0.5763 -5.1910 -2.0015 0.9779
0.3551 -5.2108 -2.0015 0.9779
2.9655 -4.2993 -2.0015 0.9779
3.9977 -3.3610 -2.0015 0.9779
4.9205 -1.7512 -2.0015 0.9779
5.2085 -0.3862 -2.0015 0.9779
5.1943 0.5452 -2.0015 0.9779
4.8647 1.9006 -2.0015 0.9779
4.4497 2.7346 -2.0015 0.9779
3.8932 3.4816 -2.0015 0.9779
3.2127 4.1178 -2.0015 0.9779
2.8327 4.3879 -2.0015 0.9779
1.1198 5.1014 -2.0015 0.9779
0.6604 5.1809 -2.0015 0.9779
-0.2705 5.2158 -2.0015 0.9779
-0.7346 5.1709 -2.0015 0.9779
-1.1928 5.0848 -2.0015 0.9779
-1.6415 4.9582 -2.0015 0.9779
-2.0771 4.7921 -2.0015 0.9779
-2.4962 4.5877 -2.0015 0.9779
-2.8953 4.3469 -2.0015 0.9779
-3.2715 4.0713 -2.0015 0.9779
-3.6215 3.7634 -2.0015 0.9779
-4.2324 3.0602 -2.0015 0.9779
-4.8915 1.8307 -2.0015 0.9779
-5.1389 0.9326 -2.0015 0.9779
-5.2016 0.4706 -2.0015 0.9779
-5.1406 -0.9230 -2.0015 0.9779
-4.4935 -2.6621 -2.0015 0.9779
-4.2382 -3.0522 -2.0015 0.9779
-3.9491 -3.4180 -2.0015 0.9779
-3.2791 -4.0652 -2.0015 0.9779
-2.9035 -4.3414 -2.0015 0.9779
-2.5048 -4.5830 -2.0015 0.9779
-1.6508 -4.9551 -2.0015 0.9779
-0.7443 -5.1695 -2.0015 0.9779
0.1859 -5.2195 -2.0015 0.9779
1.1102 -5.1035 -2.0015 0.9779
2.4214 -4.6276 -2.0015 0.9779
2.8245 -4.3932 -2.0015 0.9779
3.2050 -4.1239 -2.0015 0.9779
3.5600 -3.8216 -2.0015 0.9779
5.0121 -1.4687 -2.0015 0.9779
5.1549 0.8395 -2.0015 0.9779
5.0595 1.2959 -2.0015 0.9779
4.7489 2.1740 -2.0015 0.9779
4.5361 2.5889 -2.0015 0.9779
4.2871 2.9831 -2.0015 0.9779
3.3446 4.0115 -2.0015 0.9779
2.9735 4.2937 -2.0015 0.9779
2.5788 4.5418 -2.0015 0.9779
2.1635 4.7537 -2.0015 0.9779
1.7309 4.9277 -2.0015 0.9779
0.3649 5.2101 -2.0015 0.9779
-0.1012 5.2219 -2.0015 0.9779
-1.0272 5.1208 -2.0015 0.9779
-1.4798 5.0088 -2.0015 0.9779
-1.9206 4.8569 -2.0015 0.9779
-3.8295 3.5515 -2.0015 0.9779
-4.1310 3.1958 -2.0015 0.9779
-4.8295 1.9884 -2.0015 0.9779
-4.9876 1.5498 -2.0015 0.9779
-5.1836 0.6391 -2.0015 0.9779
-5.2199 0.1743 -2.0015 0.9779
-5.2147 -0.2919 -2.0015 0.9779
-5.1679 -0.7558 -2.0015 0.9779
-4.7835 -2.0967 -2.0015 0.9779
-2.6521 -4.4994 -2.0015 0.9779
-0.9116 -5.1427 -2.0015 0.9779
0.4822 -5.2005 -2.0015 0.9779
-3.4191 3.4965 -2.0015 0.9791
-3.9858 2.8335 -2.0015 0.9791
-4.4258 2.0803 -2.0015 0.9791
-4.5937 1.6774 -2.0015 0.9791
-4.7249 1.2610 -2.0015 0.9791
-1.9566 0.1612 -0.8035 0.9916
-1.9052 -0.0135 -0.7798 0.9918
-2.2003 -0.4133 -0.9163 0.9904
-4.5695 -1.7422 -2.0015 0.9791
-3.3692 -3.5445 -2.0015 0.9791
-1.9173 -4.4988 -2.0015 0.9791
-1.5084 -4.6519 -2.0015 0.9791
0.6481 -4.8472 -2.0015 0.9791
1.0778 -4.7701 -2.0015 0.9791
2.6775 -4.0922 -2.0015 0.9791
4.3915 -2.1519 -2.0015 0.9791
4.5658 -1.7517 -2.0015 0.9791
4.8044 -0.9127 -2.0015 0.9791
4.8901 -0.0447 -2.0015 0.9791
4.8746 0.3916 -2.0015 0.9791
4.7275 1.2513 -2.0015 0.9791
4.5971 1.6679 -2.0015 0.9791
4.4301 2.0712 -2.0015 0.9791
4.2277 2.4580 -2.0015 0.9791
3.9917 2.8252 -2.0015 0.9791
3.7238 3.1700 -2.0015 0.9791
3.4263 3.4894 -2.0015 0.9791
3.1015 3.7810 -2.0015 0.9791
2.3804 4.2719 -2.0015 0.9791
1.9900 4.4671 -2.0015 0.9791
1.5837 4.6268 -2.0015 0.9791
0.3025 4.8810 -2.0015 0.9791
-0.1340 4.8885 -2.0015 0.9791
-0.5694 4.8571 -2.0015 0.9791
-1.0002 4.7869 -2.0015 0.9791
-1.8347 4.5331 -2.0015 0.9791
-2.2317 4.3514 -2.0015 0.9791
-2.9692 3.8858 -2.0015 0.9791
-3.3039 3.6055 -2.0015 0.9791
-3.8918 2.9613 -2.0015 0.9791
-4.1404 2.6024 -2.0015 0.9791
-4.3560 2.2228 -2.0015 0.9791
-4.7890 0.9905 -2.0015 0.9791
-1.9555 0.2252 -0.8056 0.9915
-4.7472 -1.1745 -2.0015 0.9791
-4.6235 -1.5931 -2.0015 0.9791
-4.2670 -2.3891 -2.0015 0.9791
-4.0369 -2.7601 -2.0015 0.9791
-3.7747 -3.1091 -2.0015 0.9791
-3.1624 -3.7303 -2.0015 0.9791
-1.2417 -4.7301 -2.0015 0.9791
-0.3816 -4.8754 -2.0015 0.9791
0.0547 -4.8900 -2.0015 0.9791
0.4905 -4.8657 -2.0015 0.9791
0.9225 -4.8025 -2.0015 0.9791
1.3471 -4.7011 -2.0015 0.9791
3.2450 -3.6586 -2.0015 0.9791
3.5583 -3.3547 -2.0015 0.9791
3.8433 -3.0240 -2.0015 0.9791
4.7723 -1.0680 -2.0015 0.9791
4.8848 0.2333 -2.0015 0.9791
4.8445 0.6679 -2.0015 0.9791
4.4949 1.9264 -2.0015 0.9791
3.5377 3.3764 -2.0015 0.9791
2.8816 3.9512 -2.0015 0.9791
2.5177 4.1924 -2.0015 0.9791
1.3182 4.7093 -2.0015 0.9791
0.8930 4.8081 -2.0015 0.9791
0.4607 4.8686 -2.0015 0.9791
0.0246 4.8903 -2.0015 0.9791
-0.8445 4.8169 -2.0015 0.9791
-1.6867 4.5902 -2.0015 0.9791
-2.0894 4.4215 -2.0015 0.9791
-3.1852 3.7108 -2.0015 0.9791
-3.7937 3.0859 -2.0015 0.9791
-4.0538 2.7353 -2.0015 0.9791
-4.2816 2.3629 -2.0015 0.9791
-4.4752 1.9717 -2.0015 0.9791
-1.9451 0.2882 -0.8048 0.9915
-1.9456 0.1126 -0.7976 0.9916
-4.6728 -1.4423 -2.0015 0.9791
-4.5256 -1.8533 -2.0015 0.9791
-4.1243 -2.6278 -2.0015 0.9791
-3.5919 -3.3186 -2.0015 0.9791
-3.2817 -3.6257 -2.0015 0.9791
-1.8069 -4.5443 -2.0015 0.9791
-1.3944 -4.6873 -2.0015 0.9791
-0.9708 -4.7930 -2.0015 0.9791
0.3325 -4.8790 -2.0015 0.9791
2.0174 -4.4548 -2.0015 0.9791
2.7767 -4.0256 -2.0015 0.9791
4.6073 -1.6397 -2.0015 0.9791
4.8253 -0.7951 -2.0015 0.9791
4.8769 -0.3616 -2.0015 0.9791
4.8636 0.5105 -2.0015 0.9791
4.7987 0.9422 -2.0015 0.9791
4.5550 1.7796 -2.0015 0.9791
4.1664 2.5605 -2.0015 0.9791
3.9215 2.9219 -2.0015 0.9791
3.6453 3.2599 -2.0015 0.9791
3.3401 3.5720 -2.0015 0.9791
3.0082 3.8557 -2.0015 0.9791
1.0485 4.7766 -2.0015 0.9791
0.6183 4.8511 -2.0015 0.9791
-1.5370 4.6425 -2.0015 0.9791
-1.9449 4.4870 -2.0015 0.9791
-2.3372 4.2957 -2.0015 0.9791
-2.7110 4.0701 -2.0015 0.9791
-3.0632 3.8121 -2.0015 0.9791
-3.3909 3.5238 -2.0015 0.9791
-4.2027 2.5005 -2.0015 0.9791
-4.4090 2.1158 -2.0015 0.9791
-4.5801 1.7142 -2.0015 0.9791
-4.7147 1.2989 -2.0015 0.9791
-2.1746 0.3947 -0.9046 0.9905
-1.9579 0.1772 -0.8046 0.9915
-1.9578 -0.1734 -0.8044 0.9915
-4.7171 -1.2900 -2.0015 0.9791
-3.0703 -3.8064 -2.0015 0.9791
-0.6969 -4.8404 -2.0015 0.9791
-0.2625 -4.8833 -2.0015 0.9791
0.1741 -4.8872 -2.0015 0.9791
1.0395 -4.7786 -2.0015 0.9791
1.8718 -4.5179 -2.0015 0.9791
2.2673 -4.3330 -2.0015 0.9791
2.6446 -4.1135 -2.0015 0.9791
3.0010 -3.8613 -2.0015 0.9791
3.3333 -3.5783 -2.0015 0.9791
3.6392 -3.2668 -2.0015 0.9791
3.9160 -2.9292 -2.0015 0.9791
4.1616 -2.5683 -2.0015 0.9791
4.3741 -2.1870 -2.0015 0.9791
4.6930 -1.3752 -2.0015 0.9791
4.8626 -0.5196 -2.0015 0.9791
4.8896 -0.0839 -2.0015 0.9791
4.7374 1.2134 -2.0015 0.9791
4.6103 1.6310 -2.0015 0.9791
4.4465 2.0356 -2.0015 0.9791
4.2473 2.4241 -2.0015 0.9791
3.7491 3.1400 -2.0015 0.9791
2.7842 4.0204 -2.0015 0.9791
2.4146 4.2527 -2.0015 0.9791
1.6207 4.6140 -2.0015 0.9791
1.2028 4.7401 -2.0015 0.9791
-0.5304 4.8615 -2.0015 0.9791
-1.3856 4.6899 -2.0015 0.9791
-2.1967 4.3692 -2.0015 0.9791
-2.5776 4.1559 -2.0015 0.9791
-2.9379 3.9095 -2.0015 0.9791
-3.8680 2.9924 -2.0015 0.9791
-4.1194 2.6355 -2.0015 0.9791
-1.9534 0.2408 -0.8055 0.9915
-1.9445 -0.1088 -0.7971 0.9916
-4.7565 -1.1364 -2.0015 0.9791
-4.6362 -1.5560 -2.0015 0.9791
-4.4789 -1.9632 -2.0015 0.9791
-4.2860 -2.3548 -2.0015 0.9791
-3.1922 -3.7048 -2.0015 0.9791
-2.4833 -4.2129 -2.0015 0.9791
-2.0977 -4.4176 -2.0015 0.9791
-1.6954 -4.5871 -2.0015 0.9791
0.0155 -4.8903 -2.0015 0.9791
-3.2108 3.2835 -2.0015 0.9802
-1.5968 0.5831 -0.7408 0.9926
-1.5035 0.2604 -0.6650 0.9934
-1.4968 -0.2811 -0.6637 0.9934
-1.5646 -0.4414 -0.7085 0.9929
-4.2912 -1.6361 -2.0015 0.9802
-3.7050 -2.7136 -2.0015 0.9802
-2.8546 -3.5976 -2.0015 0.9802
-1.4166 -4.3686 -2.0015 0.9802
0.2002 -4.5881 -2.0015 0.9802
1.4076 -4.3715 -2.0015 0.9802
1.7918 -4.2285 -2.0015 0.9802
2.5145 -3.8430 -2.0015 0.9802
2.8472 -3.6034 -2.0015 0.9802
3.1572 -3.3352 -2.0015 0.9802
3.4420 -3.0403 -2.0015 0.9802
3.6994 -2.7213 -2.0015 0.9802
4.1240 -2.0208 -2.0015 0.9802
4.2878 -1.6450 -2.0015 0.9802
4.1603 1.9451 -2.0015 0.9802
3.9702 2.3083 -2.0015 0.9802
3.4970 2.9769 -2.0015 0.9802
3.2176 3.2769 -2.0015 0.9802
2.5843 3.7964 -2.0015 0.9802
2.2355 4.0117 -2.0015 0.9802
1.0938 4.4603 -2.0015 0.9802
0.6917 4.5401 -2.0015 0.9802
0.2841 4.5837 -2.0015 0.9802
-0.5347 4.5613 -2.0015 0.9802
-3.1027 3.3859 -2.0015 0.9802
-3.6548 2.7809 -2.0015 0.9802
-3.8882 2.4439 -2.0015 0.9802
-4.2605 1.7143 -2.0015 0.9802
-1.5127 0.3129 -0.6732 0.9933
-1.5233 0.1754 -0.6683 0.9933
-1.5271 0.0387 -0.6658 0.9934
-1.5113 -0.2334 -0.6665 0.9933
-4.1912 -1.8773 -2.0015 0.9802
-4.0071 -2.2436 -2.0015 0.9802
-3.2703 -3.2243 -2.0015 0.9802
-2.9698 -3.5031 -2.0015 0.9802
-2.3002 -3.9749 -2.0015 0.9802
-1.9366 -4.1642 -2.0015 0.9802
-1.5575 -4.3203 -2.0015 0.9802
-0.7653 -4.5283 -2.0015 0.9802
-0.3584 -4.5785 -2.0015 0.9802
0.0513 -4.5922 -2.0015 0.9802
0.4607 -4.5693 -2.0015 0.9802
0.8663 -4.5101 -2.0015 0.9802
1.6537 -4.2844 -2.0015 0.9802
2.3885 -3.9225 -2.0015 0.9802
2.7288 -3.6939 -2.0015 0.9802
3.0473 -3.4358 -2.0015 0.9802
3.3416 -3.1504 -2.0015 0.9802
4.2322 -1.7832 -2.0015 0.9802
4.3743 -1.3987 -2.0015 0.9802
4.4816 -1.0030 -2.0015 0.9802
4.5532 -0.5993 -2.0015 0.9802
4.5885 -0.1909 -2.0015 0.9802
4.5495 0.6273 -2.0015 0.9802
4.4754 1.0305 -2.0015 0.9802
4.3657 1.4255 -2.0015 0.9802
4.0430 2.1783 -2.0015 0.9802
3.5917 2.8619 -2.0015 0.9802
1.6274 4.2945 -2.0015 0.9802
1.2379 4.4225 -2.0015 0.9802
0.8386 4.5153 -2.0015 0.9802
-0.3865 4.5762 -2.0015 0.9802
-0.7930 4.5235 -2.0015 0.9802
-1.1933 4.4348 -2.0015 0.9802
-1.5840 4.3107 -2.0015 0.9802
-2.3246 3.9607 -2.0015 0.9802
-2.6685 3.7376 -2.0015 0.9802
-2.9912 3.4848 -2.0015 0.9802
-3.5627 2.8980 -2.0015 0.9802
-3.8069 2.5687 -2.0015 0.9802
-4.2027 1.8516 -2.0015 0.9802
-1.5892 0.5367 -0.7310 0.9927
-1.5388 0.3707 -0.6898 0.9931
-1.5136 0.2243 -0.6669 0.9933
-1.5296 0.0885 -0.6677 0.9933
-1.5218 -0.1847 -0.6681 0.9933
-1.5778 -0.4870 -0.7197 0.9928
-4.2499 -1.7404 -2.0015 0.9802
-4.0778 -2.1125 -2.0015 0.9802
-3.8732 -2.4677 -2.0015 0.9802
-3.3732 -3.1165 -2.0015 0.9802
-3.0818 -3.4049 -2.0015 0.9802
-2.4279 -3.8982 -2.0015 0.9802
-2.0706 -4.0992 -2.0015 0.9802
-1.6968 -4.2675 -2.0015 0.9802
-0.9117 -4.5011 -2.0015 0.9802
-0.5067 -4.5645 -2.0015 0.9802
-0.0976 -4.5915 -2.0015 0.9802
0.7196 -4.5358 -2.0015 0.9802
1.5139 -4.3358 -2.0015 0.9802
1.8945 -4.1835 -2.0015 0.9802
2.2600 -3.9979 -2.0015 0.9802
2.6076 -3.7804 -2.0015 0.9802
3.2377 -3.2571 -2.0015 0.9802
3.5152 -2.9554 -2.0015 0.9802
4.1721 -1.9195 -2.0015 0.9802
4.3267 -1.5398 -2.0015 0.9802
4.4468 -1.1478 -2.0015 0.9802
4.5920 0.0702 -2.0015 0.9802
4.1115 2.0461 -2.0015 0.9802
3.4233 3.0614 -2.0015 0.9802
3.1367 3.3545 -2.0015 0.9802
2.8250 3.6208 -2.0015 0.9802
2.4908 3.8583 -2.0015 0.9802
1.7658 4.2395 -2.0015 0.9802
0.1721 4.5893 -2.0015 0.9802
-0.2379 4.5863 -2.0015 0.9802
-1.0488 4.4711 -2.0015 0.9802
-1.8264 4.2137 -2.0015 0.9802
-2.1949 4.0340 -2.0015 0.9802
-2.8766 3.5800 -2.0015 0.9802
-3.1844 3.3092 -2.0015 0.9802
-3.7216 2.6908 -2.0015 0.9802
-3.9468 2.3482 -2.0015 0.9802
-1.5608 0.4300 -0.7056 0.9930
-1.4996 0.2722 -0.6642 0.9934
-1.5279 -0.1354 -0.6685 0.9933
-1.5982 -0.5947 -0.7432 0.9926
-4.1442 -1.9791 -2.0015 0.9802
-3.4725 -3.0055 -2.0015 0.9802
-3.1906 -3.3032 -2.0015 0.9802
-2.5531 -3.8174 -2.0015 0.9802
-2.2025 -4.0299 -2.0015 0.9802
-1.0572 -4.4692 -2.0015 0.9802
0.5721 -4.5567 -2.0015 0.9802
0.9762 -4.4876 -2.0015 0.9802
1.3725 -4.3826 -2.0015 0.9802
1.7578 -4.2428 -2.0015 0.9802
2.1292 -4.0691 -2.0015 0.9802
2.4836 -3.8630 -2.0015 0.9802
2.8182 -3.6261 -2.0015 0.9802
3.4175 -3.0678 -2.0015 0.9802
3.9082 -2.4119 -2.0015 0.9802
4.2745 -1.6793 -2.0015 0.9802
4.5918 -0.0788 -2.0015 0.9802
4.4489 1.1395 -2.0015 0.9802
4.1757 1.9117 -2.0015 0.9802
3.9886 2.2764 -2.0015 0.9802
3.2438 3.2510 -2.0015 0.9802
2.9409 3.5273 -2.0015 0.9802
2.2676 3.9937 -2.0015 0.9802
1.5220 4.3329 -2.0015 0.9802
1.1296 4.4514 -2.0015 0.9802
0.3208 4.5813 -2.0015 0.9802
-0.9033 4.5028 -2.0015 0.9802
-1.3012 4.4043 -2.0015 0.9802
-1.6888 4.2707 -2.0015 0.9802
-2.7590 3.6714 -2.0015 0.9802
-3.0754 3.4107 -2.0015 0.9802
-3.6324 2.8101 -2.0015 0.9802
-4.2467 1.7484 -2.0015 0.9802
-1.5788 0.4906 -0.7205 0.9928
-1.5196 0.3270 -0.6774 0.9932
-1.5213 0.1876 -0.6680 0.9933
-1.5281 0.0510 -0.6664 0.9934
-1.5296 -0.0856 -0.6677 0.9933
-1.5143 -0.2215 -0.6670 0.9933
-1.5374 -0.3673 -0.6889 0.9931
-4.2062 -1.8437 -2.0015 0.9802
-3.2961 -3.1980 -2.0015 0.9802
-2.9978 -3.4792 -2.0015 0.9802
-2.3320 -3.9564 -2.0015 0.9802
-1.9699 -4.1486 -2.0015 0.9802
-1.2016 -4.4325 -2.0015 0.9802
-0.8015 -4.5220 -2.0015 0.9802
-3.9132 1.8394 -2.0015 0.9811
-1.3330 0.4867 -0.6569 0.9938
-1.3158 0.3512 -0.6304 0.9940
-1.3185 0.2284 -0.6194 0.9941
-1.3344 -0.0094 -0.6177 0.9941
-1.3367 -0.1292 -0.6216 0.9941
-1.3133 -0.2467 -0.6185 0.9941
-1.3208 -0.3726 -0.6352 0.9940
-1.3316 -0.5077 -0.6596 0.9937
-3.4884 -2.5549 -2.0015 0.9811
-3.2466 -2.8558 -2.0015 0.9811
-2.9790 -3.1340 -2.0015 0.9811
-2.3749 -3.6134 -2.0015 0.9811
-2.0432 -3.8108 -2.0015 0.9811
-0.9616 -4.2157 -2.0015 0.9811
-0.1974 -4.3194 -2.0015 0.9811
1.3253 -4.1158 -2.0015 0.9811
1.6870 -3.9813 -2.0015 0.9811
2.3675 -3.6183 -2.0015 0.9811
2.9726 -3.1401 -2.0015 0.9811
3.4831 -2.5621 -2.0015 0.9811
4.3030 -0.4250 -2.0015 0.9811
4.3238 -0.0395 -2.0015 0.9811
4.3101 0.3462 -2.0015 0.9811
4.2620 0.7292 -2.0015 0.9811
4.1800 1.1064 -2.0015 0.9811
3.9170 1.8313 -2.0015 0.9811
3.7381 2.1733 -2.0015 0.9811
3.5294 2.4980 -2.0015 0.9811
3.2925 2.8028 -2.0015 0.9811
2.7423 3.3431 -2.0015 0.9811
1.4003 4.0909 -2.0015 0.9811
1.0299 4.1995 -2.0015 0.9811
-0.5034 4.2945 -2.0015 0.9811
-0.8844 4.2325 -2.0015 0.9811
-2.3084 3.6562 -2.0015 0.9811
-2.6253 3.4357 -2.0015 0.9811
-2.9212 3.1879 -2.0015 0.9811
-3.1939 2.9147 -2.0015 0.9811
-3.4411 2.6183 -2.0015 0.9811
-1.3285 0.5346 -0.6629 0.9937
-1.3058 0.2701 -0.6172 0.9941
-1.3337 0.1536 -0.6214 0.9941
-1.3385 -0.0857 -0.6209 0.9941
-1.3243 -0.2045 -0.6203 0.9941
-1.3086 -0.3237 -0.6240 0.9941
-1.3336 -0.4595 -0.6529 0.9938
-3.7728 -2.1124 -2.0015 0.9811
-3.3375 -2.7491 -2.0015 0.9811
-3.0791 -3.0357 -2.0015 0.9811
-2.7961 -3.2982 -2.0015 0.9811
-2.4908 -3.5344 -2.0015 0.9811
-2.1657 -3.7425 -2.0015 0.9811
-1.8233 -3.9207 -2.0015 0.9811
-0.7205 -4.2635 -2.0015 0.9811
-0.3374 -4.3108 -2.0015 0.9811
0.0483 -4.3237 -2.0015 0.9811
2.5692 -3.4779 -2.0015 0.9811
3.1462 -2.9661 -2.0015 0.9811
3.3982 -2.6737 -2.0015 0.9811
3.6231 -2.3601 -2.0015 0.9811
3.9847 -1.6789 -2.0015 0.9811
4.1185 -1.3169 -2.0015 0.9811
4.2196 -0.9443 -2.0015 0.9811
4.2870 -0.5643 -2.0015 0.9811
4.2137 0.9702 -2.0015 0.9811
4.1104 1.3421 -2.0015 0.9811
3.9743 1.7033 -2.0015 0.9811
3.6085 2.3823 -2.0015 0.9811
3.1279 2.9854 -2.0015 0.9811
1.8867 3.8906 -2.0015 0.9811
1.5322 4.0434 -2.0015 0.9811
0.0218 4.3239 -2.0015 0.9811
-0.3639 4.3086 -2.0015 0.9811
-2.1887 3.7291 -2.0015 0.9811
-2.8163 3.2810 -2.0015 0.9811
-1.3325 -0.1617 -0.6213 0.9941
-1.3278 -0.4098 -0.6432 0.9939
-1.3272 -0.5435 -0.6639 0.9937
-3.8394 -1.9890 -2.0015 0.9811
-3.6467 -2.3234 -2.0015 0.9811
-3.1759 -2.9343 -2.0015 0.9811
-2.6042 -3.4518 -2.0015 0.9811
-2.2859 -3.6703 -2.0015 0.9811
-0.0919 -4.3230 -2.0015 0.9811
1.0556 -4.1931 -2.0015 0.9811
1.4254 -4.0823 -2.0015 0.9811
3.3097 -2.7826 -2.0015 0.9811
3.5446 -2.4763 -2.0015 0.9811
3.7513 -2.1504 -2.0015 0.9811
4.1867 -1.0807 -2.0015 0.9811
4.2429 0.8331 -2.0015 0.9811
4.0275 1.5735 -2.0015 0.9811
3.8711 1.9264 -2.0015 0.9811
3.6839 2.2640 -2.0015 0.9811
2.9532 3.1583 -2.0015 0.9811
0.5467 4.2893 -2.0015 0.9811
0.1620 4.3209 -2.0015 0.9811
-0.2240 4.3181 -2.0015 0.9811
-0.6081 4.2810 -2.0015 0.9811
-0.9875 4.2097 -2.0015 0.9811
-1.7196 3.9673 -2.0015 0.9811
-2.0665 3.7981 -2.0015 0.9811
-2.3970 3.5987 -2.0015 0.9811
-2.9982 3.1157 -2.0015 0.9811
-3.5040 2.5335 -2.0015 0.9811
-3.7160 2.2109 -2.0015 0.9811
-3.8983 1.8707 -2.0015 0.9811
-1.3323 0.4986 -0.6585 0.9937
-1.3187 0.3633 -0.6331 0.9940
-1.3156 0.2388 -0.6189 0.9941
-1.3374 0.1210 -0.6216 0.9941
-1.3181 -0.3605 -0.6325 0.9940
-1.3325 -0.4958 -0.6581 0.9938
-3.9018 -1.8634 -2.0015 0.9811
-3.5087 -2.5269 -2.0015 0.9811
-3.2694 -2.8297 -2.0015 0.9811
-3.0040 -3.1100 -2.0015 0.9811
-2.4038 -3.5942 -2.0015 0.9811
-2.0737 -3.7943 -2.0015 0.9811
-1.3667 -4.1023 -2.0015 0.9811
-0.9954 -4.2078 -2.0015 0.9811
-0.6162 -4.2798 -2.0015 0.9811
-0.2321 -4.3177 -2.0015 0.9811
0.1539 -4.3212 -2.0015 0.9811
0.5386 -4.2903 -2.0015 0.9811
0.9191 -4.2251 -2.0015 0.9811
1.2922 -4.1263 -2.0015 0.9811
1.6550 -3.9947 -2.0015 0.9811
2.6534 -3.4141 -2.0015 0.9811
3.6796 -2.2709 -2.0015 0.9811
4.2414 -0.8410 -2.0015 0.9811
4.2995 -0.4594 -2.0015 0.9811
4.3127 0.3117 -2.0015 0.9811
4.2677 0.6950 -2.0015 0.9811
4.0764 1.4421 -2.0015 0.9811
3.9315 1.7999 -2.0015 0.9811
3.7554 2.1433 -2.0015 0.9811
3.3149 2.7763 -2.0015 0.9811
2.1350 3.7601 -2.0015 0.9811
1.4330 4.0796 -2.0015 0.9811
-0.0838 4.3231 -2.0015 0.9811
-0.4690 4.2984 -2.0015 0.9811
-1.5900 4.0210 -2.0015 0.9811
-2.2791 3.6746 -2.0015 0.9811
-2.5977 3.4567 -2.0015 0.9811
-2.8956 3.2113 -2.0015 0.9811
-3.1704 2.9402 -2.0015 0.9811
-3.6423 2.3303 -2.0015 0.9811
-3.8356 1.9962 -2.0015 0.9811
-1.3268 0.5463 -0.6642 0.9937
-1.3023 0.2803 -0.6166 0.9941
-1.3385 -0.0749 -0.6205 0.9941
-1.3328 -0.4473 -0.6508 0.9938
-1.3205 -0.5788 -0.6674 0.9937
-3.7896 -2.0821 -2.0015 0.9811
-3.5889 -2.4118 -2.0015 0.9811
-3.3595 -2.7222 -2.0015 0.9811
-2.5191 -3.5143 -2.0015 0.9811
-2.1957 -3.7250 -2.0015 0.9811
-1.8547 -3.9060 -2.0015 0.9811
-0.7547 -4.2576 -2.0015 0.9811
0.0137 -4.3239 -2.0015 0.9811
0.3992 -4.3055 -2.0015 0.9811
-3.3256 2.3642 -2.0015 0.9820
-1.1369 0.5344 -0.6162 0.9944
-1.1807 0.2045 -0.5878 0.9947
-1.1946 0.0984 -0.5880 0.9947
-1.1958 -0.0085 -0.5866 0.9947
-1.1589 -0.3269 -0.5906 0.9946
-1.1533 -0.4397 -0.6055 0.9945
-3.4937 -2.1078 -2.0015 0.9820
-3.2918 -2.4110 -2.0015 0.9820
-3.0637 -2.6949 -2.0015 0.9820
-1.9281 -3.5960 -2.0015 0.9820
-1.5997 -3.7537 -2.0015 0.9820
-0.9075 -3.9781 -2.0015 0.9820
-0.5491 -4.0432 -2.0015 0.9820
0.1779 -4.0764 -2.0015 0.9820
0.5407 -4.0443 -2.0015 0.9820
0.8992 -3.9800 -2.0015 0.9820
1.5920 -3.7569 -2.0015 0.9820
1.9207 -3.6000 -2.0015 0.9820
2.2341 -3.4144 -2.0015 0.9820
2.5296 -3.2016 -2.0015 0.9820
3.0581 -2.7013 -2.0015 0.9820
3.4894 -2.1150 -2.0015 0.9820
3.6641 -1.7954 -2.0015 0.9820
4.0086 -0.7615 -2.0015 0.9820
4.0606 -0.4010 -2.0015 0.9820
4.0802 -0.0373 -2.0015 0.9820
4.0672 0.3267 -2.0015 0.9820
4.0219 0.6881 -2.0015 0.9820
3.9445 1.0440 -2.0015 0.9820
3.8357 1.3916 -2.0015 0.9820
3.1070 2.6449 -2.0015 0.9820
2.8588 2.9114 -2.0015 0.9820
2.5877 3.1548 -2.0015 0.9820
0.2524 4.0725 -2.0015 0.9820
-0.4751 4.0526 -2.0015 0.9820
-1.1874 3.9037 -2.0015 0.9820
-2.1784 3.4502 -2.0015 0.9820
-2.7566 3.0083 -2.0015 0.9820
-3.0139 2.7505 -2.0015 0.9820
-1.1264 0.5748 -0.6203 0.9944
-1.1911 0.1372 -0.5881 0.9947
-1.1964 0.0303 -0.5870 0.9947
-1.1957 -0.0766 -0.5877 0.9947
-1.1847 -0.1830 -0.5880 0.9947
-3.1495 -2.5942 -2.0015 0.9820
-2.9056 -2.8647 -2.0015 0.9820
-2.6386 -3.1124 -2.0015 0.9820
-2.0437 -3.5316 -2.0015 0.9820
-1.7206 -3.6998 -2.0015 0.9820
-1.3838 -3.8385 -2.0015 0.9820
-1.0360 -3.9466 -2.0015 0.9820
-0.6799 -4.0233 -2.0015 0.9820
1.1240 -3.9225 -2.0015 0.9820
2.4245 -3.2819 -2.0015 0.9820
2.7075 -3.0526 -2.0015 0.9820
3.4189 -2.2271 -2.0015 0.9820
4.0454 -0.5325 -2.0015 0.9820
4.0421 0.5573 -2.0015 0.9820
3.9763 0.9156 -2.0015 0.9820
3.8788 1.2665 -2.0015 0.9820
3.7504 1.6074 -2.0015 0.9820
3.5921 1.9354 -2.0015 0.9820
3.1912 2.5427 -2.0015 0.9820
2.9517 2.8172 -2.0015 0.9820
2.6887 3.0692 -2.0015 0.9820
2.4043 3.2967 -2.0015 0.9820
2.1007 3.4980 -2.0015 0.9820
1.7804 3.6714 -2.0015 0.9820
1.0999 3.9293 -2.0015 0.9820
0.7451 4.0117 -2.0015 0.9820
-0.3434 4.0658 -2.0015 0.9820
-0.7046 4.0190 -2.0015 0.9820
-1.0602 3.9402 -2.0015 0.9820
-1.4073 3.8299 -2.0015 0.9820
-2.3709 3.3208 -2.0015 0.9820
-2.6576 3.0961 -2.0015 0.9820
-3.1654 2.5748 -2.0015 0.9820
-1.1086 0.6118 -0.6211 0.9944
-1.1435 0.5038 -0.6129 0.9944
-1.1623 0.2800 -0.5865 0.9947
-1.1859 0.1757 -0.5880 0.9947
-1.1902 -0.1445 -0.5881 0.9947
-1.1707 -0.2496 -0.5872 0.9947
-1.1588 -0.3577 -0.5949 0.9946
-1.1492 -0.4706 -0.6092 0.9945
-1.1236 -0.5821 -0.6207 0.9944
-3.2320 -2.4906 -2.0015 0.9820
-2.9970 -2.7689 -2.0015 0.9820
-2.7381 -3.0252 -2.0015 0.9820
-2.4574 -3.2573 -2.0015 0.9820
-1.1634 -3.9109 -2.0015 0.9820
-0.4502 -4.0554 -2.0015 0.9820
-0.0867 -4.0794 -2.0015 0.9820
0.2774 -4.0709 -2.0015 0.9820
0.9962 -3.9569 -2.0015 0.9820
1.6832 -3.7169 -2.0015 0.9820
2.0080 -3.5520 -2.0015 0.9820
2.6071 -3.1388 -2.0015 0.9820
3.3449 -2.3368 -2.0015 0.9820
3.5400 -2.0292 -2.0015 0.9820
3.9508 -1.0198 -2.0015 0.9820
4.0691 -0.3017 -2.0015 0.9820
4.0580 0.4259 -2.0015 0.9820
4.0039 0.7861 -2.0015 0.9820
3.9178 1.1400 -2.0015 0.9820
3.2719 2.4379 -2.0015 0.9820
2.5099 3.2170 -2.0015 0.9820
1.8985 3.6117 -2.0015 0.9820
0.8748 3.9854 -2.0015 0.9820
-1.9501 3.5841 -2.0015 0.9820
-2.5558 3.1807 -2.0015 0.9820
-2.8293 2.9401 -2.0015 0.9820
-3.0802 2.6761 -2.0015 0.9820
-1.1345 0.5444 -0.6173 0.9944
-1.1789 0.2139 -0.5877 0.9947
-1.1955 0.0011 -0.5864 0.9947
-1.1793 -0.2117 -0.5877 0.9947
-1.1351 -0.5421 -0.6170 0.9944
-3.3110 -2.3845 -2.0015 0.9820
-3.0852 -2.6703 -2.0015 0.9820
-2.8348 -2.9348 -2.0015 0.9820
-2.5618 -3.1759 -2.0015 0.9820
-1.9568 -3.5805 -2.0015 0.9820
-1.6298 -3.7407 -2.0015 0.9820
-0.9393 -3.9707 -2.0015 0.9820
0.1452 -4.0777 -2.0015 0.9820
0.8673 -3.9871 -2.0015 0.9820
1.2194 -3.8938 -2.0015 0.9820
2.2066 -3.4322 -2.0015 0.9820
3.0364 -2.7257 -2.0015 0.9820
3.4723 -2.1429 -2.0015 0.9820
3.6496 -1.8248 -2.0015 0.9820
3.9157 -1.1474 -2.0015 0.9820
4.0797 -0.0700 -2.0015 0.9820
4.0697 0.2941 -2.0015 0.9820
3.8467 1.3608 -2.0015 0.9820
3.7100 1.6984 -2.0015 0.9820
2.8820 2.8884 -2.0015 0.9820
2.6129 3.1339 -2.0015 0.9820
2.0147 3.5483 -2.0015 0.9820
1.6902 3.7138 -2.0015 0.9820
0.6469 4.0287 -2.0015 0.9820
-0.0791 4.0795 -2.0015 0.9820
-0.4426 4.0562 -2.0015 0.9820
-0.8025 4.0006 -2.0015 0.9820
-2.4513 3.2619 -2.0015 0.9820
-3.4371 2.1990 -2.0015 0.9820
-1.1225 0.5842 -0.6207 0.9944
-1.1488 0.4730 -0.6094 0.9945
-1.1588 0.3601 -0.5952 0.9946
-1.1965 0.0399 -0.5872 0.9947
-1.1961 -0.0670 -0.5876 0.9947
-1.1630 -0.2778 -0.5865 0.9947
-1.1577 -0.3885 -0.5990 0.9946
-1.1439 -0.5014 -0.6127 0.9945
-1.1098 -0.6097 -0.6211 0.9944
-3.1702 -2.5688 -2.0015 0.9820
-2.6634 -3.0911 -2.0015 0.9820
-2.0719 -3.5151 -2.0015 0.9820
-1.7502 -3.6859 -2.0015 0.9820
-1.4145 -3.8273 -2.0015 0.9820
-1.0676 -3.9382 -2.0015 0.9820
0.3767 -4.0629 -2.0015 0.9820
-2.6974 2.7584 -2.0015 0.9828
-2.9326 2.5069 -2.0015 0.9828
-1.0586 0.3865 -0.5846 0.9949
-1.0666 0.2847 -0.5727 0.9950
-1.0920 0.1892 -0.5749 0.9950
-1.1035 -0.1067 -0.5752 0.9950
-1.0889 -0.2045 -0.5748 0.9950
-1.0346 -0.5043 -0.5971 0.9948
-2.6581 -2.7963 -2.0015 0.9828
-1.5126 -3.5492 -2.0015 0.9828
-0.5192 -3.8230 -2.0015 0.9828
0.1682 -3.8544 -2.0015 0.9828
0.8503 -3.7632 -2.0015 0.9828
1.1825 -3.6724 -2.0015 0.9828
1.8160 -3.4039 -2.0015 0.9828
2.3919 -3.0272 -2.0015 0.9828
2.6523 -2.8018 -2.0015 0.9828
2.8916 -2.5541 -2.0015 0.9828
3.1078 -2.2861 -2.0015 0.9828
3.2993 -1.9998 -2.0015 0.9828
3.6021 -1.3819 -2.0015 0.9828
3.7110 -1.0552 -2.0015 0.9828
3.7903 -0.7200 -2.0015 0.9828
3.8394 -0.3792 -2.0015 0.9828
3.8579 -0.0353 -2.0015 0.9828
3.8457 0.3089 -2.0015 0.9828
3.4950 1.6340 -2.0015 0.9828
2.9378 2.5008 -2.0015 0.9828
2.4468 2.9829 -2.0015 0.9828
2.1710 3.1893 -2.0015 0.9828
1.5699 3.5242 -2.0015 0.9828
1.2494 3.6502 -2.0015 0.9828
0.9189 3.7470 -2.0015 0.9828
0.2387 3.8507 -2.0015 0.9828
-0.1057 3.8566 -2.0015 0.9828
-1.1228 3.6911 -2.0015 0.9828
-1.7606 3.4329 -2.0015 0.9828
-2.8498 2.6007 -2.0015 0.9828
-0.9760 0.6134 -0.5980 0.9948
-1.0634 0.3211 -0.5763 0.9950
-1.0842 0.2243 -0.5744 0.9950
-1.1066 0.0281 -0.5742 0.9950
-1.0956 -0.1692 -0.5751 0.9950
-1.0449 -0.4680 -0.5940 0.9949
-1.0060 -0.5633 -0.5982 0.9948
-2.4948 -2.9429 -2.0015 0.9828
-1.3084 -3.6294 -2.0015 0.9828
-0.9796 -3.7317 -2.0015 0.9828
-0.3011 -3.8463 -2.0015 0.9828
0.0431 -3.8578 -2.0015 0.9828
1.0627 -3.7088 -2.0015 0.9828
1.7047 -3.4610 -2.0015 0.9828
2.0066 -3.2952 -2.0015 0.9828
2.2924 -3.1032 -2.0015 0.9828
2.5600 -2.8864 -2.0015 0.9828
2.8072 -2.6466 -2.0015 0.9828
3.0321 -2.3857 -2.0015 0.9828
3.4076 -1.8091 -2.0015 0.9828
3.7649 -0.8426 -2.0015 0.9828
3.7597 0.8657 -2.0015 0.9828
3.0173 2.4042 -2.0015 0.9828
2.7909 2.6637 -2.0015 0.9828
2.5423 2.9020 -2.0015 0.9828
2.2733 3.1172 -2.0015 0.9828
1.0400 3.7153 -2.0015 0.9828
-0.3247 3.8444 -2.0015 0.9828
-0.6662 3.8001 -2.0015 0.9828
-1.0025 3.7256 -2.0015 0.9828
-1.6483 3.4882 -2.0015 0.9828
-2.2418 3.1399 -2.0015 0.9828
-2.9930 2.4345 -2.0015 0.9828
-1.0094 0.5571 -0.5981 0.9948
-1.0464 0.4610 -0.5932 0.9949
-1.0613 0.3584 -0.5811 0.9950
-1.0967 0.1625 -0.5752 0.9950
-1.1066 -0.0349 -0.5744 0.9950
-1.0826 -0.2308 -0.5742 0.9950
-1.0631 -0.3281 -0.5772 0.9950
-1.0522 -0.4309 -0.5899 0.9949
-2.8338 -2.6181 -2.0015 0.9828
-2.5890 -2.8604 -2.0015 0.9828
-2.3236 -3.0799 -2.0015 0.9828
-2.0397 -3.2748 -2.0015 0.9828
-1.4255 -3.5851 -2.0015 0.9828
-1.1001 -3.6979 -2.0015 0.9828
-0.4257 -3.8345 -2.0015 0.9828
-0.0820 -3.8572 -2.0015 0.9828
0.6045 -3.8104 -2.0015 0.9828
0.9419 -3.7413 -2.0015 0.9828
1.2718 -3.6424 -2.0015 0.9828
1.5916 -3.5145 -2.0015 0.9828
2.1906 -3.1759 -2.0015 0.9828
2.9531 -2.4828 -2.0015 0.9828
3.5049 -1.6125 -2.0015 0.9828
3.6348 -1.2936 -2.0015 0.9828
3.7356 -0.9643 -2.0015 0.9828
3.8475 -0.2853 -2.0015 0.9828
3.8576 0.0589 -2.0015 0.9828
3.8370 0.4027 -2.0015 0.9828
3.5935 1.4040 -2.0015 0.9828
3.4540 1.7189 -2.0015 0.9828
3.2870 2.0200 -2.0015 0.9828
3.0937 2.3051 -2.0015 0.9828
2.8758 2.5718 -2.0015 0.9828
2.6350 2.8180 -2.0015 0.9828
2.0925 3.2413 -2.0015 0.9828
1.4834 3.5615 -2.0015 0.9828
1.1599 3.6796 -2.0015 0.9828
0.8271 3.7684 -2.0015 0.9828
0.4878 3.8271 -2.0015 0.9828
0.1446 3.8554 -2.0015 0.9828
-0.5426 3.8197 -2.0015 0.9828
-1.2126 3.6626 -2.0015 0.9828
-1.8439 3.3889 -2.0015 0.9828
-2.1388 3.2110 -2.0015 0.9828
-2.6752 2.7800 -2.0015 0.9828
-3.1265 2.2605 -2.0015 0.9828
-0.9910 0.5896 -0.5982 0.9948
-1.0638 0.2931 -0.5724 0.9950
-1.0903 0.1979 -0.5748 0.9950
-1.1041 0.0999 -0.5751 0.9950
-1.1058 0.0010 -0.5737 0.9950
-1.1043 -0.0978 -0.5751 0.9950
-1.0907 -0.1958 -0.5749 0.9950
-1.0577 -0.3936 -0.5855 0.9949
-1.0382 -0.4958 -0.5969 0.9948
-3.1307 -2.2546 -2.0015 0.9828
-2.6804 -2.7749 -2.0015 0.9828
-2.4222 -3.0029 -2.0015 0.9828
-1.8503 -3.3854 -2.0015 0.9828
-0.5498 -3.8187 -2.0015 0.9828
0.1373 -3.8556 -2.0015 0.9828
0.4806 -3.8280 -2.0015 0.9828
1.1530 -3.6818 -2.0015 0.9828
1.4767 -3.5643 -2.0015 0.9828
2.3675 -3.0463 -2.0015 0.9828
2.6297 -2.8230 -2.0015 0.9828
2.8710 -2.5772 -2.0015 0.9828
3.2832 -2.0262 -2.0015 0.9828
3.7024 -1.0849 -2.0015 0.9828
3.8362 -0.4099 -2.0015 0.9828
3.8575 -0.0662 -2.0015 0.9828
3.8480 0.2781 -2.0015 0.9828
3.7374 0.9572 -2.0015 0.9828
3.6372 1.2867 -2.0015 0.9828
2.9577 2.4772 -2.0015 0.9828
2.4706 2.9632 -2.0015 0.9828
1.9049 3.3550 -2.0015 0.9828
0.9489 3.7396 -2.0015 0.9828
0.6117 3.8093 -2.0015 0.9828
-0.4185 3.8353 -2.0015 0.9828
-0.7588 3.7827 -2.0015 0.9828
-1.4187 3.5878 -2.0015 0.9828
-2.0335 3.2787 -2.0015 0.9828
-2.5836 2.8653 -2.0015 0.9828
-3.0515 2.3607 -2.0015 0.9828
-1.0518 0.4331 -0.5901 0.9949
-1.1005 0.1357 -0.5752 0.9950
-1.1066 0.0370 -0.5744 0.9950
-1.1062 -0.0619 -0.5748 0.9950
-1.0754 -0.2569 -0.5736 0.9950
-1.0615 -0.3562 -0.5809 0.9950
-3.2022 -2.1519 -2.0015 0.9828
-2.7690 -2.6865 -2.0015 0.9828
-2.5184 -2.9228 -2.0015 0.9828
-1.9591 -3.3237 -2.0015 0.9828
-0.3319 -3.8438 -2.0015 0.9828
0.0122 -3.8581 -2.0015 0.9828
0.3562 -3.8416 -2.0015 0.9828
-2.7777 2.3745 -2.0015 0.9835
-0.8589 0.6106 -0.5772 0.9952
-0.9121 0.5328 -0.5785 0.9952
-0.9751 0.3561 -0.5685 0.9953
-1.0138 0.1756 -0.5635 0.9953
-1.0272 -0.0073 -0.5626 0.9953
-1.0108 -0.1899 -0.5633 0.9953
-0.9729 -0.3710 -0.5703 0.9953
-0.9479 -0.4621 -0.5776 0.9952
-0.9044 -0.5456 -0.5785 0.9952
-2.5177 -2.6487 -2.0015 0.9835
-1.7268 -3.2206 -2.0015 0.9835
-1.1272 -3.4761 -2.0015 0.9835
-0.8127 -3.5628 -2.0015 0.9835
-0.1669 -3.6505 -2.0015 0.9835
1.1200 -3.4785 -2.0015 0.9835
1.4258 -3.3647 -2.0015 0.9835
2.0008 -3.0579 -2.0015 0.9835
2.5122 -2.6538 -2.0015 0.9835
2.7389 -2.4192 -2.0015 0.9835
3.2815 -1.6080 -2.0015 0.9835
3.5150 -0.9995 -2.0015 0.9835
2.7826 2.3688 -2.0015 0.9835
1.4870 3.3381 -2.0015 0.9835
1.1834 3.4574 -2.0015 0.9835
0.8704 3.5492 -2.0015 0.9835
0.5504 3.6126 -2.0015 0.9835
-0.1001 3.6530 -2.0015 0.9835
-0.7475 3.5771 -2.0015 0.9835
-1.0635 3.4962 -2.0015 0.9835
-2.4688 2.6942 -2.0015 0.9835
-0.8940 0.5619 -0.5784 0.9952
-0.9697 0.3902 -0.5725 0.9952
-0.9806 0.2961 -0.5610 0.9953
-1.0065 0.2082 -0.5629 0.9953
-1.0276 0.0261 -0.5630 0.9953
-1.0269 -0.0657 -0.5636 0.9953
-0.9960 -0.2464 -0.5620 0.9953
-0.9216 -0.5160 -0.5785 0.9952
-2.8207 -2.3233 -2.0015 0.9835
-2.6022 -2.5656 -2.0015 0.9835
-2.1051 -2.9871 -2.0015 0.9835
-1.8303 -3.1629 -2.0015 0.9835
-0.9278 -3.5346 -2.0015 0.9835
-0.6089 -3.6032 -2.0015 0.9835
0.0409 -3.6541 -2.0015 0.9835
0.3666 -3.6359 -2.0015 0.9835
0.6893 -3.5887 -2.0015 0.9835
1.3159 -3.4092 -2.0015 0.9835
1.6147 -3.2783 -2.0015 0.9835
1.9006 -3.1212 -2.0015 0.9835
2.4248 -2.7339 -2.0015 0.9835
2.6590 -2.5068 -2.0015 0.9835
2.8719 -2.2597 -2.0015 0.9835
3.0620 -1.9946 -2.0015 0.9835
3.2277 -1.7136 -2.0015 0.9835
3.3676 -1.4189 -2.0015 0.9835
3.4807 -1.1129 -2.0015 0.9835
3.6512 -0.1519 -2.0015 0.9835
3.6502 0.1743 -2.0015 0.9835
3.6201 0.4991 -2.0015 0.9835
3.4738 1.1343 -2.0015 0.9835
3.3588 1.4395 -2.0015 0.9835
3.2171 1.7333 -2.0015 0.9835
3.0497 2.0133 -2.0015 0.9835
2.8580 2.2773 -2.0015 0.9835
2.1533 2.9525 -2.0015 0.9835
1.2949 3.4172 -2.0015 0.9835
0.6673 3.5929 -2.0015 0.9835
0.0184 3.6543 -2.0015 0.9835
-1.2604 3.4301 -2.0015 0.9835
-1.8497 3.1516 -2.0015 0.9835
-2.1234 2.9741 -2.0015 0.9835
-0.8745 0.5901 -0.5778 0.9952
-0.9628 0.4242 -0.5762 0.9952
-0.9781 0.3303 -0.5654 0.9953
-1.0183 0.1509 -0.5638 0.9953
-1.0276 -0.0324 -0.5631 0.9953
-0.9685 -0.3966 -0.5732 0.9952
-0.9372 -0.4855 -0.5781 0.9952
-0.8905 -0.5673 -0.5783 0.9952
-2.4523 -2.7093 -2.0015 0.9835
-2.2009 -2.9172 -2.0015 0.9835
-1.6476 -3.2618 -2.0015 0.9835
-1.3502 -3.3958 -2.0015 0.9835
-1.0420 -3.5026 -2.0015 0.9835
-0.4032 -3.6320 -2.0015 0.9835
0.8922 -3.5438 -2.0015 0.9835
1.2046 -3.4501 -2.0015 0.9835
1.7984 -3.1812 -2.0015 0.9835
2.5763 -2.5917 -2.0015 0.9835
2.9957 -2.0928 -2.0015 0.9835
3.1704 -1.8173 -2.0015 0.9835
3.4428 -1.2253 -2.0015 0.9835
3.5383 -0.9133 -2.0015 0.9835
3.6057 -0.5942 -2.0015 0.9835
3.6443 -0.2702 -2.0015 0.9835
3.6344 0.3814 -2.0015 0.9835
3.5859 0.7040 -2.0015 0.9835
3.2716 1.6281 -2.0015 0.9835
2.7240 2.4360 -2.0015 0.9835
2.4959 2.6692 -2.0015 0.9835
2.2479 2.8812 -2.0015 0.9835
1.9820 3.0701 -2.0015 0.9835
1.7003 3.2347 -2.0015 0.9835
1.4051 3.3734 -2.0015 0.9835
0.7835 3.5694 -2.0015 0.9835
-0.1893 3.6494 -2.0015 0.9835
-1.1485 3.4692 -2.0015 0.9835
-1.7465 3.2100 -2.0015 0.9835
-2.2890 2.8486 -2.0015 0.9835
-2.7586 2.3967 -2.0015 0.9835
-0.9505 0.4561 -0.5774 0.9952
-0.9739 0.3645 -0.5696 0.9953
-0.9878 0.2721 -0.5612 0.9953
-1.0270 0.0010 -0.5625 0.9953
-1.0254 -0.0908 -0.5638 0.9953
-1.0125 -0.1818 -0.5634 0.9953
-0.9512 -0.4543 -0.5774 0.9952
-2.7631 -2.3915 -2.0015 0.9835
-2.2943 -2.8443 -2.0015 0.9835
-1.1550 -3.4670 -2.0015 0.9835
-0.8412 -3.5562 -2.0015 0.9835
-0.1961 -3.6491 -2.0015 0.9835
0.1301 -3.6520 -2.0015 0.9835
0.7768 -3.5708 -2.0015 0.9835
1.3987 -3.3760 -2.0015 0.9835
