ply
format ascii 1.0
element vertex 1592
property float32 x
property float32 y
property float32 z
property float32 I
end_header
-3.6675 10.6095 -1.8493 0.9555
-5.4921 9.7903 -1.8493 0.9555
-6.3423 9.2622 -1.8493 0.9555
-9.9333 6.9956 -2.0015 0.9519
-11.7511 3.0855 -2.0015 0.9519
-11.9793 2.0264 -2.0015 0.9519
-12.1121 0.9512 -2.0015 0.9519
-12.1487 -0.1316 -2.0015 0.9519
-12.0887 -1.2133 -2.0015 0.9519
-11.9326 -2.2853 -2.0015 0.9519
-11.6815 -3.3392 -2.0015 0.9519
-10.3828 -6.3092 -2.0015 0.9519
-9.0985 -8.0515 -2.0015 0.9519
-8.3450 -8.8300 -2.0015 0.9519
-5.7132 -10.7223 -2.0015 0.9519
-3.6482 -11.3434 -1.9630 0.9528
-2.5353 -11.2335 -1.8971 0.9544
-1.4990 -11.2237 -1.8654 0.9551
-0.4896 -11.2301 -1.8518 0.9555
3.6306 -11.2094 -1.9411 0.9534
4.7426 -11.1418 -1.9949 0.9521
5.7353 -10.7105 -2.0015 0.9519
6.6666 -10.1570 -2.0015 0.9519
9.1150 -8.0328 -2.0015 0.9519
10.3958 -6.2877 -2.0015 0.9519
12.1102 0.9762 -2.0015 0.9519
11.7447 3.1097 -2.0015 0.9519
9.9189 7.0160 -2.0015 0.9519
9.0597 7.7060 -1.9594 0.9529
7.8688 8.0059 -1.8493 0.9555
7.1244 8.6751 -1.8493 0.9555
6.3232 9.2752 -1.8493 0.9555
3.6457 10.6171 -1.8493 0.9555
0.7086 11.2032 -1.8493 0.9555
-1.2907 11.1511 -1.8493 0.9555
-3.2491 10.7451 -1.8493 0.9555
-5.1043 9.9980 -1.8493 0.9555
-5.9746 9.5035 -1.8493 0.9555
-8.1890 8.9750 -2.0015 0.9519
-8.9559 8.2098 -2.0015 0.9519
-10.2706 6.4902 -2.0015 0.9519
-11.2594 4.5646 -2.0015 0.9519
-12.1446 0.3445 -2.0015 0.9519
-12.1270 -0.7387 -2.0015 0.9519
-11.8034 -2.8790 -2.0015 0.9519
-11.5000 -3.9190 -2.0015 0.9519
-10.6221 -5.8976 -2.0015 0.9519
-10.0545 -6.8203 -2.0015 0.9519
-9.4069 -7.6889 -2.0015 0.9519
-8.6846 -8.4963 -2.0015 0.9519
-7.8932 -9.2362 -2.0015 0.9519
-4.1568 -11.3750 -1.9951 0.9521
0.0724 -11.2316 -1.8503 0.9555
1.0769 -11.2248 -1.8577 0.9553
2.0980 -11.2206 -1.8805 0.9548
3.1523 -11.2135 -1.9189 0.9539
4.2585 -11.2032 -1.9744 0.9526
6.2636 -10.4104 -2.0015 0.9519
7.1661 -9.8110 -2.0015 0.9519
10.6972 -5.7602 -2.0015 0.9519
11.1678 -4.7843 -2.0015 0.9519
12.1355 -0.5824 -2.0015 0.9519
11.8575 2.6472 -2.0015 0.9519
10.1862 6.6220 -2.0015 0.9519
8.2120 7.7249 -1.8573 0.9553
6.6818 9.0204 -1.8493 0.9555
5.8517 9.5797 -1.8493 0.9555
1.1469 11.1668 -1.8493 0.9555
-0.8529 11.1931 -1.8493 0.9555
-1.8466 11.0726 -1.8493 0.9555
-2.8256 10.8641 -1.8493 0.9555
-3.7822 10.5692 -1.8493 0.9555
-5.5977 9.7303 -1.8493 0.9555
-6.4423 9.1930 -1.8493 0.9555
-8.6274 8.5543 -2.0015 0.9519
-9.3552 7.7518 -2.0015 0.9519
-10.0085 6.8876 -2.0015 0.9519
-10.6061 -0.9486 -2.0015 0.9576
-10.2694 -2.8156 -2.0015 0.9576
-9.9778 -3.7193 -2.0015 0.9576
-9.6068 -4.5933 -2.0015 0.9576
-9.1594 -5.4308 -2.0015 0.9576
-7.3974 -7.6595 -2.0015 0.9576
-6.6857 -8.2880 -2.0015 0.9576
-5.9208 -8.8506 -2.0015 0.9576
-5.1088 -9.3429 -2.0015 0.9576
-2.4566 -10.3612 -2.0015 0.9576
-1.5238 -10.5388 -2.0015 0.9576
-0.5790 -10.6327 -2.0015 0.9576
1.3171 -10.5667 -2.0015 0.9576
4.0642 -9.8423 -2.0015 0.9576
4.9248 -9.4412 -2.0015 0.9576
5.7463 -8.9649 -2.0015 0.9576
7.2459 -7.8029 -2.0015 0.9576
7.9122 -7.1264 -2.0015 0.9576
8.5156 -6.3933 -2.0015 0.9576
10.2123 -3.0163 -2.0015 0.9576
10.4404 -2.0946 -2.0015 0.9576
10.5855 -1.1562 -2.0015 0.9576
10.6464 -0.2086 -2.0015 0.9576
10.6227 0.7406 -2.0015 0.9576
10.5144 1.6839 -2.0015 0.9576
10.3226 2.6139 -2.0015 0.9576
10.0487 3.5231 -2.0015 0.9576
6.4796 7.7181 -1.8942 0.9598
5.6297 8.0688 -1.8493 0.9607
4.8886 8.5383 -1.8493 0.9607
4.1085 8.9398 -1.8493 0.9607
3.2958 9.2702 -1.8493 0.9607
2.4569 9.5270 -1.8493 0.9607
1.5985 9.7080 -1.8493 0.9607
-0.1496 9.8376 -1.8493 0.9607
-1.0254 9.7851 -1.8493 0.9607
-1.8930 9.6549 -1.8493 0.9607
-3.5763 9.1657 -1.8493 0.9607
-4.3785 8.8107 -1.8493 0.9607
-5.1460 8.3856 -1.8493 0.9607
-6.3354 8.5161 -1.9950 0.9577
-7.7711 7.2801 -2.0015 0.9576
-8.3887 6.5589 -2.0015 0.9576
-8.9396 5.7855 -2.0015 0.9576
-10.1512 3.2158 -2.0015 0.9576
-10.3974 2.2987 -2.0015 0.9576
-10.6403 0.4172 -2.0015 0.9576
-10.6351 -0.5323 -2.0015 0.9576
-10.5454 -1.4776 -2.0015 0.9576
-10.3719 -2.4112 -2.0015 0.9576
-10.1158 -3.3255 -2.0015 0.9576
-9.7794 -4.2134 -2.0015 0.9576
-9.3652 -5.0678 -2.0015 0.9576
-8.8765 -5.8820 -2.0015 0.9576
-7.0052 -8.0197 -2.0015 0.9576
-2.8606 -10.2570 -2.0015 0.9576
-1.9355 -10.4711 -2.0015 0.9576
-0.9951 -10.6018 -2.0015 0.9576
0.9021 -10.6102 -2.0015 0.9576
2.7706 -10.2817 -2.0015 0.9576
3.6755 -9.9940 -2.0015 0.9576
5.3907 -9.1831 -2.0015 0.9576
6.9347 -8.0808 -2.0015 0.9576
8.8246 -5.9596 -2.0015 0.9576
9.3204 -5.1497 -2.0015 0.9576
9.7421 -4.2990 -2.0015 0.9576
10.3503 -2.5020 -2.0015 0.9576
10.5321 -1.5700 -2.0015 0.9576
10.6435 0.3239 -2.0015 0.9576
10.5724 1.2707 -2.0015 0.9576
9.8601 4.0210 -2.0015 0.9576
9.4627 4.8834 -2.0015 0.9576
8.4459 6.4851 -2.0015 0.9576
5.9415 7.8421 -1.8493 0.9607
5.2193 8.3402 -1.8493 0.9607
3.6565 9.1340 -1.8493 0.9607
2.8283 9.4234 -1.8493 0.9607
1.9776 9.6379 -1.8493 0.9607
1.1111 9.7758 -1.8493 0.9607
0.2359 9.8359 -1.8493 0.9607
-1.5133 9.7216 -1.8493 0.9607
-2.3733 9.5482 -1.8493 0.9607
-4.0300 8.9755 -1.8493 0.9607
-5.6870 8.3051 -1.8919 0.9599
-7.4799 7.5789 -2.0015 0.9576
-8.1253 6.8825 -2.0015 0.9576
-10.0175 3.6110 -2.0015 0.9576
-10.5952 -1.0634 -2.0015 0.9576
-10.2384 -2.9267 -2.0015 0.9576
-9.5565 -4.6971 -2.0015 0.9576
-9.1001 -5.5297 -2.0015 0.9576
-8.5713 -6.3184 -2.0015 0.9576
-6.5956 -8.3599 -2.0015 0.9576
-3.2603 -10.1371 -2.0015 0.9576
-1.4096 -10.5547 -2.0015 0.9576
-0.4638 -10.6383 -2.0015 0.9576
1.4314 -10.5518 -2.0015 0.9576
2.3657 -10.3823 -2.0015 0.9576
5.0267 -9.3873 -2.0015 0.9576
7.9889 -7.0404 -2.0015 0.9576
9.9448 -3.8066 -2.0015 0.9576
10.2444 -2.9056 -2.0015 0.9576
10.4625 -1.9814 -2.0015 0.9576
10.5974 -1.0415 -2.0015 0.9576
10.6480 -0.0933 -2.0015 0.9576
10.6140 0.8556 -2.0015 0.9576
10.4956 1.7977 -2.0015 0.9576
10.2937 2.7255 -2.0015 0.9576
10.0100 3.6316 -2.0015 0.9576
9.6467 4.5089 -2.0015 0.9576
9.2067 5.3503 -2.0015 0.9576
6.3409 7.7211 -1.8779 0.9602
5.5421 8.1293 -1.8493 0.9607
4.7958 8.5907 -1.8493 0.9607
2.3536 9.5530 -1.8493 0.9607
1.4933 9.7247 -1.8493 0.9607
-0.2561 9.8354 -1.8493 0.9607
-1.1313 9.7734 -1.8493 0.9607
-5.2365 8.3294 -1.8493 0.9607
-6.4328 8.4542 -1.9968 0.9577
-7.1773 7.8661 -2.0015 0.9576
-10.4216 2.1860 -2.0015 0.9576
-10.5749 1.2489 -2.0015 0.9576
-10.6441 0.3019 -2.0015 0.9576
-10.0792 -3.4348 -2.0015 0.9576
-9.3097 -5.1689 -2.0015 0.9576
-6.1694 -8.6792 -2.0015 0.9576
-5.3717 -9.1942 -2.0015 0.9576
-2.7494 -10.2874 -2.0015 0.9576
-1.8220 -10.4914 -2.0015 0.9576
1.0169 -10.5998 -2.0015 0.9576
1.9571 -10.4670 -2.0015 0.9576
2.8817 -10.2511 -2.0015 0.9576
4.6551 -9.5770 -2.0015 0.9576
7.7070 -7.3479 -2.0015 0.9576
8.3309 -6.6321 -2.0015 0.9576
8.8886 -5.8636 -2.0015 0.9576
9.3756 -5.0485 -2.0015 0.9576
9.7881 -4.1932 -2.0015 0.9576
10.3768 -2.3898 -2.0015 0.9576
10.5484 -1.4559 -2.0015 0.9576
10.6362 -0.5104 -2.0015 0.9576
10.3926 2.3201 -2.0015 0.9576
9.8160 4.1275 -2.0015 0.9576
9.4092 4.9855 -2.0015 0.9576
8.9277 5.8039 -2.0015 0.9576
6.8546 7.7098 -1.9391 0.9589
5.8563 7.9060 -1.8493 0.9607
5.1287 8.3962 -1.8493 0.9607
4.3604 8.8197 -1.8493 0.9607
3.5574 9.1731 -1.8493 0.9607
1.8731 9.6588 -1.8493 0.9607
1.0052 9.7872 -1.8493 0.9607
-1.6185 9.7047 -1.8493 0.9607
-3.3149 9.2634 -1.8493 0.9607
-5.8756 8.3844 -1.9244 0.9592
-6.8636 8.1413 -2.0015 0.9576
-7.5615 7.4975 -2.0015 0.9576
-8.1994 6.7941 -2.0015 0.9576
-8.7720 6.0367 -2.0015 0.9576
-9.4310 -0.8435 -2.0015 0.9620
-9.1317 -2.5037 -2.0015 0.9620
-8.8723 -3.3072 -2.0015 0.9620
-8.5425 -4.0844 -2.0015 0.9620
-8.1446 -4.8292 -2.0015 0.9620
-7.1584 -6.1978 -2.0015 0.9620
-6.5778 -6.8109 -2.0015 0.9620
-5.2648 -7.8700 -2.0015 0.9620
-1.3550 -9.3712 -2.0015 0.9620
0.3295 -9.4630 -2.0015 0.9620
4.3792 -8.3952 -2.0015 0.9620
5.1096 -7.9717 -2.0015 0.9620
6.4431 -6.9384 -2.0015 0.9620
7.0356 -6.3369 -2.0015 0.9620
7.5722 -5.6849 -2.0015 0.9620
8.0485 -4.9878 -2.0015 0.9620
8.4608 -4.2510 -2.0015 0.9620
8.8058 -3.4804 -2.0015 0.9620
9.0809 -2.6821 -2.0015 0.9620
9.4458 0.6585 -2.0015 0.9620
8.6208 3.9163 -2.0015 0.9620
5.3733 7.7013 -1.9850 0.9623
2.9307 8.2432 -1.8493 0.9649
1.4214 8.6324 -1.8493 0.9649
-1.6833 8.5852 -1.8493 0.9649
-3.1800 8.1502 -1.8493 0.9649
-3.8934 7.8346 -1.8493 0.9649
-5.6517 7.5970 -2.0015 0.9620
-6.9101 6.4735 -2.0015 0.9620
-7.9492 5.1445 -2.0015 0.9620
-9.0266 2.8595 -2.0015 0.9620
-9.3907 1.2123 -2.0015 0.9620
-9.3771 -1.3139 -2.0015 0.9620
-8.9951 -2.9571 -2.0015 0.9620
-8.6959 -3.7466 -2.0015 0.9620
-8.3276 -4.5064 -2.0015 0.9620
-7.8930 -5.2303 -2.0015 0.9620
-6.8396 -6.5479 -2.0015 0.9620
-5.5691 -7.6577 -2.0015 0.9620
-4.8648 -8.1234 -2.0015 0.9620
-4.1218 -8.5245 -2.0015 0.9620
-0.8848 -9.4273 -2.0015 0.9620
4.0469 -8.5603 -2.0015 0.9620
6.1664 -7.1855 -2.0015 0.9620
6.7820 -6.6076 -2.0015 0.9620
7.8469 -5.2993 -2.0015 0.9620
8.6627 -3.8227 -2.0015 0.9620
8.9688 -3.0358 -2.0015 0.9620
9.2036 -2.2248 -2.0015 0.9620
9.3652 -1.3961 -2.0015 0.9620
9.4523 -0.5562 -2.0015 0.9620
9.4643 0.2880 -2.0015 0.9620
9.4010 1.1299 -2.0015 0.9620
9.0513 2.7803 -2.0015 0.9620
8.7677 3.5755 -2.0015 0.9620
8.4143 4.3423 -2.0015 0.9620
6.3677 7.0078 -2.0015 0.9620
4.8266 7.7127 -1.9232 0.9635
3.2514 8.1220 -1.8493 0.9649
0.9880 8.6927 -1.8493 0.9649
-0.5702 8.7301 -1.8493 0.9649
-1.3456 8.6446 -1.8493 0.9649
-2.1104 8.4903 -1.8493 0.9649
-2.8583 8.2686 -1.8493 0.9649
-6.0244 7.3050 -2.0015 0.9620
-6.6512 6.7392 -2.0015 0.9620
-7.7416 5.4520 -2.0015 0.9620
-8.1965 4.7407 -2.0015 0.9620
-8.5862 3.9917 -2.0015 0.9620
-8.9076 3.2109 -2.0015 0.9620
-9.3360 1.5793 -2.0015 0.9620
-9.4396 0.7413 -2.0015 0.9620
-9.4214 -0.9456 -2.0015 0.9620
-9.2997 -1.7811 -2.0015 0.9620
-8.8360 -3.4031 -2.0015 0.9620
-8.0919 -4.9171 -2.0015 0.9620
-7.0909 -6.2750 -2.0015 0.9620
-5.8648 -7.4337 -2.0015 0.9620
-4.4526 -8.3565 -2.0015 0.9620
-2.0845 -9.2364 -2.0015 0.9620
-1.2535 -9.3854 -2.0015 0.9620
-0.4124 -9.4597 -2.0015 0.9620
2.1036 -9.2321 -2.0015 0.9620
4.4698 -8.3473 -2.0015 0.9620
5.8801 -7.4216 -2.0015 0.9620
6.5179 -6.8683 -2.0015 0.9620
8.1020 -4.9004 -2.0015 0.9620
8.5063 -4.1591 -2.0015 0.9620
9.1094 -2.5836 -2.0015 0.9620
9.4233 -0.9261 -2.0015 0.9620
9.4683 -0.0830 -2.0015 0.9620
9.1533 2.4235 -2.0015 0.9620
8.9010 3.2293 -2.0015 0.9620
8.5779 4.0094 -2.0015 0.9620
7.7303 5.4679 -2.0015 0.9620
7.2125 6.1348 -2.0015 0.9620
5.2520 7.7039 -1.9709 0.9626
4.3112 7.7226 -1.8696 0.9645
2.8413 8.2744 -1.8493 0.9649
1.3278 8.6473 -1.8493 0.9649
0.5522 8.7312 -1.8493 0.9649
-0.2278 8.7457 -1.8493 0.9649
-1.7761 8.5665 -1.8493 0.9649
-3.2681 8.1153 -1.8493 0.9649
-6.3821 6.9946 -2.0015 0.9620
-7.5220 5.7511 -2.0015 0.9620
-8.4232 4.3250 -2.0015 0.9620
-8.7750 3.5574 -2.0015 0.9620
-9.0570 2.7616 -2.0015 0.9620
-9.2670 1.9438 -2.0015 0.9620
-9.3623 -1.4154 -2.0015 0.9620
-8.6548 -3.8406 -2.0015 0.9620
-8.2783 -4.5963 -2.0015 0.9620
-7.3313 -5.9923 -2.0015 0.9620
-6.7683 -6.6216 -2.0015 0.9620
-6.1516 -7.1982 -2.0015 0.9620
-3.2499 -8.8935 -2.0015 0.9620
0.0610 -9.4685 -2.0015 0.9620
0.9042 -9.4254 -2.0015 0.9620
4.1394 -8.5160 -2.0015 0.9620
4.8815 -8.1134 -2.0015 0.9620
7.4079 -5.8974 -2.0015 0.9620
8.3369 -4.4892 -2.0015 0.9620
8.7036 -3.7287 -2.0015 0.9620
9.2272 -2.1250 -2.0015 0.9620
9.3798 -1.2946 -2.0015 0.9620
9.4578 -0.4539 -2.0015 0.9620
9.4606 0.3904 -2.0015 0.9620
8.7284 3.6702 -2.0015 0.9620
8.3668 4.4332 -2.0015 0.9620
6.8968 6.4877 -2.0015 0.9620
6.2914 7.0763 -2.0015 0.9620
4.7126 7.7150 -1.9110 0.9637
3.1632 8.1568 -1.8493 0.9649
0.8939 8.7029 -1.8493 0.9649
0.1150 8.7479 -1.8493 0.9649
-0.6647 8.7234 -1.8493 0.9649
-1.4392 8.6295 -1.8493 0.9649
-2.2022 8.4670 -1.8493 0.9649
-4.5686 7.9415 -1.9366 0.9632
-8.2130 -2.2518 -2.0015 0.9656
-7.6831 -3.6735 -2.0015 0.9656
-7.3253 -4.3433 -2.0015 0.9656
-6.9093 -4.9786 -2.0015 0.9656
-6.4383 -5.5743 -2.0015 0.9656
-4.7352 -7.0783 -2.0015 0.9656
-3.4040 -7.8063 -2.0015 0.9656
-2.6950 -8.0785 -2.0015 0.9656
-1.9647 -8.2864 -2.0015 0.9656
-0.4630 -8.5035 -2.0015 0.9656
2.5362 -8.1297 -2.0015 0.9656
4.5956 -7.1697 -2.0015 0.9656
6.8104 -5.1130 -2.0015 0.9656
7.2388 -4.4860 -2.0015 0.9656
7.6097 -3.8233 -2.0015 0.9656
7.9200 -3.1303 -2.0015 0.9656
8.3498 -1.6751 -2.0015 0.9656
8.4658 -0.9247 -2.0015 0.9656
8.4090 1.3467 -2.0015 0.9656
8.0365 2.8176 -2.0015 0.9656
7.0055 4.8423 -2.0015 0.9656
6.0350 6.0086 -2.0015 0.9656
3.5388 7.7000 -1.9916 0.9658
2.7420 7.7126 -1.9238 0.9669
0.5817 7.8470 -1.8493 0.9682
-1.5158 7.7311 -1.8516 0.9681
-3.7814 7.6091 -1.9970 0.9657
-5.0831 6.8327 -2.0015 0.9656
-6.2150 5.8223 -2.0015 0.9656
-6.7089 5.2455 -2.0015 0.9656
-7.5333 3.9717 -2.0015 0.9656
-7.8571 3.2848 -2.0015 0.9656
-8.5096 0.3336 -2.0015 0.9656
-8.5055 -0.4258 -2.0015 0.9656
-8.4338 -1.1817 -2.0015 0.9656
-8.2950 -1.9283 -2.0015 0.9656
-8.0902 -2.6596 -2.0015 0.9656
-7.8211 -3.3697 -2.0015 0.9656
-7.0990 -4.7041 -2.0015 0.9656
-5.6025 -6.4138 -2.0015 0.9656
-5.0089 -6.8874 -2.0015 0.9656
-4.3754 -7.3062 -2.0015 0.9656
-3.7072 -7.6669 -2.0015 0.9656
-3.0094 -7.9667 -2.0015 0.9656
-2.2878 -8.2031 -2.0015 0.9656
-1.5479 -8.3743 -2.0015 0.9656
-0.0373 -8.5161 -2.0015 0.9656
1.4745 -8.3875 -2.0015 0.9656
2.2158 -8.2228 -2.0015 0.9656
2.9395 -7.9928 -2.0015 0.9656
3.6398 -7.6991 -2.0015 0.9656
6.6049 -5.3759 -2.0015 0.9656
8.0666 -2.7304 -2.0015 0.9656
8.4231 -1.2556 -2.0015 0.9656
8.5122 0.2590 -2.0015 0.9656
8.1408 2.5006 -2.0015 0.9656
7.5678 3.9055 -2.0015 0.9656
7.1898 4.5641 -2.0015 0.9656
5.7271 6.3028 -2.0015 0.9656
5.1429 6.7879 -2.0015 0.9656
4.5177 7.2191 -2.0015 0.9656
2.3164 7.7181 -1.8939 0.9674
0.8886 7.8182 -1.8493 0.9682
0.1887 7.8663 -1.8493 0.9682
-6.9628 4.9035 -2.0015 0.9656
-7.7224 3.5901 -2.0015 0.9656
-8.0115 2.8879 -2.0015 0.9656
-8.2369 2.1628 -2.0015 0.9656
-8.3969 1.4204 -2.0015 0.9656
-8.5156 -0.0922 -2.0015 0.9656
-8.4736 -0.8504 -2.0015 0.9656
-8.3641 -1.6019 -2.0015 0.9656
-8.1882 -2.3406 -2.0015 0.9656
-7.6429 -3.7565 -2.0015 0.9656
-7.2779 -4.4224 -2.0015 0.9656
-6.3776 -5.6437 -2.0015 0.9656
-5.8495 -6.1894 -2.0015 0.9656
-5.2748 -6.6859 -2.0015 0.9656
-4.0047 -7.5158 -2.0015 0.9656
-1.1274 -8.4412 -2.0015 0.9656
-0.3709 -8.5081 -2.0015 0.9656
0.3885 -8.5073 -2.0015 0.9656
1.1448 -8.4389 -2.0015 0.9656
2.6241 -8.1018 -2.0015 0.9656
4.0202 -7.5075 -2.0015 0.9656
4.6730 -7.1196 -2.0015 0.9656
5.8622 -6.1773 -2.0015 0.9656
6.8654 -5.0390 -2.0015 0.9656
8.3674 -1.5846 -2.0015 0.9656
8.4753 -0.8330 -2.0015 0.9656
8.5158 -0.0747 -2.0015 0.9656
8.4886 0.6842 -2.0015 0.9656
8.3939 1.4377 -2.0015 0.9656
8.2325 2.1797 -2.0015 0.9656
8.0056 2.9044 -2.0015 0.9656
7.7150 3.6060 -2.0015 0.9656
6.9527 4.9179 -2.0015 0.9656
6.4869 5.5177 -2.0015 0.9656
5.9696 6.0736 -2.0015 0.9656
5.4048 6.5812 -2.0015 0.9656
4.7971 7.0365 -2.0015 0.9656
4.1450 7.4249 -1.9985 0.9657
1.9027 7.7227 -1.8693 0.9678
1.1942 7.7774 -1.8493 0.9682
-1.6022 7.7277 -1.8548 0.9681
-2.3337 7.7179 -1.8950 0.9674
-3.8652 7.5709 -1.9978 0.9657
-6.2776 5.7546 -2.0015 0.9656
-6.7653 5.1725 -2.0015 0.9656
-7.5758 3.8899 -2.0015 0.9656
-8.1459 2.4838 -2.0015 0.9656
-8.5004 -0.5178 -2.0015 0.9656
-7.7842 -3.4542 -2.0015 0.9656
-7.0477 -4.7807 -2.0015 0.9656
-6.5938 -5.3895 -2.0015 0.9656
-5.5327 -6.4741 -2.0015 0.9656
-2.1989 -8.2274 -2.0015 0.9656
-1.4572 -8.3905 -2.0015 0.9656
-0.7040 -8.4870 -2.0015 0.9656
3.0259 -7.9605 -2.0015 0.9656
4.3905 -7.2972 -2.0015 0.9656
5.6157 -6.4022 -2.0015 0.9656
6.1637 -5.8765 -2.0015 0.9656
6.6627 -5.3041 -2.0015 0.9656
7.4982 -4.0376 -2.0015 0.9656
7.8280 -3.3536 -2.0015 0.9656
8.0957 -2.6429 -2.0015 0.9656
8.4362 -1.1644 -2.0015 0.9656
8.5064 -0.4082 -2.0015 0.9656
8.4438 1.1078 -2.0015 0.9656
8.3116 1.8555 -2.0015 0.9656
7.8504 3.3010 -2.0015 0.9656
7.5251 3.9872 -2.0015 0.9656
7.1400 4.6417 -2.0015 0.9656
6.2030 5.8351 -2.0015 0.9656
4.4387 7.2665 -2.0012 0.9656
2.2260 7.7192 -1.8881 0.9675
1.4992 7.7311 -1.8508 0.9682
0.1035 7.8679 -1.8493 0.9682
-1.2944 7.7614 -1.8493 0.9682
-2.0083 7.7216 -1.8751 0.9677
-3.5603 7.7050 -1.9948 0.9657
-7.6075 -1.3718 -2.0015 0.9686
-7.4551 -2.0440 -2.0015 0.9686
-7.2434 -2.7000 -2.0015 0.9686
-6.6493 -3.9425 -2.0015 0.9686
-5.8441 -5.0599 -2.0015 0.9686
-2.4463 -7.3329 -2.0015 0.9686
0.9561 -7.6709 -2.0015 0.9686
1.6357 -7.5552 -2.0015 0.9686
2.3022 -7.3794 -2.0015 0.9686
3.5752 -6.8538 -2.0015 0.9686
5.7439 -5.1734 -2.0015 0.9686
6.1819 -4.6412 -2.0015 0.9686
6.5708 -4.0720 -2.0015 0.9686
7.5792 -1.5206 -2.0015 0.9686
7.7287 -0.1515 -2.0015 0.9686
7.4937 1.8975 -2.0015 0.9686
7.2949 2.5575 -2.0015 0.9686
7.0380 3.1972 -2.0015 0.9686
6.3590 4.3954 -2.0015 0.9686
5.9421 4.9444 -2.0015 0.9686
4.4233 6.3396 -2.0015 0.9686
2.5888 7.2816 -2.0010 0.9686
1.2521 7.6046 -1.9955 0.9687
0.5694 7.6809 -1.9942 0.9687
-0.1171 7.6996 -1.9938 0.9687
-0.8029 7.6613 -1.9945 0.9687
-1.4833 7.5655 -1.9961 0.9686
-3.4402 6.9225 -2.0015 0.9686
-4.0432 6.5885 -2.0015 0.9686
-5.1482 5.7665 -2.0015 0.9686
-6.0898 4.7614 -2.0015 0.9686
-6.8381 3.6052 -2.0015 0.9686
-7.1320 2.9817 -2.0015 0.9686
-7.5479 1.6687 -2.0015 0.9686
-7.6666 0.9897 -2.0015 0.9686
-7.7243 0.3028 -2.0015 0.9686
-7.5294 -1.7504 -2.0015 0.9686
-7.3436 -2.4142 -2.0015 0.9686
-7.0993 -3.0587 -2.0015 0.9686
-6.4439 -4.2700 -2.0015 0.9686
-6.0379 -4.8270 -2.0015 0.9686
-4.5466 -6.2518 -2.0015 0.9686
-2.7317 -7.2315 -2.0015 0.9686
-2.0767 -7.4461 -2.0015 0.9686
-1.4051 -7.6014 -2.0015 0.9686
-0.0339 -7.7301 -2.0015 0.9686
2.0113 -7.4640 -2.0015 0.9686
2.6682 -7.2551 -2.0015 0.9686
4.4916 -6.2914 -2.0015 0.9686
5.9953 -4.8798 -2.0015 0.9686
7.0722 -3.1208 -2.0015 0.9686
7.3221 -2.4784 -2.0015 0.9686
7.5138 -1.8163 -2.0015 0.9686
7.7169 -0.4541 -2.0015 0.9686
7.7266 0.2351 -2.0015 0.9686
7.6750 0.9225 -2.0015 0.9686
7.5623 1.6025 -2.0015 0.9686
7.3895 2.2698 -2.0015 0.9686
7.1579 2.9190 -2.0015 0.9686
6.1313 4.7078 -2.0015 0.9686
5.1985 5.7211 -2.0015 0.9686
4.6682 6.1615 -2.0015 0.9686
2.8729 7.1765 -2.0015 0.9686
2.2194 7.3949 -1.9990 0.9686
1.5498 7.5530 -1.9964 0.9686
0.8700 7.6544 -1.9946 0.9687
0.1846 7.6986 -1.9939 0.9687
-0.5020 7.6853 -1.9941 0.9687
-1.1853 7.6146 -1.9953 0.9687
-1.8611 7.4876 -1.9977 0.9686
-2.5247 7.3034 -2.0008 0.9686
-3.7820 6.7419 -2.0015 0.9686
-4.3675 6.3782 -2.0015 0.9686
-4.9183 5.9637 -2.0015 0.9686
-5.4300 5.5019 -2.0015 0.9686
-7.0097 3.2588 -2.0015 0.9686
-7.2722 2.6214 -2.0015 0.9686
-7.4768 1.9632 -2.0015 0.9686
-7.7298 -0.0837 -2.0015 0.9686
-7.5922 -1.4541 -2.0015 0.9686
-7.4325 -2.1246 -2.0015 0.9686
-7.2137 -2.7783 -2.0015 0.9686
-6.9375 -3.4098 -2.0015 0.9686
-5.7890 -5.1229 -2.0015 0.9686
-4.7880 -6.0688 -2.0015 0.9686
-4.2284 -6.4712 -2.0015 0.9686
-3.0129 -7.1189 -2.0015 0.9686
-2.3668 -7.3590 -2.0015 0.9686
-1.7018 -7.5406 -2.0015 0.9686
1.0391 -7.6601 -2.0015 0.9686
2.3819 -7.3541 -2.0015 0.9686
3.0276 -7.1127 -2.0015 0.9686
4.2417 -6.4625 -2.0015 0.9686
5.3212 -5.6072 -2.0015 0.9686
5.7995 -5.1109 -2.0015 0.9686
6.2318 -4.5740 -2.0015 0.9686
6.9446 -3.3955 -2.0015 0.9686
7.2194 -2.7634 -2.0015 0.9686
7.4369 -2.1093 -2.0015 0.9686
7.5952 -1.4384 -2.0015 0.9686
7.6931 -0.7561 -2.0015 0.9686
7.6193 1.3050 -2.0015 0.9686
7.4727 1.9786 -2.0015 0.9686
7.2667 2.6364 -2.0015 0.9686
6.6836 3.8841 -2.0015 0.9686
5.8883 5.0085 -2.0015 0.9686
4.9060 5.9739 -2.0015 0.9686
3.7681 6.7497 -2.0015 0.9686
3.1518 7.0585 -2.0015 0.9686
2.5093 7.3076 -2.0005 0.9686
0.4861 7.6863 -1.9941 0.9687
-0.2005 7.6983 -1.9939 0.9687
-1.5654 7.5500 -1.9964 0.9686
-3.5149 6.8849 -2.0015 0.9686
-4.1143 6.5444 -2.0015 0.9686
-4.6809 6.1519 -2.0015 0.9686
-5.2103 5.7104 -2.0015 0.9686
-5.6983 5.2236 -2.0015 0.9686
-6.1410 4.6952 -2.0015 0.9686
-6.5348 4.1295 -2.0015 0.9686
-7.1639 2.9043 -2.0015 0.9686
-7.7271 0.2192 -2.0015 0.9686
-7.7159 -0.4700 -2.0015 0.9686
-7.5100 -1.8318 -2.0015 0.9686
-7.3170 -2.4935 -2.0015 0.9686
-7.0658 -3.1354 -2.0015 0.9686
-6.3972 -4.3395 -2.0015 0.9686
-5.9852 -4.8921 -2.0015 0.9686
-4.4787 -6.3006 -2.0015 0.9686
-3.2895 -6.9954 -2.0015 0.9686
-2.6532 -7.2606 -2.0015 0.9686
2.0920 -7.4417 -2.0015 0.9686
2.7466 -7.2258 -2.0015 0.9686
4.5595 -6.2424 -2.0015 0.9686
5.5949 -5.3342 -2.0015 0.9686
6.0478 -4.8146 -2.0015 0.9686
7.1056 -3.0441 -2.0015 0.9686
7.3485 -2.3990 -2.0015 0.9686
7.6576 -1.0569 -2.0015 0.9686
7.7213 -0.3705 -2.0015 0.9686
7.6645 1.0055 -2.0015 0.9686
7.3645 2.3497 -2.0015 0.9686
6.8306 3.6192 -2.0015 0.9686
6.4810 4.2133 -2.0015 0.9686
6.0800 4.7739 -2.0015 0.9686
5.6305 5.2966 -2.0015 0.9686
5.1363 5.7771 -2.0015 0.9686
4.6012 6.2117 -2.0015 0.9686
4.0296 6.5969 -2.0015 0.9686
2.1388 7.4171 -1.9987 0.9686
1.4677 7.5684 -1.9961 0.9686
0.7870 7.6629 -1.9945 0.9687
0.1013 7.6996 -1.9937 0.9687
-2.6042 7.2773 -2.0012 0.9686
-4.4363 6.3305 -2.0015 0.9686
-4.9826 5.9102 -2.0015 0.9686
-6.3680 4.3823 -2.0015 0.9686
-7.0701 0.0000 -2.0015 0.9710
-7.0420 -0.6298 -2.0015 0.9710
-6.9579 -1.2546 -2.0015 0.9710
-6.8184 -1.8695 -2.0015 0.9710
-5.3450 -4.6278 -2.0015 0.9710
-4.4390 -5.5028 -2.0015 0.9710
-3.9311 -5.8764 -2.0015 0.9710
-3.3920 -6.2032 -2.0015 0.9710
-1.0118 -6.9973 -2.0015 0.9710
0.2460 -7.0658 -2.0015 0.9710
0.8745 -7.0158 -2.0015 0.9710
1.4960 -6.9100 -2.0015 0.9710
2.1056 -6.7493 -2.0015 0.9710
2.6984 -6.5349 -2.0015 0.9710
3.8153 -5.9523 -2.0015 0.9710
4.8110 -5.1808 -2.0015 0.9710
5.6540 -4.2448 -2.0015 0.9710
6.3175 -3.1741 -2.0015 0.9710
6.5751 -2.5987 -2.0015 0.9710
6.7805 -2.0027 -2.0015 0.9710
6.9320 -1.3907 -2.0015 0.9710
7.0283 -0.7677 -2.0015 0.9710
7.0530 0.4917 -2.0015 0.9710
6.6719 2.3392 -2.0015 0.9710
6.1509 3.4860 -2.0015 0.9710
5.4347 4.5222 -2.0015 0.9710
5.0103 4.9883 -2.0015 0.9710
4.5460 5.4148 -2.0015 0.9710
3.5129 6.1356 -2.0015 0.9710
2.9524 6.4241 -2.0015 0.9710
2.3684 6.6616 -2.0015 0.9710
1.1487 6.9761 -2.0015 0.9710
0.5226 7.0507 -2.0015 0.9710
-2.5699 6.5865 -2.0015 0.9710
-5.1596 4.8336 -2.0015 0.9710
-5.9355 3.8413 -2.0015 0.9710
-6.2541 3.2973 -2.0015 0.9710
-6.5230 2.7271 -2.0015 0.9710
-6.7400 2.1351 -2.0015 0.9710
-6.9034 1.5263 -2.0015 0.9710
-7.0119 0.9052 -2.0015 0.9710
-7.0647 0.2770 -2.0015 0.9710
-7.0612 -0.3535 -2.0015 0.9710
-7.0017 -0.9811 -2.0015 0.9710
-6.4931 -2.7975 -2.0015 0.9710
-5.8936 -3.9054 -2.0015 0.9710
-3.6324 -6.0656 -2.0015 0.9710
-3.0777 -6.3651 -2.0015 0.9710
-2.4984 -6.6139 -2.0015 0.9710
-1.8993 -6.8102 -2.0015 0.9710
-1.2851 -6.9523 -2.0015 0.9710
-0.6607 -7.0391 -2.0015 0.9710
1.2241 -6.9633 -2.0015 0.9710
2.4404 -6.6356 -2.0015 0.9710
3.5791 -6.0972 -2.0015 0.9710
4.1081 -5.7541 -2.0015 0.9710
4.6043 -5.3653 -2.0015 0.9710
5.4833 -4.4631 -2.0015 0.9710
5.8591 -3.9569 -2.0015 0.9710
6.1883 -3.4192 -2.0015 0.9710
6.8722 -1.6612 -2.0015 0.9710
6.9928 -1.0424 -2.0015 0.9710
7.0579 -0.4153 -2.0015 0.9710
6.9165 1.4657 -2.0015 0.9710
6.7584 2.0760 -2.0015 0.9710
6.5466 2.6698 -2.0015 0.9710
6.2828 3.2423 -2.0015 0.9710
5.9690 3.7891 -2.0015 0.9710
5.6077 4.3058 -2.0015 0.9710
5.2018 4.7882 -2.0015 0.9710
4.2696 5.6353 -2.0015 0.9710
3.7506 5.9933 -2.0015 0.9710
2.6275 6.5637 -2.0015 0.9710
2.0324 6.7717 -2.0015 0.9710
1.4211 6.9258 -2.0015 0.9710
0.7985 7.0248 -2.0015 0.9710
0.1695 7.0680 -2.0015 0.9710
-1.7055 6.8613 -2.0015 0.9710
-3.4590 6.1662 -2.0015 0.9710
-4.9663 5.0321 -2.0015 0.9710
-5.3948 4.5696 -2.0015 0.9710
-5.7805 4.0709 -2.0015 0.9710
-6.1201 3.5398 -2.0015 0.9710
-6.6512 2.3975 -2.0015 0.9710
-6.9710 1.1792 -2.0015 0.9710
-7.0697 -0.0766 -2.0015 0.9710
-6.9439 -1.3299 -2.0015 0.9710
-6.5977 -2.5410 -2.0015 0.9710
-6.0421 -3.6715 -2.0015 0.9710
-5.6910 -4.1951 -2.0015 0.9710
-5.2946 -4.6854 -2.0015 0.9710
-4.8562 -5.1384 -2.0015 0.9710
-3.8673 -5.9186 -2.0015 0.9710
-0.9359 -7.0079 -2.0015 0.9710
1.5707 -6.8934 -2.0015 0.9710
2.1785 -6.7261 -2.0015 0.9710
2.7690 -6.5053 -2.0015 0.9710
3.3375 -6.2327 -2.0015 0.9710
4.3906 -5.5416 -2.0015 0.9710
6.3515 -3.1055 -2.0015 0.9710
6.8018 -1.9292 -2.0015 0.9710
6.9466 -1.3156 -2.0015 0.9710
7.0362 -0.6915 -2.0015 0.9710
7.0472 0.5681 -2.0015 0.9710
6.8346 1.8096 -2.0015 0.9710
6.6462 2.4112 -2.0015 0.9710
6.4050 2.9937 -2.0015 0.9710
4.9559 5.0423 -2.0015 0.9710
3.9825 5.8417 -2.0015 0.9710
3.4463 6.1733 -2.0015 0.9710
2.2961 6.6868 -2.0015 0.9710
1.6913 6.8648 -2.0015 0.9710
-0.1841 7.0677 -2.0015 0.9710
-2.0463 6.7675 -2.0015 0.9710
-3.2148 6.2969 -2.0015 0.9710
-4.2812 5.6265 -2.0015 0.9710
-5.2117 4.7775 -2.0015 0.9710
-6.2894 3.2294 -2.0015 0.9710
-6.5521 2.6563 -2.0015 0.9710
-6.7627 2.0621 -2.0015 0.9710
-6.9195 1.4514 -2.0015 0.9710
-7.0213 0.8292 -2.0015 0.9710
-6.8687 -1.6754 -2.0015 0.9710
-6.6922 -2.2806 -2.0015 0.9710
-5.8509 -3.9689 -2.0015 0.9710
-4.5933 -5.3748 -2.0015 0.9710
-3.5666 -6.1046 -2.0015 0.9710
-1.8255 -6.8303 -2.0015 0.9710
-1.2098 -6.9658 -2.0015 0.9710
0.6752 -7.0378 -2.0015 0.9710
1.9134 -6.8063 -2.0015 0.9710
2.5121 -6.6087 -2.0015 0.9710
3.6450 -6.0581 -2.0015 0.9710
4.1701 -5.7093 -2.0015 0.9710
5.1171 -4.8787 -2.0015 0.9710
5.5313 -4.4034 -2.0015 0.9710
6.4988 -2.7841 -2.0015 0.9710
6.8897 -1.5867 -2.0015 0.9710
7.0037 -0.9666 -2.0015 0.9710
7.0620 -0.3389 -2.0015 0.9710
7.0641 0.2915 -2.0015 0.9710
6.9002 1.5405 -2.0015 0.9710
6.5173 2.7405 -2.0015 0.9710
6.2473 3.3102 -2.0015 0.9710
5.9276 3.8535 -2.0015 0.9710
5.1497 4.8443 -2.0015 0.9710
3.1334 6.3378 -2.0015 0.9710
2.5563 6.5917 -2.0015 0.9710
1.9589 6.7933 -2.0015 0.9710
0.7224 7.0331 -2.0015 0.9710
-0.5372 7.0497 -2.0015 0.9710
-1.1630 6.9738 -2.0015 0.9710
-1.7796 6.8424 -2.0015 0.9710
-2.3821 6.6567 -2.0015 0.9710
-3.5256 6.1283 -2.0015 0.9710
-4.0575 5.7899 -2.0015 0.9710
-4.5571 5.4054 -2.0015 0.9710
-5.4440 4.5110 -2.0015 0.9710
-6.5072 0.0000 -2.0015 0.9731
-6.4814 -0.5797 -2.0015 0.9731
-6.0974 -2.2728 -2.0015 0.9731
-5.5973 -3.3188 -2.0015 0.9731
-5.2794 -3.8042 -2.0015 0.9731
-4.9195 -4.2594 -2.0015 0.9731
-4.0856 -5.0648 -2.0015 0.9731
-3.1220 -5.7094 -2.0015 0.9731
-2.0593 -6.1728 -2.0015 0.9731
-1.5012 -6.3317 -2.0015 0.9731
-0.3538 -6.4976 -2.0015 0.9731
0.8049 -6.4573 -2.0015 0.9731
1.9380 -6.2120 -2.0015 0.9731
3.0096 -5.7695 -2.0015 0.9731
3.5115 -5.4784 -2.0015 0.9731
3.9856 -5.1439 -2.0015 0.9731
4.4280 -4.7684 -2.0015 0.9731
4.8352 -4.3550 -2.0015 0.9731
6.0517 -2.3919 -2.0015 0.9731
6.3801 -1.2800 -2.0015 0.9731
6.4915 0.4526 -2.0015 0.9731
6.1408 2.1529 -2.0015 0.9731
5.6613 3.2085 -2.0015 0.9731
5.0021 4.1622 -2.0015 0.9731
3.7235 5.3367 -2.0015 0.9731
3.2333 5.6471 -2.0015 0.9731
2.7174 5.9127 -2.0015 0.9731
2.1798 6.1313 -2.0015 0.9731
1.6250 6.3011 -2.0015 0.9731
1.0572 6.4208 -2.0015 0.9731
-0.0990 6.5065 -2.0015 0.9731
-1.8159 6.2487 -2.0015 0.9731
-2.3653 6.0621 -2.0015 0.9731
-2.8959 5.8273 -2.0015 0.9731
-3.4035 5.5462 -2.0015 0.9731
-4.3337 4.8542 -2.0015 0.9731
-4.7489 4.4488 -2.0015 0.9731
-5.1263 4.0081 -2.0015 0.9731
-5.4630 3.5355 -2.0015 0.9731
-6.2034 1.9652 -2.0015 0.9731
-6.4537 0.8331 -2.0015 0.9731
-6.5023 0.2549 -2.0015 0.9731
-6.3382 -1.4734 -2.0015 0.9731
-6.1818 -2.0322 -2.0015 0.9731
-5.9762 -2.5748 -2.0015 0.9731
-5.7230 -3.0970 -2.0015 0.9731
-4.7005 -4.5000 -2.0015 0.9731
-3.8273 -5.2627 -2.0015 0.9731
-3.3433 -5.5827 -2.0015 0.9731
-2.2995 -6.0874 -2.0015 0.9731
-1.7481 -6.2680 -2.0015 0.9731
-1.1828 -6.3989 -2.0015 0.9731
-0.6081 -6.4788 -2.0015 0.9731
-0.0285 -6.5072 -2.0015 0.9731
0.5513 -6.4839 -2.0015 0.9731
1.1267 -6.4090 -2.0015 0.9731
1.6931 -6.2831 -2.0015 0.9731
2.7812 -5.8830 -2.0015 0.9731
3.2942 -5.6118 -2.0015 0.9731
4.2378 -4.9382 -2.0015 0.9731
5.0468 -4.1078 -2.0015 0.9731
5.3927 -3.6419 -2.0015 0.9731
6.4361 -0.9594 -2.0015 0.9731
6.4960 -0.3823 -2.0015 0.9731
6.5042 0.1979 -2.0015 0.9731
6.4608 0.7766 -2.0015 0.9731
6.3659 1.3490 -2.0015 0.9731
4.7877 4.4070 -2.0015 0.9731
4.3761 4.8160 -2.0015 0.9731
3.9297 5.1867 -2.0015 0.9731
2.9469 5.8017 -2.0015 0.9731
2.4184 6.0412 -2.0015 0.9731
1.8706 6.2326 -2.0015 0.9731
0.1560 6.5054 -2.0015 0.9731
-0.4241 6.4934 -2.0015 0.9731
-1.0009 6.4298 -2.0015 0.9731
-1.5697 6.3151 -2.0015 0.9731
-3.1836 5.6753 -2.0015 0.9731
-4.1402 5.0203 -2.0015 0.9731
-5.3203 3.7468 -2.0015 0.9731
-5.6329 3.2580 -2.0015 0.9731
-5.9007 2.7432 -2.0015 0.9731
-6.1217 2.2067 -2.0015 0.9731
-6.4873 0.5095 -2.0015 0.9731
-6.5069 -0.0705 -2.0015 0.9731
-6.4747 -0.6498 -2.0015 0.9731
-6.3911 -1.2240 -2.0015 0.9731
-6.2566 -1.7885 -2.0015 0.9731
-6.0724 -2.3387 -2.0015 0.9731
-5.2379 -3.8611 -2.0015 0.9731
-4.0305 -5.1087 -2.0015 0.9731
-3.0600 -5.7429 -2.0015 0.9731
-1.4326 -6.3476 -2.0015 0.9731
-0.2834 -6.5011 -2.0015 0.9731
0.2968 -6.5005 -2.0015 0.9731
0.8747 -6.4482 -2.0015 0.9731
3.0718 -5.7366 -2.0015 0.9731
4.4794 -4.7201 -2.0015 0.9731
4.8820 -4.3023 -2.0015 0.9731
5.2459 -3.8503 -2.0015 0.9731
5.8459 -2.8583 -2.0015 0.9731
6.2603 -1.7756 -2.0015 0.9731
6.3936 -1.2108 -2.0015 0.9731
6.4761 -0.6365 -2.0015 0.9731
6.5070 -0.0571 -2.0015 0.9731
6.4862 0.5228 -2.0015 0.9731
6.4139 1.0986 -2.0015 0.9731
6.2905 1.6656 -2.0015 0.9731
6.1171 2.2193 -2.0015 0.9731
5.8951 2.7554 -2.0015 0.9731
5.6262 3.2696 -2.0015 0.9731
4.5614 4.6409 -2.0015 0.9731
4.1299 5.0288 -2.0015 0.9731
3.6655 5.3767 -2.0015 0.9731
2.1133 6.1545 -2.0015 0.9731
1.5567 6.3183 -2.0015 0.9731
0.9876 6.4319 -2.0015 0.9731
-0.1694 6.5050 -2.0015 0.9731
-0.7482 6.4641 -2.0015 0.9731
-1.8834 6.2287 -2.0015 0.9731
-3.4634 5.5090 -2.0015 0.9731
-3.9404 5.1786 -2.0015 0.9731
-4.7968 4.3972 -2.0015 0.9731
-5.1694 3.9524 -2.0015 0.9731
-6.2243 1.8979 -2.0015 0.9731
-6.3686 1.3359 -2.0015 0.9731
-6.4952 -0.3957 -2.0015 0.9731
-6.3219 -1.5420 -2.0015 0.9731
-4.6515 -4.5506 -2.0015 0.9731
-3.7701 -5.3038 -2.0015 0.9731
-3.2827 -5.6186 -2.0015 0.9731
-2.2335 -6.1119 -2.0015 0.9731
-0.5379 -6.4850 -2.0015 0.9731
0.0419 -6.5071 -2.0015 0.9731
0.6214 -6.4775 -2.0015 0.9731
1.1960 -6.3964 -2.0015 0.9731
2.3121 -6.0826 -2.0015 0.9731
4.7097 -4.4903 -2.0015 0.9731
5.0910 -4.0529 -2.0015 0.9731
5.9815 -2.5625 -2.0015 0.9731
6.1860 -2.0195 -2.0015 0.9731
6.4461 -0.8897 -2.0015 0.9731
6.4998 -0.3119 -2.0015 0.9731
6.5017 0.2683 -2.0015 0.9731
6.4520 0.8464 -2.0015 0.9731
6.1994 1.9779 -2.0015 0.9731
5.7500 3.0467 -2.0015 0.9731
5.4557 3.5468 -2.0015 0.9731
5.1181 4.0187 -2.0015 0.9731
4.7397 4.4586 -2.0015 0.9731
2.8839 5.8333 -2.0015 0.9731
2.3528 6.0670 -2.0015 0.9731
1.8030 6.2525 -2.0015 0.9731
0.6649 6.4732 -2.0015 0.9731
-1.6380 6.2977 -2.0015 0.9731
-2.7295 5.9071 -2.0015 0.9731
-3.7345 5.3290 -2.0015 0.9731
-4.1943 4.9751 -2.0015 0.9731
-4.6208 4.5817 -2.0015 0.9731
-5.0106 4.1519 -2.0015 0.9731
-5.3605 3.6890 -2.0015 0.9731
-5.9973 -0.5364 -2.0015 0.9749
-5.8069 -1.5921 -2.0015 0.9749
-5.4322 -2.5973 -2.0015 0.9749
-5.1793 -3.0709 -2.0015 0.9749
-4.8851 -3.5201 -2.0015 0.9749
-4.5521 -3.9412 -2.0015 0.9749
-3.7805 -4.6865 -2.0015 0.9749
-3.3480 -5.0046 -2.0015 0.9749
-1.9055 -5.7118 -2.0015 0.9749
-0.8617 -5.9593 -2.0015 0.9749
-0.3274 -6.0123 -2.0015 0.9749
0.2095 -6.0176 -2.0015 0.9749
1.2740 -5.8849 -2.0015 0.9749
1.7932 -5.7480 -2.0015 0.9749
2.7848 -5.3386 -2.0015 0.9749
3.2493 -5.0693 -2.0015 0.9749
3.6879 -4.7597 -2.0015 0.9749
4.8152 -3.6151 -2.0015 0.9749
5.1181 -3.1718 -2.0015 0.9749
5.9036 -1.1844 -2.0015 0.9749
5.8370 1.4780 -2.0015 0.9749
5.6821 1.9921 -2.0015 0.9749
4.9531 3.4237 -2.0015 0.9749
4.6285 3.8513 -2.0015 0.9749
3.8716 4.6115 -2.0015 0.9749
2.9918 5.2254 -2.0015 0.9749
2.0170 5.6733 -2.0015 0.9749
1.5036 5.8305 -2.0015 0.9749
0.9783 5.9412 -2.0015 0.9749
-0.6275 5.9884 -2.0015 0.9749
-2.1887 5.6094 -2.0015 0.9749
-2.6796 5.3921 -2.0015 0.9749
-3.1493 5.1320 -2.0015 0.9749
-3.5940 4.8310 -2.0015 0.9749
-4.0100 4.4916 -2.0015 0.9749
-4.3942 4.1166 -2.0015 0.9749
-4.7435 3.7088 -2.0015 0.9749
-5.0550 3.2715 -2.0015 0.9749
-5.5553 2.3225 -2.0015 0.9749
-5.9717 0.7709 -2.0015 0.9749
-5.8648 -1.3634 -2.0015 0.9749
-5.7201 -1.8804 -2.0015 0.9749
-5.5298 -2.3825 -2.0015 0.9749
-5.2956 -2.8656 -2.0015 0.9749
-5.0192 -3.3260 -2.0015 0.9749
-4.3494 -4.1639 -2.0015 0.9749
-3.5414 -4.8696 -2.0015 0.9749
-3.0936 -5.1657 -2.0015 0.9749
-2.1278 -5.6327 -2.0015 0.9749
-1.6176 -5.7999 -2.0015 0.9749
2.0783 -5.6512 -2.0015 0.9749
2.5735 -5.4436 -2.0015 0.9749
3.0482 -5.1927 -2.0015 0.9749
4.3127 -4.2019 -2.0015 0.9749
4.6699 -3.8010 -2.0015 0.9749
5.7034 -1.9305 -2.0015 0.9749
5.8527 -1.4148 -2.0015 0.9749
5.8904 1.2482 -2.0015 0.9749
4.7758 3.6670 -2.0015 0.9749
2.2377 5.5900 -2.0015 0.9749
-0.3924 6.0084 -2.0015 0.9749
-1.4525 5.8434 -2.0015 0.9749
-2.4663 5.4929 -2.0015 0.9749
-3.4019 4.9681 -2.0015 0.9749
-5.8238 1.5292 -2.0015 0.9749
-6.0027 0.4714 -2.0015 0.9749
-6.0209 -0.0652 -2.0015 0.9749
-5.9137 -1.1326 -2.0015 0.9749
-5.6189 -2.1640 -2.0015 0.9749
-5.4038 -2.6560 -2.0015 0.9749
-4.8467 -3.5728 -2.0015 0.9749
-4.1358 -4.3761 -2.0015 0.9749
-3.7295 -4.7272 -2.0015 0.9749
-3.2936 -5.0406 -2.0015 0.9749
-2.3468 -5.5451 -2.0015 0.9749
-1.3256 -5.8735 -2.0015 0.9749
-0.2623 -6.0155 -2.0015 0.9749
0.8094 -5.9666 -2.0015 0.9749
1.8553 -5.7283 -2.0015 0.9749
2.3583 -5.5402 -2.0015 0.9749
2.8424 -5.3081 -2.0015 0.9749
4.5174 -3.9810 -2.0015 0.9749
5.9161 -1.1204 -2.0015 0.9749
5.9924 -0.5889 -2.0015 0.9749
6.0018 0.4838 -2.0015 0.9749
5.4548 2.5496 -2.0015 0.9749
4.5865 3.9012 -2.0015 0.9749
3.3917 4.9751 -2.0015 0.9749
2.4550 5.4980 -2.0015 0.9749
1.9555 5.6948 -2.0015 0.9749
0.9139 5.9515 -2.0015 0.9749
0.3801 6.0092 -2.0015 0.9749
-0.1568 6.0192 -2.0015 0.9749
-1.2224 5.8958 -2.0015 0.9749
-2.2492 5.5853 -2.0015 0.9749
-2.7379 5.3628 -2.0015 0.9749
-3.2047 5.0976 -2.0015 0.9749
-4.0584 4.4480 -2.0015 0.9749
-5.0901 3.2165 -2.0015 0.9749
-5.3564 2.7503 -2.0015 0.9749
-5.5801 2.2622 -2.0015 0.9749
-5.7594 1.7561 -2.0015 0.9749
-5.8930 1.2361 -2.0015 0.9749
-5.9797 0.7062 -2.0015 0.9749
-5.9536 -0.9000 -2.0015 0.9749
-5.8497 -1.4268 -2.0015 0.9749
-5.5037 -2.4422 -2.0015 0.9749
-5.2642 -2.9228 -2.0015 0.9749
-3.9118 -4.5774 -2.0015 0.9749
-2.5623 -5.4489 -2.0015 0.9749
0.0388 -6.0211 -2.0015 0.9749
0.5750 -5.9937 -2.0015 0.9749
1.1067 -5.9187 -2.0015 0.9749
1.6295 -5.7965 -2.0015 0.9749
2.1394 -5.6283 -2.0015 0.9749
2.6323 -5.4154 -2.0015 0.9749
4.3580 -4.1549 -2.0015 0.9749
5.3015 -2.8547 -2.0015 0.9749
5.7239 -1.8686 -2.0015 0.9749
5.9647 -0.8232 -2.0015 0.9749
6.0143 -0.2886 -2.0015 0.9749
6.0161 0.2483 -2.0015 0.9749
5.7363 1.8302 -2.0015 0.9749
5.5505 2.3339 -2.0015 0.9749
4.3857 4.1256 -2.0015 0.9749
4.0008 4.4999 -2.0015 0.9749
2.6685 5.3976 -2.0015 0.9749
2.1771 5.6139 -2.0015 0.9749
1.1463 5.9111 -2.0015 0.9749
0.6152 5.9897 -2.0015 0.9749
0.0792 6.0207 -2.0015 0.9749
-0.9905 5.9392 -2.0015 0.9749
-2.0287 5.6692 -2.0015 0.9749
-3.4555 4.9310 -2.0015 0.9749
-4.2757 4.2395 -2.0015 0.9749
-4.6364 3.8418 -2.0015 0.9749
-4.9602 3.4135 -2.0015 0.9749
-5.5746 -0.4986 -2.0015 0.9765
-5.2444 -1.9549 -2.0015 0.9765
-4.2313 -3.6635 -2.0015 0.9765
-3.8881 -4.0259 -2.0015 0.9765
-2.6852 -4.9107 -2.0015 0.9765
-2.2371 -5.1304 -2.0015 0.9765
-1.2912 -5.4459 -2.0015 0.9765
0.1948 -5.5935 -2.0015 0.9765
0.6923 -5.5539 -2.0015 0.9765
1.6668 -5.3429 -2.0015 0.9765
2.1362 -5.1732 -2.0015 0.9765
2.5885 -4.9623 -2.0015 0.9765
3.8085 -4.1013 -2.0015 0.9765
4.1587 -3.7457 -2.0015 0.9765
4.4759 -3.3603 -2.0015 0.9765
5.0011 -2.5127 -2.0015 0.9765
5.2051 -2.0572 -2.0015 0.9765
5.4876 -1.1009 -2.0015 0.9765
5.5638 -0.6077 -2.0015 0.9765
5.5833 0.3893 -2.0015 0.9765
4.3023 3.5799 -2.0015 0.9765
3.9663 3.9489 -2.0015 0.9765
3.2026 4.5901 -2.0015 0.9765
2.7809 4.8571 -2.0015 0.9765
2.3372 5.0855 -2.0015 0.9765
1.3977 5.4196 -2.0015 0.9765
0.9093 5.5225 -2.0015 0.9765
0.4137 5.5816 -2.0015 0.9765
-0.0851 5.5963 -2.0015 0.9765
-1.5618 5.3746 -2.0015 0.9765
-2.9274 4.7703 -2.0015 0.9765
-3.3407 4.4905 -2.0015 0.9765
-3.7274 4.1751 -2.0015 0.9765
-4.0845 3.8265 -2.0015 0.9765
-4.4092 3.4474 -2.0015 0.9765
-4.6987 3.0409 -2.0015 0.9765
-4.9509 2.6102 -2.0015 0.9765
-5.5926 0.2193 -2.0015 0.9765
-5.4515 -1.2673 -2.0015 0.9765
-5.1401 -2.2146 -2.0015 0.9765
-4.9224 -2.6637 -2.0015 0.9765
-4.3716 -3.4949 -2.0015 0.9765
-3.6820 -4.2152 -2.0015 0.9765
-2.8756 -4.8017 -2.0015 0.9765
-2.4364 -5.0388 -2.0015 0.9765
-1.0173 -5.5037 -2.0015 0.9765
-0.5230 -5.5724 -2.0015 0.9765
-0.0245 -5.5968 -2.0015 0.9765
0.4742 -5.5768 -2.0015 0.9765
0.9690 -5.5124 -2.0015 0.9765
1.4562 -5.4041 -2.0015 0.9765
1.9319 -5.2529 -2.0015 0.9765
2.3921 -5.0599 -2.0015 0.9765
3.2521 -4.5551 -2.0015 0.9765
4.3408 -3.5331 -2.0015 0.9765
4.8989 -2.7067 -2.0015 0.9765
5.3014 -1.7945 -2.0015 0.9765
5.4402 -1.3151 -2.0015 0.9765
5.5357 -0.8252 -2.0015 0.9765
5.5872 -0.3288 -2.0015 0.9765
5.5943 0.1702 -2.0015 0.9765
5.5569 0.6679 -2.0015 0.9765
5.3502 1.6434 -2.0015 0.9765
5.1825 2.1135 -2.0015 0.9765
4.9736 2.5667 -2.0015 0.9765
4.7252 2.9996 -2.0015 0.9765
4.4392 3.4086 -2.0015 0.9765
3.7639 4.1423 -2.0015 0.9765
3.3799 4.4611 -2.0015 0.9765
2.9691 4.7444 -2.0015 0.9765
1.6089 5.3607 -2.0015 0.9765
1.1250 5.4827 -2.0015 0.9765
0.1342 5.5953 -2.0015 0.9765
-0.8609 5.5303 -2.0015 0.9765
-1.3501 5.4316 -2.0015 0.9765
-1.8286 5.2898 -2.0015 0.9765
-2.7383 4.8813 -2.0015 0.9765
-3.9315 3.9835 -2.0015 0.9765
-4.2707 3.6175 -2.0015 0.9765
-4.5760 3.2227 -2.0015 0.9765
-4.8449 2.8022 -2.0015 0.9765
-5.5185 0.9335 -2.0015 0.9765
-5.5797 0.4382 -2.0015 0.9765
-5.3813 -1.5383 -2.0015 0.9765
-3.8443 -4.0677 -2.0015 0.9765
-2.6319 -4.9395 -2.0015 0.9765
-1.7136 -5.3281 -2.0015 0.9765
-0.2438 -5.5916 -2.0015 0.9765
0.7524 -5.5461 -2.0015 0.9765
1.2434 -5.4570 -2.0015 0.9765
3.4757 -4.3869 -2.0015 0.9765
3.8527 -4.0598 -2.0015 0.9765
4.1990 -3.7005 -2.0015 0.9765
5.0281 -2.4584 -2.0015 0.9765
5.3845 -1.5272 -2.0015 0.9765
5.4991 -1.0414 -2.0015 0.9765
5.5788 0.4497 -2.0015 0.9765
5.5166 0.9449 -2.0015 0.9765
5.0704 2.3699 -2.0015 0.9765
4.8391 2.8122 -2.0015 0.9765
4.5694 3.2321 -2.0015 0.9765
3.5521 4.3253 -2.0015 0.9765
3.1527 4.6245 -2.0015 0.9765
2.2820 5.1105 -2.0015 0.9765
1.8177 5.2935 -2.0015 0.9765
0.8495 5.5321 -2.0015 0.9765
0.3533 5.5857 -2.0015 0.9765
-0.6435 5.5598 -2.0015 0.9765
-1.6199 5.3573 -2.0015 0.9765
-2.0907 5.1917 -2.0015 0.9765
-2.5449 4.9848 -2.0015 0.9765
-4.4462 3.3995 -2.0015 0.9765
-4.7314 2.9898 -2.0015 0.9765
-4.9789 2.5565 -2.0015 0.9765
-5.1869 2.1028 -2.0015 0.9765
-5.3535 1.6324 -2.0015 0.9765
-5.4777 1.1490 -2.0015 0.9765
-5.5946 0.1587 -2.0015 0.9765
-5.5865 -0.3403 -2.0015 0.9765
-5.2977 -1.8054 -2.0015 0.9765
-4.8933 -2.7168 -2.0015 0.9765
-4.6318 -3.1419 -2.0015 0.9765
-4.3335 -3.5420 -2.0015 0.9765
-4.0007 -3.9140 -2.0015 0.9765
-2.8234 -4.8325 -2.0015 0.9765
-2.3817 -5.0649 -2.0015 0.9765
-1.9210 -5.2569 -2.0015 0.9765
0.0361 -5.5968 -2.0015 0.9765
0.5345 -5.5713 -2.0015 0.9765
1.0287 -5.5016 -2.0015 0.9765
1.5147 -5.3880 -2.0015 0.9765
4.0508 -3.8621 -2.0015 0.9765
4.9279 -2.6535 -2.0015 0.9765
5.5443 -0.7652 -2.0015 0.9765
5.5905 -0.2683 -2.0015 0.9765
5.4624 1.2195 -2.0015 0.9765
5.3321 1.7012 -2.0015 0.9765
4.9456 2.6204 -2.0015 0.9765
4.6925 3.0506 -2.0015 0.9765
4.4021 3.4565 -2.0015 0.9765
3.3314 4.4974 -2.0015 0.9765
2.9175 4.7763 -2.0015 0.9765
2.4805 5.0172 -2.0015 0.9765
2.0237 5.2182 -2.0015 0.9765
1.5508 5.3778 -2.0015 0.9765
0.5718 5.5676 -2.0015 0.9765
0.0736 5.5964 -2.0015 0.9765
-0.4252 5.5807 -2.0015 0.9765
-0.9207 5.5206 -2.0015 0.9765
-1.8857 5.2697 -2.0015 0.9765
-2.7909 4.8514 -2.0015 0.9765
-3.2120 4.5835 -2.0015 0.9765
-3.6075 4.2791 -2.0015 0.9765
-3.9744 3.9407 -2.0015 0.9765
-4.3096 3.5710 -2.0015 0.9765
-4.6106 3.1729 -2.0015 0.9765
-5.2228 0.0000 -2.0015 0.9779
-5.1399 -0.9268 -2.0015 0.9779
-5.0370 -1.3810 -2.0015 0.9779
-4.8939 -1.8242 -2.0015 0.9779
-4.7119 -2.2529 -2.0015 0.9779
-4.2374 -3.0533 -2.0015 0.9779
-3.2792 -4.0651 -2.0015 0.9779
-1.6528 -4.9544 -2.0015 0.9779
-0.2840 -5.2151 -2.0015 0.9779
0.6460 -5.1827 -2.0015 0.9779
1.1051 -5.1046 -2.0015 0.9779
1.9934 -4.8275 -2.0015 0.9779
2.8184 -4.3971 -2.0015 0.9779
3.1989 -4.1286 -2.0015 0.9779
3.5540 -3.8272 -2.0015 0.9779
3.8808 -3.4954 -2.0015 0.9779
4.6669 -2.3448 -2.0015 0.9779
5.0089 -1.4794 -2.0015 0.9779
5.1208 -1.0274 -2.0015 0.9779
5.2219 -0.1023 -2.0015 0.9779
5.2102 0.3633 -2.0015 0.9779
5.1571 0.8259 -2.0015 0.9779
4.9287 1.7280 -2.0015 0.9779
4.7552 2.1602 -2.0015 0.9779
4.0148 3.3407 -2.0015 0.9779
3.7012 3.6850 -2.0015 0.9779
2.9885 4.2833 -2.0015 0.9779
2.1810 4.7457 -2.0015 0.9779
1.3042 5.0574 -2.0015 0.9779
0.8485 5.1535 -2.0015 0.9779
-0.0794 5.2222 -2.0015 0.9779
-0.5443 5.1944 -2.0015 0.9779
-1.4575 5.0154 -2.0015 0.9779
-3.1174 4.1904 -2.0015 0.9779
-3.4783 3.8961 -2.0015 0.9779
-3.8116 3.5707 -2.0015 0.9779
-4.1145 3.2170 -2.0015 0.9779
-4.3847 2.8377 -2.0015 0.9779
-4.8187 2.0145 -2.0015 0.9779
-4.9790 1.5773 -2.0015 0.9779
-5.0997 1.1275 -2.0015 0.9779
-5.1799 0.6687 -2.0015 0.9779
-5.2163 -0.2611 -2.0015 0.9779
-5.0872 -1.1826 -2.0015 0.9779
-4.9616 -1.6311 -2.0015 0.9779
-4.7966 -2.0666 -2.0015 0.9779
-4.5934 -2.4857 -2.0015 0.9779
-4.3537 -2.8850 -2.0015 0.9779
-2.6834 -4.4808 -2.0015 0.9779
-2.2736 -4.7020 -2.0015 0.9779
-0.9493 -5.1359 -2.0015 0.9779
-0.4881 -5.2000 -2.0015 0.9779
1.8028 -4.9019 -2.0015 0.9779
2.2323 -4.7218 -2.0015 0.9779
3.0347 -4.2507 -2.0015 0.9779
3.4013 -3.9635 -2.0015 0.9779
4.0507 -3.2970 -2.0015 0.9779
4.5715 -2.5258 -2.0015 0.9779
4.7783 -2.1086 -2.0015 0.9779
4.9471 -1.6745 -2.0015 0.9779
5.0766 -1.2272 -2.0015 0.9779
5.1658 -0.7701 -2.0015 0.9779
5.2204 0.1589 -2.0015 0.9779
4.9926 1.5336 -2.0015 0.9779
4.6413 2.3952 -2.0015 0.9779
3.5124 3.8654 -2.0015 0.9779
2.3652 4.6566 -2.0015 0.9779
1.0498 5.1163 -2.0015 0.9779
0.5898 5.1894 -2.0015 0.9779
0.1252 5.2213 -2.0015 0.9779
-2.5553 4.5551 -2.0015 0.9779
-3.9853 3.3757 -2.0015 0.9779
-4.2702 3.0073 -2.0015 0.9779
-4.7361 2.2018 -2.0015 0.9779
-4.9134 1.7711 -2.0015 0.9779
-5.0516 1.3264 -2.0015 0.9779
-5.2068 0.4089 -2.0015 0.9779
-5.1967 -0.5216 -2.0015 0.9779
-5.0217 -1.4355 -2.0015 0.9779
-4.2041 -3.0990 -2.0015 0.9779
-3.2350 -4.1004 -2.0015 0.9779
-2.8569 -4.3722 -2.0015 0.9779
-2.4560 -4.6094 -2.0015 0.9779
-1.1498 -5.0947 -2.0015 0.9779
-0.2275 -5.2179 -2.0015 0.9779
1.1603 -5.0923 -2.0015 0.9779
2.0456 -4.8056 -2.0015 0.9779
2.4655 -4.6043 -2.0015 0.9779
3.2434 -4.0937 -2.0015 0.9779
3.9184 -3.4531 -2.0015 0.9779
4.4690 -2.7030 -2.0015 0.9779
4.6920 -2.2941 -2.0015 0.9779
4.8777 -1.8671 -2.0015 0.9779
5.1316 -0.9718 -2.0015 0.9779
5.2060 0.4196 -2.0015 0.9779
5.1479 0.8817 -2.0015 0.9779
4.7315 2.2115 -2.0015 0.9779
3.9783 3.3839 -2.0015 0.9779
3.6611 3.7249 -2.0015 0.9779
3.3147 4.0362 -2.0015 0.9779
2.5459 4.5603 -2.0015 0.9779
2.1295 4.7690 -2.0015 0.9779
1.6962 4.9397 -2.0015 0.9779
1.2494 5.0712 -2.0015 0.9779
0.7927 5.1623 -2.0015 0.9779
0.3297 5.2124 -2.0015 0.9779
-0.1360 5.2211 -2.0015 0.9779
-1.0603 5.1141 -2.0015 0.9779
-1.5117 4.9993 -2.0015 0.9779
-2.3748 4.6517 -2.0015 0.9779
-3.1626 4.1564 -2.0015 0.9779
-3.5203 3.8582 -2.0015 0.9779
-4.4152 2.7900 -2.0015 0.9779
-4.8402 1.9623 -2.0015 0.9779
-4.9958 1.5233 -2.0015 0.9779
-5.1116 1.0722 -2.0015 0.9779
-5.2132 -0.3176 -2.0015 0.9779
-5.1642 -0.7807 -2.0015 0.9779
-5.0741 -1.2376 -2.0015 0.9779
-4.7739 -2.1184 -2.0015 0.9779
-4.5662 -2.5353 -2.0015 0.9779
-4.0439 -3.3053 -2.0015 0.9779
-3.3931 -3.9705 -2.0015 0.9779
-3.0260 -4.2570 -2.0015 0.9779
-2.6347 -4.5096 -2.0015 0.9779
-0.8937 -5.1458 -2.0015 0.9779
-0.4317 -5.2050 -2.0015 0.9779
0.0337 -5.2227 -2.0015 0.9779
1.8557 -4.8821 -2.0015 0.9779
2.2832 -4.6973 -2.0015 0.9779
2.6926 -4.4753 -2.0015 0.9779
3.0806 -4.2176 -2.0015 0.9779
3.7801 -3.6040 -2.0015 0.9779
4.0861 -3.2529 -2.0015 0.9779
4.3597 -2.8760 -2.0015 0.9779
4.9650 -1.6209 -2.0015 0.9779
5.0896 -1.1721 -2.0015 0.9779
5.1738 -0.7141 -2.0015 0.9779
5.2184 0.2154 -2.0015 0.9779
5.1785 0.6794 -2.0015 0.9779
5.0974 1.1380 -2.0015 0.9779
4.9757 1.5875 -2.0015 0.9779
3.8042 3.5786 -2.0015 0.9779
3.4703 3.9032 -2.0015 0.9779
3.1088 4.1969 -2.0015 0.9779
2.3147 4.6819 -2.0015 0.9779
1.8884 4.8695 -2.0015 0.9779
1.4471 5.0184 -2.0015 0.9779
-1.3147 5.0547 -2.0015 0.9779
-1.7597 4.9175 -2.0015 0.9779
-2.1908 4.7412 -2.0015 0.9779
-2.9973 4.2772 -2.0015 0.9779
-4.0216 3.3324 -2.0015 0.9779
-4.3025 2.9609 -2.0015 0.9779
-1.8977 0.0000 -0.7767 0.9918
-1.9578 -0.1751 -0.8045 0.9915
-2.1699 -0.3913 -0.9024 0.9905
-4.2065 -2.4941 -2.0015 0.9791
-3.9676 -2.8589 -2.0015 0.9791
-3.6971 -3.2010 -2.0015 0.9791
-3.0704 -3.8063 -2.0015 0.9791
-1.9547 -4.4827 -2.0015 0.9791
-1.5476 -4.6390 -2.0015 0.9791
-1.1282 -4.7584 -2.0015 0.9791
-0.6998 -4.8400 -2.0015 0.9791
-0.2659 -4.8831 -2.0015 0.9791
0.1702 -4.8874 -2.0015 0.9791
0.6049 -4.8528 -2.0015 0.9791
2.2617 -4.3359 -2.0015 0.9791
4.1568 -2.5761 -2.0015 0.9791
4.5480 -1.7975 -2.0015 0.9791
4.8614 -0.5310 -2.0015 0.9791
4.8894 -0.0958 -2.0015 0.9791
4.8288 0.7734 -2.0015 0.9791
4.7407 1.2004 -2.0015 0.9791
4.6149 1.6180 -2.0015 0.9791
4.4524 2.0227 -2.0015 0.9791
4.0229 2.7807 -2.0015 0.9791
3.4656 3.4504 -2.0015 0.9791
3.1444 3.7454 -2.0015 0.9791
2.7983 4.0106 -2.0015 0.9791
1.2212 4.7354 -2.0015 0.9791
-0.5097 4.8637 -2.0015 0.9791
-0.9409 4.7990 -2.0015 0.9791
-1.3647 4.6961 -2.0015 0.9791
-1.7776 4.5558 -2.0015 0.9791
-2.1763 4.3794 -2.0015 0.9791
-2.5578 4.1681 -2.0015 0.9791
-3.2569 3.6480 -2.0015 0.9791
-3.5689 3.3434 -2.0015 0.9791
-4.5119 1.8863 -2.0015 0.9791
-1.9514 0.2519 -0.8053 0.9915
-1.9335 0.0758 -0.7919 0.9917
-1.9409 -0.0972 -0.7954 0.9916
-1.9467 -0.2728 -0.8045 0.9915
-4.7633 -1.1073 -2.0015 0.9791
-4.4912 -1.9350 -2.0015 0.9791
-3.8197 -3.0537 -2.0015 0.9791
-3.5325 -3.3818 -2.0015 0.9791
-3.2172 -3.6831 -2.0015 0.9791
-2.5125 -4.1955 -2.0015 0.9791
-1.3138 -4.7106 -2.0015 0.9791
-0.8889 -4.8089 -2.0015 0.9791
0.4143 -4.8728 -2.0015 0.9791
1.6880 -4.5898 -2.0015 0.9791
2.8415 -3.9801 -2.0015 0.9791
3.7928 -3.0871 -2.0015 0.9791
4.4741 -1.9743 -2.0015 0.9791
4.8369 -0.7210 -2.0015 0.9791
4.8819 -0.2873 -2.0015 0.9791
4.8881 0.1487 -2.0015 0.9791
4.6748 1.4359 -2.0015 0.9791
4.3458 2.2427 -2.0015 0.9791
3.2887 3.6193 -2.0015 0.9791
2.9532 3.8979 -2.0015 0.9791
2.5943 4.1455 -2.0015 0.9791
2.2147 4.3601 -2.0015 0.9791
1.8175 4.5401 -2.0015 0.9791
0.5523 4.8590 -2.0015 0.9791
0.1172 4.8889 -2.0015 0.9791
-0.3187 4.8799 -2.0015 0.9791
-0.7522 4.8321 -2.0015 0.9791
-1.1796 4.7459 -2.0015 0.9791
-1.5977 4.6220 -2.0015 0.9791
-2.3926 4.2651 -2.0015 0.9791
-3.1115 3.7728 -2.0015 0.9791
-3.4352 3.4807 -2.0015 0.9791
-3.7316 3.1608 -2.0015 0.9791
-4.4345 2.0616 -2.0015 0.9791
-2.1253 0.3595 -0.8822 0.9907
-4.3889 -2.1571 -2.0015 0.9791
-4.1792 -2.5395 -2.0015 0.9791
-3.6623 -3.2409 -2.0015 0.9791
-3.3590 -3.5542 -2.0015 0.9791
-1.9060 -4.5036 -2.0015 0.9791
-1.0766 -4.7703 -2.0015 0.9791
-0.6474 -4.8473 -2.0015 0.9791
-0.2130 -4.8857 -2.0015 0.9791
1.0865 -4.7681 -2.0015 0.9791
1.5069 -4.6524 -2.0015 0.9791
2.3085 -4.3111 -2.0015 0.9791
2.6834 -4.0884 -2.0015 0.9791
3.3663 -3.5473 -2.0015 0.9791
3.6689 -3.2333 -2.0015 0.9791
4.1845 -2.5309 -2.0015 0.9791
4.7048 -1.3344 -2.0015 0.9791
4.8669 -0.4783 -2.0015 0.9791
4.8901 -0.0429 -2.0015 0.9791
4.2282 2.4572 -2.0015 0.9791
3.9925 2.8240 -2.0015 0.9791
3.7251 3.1685 -2.0015 0.9791
2.3838 4.2700 -2.0015 0.9791
1.9939 4.4654 -2.0015 0.9791
-0.1273 4.8887 -2.0015 0.9791
-1.4154 4.6810 -2.0015 0.9791
-1.8268 4.5363 -2.0015 0.9791
-2.2236 4.3555 -2.0015 0.9791
-2.9613 3.8918 -2.0015 0.9791
-3.2962 3.6125 -2.0015 0.9791
-3.6049 3.3046 -2.0015 0.9791
-3.8849 2.9703 -2.0015 0.9791
-4.1341 2.6124 -2.0015 0.9791
-4.3504 2.2337 -2.0015 0.9791
-1.9249 0.0546 -0.7881 0.9917
-1.9473 -0.1186 -0.7985 0.9916
-4.7510 -1.1588 -2.0015 0.9791
-4.6289 -1.5775 -2.0015 0.9791
-3.7864 -3.0949 -2.0015 0.9791
-3.4957 -3.4199 -2.0015 0.9791
-3.1771 -3.7177 -2.0015 0.9791
-2.8333 -3.9859 -2.0015 0.9791
-1.6785 -4.5932 -2.0015 0.9791
-0.4042 -4.8736 -2.0015 0.9791
0.4670 -4.8680 -2.0015 0.9791
1.3235 -4.7078 -2.0015 0.9791
1.7376 -4.5712 -2.0015 0.9791
2.5212 -4.1903 -2.0015 0.9791
2.8844 -3.9491 -2.0015 0.9791
3.5395 -3.3746 -2.0015 0.9791
4.0821 -2.6929 -2.0015 0.9791
4.4952 -1.9258 -2.0015 0.9791
4.8444 -0.6686 -2.0015 0.9791
4.8488 0.6361 -2.0015 0.9791
4.7728 1.0655 -2.0015 0.9791
4.6590 1.4865 -2.0015 0.9791
4.5080 1.8956 -2.0015 0.9791
4.3212 2.2896 -2.0015 0.9791
4.1001 2.6655 -2.0015 0.9791
3.8463 3.0201 -2.0015 0.9791
2.9109 3.9297 -2.0015 0.9791
2.1673 4.3838 -2.0015 0.9791
1.7682 4.5595 -2.0015 0.9791
1.3550 4.6989 -2.0015 0.9791
0.9310 4.8009 -2.0015 0.9791
0.0643 4.8899 -2.0015 0.9791
-0.8045 4.8237 -2.0015 0.9791
-1.2310 4.7329 -2.0015 0.9791
-2.8065 4.0048 -2.0015 0.9791
-3.4727 3.4432 -2.0015 0.9791
-3.7656 3.1202 -2.0015 0.9791
-4.0286 2.7724 -2.0015 0.9791
-1.5221 0.0000 -0.6634 0.9934
-1.5278 -0.1366 -0.6685 0.9933
-1.5002 -0.2705 -0.6644 0.9934
