ply
format ascii 1.0
element vertex 1589
property float32 x
property float32 y
property float32 z
property float32 I
end_header
13.6869 -3.4944 -2.0015 0.9445
13.9443 -2.2577 -2.0015 0.9445
14.1235 0.2600 -2.0015 0.9445
14.0438 1.5207 -2.0015 0.9445
13.5490 3.9957 -2.0015 0.9445
13.1378 5.1902 -2.0015 0.9445
8.8704 9.5741 -1.8493 0.9486
7.9796 10.3283 -1.8493 0.9486
7.0249 10.9999 -1.8493 0.9486
6.0141 11.5835 -1.8493 0.9486
3.8567 12.4689 -1.8493 0.9486
2.7273 12.7636 -1.8493 0.9486
1.5761 12.9562 -1.8493 0.9486
0.4123 13.0452 -1.8493 0.9486
-1.9159 12.9103 -1.8493 0.9486
-5.2707 11.9401 -1.8493 0.9486
-7.3115 10.8115 -1.8493 0.9486
-9.8694 10.1063 -2.0015 0.9445
-10.7328 9.1841 -2.0015 0.9445
-4.4796 10.2930 -1.8493 0.9555
-5.3813 9.8517 -1.8493 0.9555
-6.2399 9.3315 -1.8493 0.9555
-8.4430 8.7364 -2.0015 0.9519
-9.1897 7.9472 -2.0015 0.9519
-9.8630 7.0944 -2.0015 0.9519
-11.7230 3.1905 -2.0015 0.9519
-11.9497 -2.1939 -2.0015 0.9519
-11.3685 -4.2855 -2.0015 0.9519
-10.9402 -5.2841 -2.0015 0.9519
-9.8252 -7.1467 -2.0015 0.9519
-9.1474 -7.9959 -2.0015 0.9519
-8.3965 -8.7811 -2.0015 0.9519
-7.5784 -9.4962 -2.0015 0.9519
-4.7891 -11.1657 -2.0015 0.9519
-3.7093 -11.3559 -1.9680 0.9527
-1.5450 -11.2237 -1.8664 0.9551
-0.5320 -11.2298 -1.8521 0.9554
1.4854 -11.2235 -1.8651 0.9551
4.7146 -11.1525 -1.9947 0.9521
6.6467 -10.1700 -2.0015 0.9519
8.3505 -8.8248 -2.0015 0.9519
9.1056 -8.0435 -2.0015 0.9519
9.7878 -7.1979 -2.0015 0.9519
12.1491 -0.0957 -2.0015 0.9519
11.9722 2.0680 -2.0015 0.9519
11.7395 3.1293 -2.0015 0.9519
10.9952 5.1685 -2.0015 0.9519
10.4895 6.1302 -2.0015 0.9519
9.8999 7.0428 -2.0015 0.9519
7.8430 8.0312 -1.8493 0.9555
5.4326 9.8234 -1.8493 0.9555
4.5333 10.2695 -1.8493 0.9555
2.6333 10.9123 -1.8493 0.9555
0.6492 11.2068 -1.8493 0.9555
-3.3170 10.7243 -1.8493 0.9555
-4.2619 10.3851 -1.8493 0.9555
-5.1726 9.9628 -1.8493 0.9555
-8.2571 8.9123 -2.0015 0.9519
-9.0204 8.1389 -2.0015 0.9519
-10.3248 6.4037 -2.0015 0.9519
-10.8556 5.4557 -2.0015 0.9519
-11.6533 3.4367 -2.0015 0.9519
-11.9137 2.3818 -2.0015 0.9519
-12.0788 1.3079 -2.0015 0.9519
-12.1474 0.2236 -2.0015 0.9519
-11.0490 -5.0525 -2.0015 0.9519
-9.9735 -6.9382 -2.0015 0.9519
-9.3138 -7.8015 -2.0015 0.9519
-8.5795 -8.6024 -2.0015 0.9519
-6.9117 -9.9919 -2.0015 0.9519
-5.9914 -10.5694 -2.0015 0.9519
-5.0231 -11.0624 -2.0015 0.9519
-3.9964 -11.4146 -1.9924 0.9522
-2.8390 -11.2442 -1.9105 0.9541
-1.7865 -11.2230 -1.8722 0.9550
1.2456 -11.2243 -1.8604 0.9553
3.3389 -11.2120 -1.9272 0.9537
4.4595 -11.2011 -1.9861 0.9523
6.4311 -10.3078 -2.0015 0.9519
7.3263 -9.6920 -2.0015 0.9519
9.6340 -7.4023 -2.0015 0.9519
10.2568 -6.5121 -2.0015 0.9519
11.2520 -4.5828 -2.0015 0.9519
11.6164 -3.5592 -2.0015 0.9519
12.1272 0.7349 -2.0015 0.9519
11.4982 3.9243 -2.0015 0.9519
11.1017 4.9358 -2.0015 0.9519
10.6163 5.9079 -2.0015 0.9519
10.0460 6.8328 -2.0015 0.9519
9.3616 7.6752 -1.9943 0.9521
8.0104 7.8643 -1.8493 0.9555
7.2757 8.5485 -1.8493 0.9555
5.6383 9.7069 -1.8493 0.9555
4.7485 10.1718 -1.8493 0.9555
1.8814 11.0668 -1.8493 0.9555
0.8851 11.1906 -1.8493 0.9555
-0.1182 11.2249 -1.8493 0.9555
-1.1205 11.1695 -1.8493 0.9555
-2.1140 11.0247 -1.8493 0.9555
-3.0905 10.7918 -1.8493 0.9555
-4.0422 10.4725 -1.8493 0.9555
-4.9617 10.0695 -1.8493 0.9555
-6.6745 9.0258 -1.8493 0.9555
-8.8470 8.3271 -2.0015 0.9519
-10.1877 6.6197 -2.0015 0.9519
-11.5783 3.6813 -2.0015 0.9519
-11.8325 -2.7569 -2.0015 0.9519
-11.5389 -3.8030 -2.0015 0.9519
-11.1530 -4.8187 -2.0015 0.9519
-10.6779 -5.7958 -2.0015 0.9519
-10.1174 -6.7266 -2.0015 0.9519
-8.7588 -8.4198 -2.0015 0.9519
-7.9716 -9.1686 -2.0015 0.9519
-7.1206 -9.8441 -2.0015 0.9519
-6.2126 -10.4409 -2.0015 0.9519
-5.2550 -10.9542 -2.0015 0.9519
-3.1000 -11.2724 -1.9259 0.9537
-2.0294 -11.2212 -1.8786 0.9548
-1.0069 -11.2252 -1.8567 0.9553
0.0000 -11.2316 -1.8503 0.9555
4.1895 -11.2039 -1.9705 0.9527
7.9715 -9.1686 -2.0015 0.9519
8.7588 -8.4198 -2.0015 0.9519
9.4760 -7.6036 -2.0015 0.9519
10.1174 -6.7266 -2.0015 0.9519
10.6779 -5.7958 -2.0015 0.9519
11.1530 -4.8187 -2.0015 0.9519
12.0315 -1.6888 -2.0015 0.9519
12.1343 -0.6072 -2.0015 0.9519
12.1400 0.4793 -2.0015 0.9519
11.2031 4.7010 -2.0015 0.9519
10.7383 5.6830 -2.0015 0.9519
10.1877 6.6197 -2.0015 0.9519
7.4542 8.3934 -1.8493 0.9555
4.9617 10.0695 -1.8493 0.9555
4.0422 10.4725 -1.8493 0.9555
3.0905 10.7918 -1.8493 0.9555
1.1206 11.1695 -1.8493 0.9555
-0.8851 11.1906 -1.8493 0.9555
-2.8625 10.8545 -1.8493 0.9555
-3.8208 10.5553 -1.8493 0.9555
-4.7485 10.1718 -1.8493 0.9555
-7.8646 9.2403 -1.9990 0.9520
-8.6696 8.5115 -2.0015 0.9519
-10.0460 6.8328 -2.0015 0.9519
-10.6163 5.9079 -2.0015 0.9519
-11.1016 4.9359 -2.0015 0.9519
-12.1272 0.7349 -2.0015 0.9519
-12.1444 -0.3515 -2.0015 0.9519
-12.0644 -1.4351 -2.0015 0.9519
-11.8879 -2.5072 -2.0015 0.9519
-10.7976 -5.5697 -2.0015 0.9519
-9.6340 -7.4024 -2.0015 0.9519
-8.9342 -8.2335 -2.0015 0.9519
-8.1629 -8.9987 -2.0015 0.9519
-7.3263 -9.6920 -2.0015 0.9519
-6.4311 -10.3078 -2.0015 0.9519
-5.4845 -10.8411 -2.0015 0.9519
-4.4868 -11.2696 -1.9983 0.9520
-1.2456 -11.2243 -1.8604 0.9553
-0.2366 -11.2312 -1.8506 0.9555
0.7692 -11.2279 -1.8540 0.9554
1.7864 -11.2222 -1.8720 0.9550
9.9735 -6.9382 -2.0015 0.9519
10.5535 -6.0194 -2.0015 0.9519
11.0490 -5.0525 -2.0015 0.9519
11.4562 -4.0452 -2.0015 0.9519
11.7718 -3.0055 -2.0015 0.9519
12.1474 0.2236 -2.0015 0.9519
12.0788 1.3079 -2.0015 0.9519
11.9137 2.3818 -2.0015 0.9519
11.6533 3.4367 -2.0015 0.9519
11.2996 4.4640 -2.0015 0.9519
10.8556 5.4557 -2.0015 0.9519
10.3248 6.4037 -2.0015 0.9519
7.6293 8.2345 -1.8493 0.9555
6.8631 8.8832 -1.8493 0.9555
6.0420 9.4608 -1.8493 0.9555
5.1726 9.9628 -1.8493 0.9555
0.3546 11.2200 -1.8493 0.9555
-0.6492 11.2068 -1.8493 0.9555
-4.5333 10.2695 -1.8493 0.9555
-7.6522 9.3842 -1.9948 0.9521
-5.5133 8.2448 -1.8643 0.9604
-10.6084 0.9231 -2.0015 0.9576
-10.2597 -2.8509 -2.0015 0.9576
-9.5886 -4.6312 -2.0015 0.9576
-9.1365 -5.4694 -2.0015 0.9576
-8.6113 -6.2637 -2.0015 0.9576
-7.3591 -7.6963 -2.0015 0.9576
-6.6421 -8.3230 -2.0015 0.9576
-5.8720 -8.8831 -2.0015 0.9576
-3.3063 -10.1221 -2.0015 0.9576
-1.4521 -10.5490 -2.0015 0.9576
-0.5039 -10.6365 -2.0015 0.9576
2.3346 -10.3894 -2.0015 0.9576
3.2534 -10.1392 -2.0015 0.9576
4.1463 -9.8080 -2.0015 0.9576
5.8256 -8.9136 -2.0015 0.9576
6.5986 -8.3575 -2.0015 0.9576
7.3189 -7.7346 -2.0015 0.9576
7.9806 -7.0498 -2.0015 0.9576
8.5785 -6.3086 -2.0015 0.9576
9.5643 -4.6812 -2.0015 0.9576
9.9443 -3.8080 -2.0015 0.9576
10.2447 -2.9044 -2.0015 0.9576
10.5980 -1.0348 -2.0015 0.9576
10.6130 0.8678 -2.0015 0.9576
10.2892 2.7427 -2.0015 0.9576
10.0030 3.6509 -2.0015 0.9576
9.6368 4.5300 -2.0015 0.9576
8.6768 6.1727 -2.0015 0.9576
7.4180 7.5960 -1.9956 0.9577
6.2968 7.7220 -1.8728 0.9603
3.9732 9.0008 -1.8493 0.9607
3.1532 9.3197 -1.8493 0.9607
0.5690 9.8222 -1.8493 0.9607
-0.3108 9.8338 -1.8493 0.9607
-1.1881 9.7667 -1.8493 0.9607
-3.7353 9.1020 -1.8493 0.9607
-5.2956 8.2920 -1.8493 0.9607
-7.2370 7.8112 -2.0015 0.9576
-9.5145 4.7817 -2.0015 0.9576
-9.9036 3.9125 -2.0015 0.9576
-10.2135 3.0121 -2.0015 0.9576
-10.4418 2.0876 -2.0015 0.9576
-10.5866 1.1464 -2.0015 0.9576
-10.6466 0.1960 -2.0015 0.9576
-10.6216 -0.7560 -2.0015 0.9576
-10.3175 -2.6342 -2.0015 0.9576
-10.0409 -3.5454 -2.0015 0.9576
-9.6840 -4.4283 -2.0015 0.9576
-9.2496 -5.2757 -2.0015 0.9576
-8.7413 -6.0810 -2.0015 0.9576
-6.0578 -8.7574 -2.0015 0.9576
-4.4025 -9.6957 -2.0015 0.9576
0.2242 -10.6461 -2.0015 0.9576
2.1153 -10.4362 -2.0015 0.9576
3.0392 -10.2055 -2.0015 0.9576
4.8069 -9.5017 -2.0015 0.9576
7.1544 -7.8870 -2.0015 0.9576
7.8304 -7.2163 -2.0015 0.9576
8.4438 -6.4878 -2.0015 0.9576
9.4636 -4.8816 -2.0015 0.9576
9.8619 -4.0166 -2.0015 0.9576
10.4192 -2.1974 -2.0015 0.9576
10.5739 -1.2578 -2.0015 0.9576
10.6440 -0.3081 -2.0015 0.9576
10.6289 0.6441 -2.0015 0.9576
10.5289 1.5911 -2.0015 0.9576
9.3047 5.1780 -2.0015 0.9576
8.8049 5.9886 -2.0015 0.9576
7.5858 7.4475 -1.9981 0.9577
5.6820 8.0321 -1.8493 0.9607
4.9417 8.5076 -1.8493 0.9607
4.1619 8.9151 -1.8493 0.9607
0.7758 9.8081 -1.8493 0.9607
-0.1036 9.8382 -1.8493 0.9607
-0.9821 9.7896 -1.8493 0.9607
-1.8528 9.6627 -1.8493 0.9607
-4.3487 8.8255 -1.8493 0.9607
-7.0709 7.9619 -2.0015 0.9576
-7.7540 7.2983 -2.0015 0.9576
-8.9290 5.8019 -2.0015 0.9576
-9.4117 4.9810 -2.0015 0.9576
-9.8190 4.1202 -2.0015 0.9576
-10.1479 3.2265 -2.0015 0.9576
-10.5601 1.3690 -2.0015 0.9576
-10.6351 -0.5321 -2.0015 0.9576
-10.5451 -1.4802 -2.0015 0.9576
-10.3707 -2.4163 -2.0015 0.9576
-9.7751 -4.2234 -2.0015 0.9576
-9.3587 -5.0798 -2.0015 0.9576
-8.8674 -5.8956 -2.0015 0.9576
-7.6767 -7.3795 -2.0015 0.9576
-6.9867 -8.0359 -2.0015 0.9576
-5.4451 -9.1510 -2.0015 0.9576
-3.7296 -9.9739 -2.0015 0.9576
-2.8236 -10.2673 -2.0015 0.9576
-0.9513 -10.6059 -2.0015 0.9576
-0.0000 -10.6484 -2.0015 0.9576
2.8236 -10.2673 -2.0015 0.9576
3.7296 -9.9739 -2.0015 0.9576
4.6057 -9.6009 -2.0015 0.9576
5.4451 -9.1510 -2.0015 0.9576
6.2408 -8.6279 -2.0015 0.9576
7.6767 -7.3796 -2.0015 0.9576
9.3587 -5.0798 -2.0015 0.9576
9.7751 -4.2234 -2.0015 0.9576
10.5451 -1.4802 -2.0015 0.9576
10.6351 -0.5321 -2.0015 0.9576
10.5601 1.3690 -2.0015 0.9576
10.1479 3.2265 -2.0015 0.9576
9.8190 4.1202 -2.0015 0.9576
8.9290 5.8019 -2.0015 0.9576
8.3750 6.5764 -2.0015 0.9576
7.7510 7.2955 -2.0007 0.9576
5.8499 7.9107 -1.8493 0.9607
4.3487 8.8255 -1.8493 0.9607
2.7087 9.4585 -1.8493 0.9607
1.8528 9.6627 -1.8493 0.9607
0.9821 9.7896 -1.8493 0.9607
0.1036 9.8381 -1.8493 0.9607
-1.6489 9.6995 -1.8493 0.9607
-4.9417 8.5076 -1.8493 0.9607
-6.9017 8.1090 -2.0015 0.9576
-7.5985 7.4600 -2.0015 0.9576
-8.2346 6.7513 -2.0015 0.9576
-8.8049 5.9886 -2.0015 0.9576
-9.7301 4.3261 -2.0015 0.9576
-10.0777 3.4395 -2.0015 0.9576
-10.5289 1.5911 -2.0015 0.9576
-10.6289 0.6441 -2.0015 0.9576
-10.4192 -2.1974 -2.0015 0.9576
-9.8619 -4.0166 -2.0015 0.9576
-9.4636 -4.8816 -2.0015 0.9576
-8.9896 -5.7075 -2.0015 0.9576
-8.4438 -6.4878 -2.0015 0.9576
-7.8304 -7.2162 -2.0015 0.9576
-6.4211 -8.4946 -2.0015 0.9576
-3.9388 -9.8932 -2.0015 0.9576
-3.0392 -10.2055 -2.0015 0.9576
-2.1153 -10.4362 -2.0015 0.9576
-1.1745 -10.5835 -2.0015 0.9576
-0.2242 -10.6461 -2.0015 0.9576
0.7278 -10.6235 -2.0015 0.9576
1.6740 -10.5160 -2.0015 0.9576
3.5187 -10.0503 -2.0015 0.9576
4.4025 -9.6957 -2.0015 0.9576
6.0578 -8.7574 -2.0015 0.9576
8.1631 -6.8376 -2.0015 0.9576
8.7413 -6.0810 -2.0015 0.9576
9.2496 -5.2757 -2.0015 0.9576
9.6840 -4.4283 -2.0015 0.9576
10.0409 -3.5454 -2.0015 0.9576
10.3175 -2.6342 -2.0015 0.9576
10.5116 -1.7019 -2.0015 0.9576
10.6216 -0.7560 -2.0015 0.9576
10.6466 0.1959 -2.0015 0.9576
10.5866 1.1463 -2.0015 0.9576
10.2136 3.0121 -2.0015 0.9576
9.0492 5.6126 -2.0015 0.9576
7.1371 7.7033 -1.9739 0.9582
4.5336 8.7319 -1.8493 0.9607
2.9072 9.3994 -1.8493 0.9607
-4.7614 8.6098 -1.8493 0.9607
-5.5927 8.2699 -1.8765 0.9602
-6.7294 8.2525 -2.0015 0.9576
-7.4398 7.6183 -2.0015 0.9576
-5.2552 7.8590 -1.9984 0.9621
-6.5801 6.8087 -2.0015 0.9620
-7.6868 5.5290 -2.0015 0.9620
-8.1500 4.8202 -2.0015 0.9620
-8.5480 4.0728 -2.0015 0.9620
-8.8777 3.2928 -2.0015 0.9620
-9.3220 1.6603 -2.0015 0.9620
-9.4330 0.8209 -2.0015 0.9620
-9.4687 -0.0252 -2.0015 0.9620
-9.4285 -0.8710 -2.0015 0.9620
-9.3130 -1.7098 -2.0015 0.9620
-8.8601 -3.3399 -2.0015 0.9620
-7.6573 -5.5698 -2.0015 0.9620
-7.1290 -6.2316 -2.0015 0.9620
-5.9062 -7.4008 -2.0015 0.9620
-4.4949 -8.3338 -2.0015 0.9620
-3.7324 -8.7020 -2.0015 0.9620
-2.9400 -9.0007 -2.0015 0.9620
-2.1241 -9.2274 -2.0015 0.9620
-1.2913 -9.3802 -2.0015 0.9620
-0.4481 -9.4581 -2.0015 0.9620
2.0759 -9.2383 -2.0015 0.9620
4.4513 -8.3571 -2.0015 0.9620
5.8675 -7.4316 -2.0015 0.9620
7.0964 -6.2687 -2.0015 0.9620
7.6281 -5.6097 -2.0015 0.9620
8.5047 -4.1626 -2.0015 0.9620
9.1097 -2.5826 -2.0015 0.9620
9.3040 -1.7584 -2.0015 0.9620
9.4239 -0.9202 -2.0015 0.9620
9.4684 -0.0746 -2.0015 0.9620
9.4372 0.7716 -2.0015 0.9620
9.1492 2.4388 -2.0015 0.9620
8.5692 4.0281 -2.0015 0.9620
8.1750 4.7776 -2.0015 0.9620
7.7155 5.4888 -2.0015 0.9620
0.5060 8.7340 -1.8493 0.9649
-1.8281 8.5555 -1.8493 0.9649
-2.5851 8.3580 -1.8493 0.9649
-5.0821 7.9578 -1.9959 0.9621
-6.4352 6.9458 -2.0015 0.9620
-7.0300 6.3431 -2.0015 0.9620
-7.5686 5.6897 -2.0015 0.9620
-8.0467 4.9907 -2.0015 0.9620
-9.4137 1.0193 -2.0015 0.9620
-9.4448 -0.6722 -2.0015 0.9620
-8.9284 -3.1526 -2.0015 0.9620
-8.6111 -3.9377 -2.0015 0.9620
-8.2249 -4.6912 -2.0015 0.9620
-7.7729 -5.4073 -2.0015 0.9620
-6.6865 -6.7043 -2.0015 0.9620
-3.9148 -8.6215 -2.0015 0.9620
-3.1289 -8.9368 -2.0015 0.9620
-2.3180 -9.1806 -2.0015 0.9620
-0.6471 -9.4465 -2.0015 0.9620
0.1994 -9.4666 -2.0015 0.9620
1.0443 -9.4109 -2.0015 0.9620
1.8809 -9.2800 -2.0015 0.9620
3.5024 -8.7971 -2.0015 0.9620
4.2743 -8.4490 -2.0015 0.9620
5.7097 -7.5535 -2.0015 0.9620
6.3617 -7.0132 -2.0015 0.9620
6.9628 -6.4168 -2.0015 0.9620
7.5083 -5.7690 -2.0015 0.9620
7.9937 -5.0752 -2.0015 0.9620
8.7693 -3.5716 -2.0015 0.9620
9.2649 -1.9540 -2.0015 0.9620
9.4024 -1.1184 -2.0015 0.9620
9.4647 -0.2739 -2.0015 0.9620
9.4514 0.5727 -2.0015 0.9620
7.8294 5.3251 -2.0015 0.9620
7.3223 6.0033 -2.0015 0.9620
6.7567 6.6335 -2.0015 0.9620
6.1370 7.2106 -2.0015 0.9620
5.4468 7.6997 -1.9936 0.9622
4.4839 7.7194 -1.8870 0.9642
3.7008 7.9274 -1.8493 0.9649
2.9778 8.2263 -1.8493 0.9649
2.2309 8.4594 -1.8493 0.9649
-1.6475 8.5921 -1.8493 0.9649
-2.4086 8.4106 -1.8493 0.9649
-3.1503 8.1618 -1.8493 0.9649
-3.8669 7.8477 -1.8493 0.9649
-5.6299 7.6132 -2.0015 0.9620
-6.2875 7.0798 -2.0015 0.9620
-6.8949 6.4897 -2.0015 0.9620
-7.9398 5.1591 -2.0015 0.9620
-8.3689 4.4291 -2.0015 0.9620
-8.7312 3.6637 -2.0015 0.9620
-9.2438 2.0514 -2.0015 0.9620
-9.3901 1.2174 -2.0015 0.9620
-9.2217 -2.1486 -2.0015 0.9620
-8.9928 -2.9639 -2.0015 0.9620
-7.8850 -5.2424 -2.0015 0.9620
-5.5494 -7.6720 -2.0015 0.9620
-4.8418 -8.1371 -2.0015 0.9620
-3.3164 -8.8689 -2.0015 0.9620
-2.5108 -9.1297 -2.0015 0.9620
-1.6851 -9.3175 -2.0015 0.9620
-0.0000 -9.4687 -2.0015 0.9620
1.6851 -9.3175 -2.0015 0.9620
4.0955 -8.5372 -2.0015 0.9620
4.8418 -8.1371 -2.0015 0.9620
5.5494 -7.6720 -2.0015 0.9620
6.8262 -6.5620 -2.0015 0.9620
7.3851 -5.9259 -2.0015 0.9620
8.3218 -4.5170 -2.0015 0.9620
8.9929 -2.9639 -2.0015 0.9620
9.3768 -1.3162 -2.0015 0.9620
9.4613 0.3736 -2.0015 0.9620
9.3901 1.2173 -2.0015 0.9620
9.2438 2.0514 -2.0015 0.9620
8.7312 3.6637 -2.0015 0.9620
7.4471 5.8478 -2.0015 0.9620
6.8949 6.4897 -2.0015 0.9620
6.2875 7.0798 -2.0015 0.9620
5.6136 7.5912 -1.9957 0.9621
4.7014 7.7152 -1.9098 0.9637
3.8669 7.8477 -1.8493 0.9649
3.1503 8.1618 -1.8493 0.9649
2.4086 8.4106 -1.8493 0.9649
1.6475 8.5921 -1.8493 0.9649
0.8733 8.7050 -1.8493 0.9649
0.0921 8.7482 -1.8493 0.9649
-1.4662 8.6249 -1.8493 0.9649
-2.9778 8.2263 -1.8493 0.9649
-3.7008 7.9274 -1.8493 0.9649
-4.6192 7.9523 -1.9440 0.9631
-6.7567 6.6335 -2.0015 0.9620
-7.3223 6.0033 -2.0015 0.9620
-8.9611 3.0584 -2.0015 0.9620
-9.4513 0.5727 -2.0015 0.9620
-9.4647 -0.2739 -2.0015 0.9620
-9.2649 -1.9540 -2.0015 0.9620
-8.7693 -3.5716 -2.0015 0.9620
-8.4151 -4.3407 -2.0015 0.9620
-7.9937 -5.0752 -2.0015 0.9620
-6.9629 -6.4167 -2.0015 0.9620
-5.7097 -7.5535 -2.0015 0.9620
-2.7025 -9.0748 -2.0015 0.9620
-1.8809 -9.2800 -2.0015 0.9620
-1.0443 -9.4109 -2.0015 0.9620
1.4885 -9.3510 -2.0015 0.9620
2.3180 -9.1806 -2.0015 0.9620
4.6694 -8.2373 -2.0015 0.9620
6.0608 -7.2748 -2.0015 0.9620
6.6865 -6.7043 -2.0015 0.9620
7.2587 -6.0801 -2.0015 0.9620
8.2249 -4.6912 -2.0015 0.9620
8.6111 -3.9377 -2.0015 0.9620
9.1744 -2.3424 -2.0015 0.9620
9.3470 -1.5133 -2.0015 0.9620
9.4671 0.1742 -2.0015 0.9620
9.4137 1.0193 -2.0015 0.9620
9.2850 1.8563 -2.0015 0.9620
9.0820 2.6784 -2.0015 0.9620
8.4603 4.2519 -2.0015 0.9620
8.0467 4.9907 -2.0015 0.9620
5.7778 7.4784 -1.9976 0.9621
4.0313 7.7645 -1.8493 0.9649
1.8281 8.5555 -1.8493 0.9649
1.0565 8.6846 -1.8493 0.9649
0.2763 8.7443 -1.8493 0.9649
-1.2843 8.6539 -1.8493 0.9649
-2.0523 8.5045 -1.8493 0.9649
-4.3680 7.8983 -1.9079 0.9638
-5.9838 7.3382 -2.0015 0.9620
-3.3654 7.7330 -1.9821 0.9659
-5.3474 6.6280 -2.0015 0.9656
-5.9181 6.1238 -2.0015 0.9656
-6.9135 4.9728 -2.0015 0.9656
-7.3301 4.3353 -2.0015 0.9656
-8.3761 -1.5378 -2.0015 0.9656
-8.2052 -2.2800 -2.0015 0.9656
-7.6685 -3.7038 -2.0015 0.9656
-5.3121 -6.6563 -2.0015 0.9656
-4.6962 -7.1043 -2.0015 0.9656
-4.0427 -7.4954 -2.0015 0.9656
-3.3569 -7.8266 -2.0015 0.9656
-1.1614 -8.4366 -2.0015 0.9656
0.3586 -8.5086 -2.0015 0.9656
1.1173 -8.4425 -2.0015 0.9656
1.8671 -8.3090 -2.0015 0.9656
2.6020 -8.1089 -2.0015 0.9656
5.8533 -6.1858 -2.0015 0.9656
6.8607 -5.0453 -2.0015 0.9656
7.6491 -3.7438 -2.0015 0.9656
7.9530 -3.0455 -2.0015 0.9656
8.4758 -0.8276 -2.0015 0.9656
8.5159 -0.0671 -2.0015 0.9656
8.3919 1.4495 -2.0015 0.9656
8.2288 2.1935 -2.0015 0.9656
8.0000 2.9199 -2.0015 0.9656
7.7071 3.6229 -2.0015 0.9656
7.3526 4.2970 -2.0015 0.9656
6.4705 5.5369 -2.0015 0.9656
5.9500 6.0928 -2.0015 0.9656
5.3819 6.6000 -2.0015 0.9656
4.7707 7.0544 -2.0015 0.9656
4.1148 7.4404 -1.9983 0.9657
3.4001 7.7024 -1.9788 0.9660
2.6101 7.7144 -1.9140 0.9671
0.4551 7.8554 -1.8493 0.9682
-1.6507 7.7255 -1.8567 0.9681
-2.3870 7.7173 -1.8985 0.9674
-3.1711 7.7272 -1.9630 0.9663
-3.9180 7.5463 -1.9983 0.9657
-4.5837 7.1773 -2.0015 0.9656
-5.2066 6.7391 -2.0015 0.9656
-5.7879 6.2470 -2.0015 0.9656
-7.2372 4.4887 -2.0015 0.9656
-8.3509 1.6695 -2.0015 0.9656
-8.4667 0.9168 -2.0015 0.9656
-8.5147 0.1567 -2.0015 0.9656
-8.4947 -0.6046 -2.0015 0.9656
-8.2515 -2.1067 -2.0015 0.9656
-8.0302 -2.8355 -2.0015 0.9656
-7.3974 -4.2193 -2.0015 0.9656
-6.9909 -4.8633 -2.0015 0.9656
-6.0138 -6.0298 -2.0015 0.9656
-4.8447 -7.0038 -2.0015 0.9656
-4.1996 -7.4086 -2.0015 0.9656
-3.5210 -7.7542 -2.0015 0.9656
-2.8141 -8.0378 -2.0015 0.9656
-1.3388 -8.4103 -2.0015 0.9656
-0.5820 -8.4962 -2.0015 0.9656
0.9393 -8.4642 -2.0015 0.9656
1.6917 -8.3464 -2.0015 0.9656
2.4306 -8.1619 -2.0015 0.9656
3.1501 -7.9121 -2.0015 0.9656
3.8444 -7.5991 -2.0015 0.9656
5.7217 -6.3076 -2.0015 0.9656
6.2624 -5.7712 -2.0015 0.9656
6.7530 -5.1887 -2.0015 0.9656
7.1895 -4.5646 -2.0015 0.9656
7.5686 -3.9041 -2.0015 0.9656
8.5126 -0.2464 -2.0015 0.9656
8.2732 2.0197 -2.0015 0.9656
8.0597 2.7507 -2.0015 0.9656
7.0417 4.7894 -2.0015 0.9656
6.5857 5.3994 -2.0015 0.9656
6.0770 5.9662 -2.0015 0.9656
4.9182 6.9524 -2.0015 0.9656
4.2735 7.3573 -1.9997 0.9656
3.5890 7.6881 -1.9941 0.9657
2.7915 7.7119 -1.9276 0.9669
2.0363 7.7213 -1.8767 0.9677
1.3187 7.7573 -1.8493 0.9682
-1.4826 7.7321 -1.8503 0.9682
-3.7551 7.6208 -1.9967 0.9657
-4.4315 7.2723 -2.0015 0.9656
-5.0635 6.8473 -2.0015 0.9656
-5.6550 6.3675 -2.0015 0.9656
-6.2013 5.8369 -2.0015 0.9656
-7.1410 4.6401 -2.0015 0.9656
-8.1158 2.5804 -2.0015 0.9656
-8.4455 1.0949 -2.0015 0.9656
-8.5055 -0.4256 -2.0015 0.9656
-8.4335 -1.1838 -2.0015 0.9656
-8.2940 -1.9325 -2.0015 0.9656
-8.0882 -2.6657 -2.0015 0.9656
-7.4847 -4.0626 -2.0015 0.9656
-7.0918 -4.7150 -2.0015 0.9656
-2.9828 -7.9767 -2.0015 0.9656
-1.5156 -8.3802 -2.0015 0.9656
-0.7608 -8.4821 -2.0015 0.9656
0.0000 -8.5161 -2.0015 0.9656
0.7608 -8.4821 -2.0015 0.9656
3.6835 -7.6783 -2.0015 0.9656
4.9911 -6.9002 -2.0015 0.9656
6.1395 -5.9018 -2.0015 0.9656
7.0918 -4.7150 -2.0015 0.9656
7.4847 -4.0626 -2.0015 0.9656
8.4335 -1.1838 -2.0015 0.9656
8.3139 1.8450 -2.0015 0.9656
8.1158 2.5804 -2.0015 0.9656
7.5270 3.9835 -2.0015 0.9656
6.2013 5.8369 -2.0015 0.9656
5.6550 6.3675 -2.0015 0.9656
4.4308 7.2710 -2.0011 0.9656
3.7525 7.6155 -1.9953 0.9657
2.9756 7.7092 -1.9421 0.9666
2.2106 7.7194 -1.8872 0.9675
1.4825 7.7317 -1.8502 0.9682
-0.6204 7.8440 -1.8493 0.9682
-2.0362 7.7213 -1.8767 0.9677
-2.7928 7.7155 -1.9285 0.9668
-3.5909 7.6921 -1.9951 0.9657
-4.9182 6.9524 -2.0015 0.9656
-5.5197 6.4852 -2.0015 0.9656
-6.0770 5.9662 -2.0015 0.9656
-7.0417 4.7894 -2.0015 0.9656
-7.4415 4.1412 -2.0015 0.9656
-7.7817 3.4598 -2.0015 0.9656
-8.0597 2.7508 -2.0015 0.9656
-8.2732 2.0197 -2.0015 0.9656
-8.5126 -0.2464 -2.0015 0.9656
-8.1425 -2.4948 -2.0015 0.9656
-7.1895 -4.5646 -2.0015 0.9656
-6.2624 -5.7712 -2.0015 0.9656
-5.7218 -6.3076 -2.0015 0.9656
-3.8443 -7.5991 -2.0015 0.9656
-3.1501 -7.9121 -2.0015 0.9656
-0.9393 -8.4642 -2.0015 0.9656
-0.1793 -8.5143 -2.0015 0.9656
2.8141 -8.0378 -2.0015 0.9656
3.5210 -7.7542 -2.0015 0.9656
4.1996 -7.4086 -2.0015 0.9656
4.8447 -7.0038 -2.0015 0.9656
5.4511 -6.5430 -2.0015 0.9656
7.7448 -3.5415 -2.0015 0.9656
8.0303 -2.8355 -2.0015 0.9656
8.2515 -2.1067 -2.0015 0.9656
8.4947 -0.6046 -2.0015 0.9656
8.4667 0.9168 -2.0015 0.9656
7.6092 3.8242 -2.0015 0.9656
7.2372 4.4887 -2.0015 0.9656
6.8072 5.1173 -2.0015 0.9656
6.3228 5.7050 -2.0015 0.9656
5.7879 6.2470 -2.0015 0.9656
5.2066 6.7391 -2.0015 0.9656
4.5837 7.1773 -2.0015 0.9656
3.9145 7.5396 -1.9966 0.9657
3.1625 7.7063 -1.9577 0.9664
2.3870 7.7173 -1.8985 0.9674
1.6507 7.7253 -1.8566 0.9681
-0.4551 7.8554 -1.8493 0.9682
-3.4142 7.7344 -1.9870 0.9659
-5.3819 6.6000 -2.0015 0.9656
-6.4705 5.5369 -2.0015 0.9656
-3.0848 7.0880 -2.0015 0.9686
-3.7057 6.7841 -2.0015 0.9686
-5.3719 5.5586 -2.0015 0.9686
-5.8471 5.0565 -2.0015 0.9686
-6.2754 4.5139 -2.0015 0.9686
-6.9786 3.3250 -2.0015 0.9686
-7.6104 1.3555 -2.0015 0.9686
-7.7011 0.6702 -2.0015 0.9686
-7.2333 -2.7267 -2.0015 0.9686
-5.8201 -5.0875 -2.0015 0.9686
-3.6696 -6.8037 -2.0015 0.9686
-3.0471 -7.1043 -2.0015 0.9686
-2.4002 -7.3481 -2.0015 0.9686
-1.7341 -7.5332 -2.0015 0.9686
-1.0542 -7.6580 -2.0015 0.9686
-0.3658 -7.7216 -2.0015 0.9686
0.3255 -7.7234 -2.0015 0.9686
1.0142 -7.6634 -2.0015 0.9686
1.6948 -7.5421 -2.0015 0.9686
3.6341 -6.8228 -2.0015 0.9686
4.2291 -6.4708 -2.0015 0.9686
5.7935 -5.1178 -2.0015 0.9686
6.9432 -3.3983 -2.0015 0.9686
7.2190 -2.7644 -2.0015 0.9686
7.4371 -2.1084 -2.0015 0.9686
7.7300 -0.0609 -2.0015 0.9686
7.6174 1.3158 -2.0015 0.9686
7.4694 1.9910 -2.0015 0.9686
6.6741 3.9004 -2.0015 0.9686
5.8734 5.0259 -2.0015 0.9686
5.4009 5.5305 -2.0015 0.9686
2.4760 7.3182 -2.0003 0.9686
1.1312 7.6224 -1.9952 0.9687
-0.2432 7.6971 -1.9939 0.9687
-2.9348 7.1514 -2.0015 0.9686
-3.5620 6.8606 -2.0015 0.9686
-5.2537 5.6705 -2.0015 0.9686
-6.1790 4.6450 -2.0015 0.9686
-6.5693 4.0744 -2.0015 0.9686
-6.9070 3.4712 -2.0015 0.9686
-7.4145 2.1866 -2.0015 0.9686
-7.6853 0.8322 -2.0015 0.9686
-7.7289 0.1423 -2.0015 0.9686
-7.6308 -1.2355 -2.0015 0.9686
-6.7148 -3.8299 -2.0015 0.9686
-5.9260 -4.9638 -2.0015 0.9686
-5.4588 -5.4733 -2.0015 0.9686
-3.1960 -7.0386 -2.0015 0.9686
-1.8924 -7.4950 -2.0015 0.9686
-1.2152 -7.6341 -2.0015 0.9686
-0.5283 -7.7121 -2.0015 0.9686
0.8526 -7.6831 -2.0015 0.9686
1.5356 -7.5762 -2.0015 0.9686
2.8594 -7.1819 -2.0015 0.9686
3.4896 -6.8978 -2.0015 0.9686
4.6614 -6.1666 -2.0015 0.9686
5.1937 -5.7255 -2.0015 0.9686
5.6844 -5.2386 -2.0015 0.9686
6.1298 -4.7098 -2.0015 0.9686
6.5260 -4.1434 -2.0015 0.9686
6.8701 -3.5438 -2.0015 0.9686
7.6761 -0.9131 -2.0015 0.9686
7.7161 0.4676 -2.0015 0.9686
7.6434 1.1551 -2.0015 0.9686
7.5097 1.8333 -2.0015 0.9686
7.3159 2.4969 -2.0015 0.9686
6.7547 3.7590 -2.0015 0.9686
5.9779 4.9011 -2.0015 0.9686
3.2700 7.0045 -2.0015 0.9686
2.6307 7.2676 -2.0012 0.9686
1.9677 7.4613 -1.9979 0.9686
-0.0811 7.6997 -1.9937 0.9687
-0.7689 7.6646 -1.9945 0.9687
-2.1253 7.4215 -1.9988 0.9686
-3.4167 6.9341 -2.0015 0.9686
-4.5962 6.2154 -2.0015 0.9686
-5.1331 5.7799 -2.0015 0.9686
-6.0798 4.7741 -2.0015 0.9686
-6.4820 4.2119 -2.0015 0.9686
-7.1281 2.9911 -2.0015 0.9686
-7.3668 2.3423 -2.0015 0.9686
-7.7242 0.3050 -2.0015 0.9686
-7.7206 -0.3863 -2.0015 0.9686
-7.3417 -2.4197 -2.0015 0.9686
-6.0292 -4.8379 -2.0015 0.9686
-5.0720 -5.8336 -2.0015 0.9686
-3.9528 -6.6431 -2.0015 0.9686
-3.3435 -6.9697 -2.0015 0.9686
-2.7075 -7.2406 -2.0015 0.9686
-1.3757 -7.6068 -2.0015 0.9686
-0.6906 -7.6993 -2.0015 0.9686
-0.0000 -7.7302 -2.0015 0.9686
0.6906 -7.6993 -2.0015 0.9686
1.3757 -7.6068 -2.0015 0.9686
3.3435 -6.9697 -2.0015 0.9686
3.9528 -6.6431 -2.0015 0.9686
5.0720 -5.8336 -2.0015 0.9686
5.5729 -5.3572 -2.0015 0.9686
7.5285 -1.7541 -2.0015 0.9686
7.7206 -0.3863 -2.0015 0.9686
7.7242 0.3050 -2.0015 0.9686
7.5466 1.6748 -2.0015 0.9686
6.8324 3.6159 -2.0015 0.9686
6.4820 4.2118 -2.0015 0.9686
6.0798 4.7741 -2.0015 0.9686
5.1331 5.7799 -2.0015 0.9686
4.5962 6.2154 -2.0015 0.9686
1.4518 7.5713 -1.9960 0.9686
0.0811 7.6997 -1.9937 0.9687
-0.6073 7.6782 -1.9942 0.9687
-3.2700 7.0045 -2.0015 0.9686
-5.0103 5.8867 -2.0015 0.9686
-6.3919 4.3474 -2.0015 0.9686
-6.7547 3.7590 -2.0015 0.9686
-7.0635 3.1405 -2.0015 0.9686
-7.7270 -0.2236 -2.0015 0.9686
-7.5638 -1.5952 -2.0015 0.9686
-7.3911 -2.2646 -2.0015 0.9686
-7.1592 -2.9158 -2.0015 0.9686
-6.8701 -3.5438 -2.0015 0.9686
-6.5260 -4.1434 -2.0015 0.9686
-6.1297 -4.7098 -2.0015 0.9686
-5.1937 -5.7255 -2.0015 0.9686
-4.6614 -6.1666 -2.0015 0.9686
-2.8594 -7.1819 -2.0015 0.9686
0.5283 -7.7121 -2.0015 0.9686
1.8924 -7.4950 -2.0015 0.9686
2.5544 -7.2960 -2.0015 0.9686
3.1960 -7.0386 -2.0015 0.9686
3.8121 -6.7249 -2.0015 0.9686
4.9480 -5.9391 -2.0015 0.9686
5.9260 -4.9638 -2.0015 0.9686
6.3457 -4.4145 -2.0015 0.9686
7.0301 -3.2147 -2.0015 0.9686
7.4900 -1.9123 -2.0015 0.9686
7.6308 -1.2355 -2.0015 0.9686
7.7107 -0.5488 -2.0015 0.9686
7.6853 0.8322 -2.0015 0.9686
7.1895 2.8403 -2.0015 0.9686
6.9070 3.4712 -2.0015 0.9686
6.1790 4.6450 -2.0015 0.9686
3.5620 6.8606 -2.0015 0.9686
2.2818 7.3771 -1.9993 0.9686
1.6113 7.5409 -1.9966 0.9686
0.9303 7.6478 -1.9947 0.9687
-1.1312 7.6224 -1.9952 0.9687
-1.8097 7.4994 -1.9975 0.9686
-2.4762 7.3189 -2.0005 0.9686
-3.1217 7.0719 -2.0015 0.9686
-3.7410 6.7647 -2.0015 0.9686
-4.3304 6.4034 -2.0015 0.9686
-4.8852 5.9909 -2.0015 0.9686
-5.8734 5.0259 -2.0015 0.9686
-3.3892 6.2048 -2.0015 0.9710
-4.9132 5.0839 -2.0015 0.9710
-5.7395 4.1284 -2.0015 0.9710
-6.0854 3.5991 -2.0015 0.9710
-6.3826 3.0411 -2.0015 0.9710
-6.9605 1.2397 -2.0015 0.9710
-7.0700 -0.0188 -2.0015 0.9710
-7.0401 -0.6503 -2.0015 0.9710
-6.8120 -1.8929 -2.0015 0.9710
-6.6156 -2.4939 -2.0015 0.9710
-6.3664 -3.0749 -2.0015 0.9710
-5.7175 -4.1588 -2.0015 0.9710
-5.3231 -4.6530 -2.0015 0.9710
-4.4101 -5.5261 -2.0015 0.9710
-3.3562 -6.2227 -2.0015 0.9710
-2.7869 -6.4976 -2.0015 0.9710
-2.1952 -6.7206 -2.0015 0.9710
-1.5860 -6.8899 -2.0015 0.9710
0.2977 -7.0638 -2.0015 0.9710
1.5501 -6.8981 -2.0015 0.9710
2.7529 -6.5121 -2.0015 0.9710
3.8679 -5.9182 -2.0015 0.9710
5.6958 -4.1886 -2.0015 0.9710
6.6025 -2.5283 -2.0015 0.9710
6.8020 -1.9284 -2.0015 0.9710
6.9471 -1.3130 -2.0015 0.9710
7.0466 0.5762 -2.0015 0.9710
6.8315 1.8210 -2.0015 0.9710
6.6415 2.4241 -2.0015 0.9710
6.3984 3.0077 -2.0015 0.9710
6.1041 3.5673 -2.0015 0.9710
5.3718 4.5967 -2.0015 0.9710
4.9397 5.0582 -2.0015 0.9710
2.8551 6.4679 -2.0015 0.9710
1.6585 6.8728 -2.0015 0.9710
1.0379 6.9935 -2.0015 0.9710
0.4089 7.0582 -2.0015 0.9710
-0.2233 7.0666 -2.0015 0.9710
-2.0891 6.7544 -2.0015 0.9710
-3.8054 5.9586 -2.0015 0.9710
-5.2492 4.7363 -2.0015 0.9710
-6.0083 3.7265 -2.0015 0.9710
-6.3172 3.1748 -2.0015 0.9710
-6.9329 1.3860 -2.0015 0.9710
-7.0290 0.7611 -2.0015 0.9710
-6.6667 -2.3540 -2.0015 0.9710
-6.1413 -3.5029 -2.0015 0.9710
-5.8038 -4.0375 -2.0015 0.9710
-5.4199 -4.5399 -2.0015 0.9710
-4.9927 -5.0059 -2.0015 0.9710
-4.0221 -5.8145 -2.0015 0.9710
-2.3363 -6.6729 -2.0015 0.9710
-1.1114 -6.9822 -2.0015 0.9710
-0.4832 -7.0535 -2.0015 0.9710
0.7798 -7.0269 -2.0015 0.9710
1.4045 -6.9292 -2.0015 0.9710
2.0179 -6.7760 -2.0015 0.9710
3.1916 -6.3087 -2.0015 0.9710
4.2633 -5.6400 -2.0015 0.9710
5.1990 -4.7913 -2.0015 0.9710
5.6063 -4.3076 -2.0015 0.9710
6.5478 -2.6668 -2.0015 0.9710
6.9179 -1.4590 -2.0015 0.9710
7.0671 -0.2045 -2.0015 0.9710
6.9907 1.0564 -2.0015 0.9710
6.4603 2.8723 -2.0015 0.9710
5.8460 3.9762 -2.0015 0.9710
5.0451 4.9531 -2.0015 0.9710
4.5824 5.3840 -2.0015 0.9710
2.4064 6.6479 -2.0015 0.9710
1.1849 6.9701 -2.0015 0.9710
0.5575 7.0481 -2.0015 0.9710
-0.0744 7.0697 -2.0015 0.9710
-1.9464 6.7969 -2.0015 0.9710
-2.5459 6.5958 -2.0015 0.9710
-3.1250 6.3420 -2.0015 0.9710
-3.6791 6.0374 -2.0015 0.9710
-5.5606 4.3664 -2.0015 0.9710
-5.9285 3.8522 -2.0015 0.9710
-6.2489 3.3071 -2.0015 0.9710
-6.5194 2.7356 -2.0015 0.9710
-6.9022 1.5317 -2.0015 0.9710
-7.0114 0.9090 -2.0015 0.9710
-7.0646 0.2789 -2.0015 0.9710
-7.0612 -0.3533 -2.0015 0.9710
-7.0014 -0.9828 -2.0015 0.9710
-6.8857 -1.6043 -2.0015 0.9710
-6.7148 -2.2131 -2.0015 0.9710
-6.4902 -2.8041 -2.0015 0.9710
-6.2138 -3.3727 -2.0015 0.9710
-5.8876 -3.9144 -2.0015 0.9710
-4.6389 -5.3354 -2.0015 0.9710
-4.1436 -5.7285 -2.0015 0.9710
-2.4763 -6.6222 -2.0015 0.9710
-1.8747 -6.8170 -2.0015 0.9710
1.2582 -6.9572 -2.0015 0.9710
2.4763 -6.6222 -2.0015 0.9710
3.0580 -6.3745 -2.0015 0.9710
3.6153 -6.0758 -2.0015 0.9710
4.1436 -5.7286 -2.0015 0.9710
5.8876 -3.9144 -2.0015 0.9710
6.2137 -3.3727 -2.0015 0.9710
6.4902 -2.8041 -2.0015 0.9710
6.7148 -2.2131 -2.0015 0.9710
6.8856 -1.6043 -2.0015 0.9710
7.0014 -0.9828 -2.0015 0.9710
7.0646 0.2789 -2.0015 0.9710
7.0114 0.9090 -2.0015 0.9710
6.9022 1.5317 -2.0015 0.9710
5.9285 3.8522 -2.0015 0.9710
5.1483 4.8457 -2.0015 0.9710
4.6948 5.2863 -2.0015 0.9710
3.1250 6.3420 -2.0015 0.9710
2.5459 6.5958 -2.0015 0.9710
1.9464 6.7969 -2.0015 0.9710
1.3314 6.9436 -2.0015 0.9710
0.7058 7.0348 -2.0015 0.9710
0.0745 7.0697 -2.0015 0.9710
-0.5575 7.0481 -2.0015 0.9710
-1.8029 6.8364 -2.0015 0.9710
-2.4064 6.6480 -2.0015 0.9710
-3.5511 6.1136 -2.0015 0.9710
-4.0831 5.7719 -2.0015 0.9710
-4.5824 5.3840 -2.0015 0.9710
-5.4674 4.4826 -2.0015 0.9710
-6.6911 2.2837 -2.0015 0.9710
-6.8684 1.6767 -2.0015 0.9710
-7.0571 0.4277 -2.0015 0.9710
-7.0671 -0.2045 -2.0015 0.9710
-7.0206 -0.8351 -2.0015 0.9710
-6.2833 -3.2412 -2.0015 0.9710
-5.6063 -4.3076 -2.0015 0.9710
-5.1990 -4.7913 -2.0015 0.9710
-4.7502 -5.2366 -2.0015 0.9710
-3.7424 -5.9984 -2.0015 0.9710
-2.6152 -6.5686 -2.0015 0.9710
-2.0179 -6.7760 -2.0015 0.9710
-1.4044 -6.9292 -2.0015 0.9710
-0.7798 -7.0269 -2.0015 0.9710
-0.1489 -7.0685 -2.0015 0.9710
0.4832 -7.0535 -2.0015 0.9710
1.1114 -6.9822 -2.0015 0.9710
4.5255 -5.4320 -2.0015 0.9710
5.4199 -4.5399 -2.0015 0.9710
5.8038 -4.0375 -2.0015 0.9710
6.1413 -3.5029 -2.0015 0.9710
6.4297 -2.9402 -2.0015 0.9710
6.6667 -2.3540 -2.0015 0.9710
6.8503 -1.7490 -2.0015 0.9710
6.9792 -1.1300 -2.0015 0.9710
7.0522 -0.5020 -2.0015 0.9710
7.0689 0.1301 -2.0015 0.9710
7.0290 0.7611 -2.0015 0.9710
6.7813 1.9999 -2.0015 0.9710
3.8054 5.9586 -2.0015 0.9710
3.2578 6.2748 -2.0015 0.9710
2.6842 6.5407 -2.0015 0.9710
2.0891 6.7544 -2.0015 0.9710
1.4774 6.9140 -2.0015 0.9710
-0.4089 7.0582 -2.0015 0.9710
-1.0379 6.9935 -2.0015 0.9710
-3.4216 6.1870 -2.0015 0.9710
-4.9397 5.0582 -2.0015 0.9710
-3.1194 5.7108 -2.0015 0.9731
-3.6172 5.4093 -2.0015 0.9731
-4.0859 5.0645 -2.0015 0.9731
-4.5221 4.6792 -2.0015 0.9731
-4.9220 4.2565 -2.0015 0.9731
-5.6010 3.3126 -2.0015 0.9731
-6.4827 0.5641 -2.0015 0.9731
-6.5072 -0.0173 -2.0015 0.9731
-6.4003 -1.1751 -2.0015 0.9731
-6.2697 -1.7422 -2.0015 0.9731
-5.8596 -2.8301 -2.0015 0.9731
-5.5833 -3.3423 -2.0015 0.9731
-4.8994 -4.2826 -2.0015 0.9731
-3.5884 -5.4284 -2.0015 0.9731
-3.0890 -5.7273 -2.0015 0.9731
-2.0205 -6.1856 -2.0015 0.9731
-1.4598 -6.3414 -2.0015 0.9731
-0.8874 -6.4465 -2.0015 0.9731
-0.3079 -6.5000 -2.0015 0.9731
0.8538 -6.4510 -2.0015 0.9731
1.4267 -6.3489 -2.0015 0.9731
3.5600 -5.4471 -2.0015 0.9731
4.0324 -5.1073 -2.0015 0.9731
4.4726 -4.7266 -2.0015 0.9731
5.2423 -3.8552 -2.0015 0.9731
6.0769 -2.3271 -2.0015 0.9731
6.2605 -1.7749 -2.0015 0.9731
6.3941 -1.2084 -2.0015 0.9731
6.4765 -0.6324 -2.0015 0.9731
6.4856 0.5303 -2.0015 0.9731
6.4123 1.1076 -2.0015 0.9731
6.1128 2.2311 -2.0015 0.9731
5.8891 2.7683 -2.0015 0.9731
4.5464 4.6556 -2.0015 0.9731
3.6453 5.3903 -2.0015 0.9731
3.1492 5.6945 -2.0015 0.9731
1.5265 6.3257 -2.0015 0.9731
0.9552 6.4368 -2.0015 0.9731
-0.7858 6.4596 -2.0015 0.9731
-1.3597 6.3636 -2.0015 0.9731
-1.9228 6.2167 -2.0015 0.9731
-3.9784 5.1494 -2.0015 0.9731
-5.5300 3.4298 -2.0015 0.9731
-5.8143 2.9221 -2.0015 0.9731
-6.2415 1.8407 -2.0015 0.9731
-6.5061 0.1198 -2.0015 0.9731
-6.4236 -1.0400 -2.0015 0.9731
-5.9179 -2.7061 -2.0015 0.9731
-5.3418 -3.7161 -2.0015 0.9731
-4.5952 -4.6074 -2.0015 0.9731
-4.1652 -4.9995 -2.0015 0.9731
-2.6904 -5.9250 -2.0015 0.9731
-1.5930 -6.3092 -2.0015 0.9731
-1.0229 -6.4263 -2.0015 0.9731
-0.4447 -6.4920 -2.0015 0.9731
0.7177 -6.4675 -2.0015 0.9731
1.2927 -6.3776 -2.0015 0.9731
2.4070 -6.0457 -2.0015 0.9731
3.9240 -5.1910 -2.0015 0.9731
4.3720 -4.8197 -2.0015 0.9731
5.4936 -3.4879 -2.0015 0.9731
5.7832 -2.9831 -2.0015 0.9731
6.2218 -1.9063 -2.0015 0.9731
6.3672 -1.3428 -2.0015 0.9731
6.4342 0.9723 -2.0015 0.9731
6.3216 1.5433 -2.0015 0.9731
6.1584 2.1019 -2.0015 0.9731
5.9461 2.6436 -2.0015 0.9731
5.6861 3.1643 -2.0015 0.9731
5.0322 4.1257 -2.0015 0.9731
2.2148 6.1187 -2.0015 0.9731
1.6594 6.2921 -2.0015 0.9731
0.5131 6.4870 -2.0015 0.9731
-0.6496 6.4747 -2.0015 0.9731
-1.7915 6.2558 -2.0015 0.9731
-2.8762 5.8371 -2.0015 0.9731
-3.3862 5.5568 -2.0015 0.9731
-4.7384 4.4600 -2.0015 0.9731
-6.2013 1.9717 -2.0015 0.9731
-6.4532 0.8366 -2.0015 0.9731
-6.5022 0.2567 -2.0015 0.9731
-6.4991 -0.3252 -2.0015 0.9731
-6.1802 -2.0369 -2.0015 0.9731
-5.9736 -2.5809 -2.0015 0.9731
-4.6912 -4.5096 -2.0015 0.9731
-4.2696 -4.9107 -2.0015 0.9731
-3.8138 -5.2725 -2.0015 0.9731
-2.8146 -5.8671 -2.0015 0.9731
-2.2792 -6.0950 -2.0015 0.9731
-1.1581 -6.4034 -2.0015 0.9731
0.0000 -6.5073 -2.0015 0.9731
1.1581 -6.4034 -2.0015 0.9731
1.7255 -6.2743 -2.0015 0.9731
2.2791 -6.0951 -2.0015 0.9731
3.3275 -5.5922 -2.0015 0.9731
4.2696 -4.9107 -2.0015 0.9731
5.0753 -4.0725 -2.0015 0.9731
5.4189 -3.6028 -2.0015 0.9731
5.9735 -2.5809 -2.0015 0.9731
6.1802 -2.0369 -2.0015 0.9731
6.3375 -1.4766 -2.0015 0.9731
6.4991 -0.3252 -2.0015 0.9731
6.2013 1.9717 -2.0015 0.9731
6.0004 2.5178 -2.0015 0.9731
4.3210 4.8655 -2.0015 0.9731
3.3862 5.5568 -2.0015 0.9731
2.8762 5.8371 -2.0015 0.9731
2.3432 6.0707 -2.0015 0.9731
1.7915 6.2558 -2.0015 0.9731
0.6496 6.4747 -2.0015 0.9731
0.0685 6.5069 -2.0015 0.9731
-0.5131 6.4870 -2.0015 0.9731
-1.6594 6.2921 -2.0015 0.9731
-2.2148 6.1187 -2.0015 0.9731
-4.2176 4.9554 -2.0015 0.9731
-4.6435 4.5588 -2.0015 0.9731
-5.0322 4.1257 -2.0015 0.9731
-5.3806 3.6596 -2.0015 0.9731
-6.4342 0.9723 -2.0015 0.9731
-6.5045 -0.1883 -2.0015 0.9731
-6.4617 -0.7686 -2.0015 0.9731
-6.2218 -1.9063 -2.0015 0.9731
-6.0266 -2.4545 -2.0015 0.9731
-5.7832 -2.9831 -2.0015 0.9731
-5.4935 -3.4879 -2.0015 0.9731
-4.7851 -4.4098 -2.0015 0.9731
-3.9240 -5.1910 -2.0015 0.9731
-2.9375 -5.8065 -2.0015 0.9731
-0.7177 -6.4676 -2.0015 0.9731
-0.1370 -6.5058 -2.0015 0.9731
0.4448 -6.4920 -2.0015 0.9731
2.1503 -6.1417 -2.0015 0.9731
2.6904 -5.9250 -2.0015 0.9731
3.2090 -5.6610 -2.0015 0.9731
3.7019 -5.3517 -2.0015 0.9731
6.4236 -1.0400 -2.0015 0.9731
6.4908 -0.4620 -2.0015 0.9731
6.5062 0.1197 -2.0015 0.9731
5.5300 3.4298 -2.0015 0.9731
4.4225 4.7734 -2.0015 0.9731
3.9784 5.1494 -2.0015 0.9731
3.5025 5.4843 -2.0015 0.9731
1.9228 6.2167 -2.0015 0.9731
1.3597 6.3636 -2.0015 0.9731
0.7858 6.4596 -2.0015 0.9731
-0.3763 6.4964 -2.0015 0.9731
-0.9552 6.4367 -2.0015 0.9731
-1.5265 6.3257 -2.0015 0.9731
-3.6453 5.3904 -2.0015 0.9731
-4.1123 5.0431 -2.0015 0.9731
-2.4028 5.5210 -2.0015 0.9749
-2.8864 5.2843 -2.0015 0.9749
-4.1843 4.3297 -2.0015 0.9749
-5.6454 2.0939 -2.0015 0.9749
-5.9279 1.0558 -2.0015 0.9749
-5.9222 -1.0873 -2.0015 0.9749
-5.8014 -1.6121 -2.0015 0.9749
-5.4219 -2.6188 -2.0015 0.9749
-4.8693 -3.5419 -2.0015 0.9749
-4.1613 -4.3519 -2.0015 0.9749
-3.7558 -4.7063 -2.0015 0.9749
-2.8583 -5.2995 -2.0015 0.9749
-0.2849 -6.0145 -2.0015 0.9749
0.7900 -5.9692 -2.0015 0.9749
1.8397 -5.7333 -2.0015 0.9749
2.3445 -5.5460 -2.0015 0.9749
3.2941 -5.0402 -2.0015 0.9749
3.7312 -4.7258 -2.0015 0.9749
4.8508 -3.5672 -2.0015 0.9749
5.6230 -2.1533 -2.0015 0.9749
5.7929 -1.6423 -2.0015 0.9749
5.9165 -1.1182 -2.0015 0.9749
5.8181 1.5509 -2.0015 0.9749
5.6563 2.0644 -2.0015 0.9749
5.1986 3.0381 -2.0015 0.9749
4.9064 3.4904 -2.0015 0.9749
4.5749 3.9148 -2.0015 0.9749
4.2069 4.3078 -2.0015 0.9749
3.8052 4.6665 -2.0015 0.9749
3.3731 4.9877 -2.0015 0.9749
2.9140 5.2691 -2.0015 0.9749
1.9297 5.7036 -2.0015 0.9749
0.8839 5.9560 -2.0015 0.9749
-0.1902 6.0182 -2.0015 0.9749
-1.7792 5.7524 -2.0015 0.9749
-2.7745 5.3439 -2.0015 0.9749
-3.6813 4.7648 -2.0015 0.9749
-4.8129 3.6181 -2.0015 0.9749
-5.1169 3.1737 -2.0015 0.9749
-5.7753 1.7032 -2.0015 0.9749
-5.9044 1.1804 -2.0015 0.9749
-5.9862 0.6482 -2.0015 0.9749
-5.8341 -1.4895 -2.0015 0.9749
-5.6777 -2.0048 -2.0015 0.9749
-5.2303 -2.9832 -2.0015 0.9749
-4.9428 -3.4385 -2.0015 0.9749
-4.6159 -3.8664 -2.0015 0.9749
-4.2520 -4.2633 -2.0015 0.9749
-3.8541 -4.6261 -2.0015 0.9749
-2.9693 -5.2382 -2.0015 0.9749
-2.4894 -5.4825 -2.0015 0.9749
-1.4740 -5.8380 -2.0015 0.9749
1.7185 -5.7708 -2.0015 0.9749
2.2272 -5.5942 -2.0015 0.9749
2.7181 -5.3728 -2.0015 0.9749
3.6309 -4.8033 -2.0015 0.9749
4.4277 -4.0805 -2.0015 0.9749
5.0833 -3.2274 -2.0015 0.9749
5.7571 -1.7639 -2.0015 0.9749
5.8916 -1.2425 -2.0015 0.9749
5.9791 -0.7112 -2.0015 0.9749
6.0102 0.3642 -2.0015 0.9749
5.6985 1.9449 -2.0015 0.9749
5.5019 2.4462 -2.0015 0.9749
5.2614 2.9279 -2.0015 0.9749
4.9788 3.3863 -2.0015 0.9749
4.6563 3.8176 -2.0015 0.9749
4.2967 4.2183 -2.0015 0.9749
3.4774 4.9156 -2.0015 0.9749
3.0243 5.2066 -2.0015 0.9749
2.5470 5.4560 -2.0015 0.9749
2.0494 5.6617 -2.0015 0.9749
0.4748 6.0025 -2.0015 0.9749
-0.6010 5.9912 -2.0015 0.9749
-3.9983 4.5021 -2.0015 0.9749
-4.3845 4.1269 -2.0015 0.9749
-4.7357 3.7187 -2.0015 0.9749
-5.0490 3.2807 -2.0015 0.9749
-5.5522 2.3298 -2.0015 0.9749
-5.7382 1.8245 -2.0015 0.9749
-5.8782 1.3045 -2.0015 0.9749
-5.7186 -1.8848 -2.0015 0.9749
-5.5274 -2.3881 -2.0015 0.9749
-5.2919 -2.8724 -2.0015 0.9749
-4.6963 -3.7683 -2.0015 0.9749
-4.3408 -4.1728 -2.0015 0.9749
-3.5289 -4.8787 -2.0015 0.9749
-2.6043 -5.4289 -2.0015 0.9749
-2.1089 -5.6398 -2.0015 0.9749
-1.5966 -5.8057 -2.0015 0.9749
-1.0716 -5.9251 -2.0015 0.9749
-0.5379 -5.9971 -2.0015 0.9749
2.1089 -5.6398 -2.0015 0.9749
3.0789 -5.1745 -2.0015 0.9749
4.6963 -3.7683 -2.0015 0.9749
5.7186 -1.8848 -2.0015 0.9749
5.8642 -1.3663 -2.0015 0.9749
5.9628 -0.8370 -2.0015 0.9749
5.9713 0.7741 -2.0015 0.9749
5.8782 1.3045 -2.0015 0.9749
5.7382 1.8244 -2.0015 0.9749
5.5522 2.3298 -2.0015 0.9749
5.3219 2.8165 -2.0015 0.9749
4.3845 4.1269 -2.0015 0.9749
3.9983 4.5021 -2.0015 0.9749
2.1682 5.6173 -2.0015 0.9749
0.6011 5.9912 -2.0015 0.9749
0.0634 6.0209 -2.0015 0.9749
-0.4748 6.0025 -2.0015 0.9749
-1.0091 5.9361 -2.0015 0.9749
-1.5354 5.8222 -2.0015 0.9749
-2.5470 5.4560 -2.0015 0.9749
-3.0243 5.2066 -2.0015 0.9749
-3.4773 4.9156 -2.0015 0.9749
-4.6563 3.8176 -2.0015 0.9749
-4.9788 3.3863 -2.0015 0.9749
-5.5019 2.4462 -2.0015 0.9749
-5.8494 1.4280 -2.0015 0.9749
-5.9536 0.8997 -2.0015 0.9749
-6.0187 -0.1742 -2.0015 0.9749
-5.9791 -0.7112 -2.0015 0.9749
-4.7746 -3.6686 -2.0015 0.9749
-4.4277 -4.0805 -2.0015 0.9749
-4.0455 -4.4597 -2.0015 0.9749
-3.1872 -5.1085 -2.0015 0.9749
-1.7185 -5.7708 -2.0015 0.9749
-1.1961 -5.9012 -2.0015 0.9749
0.9466 -5.9464 -2.0015 0.9749
1.4740 -5.8380 -2.0015 0.9749
2.4894 -5.4825 -2.0015 0.9749
3.4254 -4.9520 -2.0015 0.9749
4.2520 -4.2633 -2.0015 0.9749
4.6159 -3.8664 -2.0015 0.9749
4.9428 -3.4385 -2.0015 0.9749
5.6777 -2.0048 -2.0015 0.9749
5.9438 -0.9624 -2.0015 0.9749
6.0060 -0.4275 -2.0015 0.9749
6.0202 0.1108 -2.0015 0.9749
5.9862 0.6482 -2.0015 0.9749
5.3800 2.7038 -2.0015 0.9749
5.1169 3.1737 -2.0015 0.9749
4.8130 3.6181 -2.0015 0.9749
4.4705 4.0336 -2.0015 0.9749
3.2409 5.0747 -2.0015 0.9749
2.7745 5.3439 -2.0015 0.9749
1.7792 5.7523 -2.0015 0.9749
0.7271 5.9772 -2.0015 0.9749
0.1902 6.0182 -2.0015 0.9749
-0.3482 6.0112 -2.0015 0.9749
-3.8052 4.6665 -2.0015 0.9749
-4.2069 4.3078 -2.0015 0.9749
-4.5749 3.9148 -2.0015 0.9749
-2.2335 5.1319 -2.0015 0.9765
-2.6830 4.9119 -2.0015 0.9765
-3.1111 4.6525 -2.0015 0.9765
-3.8894 4.0246 -2.0015 0.9765
-4.2335 3.6610 -2.0015 0.9765
-4.8174 2.8492 -2.0015 0.9765
-5.5969 -0.0149 -2.0015 0.9765
-5.5732 -0.5148 -2.0015 0.9765
-5.5049 -1.0107 -2.0015 0.9765
-5.2371 -1.9742 -2.0015 0.9765
-5.0398 -2.4342 -2.0015 0.9765
-4.5262 -3.2923 -2.0015 0.9765
-2.2062 -5.1437 -2.0015 0.9765
-1.7378 -5.3203 -2.0015 0.9765
-1.2556 -5.4542 -2.0015 0.9765
-0.2648 -5.5906 -2.0015 0.9765
0.2357 -5.5919 -2.0015 0.9765
0.7343 -5.5485 -2.0015 0.9765
1.2271 -5.4607 -2.0015 0.9765
2.1793 -5.1552 -2.0015 0.9765
3.0620 -4.6850 -2.0015 0.9765
4.5089 -3.3158 -2.0015 0.9765
5.2268 -2.0015 -2.0015 0.9765
5.4995 -1.0394 -2.0015 0.9765
5.5967 -0.0441 -2.0015 0.9765
5.5783 0.4561 -2.0015 0.9765
5.4081 1.4416 -2.0015 0.9765
5.0652 2.3810 -2.0015 0.9765
4.8322 2.8240 -2.0015 0.9765
4.5606 3.2444 -2.0015 0.9765
3.5370 4.3376 -2.0015 0.9765
2.7086 4.8978 -2.0015 0.9765
1.7937 5.3017 -2.0015 0.9765
1.3129 5.4407 -2.0015 0.9765
0.8216 5.5363 -2.0015 0.9765
0.3237 5.5875 -2.0015 0.9765
-0.1768 5.5941 -2.0015 0.9765
-1.1695 5.4733 -2.0015 0.9765
-2.1249 5.1778 -2.0015 0.9765
-4.1554 3.7494 -2.0015 0.9765
-4.4738 3.3631 -2.0015 0.9765
-5.2054 2.0565 -2.0015 0.9765
-5.5959 0.1030 -2.0015 0.9765
-5.5828 -0.3974 -2.0015 0.9765
-5.5249 -0.8945 -2.0015 0.9765
-5.0900 -2.3275 -2.0015 0.9765
-4.8617 -2.7730 -2.0015 0.9765
-3.9523 -3.9629 -2.0015 0.9765
-3.5825 -4.3001 -2.0015 0.9765
-3.1840 -4.6030 -2.0015 0.9765
-2.7600 -4.8690 -2.0015 0.9765
-1.8495 -5.2825 -2.0015 0.9765
-0.3825 -5.5838 -2.0015 0.9765
0.1179 -5.5957 -2.0015 0.9765
0.6173 -5.5627 -2.0015 0.9765
1.1118 -5.4854 -2.0015 0.9765
2.0703 -5.1999 -2.0015 0.9765
2.9626 -4.7485 -2.0015 0.9765
3.7604 -4.1454 -2.0015 0.9765
4.1157 -3.7929 -2.0015 0.9765
4.4381 -3.4100 -2.0015 0.9765
4.9741 -2.5658 -2.0015 0.9765
5.1835 -2.1111 -2.0015 0.9765
5.3513 -1.6396 -2.0015 0.9765
5.5577 -0.6611 -2.0015 0.9765
5.5946 -0.1619 -2.0015 0.9765
5.4372 1.3274 -2.0015 0.9765
5.2969 1.8078 -2.0015 0.9765
5.1142 2.2738 -2.0015 0.9765
4.8906 2.7216 -2.0015 0.9765
4.6279 3.1477 -2.0015 0.9765
4.3282 3.5485 -2.0015 0.9765
3.9939 3.9210 -2.0015 0.9765
1.9050 5.2627 -2.0015 0.9765
1.4272 5.4119 -2.0015 0.9765
0.4413 5.5795 -2.0015 0.9765
-0.0589 5.5966 -2.0015 0.9765
-0.5587 5.5689 -2.0015 0.9765
-2.9125 4.7794 -2.0015 0.9765
-3.3278 4.5001 -2.0015 0.9765
-3.7165 4.1848 -2.0015 0.9765
-4.4019 3.4566 -2.0015 0.9765
-4.6932 3.0495 -2.0015 0.9765
-5.4640 1.2126 -2.0015 0.9765
-5.5899 -0.2797 -2.0015 0.9765
-5.5425 -0.7780 -2.0015 0.9765
-5.4509 -1.2700 -2.0015 0.9765
-5.3156 -1.7519 -2.0015 0.9765
-4.9190 -2.6700 -2.0015 0.9765
-4.6608 -3.0987 -2.0015 0.9765
-4.3653 -3.5028 -2.0015 0.9765
-4.0349 -3.8787 -2.0015 0.9765
-3.2802 -4.5349 -2.0015 0.9765
-2.8620 -4.8098 -2.0015 0.9765
-1.9603 -5.2424 -2.0015 0.9765
-1.4841 -5.3965 -2.0015 0.9765
0.0000 -5.5969 -2.0015 0.9765
0.5000 -5.5745 -2.0015 0.9765
0.9960 -5.5075 -2.0015 0.9765
1.4841 -5.3965 -2.0015 0.9765
1.9603 -5.2424 -2.0015 0.9765
3.2802 -4.5349 -2.0015 0.9765
3.6723 -4.2237 -2.0015 0.9765
4.0349 -3.8788 -2.0015 0.9765
5.1379 -2.2198 -2.0015 0.9765
5.3156 -1.7519 -2.0015 0.9765
5.4509 -1.2700 -2.0015 0.9765
5.5426 -0.7780 -2.0015 0.9765
5.5899 -0.2797 -2.0015 0.9765
5.5504 0.7196 -2.0015 0.9765
5.4640 1.2126 -2.0015 0.9765
4.6932 3.0495 -2.0015 0.9765
4.4019 3.4566 -2.0015 0.9765
4.0755 3.8360 -2.0015 0.9765
3.3278 4.5001 -2.0015 0.9765
2.9125 4.7794 -2.0015 0.9765
2.4738 5.0205 -2.0015 0.9765
1.5409 5.3806 -2.0015 0.9765
1.0540 5.4968 -2.0015 0.9765
0.5587 5.5689 -2.0015 0.9765
0.0590 5.5966 -2.0015 0.9765
-0.4413 5.5795 -2.0015 0.9765
-2.8112 4.8397 -2.0015 0.9765
-3.2323 4.5692 -2.0015 0.9765
-3.9939 3.9210 -2.0015 0.9765
-4.3282 3.5485 -2.0015 0.9765
-5.2969 1.8078 -2.0015 0.9765
-5.5341 0.8363 -2.0015 0.9765
-5.5866 0.3385 -2.0015 0.9765
-5.5577 -0.6611 -2.0015 0.9765
-5.4764 -1.1550 -2.0015 0.9765
-5.3513 -1.6396 -2.0015 0.9765
-3.7604 -4.1454 -2.0015 0.9765
-3.3750 -4.4648 -2.0015 0.9765
-2.9626 -4.7485 -2.0015 0.9765
-2.5265 -4.9942 -2.0015 0.9765
-1.5974 -5.3641 -2.0015 0.9765
-0.1179 -5.5956 -2.0015 0.9765
0.8798 -5.5273 -2.0015 0.9765
1.3701 -5.4266 -2.0015 0.9765
3.1840 -4.6030 -2.0015 0.9765
3.5825 -4.3001 -2.0015 0.9765
3.9523 -3.9629 -2.0015 0.9765
4.2906 -3.5939 -2.0015 0.9765
4.5945 -3.1962 -2.0015 0.9765
4.8617 -2.7730 -2.0015 0.9765
5.0900 -2.3275 -2.0015 0.9765
5.2776 -1.8635 -2.0015 0.9765
5.5250 -0.8945 -2.0015 0.9765
5.5959 0.1030 -2.0015 0.9765
5.4883 1.0972 -2.0015 0.9765
5.0009 2.5133 -2.0015 0.9765
4.1554 3.7494 -2.0015 0.9765
3.4218 4.4290 -2.0015 0.9765
2.5790 4.9673 -2.0015 0.9765
1.6538 5.3470 -2.0015 0.9765
1.1695 5.4733 -2.0015 0.9765
0.6759 5.5559 -2.0015 0.9765
-0.3237 5.5875 -2.0015 0.9765
-3.1354 4.6362 -2.0015 0.9765
-3.9104 4.0043 -2.0015 0.9765
-2.0842 4.7890 -2.0015 0.9779
-2.5037 4.5836 -2.0015 0.9779
-3.2795 4.0649 -2.0015 0.9779
-3.9505 3.4164 -2.0015 0.9779
-4.2399 3.0498 -2.0015 0.9779
-4.4954 2.6588 -2.0015 0.9779
-4.7150 2.2465 -2.0015 0.9779
-5.0395 1.3715 -2.0015 0.9779
-5.1419 0.9158 -2.0015 0.9779
-5.2007 -0.4804 -2.0015 0.9779
-5.0322 -1.3983 -2.0015 0.9779
-4.4813 -2.6826 -2.0015 0.9779
-3.9323 -3.4373 -2.0015 0.9779
-3.6095 -3.7749 -2.0015 0.9779
-2.8801 -4.3570 -2.0015 0.9779
-2.4793 -4.5968 -2.0015 0.9779
-2.0587 -4.8000 -2.0015 0.9779
-0.7122 -5.1741 -2.0015 0.9779
-0.2471 -5.2170 -2.0015 0.9779
0.2199 -5.2182 -2.0015 0.9779
1.5958 -4.9731 -2.0015 0.9779
2.4553 -4.6097 -2.0015 0.9779
2.8573 -4.3719 -2.0015 0.9779
3.2365 -4.0992 -2.0015 0.9779
3.9143 -3.4578 -2.0015 0.9779
4.2076 -3.0942 -2.0015 0.9779
4.4672 -2.7060 -2.0015 0.9779
5.1981 -0.5075 -2.0015 0.9779
5.2055 0.4256 -2.0015 0.9779
5.1466 0.8890 -2.0015 0.9779
5.0466 1.3452 -2.0015 0.9779
4.7267 2.2219 -2.0015 0.9779
3.9683 3.3957 -2.0015 0.9779
3.3006 4.0477 -2.0015 0.9779
2.9258 4.3264 -2.0015 0.9779
2.5276 4.5705 -2.0015 0.9779
2.1092 4.7780 -2.0015 0.9779
1.2252 5.0771 -2.0015 0.9779
0.3021 5.2141 -2.0015 0.9779
-0.1650 5.2202 -2.0015 0.9779
-1.0913 5.1075 -2.0015 0.9779
-1.9829 4.8318 -2.0015 0.9779
-2.4066 4.6353 -2.0015 0.9779
-2.8111 4.4018 -2.0015 0.9779
-3.1931 4.1330 -2.0015 0.9779
-3.8777 3.4988 -2.0015 0.9779
-4.1748 3.1384 -2.0015 0.9779
-4.6667 2.3453 -2.0015 0.9779
-4.8575 1.9190 -2.0015 0.9779
-5.0095 1.4774 -2.0015 0.9779
-5.1215 1.0239 -2.0015 0.9779
-5.2220 0.0961 -2.0015 0.9779
-5.1557 -0.8347 -2.0015 0.9779
-5.0605 -1.2920 -2.0015 0.9779
-4.5368 -2.5876 -2.0015 0.9779
-4.2874 -2.9826 -2.0015 0.9779
-4.0038 -3.3537 -2.0015 0.9779
-3.6882 -3.6980 -2.0015 0.9779
-2.9712 -4.2954 -2.0015 0.9779
-2.1594 -4.7556 -2.0015 0.9779
-1.2786 -5.0639 -2.0015 0.9779
-0.8210 -5.1579 -2.0015 0.9779
0.1100 -5.2217 -2.0015 0.9779
1.0375 -5.1188 -2.0015 0.9779
1.4907 -5.0056 -2.0015 0.9779
2.3577 -4.6604 -2.0015 0.9779
2.7646 -4.4311 -2.0015 0.9779
3.8406 -3.5394 -2.0015 0.9779
4.4092 -2.7994 -2.0015 0.9779
4.8371 -1.9701 -2.0015 0.9779
5.1104 -1.0778 -2.0015 0.9779
5.1863 -0.6169 -2.0015 0.9779
5.2207 -0.1511 -2.0015 0.9779
5.2133 0.3159 -2.0015 0.9779
5.1642 0.7804 -2.0015 0.9779
5.0739 1.2387 -2.0015 0.9779
4.7724 2.1218 -2.0015 0.9779
4.5638 2.5397 -2.0015 0.9779
3.7269 3.6590 -2.0015 0.9779
2.6233 4.5163 -2.0015 0.9779
1.7777 4.9110 -2.0015 0.9779
1.3318 5.0502 -2.0015 0.9779
0.4118 5.2066 -2.0015 0.9779
-0.0550 5.2226 -2.0015 0.9779
-0.9835 5.1294 -2.0015 0.9779
-1.8807 4.8725 -2.0015 0.9779
-2.7178 4.4600 -2.0015 0.9779
-3.4681 3.9051 -2.0015 0.9779
-3.8032 3.5797 -2.0015 0.9779
-4.9773 1.5825 -2.0015 0.9779
-5.2188 0.2061 -2.0015 0.9779
-5.2163 -0.2610 -2.0015 0.9779
-5.1721 -0.7260 -2.0015 0.9779
-4.5903 -2.4915 -2.0015 0.9779
-4.0736 -3.2687 -2.0015 0.9779
-3.4268 -3.9414 -2.0015 0.9779
-2.2590 -4.7090 -2.0015 0.9779
-0.9295 -5.1395 -2.0015 0.9779
0.4666 -5.2020 -2.0015 0.9779
3.0610 -4.2318 -2.0015 0.9779
3.4268 -3.9414 -2.0015 0.9779
3.7653 -3.6195 -2.0015 0.9779
5.1721 -0.7260 -2.0015 0.9779
5.2163 -0.2610 -2.0015 0.9779
5.2188 0.2061 -2.0015 0.9779
5.0988 1.1315 -2.0015 0.9779
4.8160 2.0209 -2.0015 0.9779
4.3795 2.8457 -2.0015 0.9779
3.8032 3.5797 -2.0015 0.9779
3.4682 3.9051 -2.0015 0.9779
3.1054 4.1994 -2.0015 0.9779
1.4379 5.0210 -2.0015 0.9779
0.9836 5.1294 -2.0015 0.9779
0.5214 5.1968 -2.0015 0.9779
0.0550 5.2226 -2.0015 0.9779
-0.4118 5.2066 -2.0015 0.9779
-0.8753 5.1490 -2.0015 0.9779
-2.2093 4.7326 -2.0015 0.9779
-2.6233 4.5163 -2.0015 0.9779
-3.0163 4.2638 -2.0015 0.9779
-3.7269 3.6590 -2.0015 0.9779
-4.0389 3.3114 -2.0015 0.9779
-4.5637 2.5397 -2.0015 0.9779
-4.9429 1.6870 -2.0015 0.9779
-5.0738 1.2387 -2.0015 0.9779
-5.1642 0.7804 -2.0015 0.9779
-5.1863 -0.6169 -2.0015 0.9779
-5.1104 -1.0778 -2.0015 0.9779
-4.8370 -1.9700 -2.0015 0.9779
-4.6417 -2.3943 -2.0015 0.9779
-4.4092 -2.7994 -2.0015 0.9779
