ply
format ascii 1.0
element vertex 1593
property float32 x
property float32 y
property float32 z
property float32 I
end_header
-6.9132 1.4810 -2.0015 0.9710
-7.0177 0.8586 -2.0015 0.9710
-7.0663 0.2294 -2.0015 0.9710
-7.0587 -0.4017 -2.0015 0.9710
-6.9947 -1.0295 -2.0015 0.9710
-6.8750 -1.6492 -2.0015 0.9710
-6.4727 -2.8442 -2.0015 0.9710
-5.8646 -3.9488 -2.0015 0.9710
-5.4891 -4.4560 -2.0015 0.9710
-2.4452 -6.6338 -2.0015 0.9710
-1.8439 -6.8254 -2.0015 0.9710
-1.2279 -6.9626 -2.0015 0.9710
-0.6021 -7.0444 -2.0015 0.9710
0.0285 -7.0700 -2.0015 0.9710
0.6588 -7.0393 -2.0015 0.9710
1.2839 -6.9525 -2.0015 0.9710
1.8988 -6.8103 -2.0015 0.9710
2.4985 -6.6139 -2.0015 0.9710
3.0784 -6.3647 -2.0015 0.9710
3.6337 -6.0649 -2.0015 0.9710
4.1600 -5.7167 -2.0015 0.9710
5.8962 -3.9014 -2.0015 0.9710
6.8881 -1.5938 -2.0015 0.9710
7.0028 -0.9732 -2.0015 0.9710
7.0617 -0.3448 -2.0015 0.9710
7.0643 0.2863 -2.0015 0.9710
7.0106 0.9151 -2.0015 0.9710
6.9011 1.5366 -2.0015 0.9710
6.7366 2.1459 -2.0015 0.9710
6.5184 2.7380 -2.0015 0.9710
6.2483 3.3084 -2.0015 0.9710
5.5612 4.3657 -2.0015 0.9710
4.6972 5.2842 -2.0015 0.9710
1.9552 6.7944 -2.0015 0.9710
1.3415 6.9416 -2.0015 0.9710
0.7172 7.0336 -2.0015 0.9710
-0.5437 7.0491 -2.0015 0.9710
-1.7872 6.8405 -2.0015 0.9710
-4.0660 5.7839 -2.0015 0.9710
-4.5656 5.3983 -2.0015 0.9710
-5.0288 4.9696 -2.0015 0.9710
-5.4519 4.5014 -2.0015 0.9710
-5.8316 3.9973 -2.0015 0.9710
-6.4489 2.8978 -2.0015 0.9710
-6.6817 2.3112 -2.0015 0.9710
-6.8611 1.7061 -2.0015 0.9710
-6.9859 1.0875 -2.0015 0.9710
-7.0680 -0.1708 -2.0015 0.9710
-7.0246 -0.8004 -2.0015 0.9710
-6.9253 -1.4236 -2.0015 0.9710
-6.5622 -2.6311 -2.0015 0.9710
-6.3014 -3.2059 -2.0015 0.9710
-5.9905 -3.7550 -2.0015 0.9710
-5.6318 -4.2743 -2.0015 0.9710
-5.2282 -4.7594 -2.0015 0.9710
-3.7820 -5.9735 -2.0015 0.9710
-1.9045 6.2223 -2.0015 0.9731
-2.4518 6.0277 -2.0015 0.9731
-4.4045 4.7901 -2.0015 0.9731
-5.1853 3.9315 -2.0015 0.9731
-5.5153 3.4534 -2.0015 0.9731
-6.0410 2.4188 -2.0015 0.9731
-6.3746 1.3072 -2.0015 0.9731
-6.4658 0.7335 -2.0015 0.9731
-6.4932 -0.4267 -2.0015 0.9731
-6.4293 -1.0040 -2.0015 0.9731
-6.1487 -2.1301 -2.0015 0.9731
-5.9343 -2.6700 -2.0015 0.9731
-5.3656 -3.6817 -2.0015 0.9731
-5.0159 -4.1455 -2.0015 0.9731
-3.7398 -5.3253 -2.0015 0.9731
-3.2500 -5.6375 -2.0015 0.9731
-2.1969 -6.1252 -2.0015 0.9731
0.0833 -6.5067 -2.0015 0.9731
3.8749 -5.2278 -2.0015 0.9731
4.3256 -4.8614 -2.0015 0.9731
5.1204 -4.0157 -2.0015 0.9731
5.4581 -3.5431 -2.0015 0.9731
6.0007 -2.5172 -2.0015 0.9731
6.3524 -1.4112 -2.0015 0.9731
6.4529 -0.8391 -2.0015 0.9731
6.5020 -0.2604 -2.0015 0.9731
6.4449 0.8988 -2.0015 0.9731
6.3391 1.4699 -2.0015 0.9731
6.1827 2.0294 -2.0015 0.9731
5.9771 2.5726 -2.0015 0.9731
5.4251 3.5935 -2.0015 0.9731
5.0830 4.0629 -2.0015 0.9731
4.7004 4.5000 -2.0015 0.9731
4.2804 4.9012 -2.0015 0.9731
3.8263 5.2634 -2.0015 0.9731
3.3417 5.5837 -2.0015 0.9731
2.8305 5.8594 -2.0015 0.9731
2.2967 6.0885 -2.0015 0.9731
1.7446 6.2690 -2.0015 0.9731
1.1786 6.3996 -2.0015 0.9731
0.6032 6.4792 -2.0015 0.9731
-0.5573 6.4833 -2.0015 0.9731
-1.7001 6.2812 -2.0015 0.9731
-2.2535 6.1046 -2.0015 0.9731
-3.3020 5.6072 -2.0015 0.9731
-3.7889 5.2904 -2.0015 0.9731
-4.2456 4.9315 -2.0015 0.9731
-6.1682 2.0731 -2.0015 0.9731
-6.3285 1.5148 -2.0015 0.9731
-6.4383 0.9445 -2.0015 0.9731
-6.4969 0.3666 -2.0015 0.9731
-6.5037 -0.2142 -2.0015 0.9731
-6.0184 -2.4746 -2.0015 0.9731
-5.1487 -3.9793 -2.0015 0.9731
-4.7734 -4.4226 -2.0015 0.9731
-4.3600 -4.8306 -2.0015 0.9731
-3.9118 -5.2002 -2.0015 0.9731
-3.4325 -5.5283 -2.0015 0.9731
-2.9258 -5.8124 -2.0015 0.9731
-2.3959 -6.0501 -2.0015 0.9731
-1.8468 -6.2397 -2.0015 0.9731
-1.2831 -6.3795 -2.0015 0.9731
-0.7091 -6.4685 -2.0015 0.9731
-0.1294 -6.5060 -2.0015 0.9731
1.0284 -6.4255 -2.0015 0.9731
1.5973 -6.3082 -2.0015 0.9731
2.1534 -6.1406 -2.0015 0.9731
3.7019 -5.3516 -2.0015 0.9731
4.5937 -4.6089 -2.0015 0.9731
4.9864 -4.1809 -2.0015 0.9731
6.3029 -1.6181 -2.0015 0.9731
6.5064 0.1079 -2.0015 0.9731
6.3837 1.2620 -2.0015 0.9731
6.2457 1.8262 -2.0015 0.9731
6.0580 2.3759 -2.0015 0.9731
5.8220 2.9066 -2.0015 0.9731
3.9963 5.1356 -2.0015 0.9731
3.5224 5.4715 -2.0015 0.9731
3.0205 5.7638 -2.0015 0.9731
2.4945 6.0102 -2.0015 0.9731
1.9486 6.2087 -2.0015 0.9731
0.8147 6.4561 -2.0015 0.9731
-2.5952 5.9673 -2.0015 0.9731
-3.1170 5.7121 -2.0015 0.9731
-3.6140 5.4114 -2.0015 0.9731
-4.5178 4.6834 -2.0015 0.9731
-4.9174 4.2619 -2.0015 0.9731
-5.5963 3.3206 -2.0015 0.9731
-5.8701 2.8083 -2.0015 0.9731
-6.0971 2.2736 -2.0015 0.9731
-6.2756 1.7209 -2.0015 0.9731
-6.4815 0.5787 -2.0015 0.9731
-6.5072 -0.0016 -2.0015 0.9731
-6.0960 -2.2766 -2.0015 0.9731
-5.8687 -2.8111 -2.0015 0.9731
-5.5947 -3.3232 -2.0015 0.9731
-5.2760 -3.8089 -2.0015 0.9731
-4.9154 -4.2642 -2.0015 0.9731
-4.5155 -4.6856 -2.0015 0.9731
-3.1143 -5.7136 -2.0015 0.9731
-0.9201 -6.4419 -2.0015 0.9731
0.2389 -6.5029 -2.0015 0.9731
0.8178 -6.4557 -2.0015 0.9731
1.9516 -6.2077 -2.0015 0.9731
3.9988 -5.1336 -2.0015 0.9731
4.4406 -4.7566 -2.0015 0.9731
4.8471 -4.3417 -2.0015 0.9731
5.2150 -3.8921 -2.0015 0.9731
6.0592 -2.3730 -2.0015 0.9731
6.2466 -1.8232 -2.0015 0.9731
6.4711 -0.6846 -2.0015 0.9731
6.4215 1.0527 -2.0015 0.9731
6.3021 1.6211 -2.0015 0.9731
5.9139 2.7148 -2.0015 0.9731
5.6482 3.2314 -2.0015 0.9731
5.3376 3.7222 -2.0015 0.9731
4.1620 5.0022 -2.0015 0.9731
3.2072 5.6620 -2.0015 0.9731
2.6896 5.9254 -2.0015 0.9731
-0.1326 6.5059 -2.0015 0.9731
-0.7122 6.4682 -2.0015 0.9731
-1.2861 6.3789 -2.0015 0.9731
-2.3988 6.0490 -2.0015 0.9731
-2.9287 5.8110 -2.0015 0.9731
-3.4352 5.5266 -2.0015 0.9731
-4.3623 4.8285 -2.0015 0.9731
-5.1506 3.9768 -2.0015 0.9731
-5.4848 3.5017 -2.0015 0.9731
-5.7752 2.9986 -2.0015 0.9731
-6.0195 2.4717 -2.0015 0.9731
-6.2160 1.9251 -2.0015 0.9731
-6.4591 0.7902 -2.0015 0.9731
-6.5038 0.2111 -2.0015 0.9731
-6.4967 -0.3697 -2.0015 0.9731
-6.4379 -0.9476 -2.0015 0.9731
-6.3277 -1.5179 -2.0015 0.9731
-5.7003 -3.1386 -2.0015 0.9731
-4.6662 -4.5355 -2.0015 0.9731
-3.7864 -5.2922 -2.0015 0.9731
-1.6971 -6.2820 -2.0015 0.9731
-1.1301 -6.4084 -2.0015 0.9731
1.7476 -6.2682 -2.0015 0.9731
2.2996 -6.0874 -2.0015 0.9731
3.3444 -5.5820 -2.0015 0.9731
3.8289 -5.2616 -2.0015 0.9731
4.7026 -4.4977 -2.0015 0.9731
5.4268 -3.5909 -2.0015 0.9731
5.7254 -3.0926 -2.0015 0.9731
5.9784 -2.5697 -2.0015 0.9731
6.4453 -0.8957 -2.0015 0.9731
6.5019 0.2635 -2.0015 0.9731
6.4525 0.8422 -2.0015 0.9731
5.4564 3.5457 -2.0015 0.9731
4.7398 4.4586 -2.0015 0.9731
4.3233 4.8635 -2.0015 0.9731
2.8818 5.8344 -2.0015 0.9731
2.3500 6.0681 -2.0015 0.9731
1.7995 6.2535 -2.0015 0.9731
1.2347 6.3890 -2.0015 0.9731
0.6601 6.4737 -2.0015 0.9731
0.0802 6.5068 -2.0015 0.9731
-1.6450 6.2959 -2.0015 0.9731
-2.1998 6.1241 -2.0015 0.9731
-2.7372 5.9036 -2.0015 0.9731
-4.6285 4.5740 -2.0015 0.9731
-5.0179 4.1430 -2.0015 0.9731
-5.6741 3.1858 -2.0015 0.9731
-5.9356 2.6671 -2.0015 0.9731
-6.1497 2.1272 -2.0015 0.9731
-6.4298 1.0009 -2.0015 0.9731
-6.4934 0.4236 -2.0015 0.9731
-6.4654 -0.7367 -2.0015 0.9731
-6.3740 -1.3103 -2.0015 0.9731
-5.5136 -3.4561 -2.0015 0.9731
-5.1834 -3.9340 -2.0015 0.9731
-4.8120 -4.3805 -2.0015 0.9731
-3.9573 -5.1657 -2.0015 0.9731
-2.9767 -5.7865 -2.0015 0.9731
-2.4489 -6.0289 -2.0015 0.9731
-1.9015 -6.2232 -2.0015 0.9731
-1.2418 5.8918 -2.0015 0.9749
-1.7623 5.7576 -2.0015 0.9749
-2.2687 5.5775 -2.0015 0.9749
-2.7570 5.3530 -2.0015 0.9749
-3.6640 4.7781 -2.0015 0.9749
-4.4545 4.0512 -2.0015 0.9749
-5.1033 3.1955 -2.0015 0.9749
-5.3680 2.7277 -2.0015 0.9749
-5.7671 1.7307 -2.0015 0.9749
-5.8985 1.2096 -2.0015 0.9749
-5.9828 0.6787 -2.0015 0.9749
-5.8426 -1.4558 -2.0015 0.9749
-5.2489 -2.9504 -2.0015 0.9749
-4.9649 -3.4067 -2.0015 0.9749
-4.6413 -3.8358 -2.0015 0.9749
-4.2807 -4.2344 -2.0015 0.9749
-3.4605 -4.9275 -2.0015 0.9749
-3.0073 -5.2165 -2.0015 0.9749
-2.5301 -5.4639 -2.0015 0.9749
-2.0328 -5.6677 -2.0015 0.9749
-1.5193 -5.8264 -2.0015 0.9749
-0.9937 -5.9387 -2.0015 0.9749
-0.4601 -6.0036 -2.0015 0.9749
0.0771 -6.0207 -2.0015 0.9749
1.6679 -5.7856 -2.0015 0.9749
2.6692 -5.3973 -2.0015 0.9749
3.1398 -5.1378 -2.0015 0.9749
3.5855 -4.8373 -2.0015 0.9749
4.3877 -4.1235 -2.0015 0.9749
4.7380 -3.7158 -2.0015 0.9749
5.0504 -3.2785 -2.0015 0.9749
5.3227 -2.8150 -2.0015 0.9749
5.5525 -2.3292 -2.0015 0.9749
5.7381 -1.8248 -2.0015 0.9749
5.8779 -1.3058 -2.0015 0.9749
5.9710 -0.7764 -2.0015 0.9749
5.8656 1.3602 -2.0015 0.9749
5.5307 2.3805 -2.0015 0.9749
5.0199 3.3251 -2.0015 0.9749
4.7034 3.7595 -2.0015 0.9749
4.3494 4.1639 -2.0015 0.9749
3.5405 4.8703 -2.0015 0.9749
2.6191 5.4218 -2.0015 0.9749
2.1252 5.6337 -2.0015 0.9749
1.6143 5.8008 -2.0015 0.9749
1.0906 5.9216 -2.0015 0.9749
0.0213 6.0212 -2.0015 0.9749
-0.5157 5.9991 -2.0015 0.9749
-1.0486 5.9292 -2.0015 0.9749
-1.5731 5.8121 -2.0015 0.9749
-2.0852 5.6487 -2.0015 0.9749
-2.5806 5.4402 -2.0015 0.9749
-3.5059 4.8953 -2.0015 0.9749
-3.9285 4.5631 -2.0015 0.9749
-4.9962 3.3606 -2.0015 0.9749
-5.2760 2.9017 -2.0015 0.9749
-5.7075 1.9183 -2.0015 0.9749
-5.8558 1.4017 -2.0015 0.9749
-5.9575 0.8739 -2.0015 0.9749
-6.0117 0.3392 -2.0015 0.9749
-6.0180 -0.1982 -2.0015 0.9749
-5.9763 -0.7341 -2.0015 0.9749
-5.8870 -1.2641 -2.0015 0.9749
-5.7509 -1.7841 -2.0015 0.9749
-5.5688 -2.2898 -2.0015 0.9749
-5.0735 -3.2426 -2.0015 0.9749
-4.7642 -3.6821 -2.0015 0.9749
-4.4168 -4.0923 -2.0015 0.9749
-2.2169 -5.5982 -2.0015 0.9749
-0.6561 -5.9854 -2.0015 0.9749
-0.1197 -6.0200 -2.0015 0.9749
0.4176 -6.0067 -2.0015 0.9749
1.9926 -5.6820 -2.0015 0.9749
2.9702 -5.2377 -2.0015 0.9749
3.8534 -4.6267 -2.0015 0.9749
4.2506 -4.2647 -2.0015 0.9749
4.6140 -3.8686 -2.0015 0.9749
4.9406 -3.4418 -2.0015 0.9749
5.2278 -2.9875 -2.0015 0.9749
5.6754 -2.0113 -2.0015 0.9749
5.8321 -1.4972 -2.0015 0.9749
6.0204 0.0999 -2.0015 0.9749
5.9875 0.6363 -2.0015 0.9749
4.8237 3.6037 -2.0015 0.9749
4.4831 4.0195 -2.0015 0.9749
4.1068 4.4033 -2.0015 0.9749
3.6978 4.7520 -2.0015 0.9749
3.2593 5.0628 -2.0015 0.9749
1.8030 5.7449 -2.0015 0.9749
1.2835 5.8828 -2.0015 0.9749
0.7538 5.9739 -2.0015 0.9749
-2.4014 5.5216 -2.0015 0.9749
-4.1804 4.3336 -2.0015 0.9749
-4.5501 3.9435 -2.0015 0.9749
-4.8837 3.5221 -2.0015 0.9749
-5.8069 1.5923 -2.0015 0.9749
-6.0212 -0.0015 -2.0015 0.9749
-5.9971 -0.5384 -2.0015 0.9749
-5.8061 -1.5951 -2.0015 0.9749
-5.6407 -2.1065 -2.0015 0.9749
-5.1768 -3.0750 -2.0015 0.9749
-4.5482 -3.9457 -2.0015 0.9749
-4.1783 -4.3356 -2.0015 0.9749
-3.7750 -4.6909 -2.0015 0.9749
-3.3416 -5.0089 -2.0015 0.9749
-2.8817 -5.2869 -2.0015 0.9749
-1.3795 -5.8611 -2.0015 0.9749
-0.8514 -5.9607 -2.0015 0.9749
-0.3164 -6.0129 -2.0015 0.9749
0.7567 -5.9735 -2.0015 0.9749
2.3108 -5.5601 -2.0015 0.9749
2.7975 -5.3319 -2.0015 0.9749
4.1090 -4.4013 -2.0015 0.9749
4.4851 -4.0174 -2.0015 0.9749
5.1274 -3.1568 -2.0015 0.9749
5.3885 -2.6870 -2.0015 0.9749
5.6066 -2.1957 -2.0015 0.9749
6.0204 -0.0970 -2.0015 0.9749
5.8314 1.5000 -2.0015 0.9749
5.6744 2.0141 -2.0015 0.9749
5.2264 2.9900 -2.0015 0.9749
4.9389 3.4442 -2.0015 0.9749
4.6121 3.8709 -2.0015 0.9749
4.2486 4.2667 -2.0015 0.9749
3.8511 4.6286 -2.0015 0.9749
3.4231 4.9536 -2.0015 0.9749
1.9898 5.6829 -2.0015 0.9749
0.9487 5.9460 -2.0015 0.9749
0.4147 6.0069 -2.0015 0.9749
-0.1226 6.0200 -2.0015 0.9749
-2.2196 5.5972 -2.0015 0.9749
-3.1786 5.1139 -2.0015 0.9749
-3.6220 4.8100 -2.0015 0.9749
-4.0365 4.4679 -2.0015 0.9749
-4.4188 4.0901 -2.0015 0.9749
-4.7659 3.6798 -2.0015 0.9749
-5.3438 2.7747 -2.0015 0.9749
-5.9767 0.7312 -2.0015 0.9749
-6.0181 0.1953 -2.0015 0.9749
-6.0115 -0.3421 -2.0015 0.9749
-5.8551 -1.4045 -2.0015 0.9749
-3.9263 -4.5650 -2.0015 0.9749
-3.5036 -4.8970 -2.0015 0.9749
-1.5703 -5.8128 -2.0015 0.9749
-1.0457 -5.9297 -2.0015 0.9749
-0.5128 -5.9994 -2.0015 0.9749
0.0242 -6.0212 -2.0015 0.9749
1.0934 -5.9211 -2.0015 0.9749
1.6171 -5.8000 -2.0015 0.9749
2.1279 -5.6327 -2.0015 0.9749
2.6217 -5.4205 -2.0015 0.9749
3.5429 -4.8686 -2.0015 0.9749
4.3514 -4.1618 -2.0015 0.9749
5.2978 -2.8616 -2.0015 0.9749
5.5318 -2.3778 -2.0015 0.9749
5.7218 -1.8750 -2.0015 0.9749
5.8663 -1.3573 -2.0015 0.9749
5.9639 -0.8288 -2.0015 0.9749
5.9706 0.7793 -2.0015 0.9749
5.8773 1.3086 -2.0015 0.9749
5.0488 3.2809 -2.0015 0.9749
4.3857 4.1256 -2.0015 0.9749
4.0004 4.5002 -2.0015 0.9749
2.6665 5.3986 -2.0015 0.9749
1.6651 5.7864 -2.0015 0.9749
0.6108 5.9902 -2.0015 0.9749
-0.4630 6.0034 -2.0015 0.9749
-0.9965 5.9382 -2.0015 0.9749
-1.5221 5.8257 -2.0015 0.9749
-2.5327 5.4626 -2.0015 0.9749
-4.2828 4.2324 -2.0015 0.9749
-4.6431 3.8336 -2.0015 0.9749
-5.2503 2.9478 -2.0015 0.9749
-5.9496 0.9262 -2.0015 0.9749
-6.0085 0.3919 -2.0015 0.9749
-6.0195 -0.1454 -2.0015 0.9749
-5.7663 -1.7335 -2.0015 0.9749
-5.3666 -2.7303 -2.0015 0.9749
-5.1018 -3.1980 -2.0015 0.9749
-3.6617 -4.7798 -2.0015 0.9749
-2.2660 -5.5786 -2.0015 0.9749
-1.7595 -5.7584 -2.0015 0.9749
-0.6613 5.5577 -2.0015 0.9765
-2.1088 5.1844 -2.0015 0.9765
-2.5627 4.9757 -2.0015 0.9765
-3.7883 4.1199 -2.0015 0.9765
-4.9897 2.5354 -2.0015 0.9765
-5.1959 2.0804 -2.0015 0.9765
-5.4828 1.1243 -2.0015 0.9765
-5.5612 0.6309 -2.0015 0.9765
-5.5953 0.1325 -2.0015 0.9765
-5.5299 -0.8636 -2.0015 0.9765
-5.4308 -1.3533 -2.0015 0.9765
-5.2885 -1.8321 -2.0015 0.9765
-5.1041 -2.2964 -2.0015 0.9765
-4.8789 -2.7424 -2.0015 0.9765
-4.6150 -3.1666 -2.0015 0.9765
-4.3142 -3.5655 -2.0015 0.9765
-3.2166 -4.5803 -2.0015 0.9765
-1.8895 -5.2683 -2.0015 0.9765
1.0647 -5.4947 -2.0015 0.9765
3.3328 -4.4964 -2.0015 0.9765
3.7205 -4.1813 -2.0015 0.9765
4.0785 -3.8329 -2.0015 0.9765
4.4041 -3.4539 -2.0015 0.9765
4.6945 -3.0474 -2.0015 0.9765
5.5901 0.2757 -2.0015 0.9765
5.3178 1.7455 -2.0015 0.9765
5.1409 2.2127 -2.0015 0.9765
4.6661 3.0908 -2.0015 0.9765
4.0429 3.8705 -2.0015 0.9765
3.6816 4.2156 -2.0015 0.9765
2.8742 4.8025 -2.0015 0.9765
1.9754 5.2367 -2.0015 0.9765
1.5005 5.3920 -2.0015 0.9765
0.5189 5.5728 -2.0015 0.9765
0.0198 5.5969 -2.0015 0.9765
-0.4793 5.5763 -2.0015 0.9765
-0.9747 5.5114 -2.0015 0.9765
-1.9382 5.2506 -2.0015 0.9765
-2.8401 4.8228 -2.0015 0.9765
-3.2588 4.5503 -2.0015 0.9765
-4.6441 3.1237 -2.0015 0.9765
-4.9041 2.6972 -2.0015 0.9765
-5.3052 1.7831 -2.0015 0.9765
-5.5939 -0.1843 -2.0015 0.9765
-5.4722 -1.1750 -2.0015 0.9765
-5.3456 -1.6583 -2.0015 0.9765
-5.1764 -2.1284 -2.0015 0.9765
-4.9660 -2.5815 -2.0015 0.9765
-4.7160 -3.0141 -2.0015 0.9765
-4.4284 -3.4226 -2.0015 0.9765
-3.7500 -4.1548 -2.0015 0.9765
-3.3646 -4.4727 -2.0015 0.9765
-2.9523 -4.7549 -2.0015 0.9765
-2.5165 -4.9992 -2.0015 0.9765
-1.5885 -5.3668 -2.0015 0.9765
-0.1113 -5.5958 -2.0015 0.9765
2.7609 -4.8685 -2.0015 0.9765
3.1841 -4.6029 -2.0015 0.9765
3.9511 -3.9641 -2.0015 0.9765
4.2888 -3.5960 -2.0015 0.9765
4.8594 -2.7770 -2.0015 0.9765
5.0877 -2.3326 -2.0015 0.9765
5.5236 -0.9027 -2.0015 0.9765
5.5821 -0.4066 -2.0015 0.9765
5.5656 0.5915 -2.0015 0.9765
5.4906 1.0854 -2.0015 0.9765
5.3720 1.5707 -2.0015 0.9765
5.2105 2.0435 -2.0015 0.9765
5.0075 2.5000 -2.0015 0.9765
4.7646 2.9366 -2.0015 0.9765
4.1672 3.7363 -2.0015 0.9765
3.4372 4.4171 -2.0015 0.9765
2.5979 4.9574 -2.0015 0.9765
2.1455 5.1693 -2.0015 0.9765
1.6760 5.3401 -2.0015 0.9765
1.1931 5.4683 -2.0015 0.9765
0.7007 5.5529 -2.0015 0.9765
0.2028 5.5932 -2.0015 0.9765
-0.2968 5.5890 -2.0015 0.9765
-0.7941 5.5403 -2.0015 0.9765
-3.8857 4.0282 -2.0015 0.9765
-4.2295 3.6656 -2.0015 0.9765
-4.5395 3.2739 -2.0015 0.9765
-5.0489 2.4154 -2.0015 0.9765
-5.3976 1.4801 -2.0015 0.9765
-5.5081 0.9929 -2.0015 0.9765
-5.5747 0.4978 -2.0015 0.9765
-5.5969 -0.0014 -2.0015 0.9765
-5.2432 -1.9581 -2.0015 0.9765
-5.0477 -2.4178 -2.0015 0.9765
-4.5379 -3.2760 -2.0015 0.9765
-4.2277 -3.6677 -2.0015 0.9765
-3.8838 -4.0301 -2.0015 0.9765
-3.5089 -4.3603 -2.0015 0.9765
-2.2297 -5.1336 -2.0015 0.9765
-0.2941 -5.5892 -2.0015 0.9765
0.2054 -5.5931 -2.0015 0.9765
2.6003 -4.9562 -2.0015 0.9765
4.4854 -3.3476 -2.0015 0.9765
4.7660 -2.9343 -2.0015 0.9765
5.2115 -2.0410 -2.0015 0.9765
5.5819 0.4093 -2.0015 0.9765
5.4204 1.3943 -2.0015 0.9765
3.9492 3.9660 -2.0015 0.9765
3.5797 4.3024 -2.0015 0.9765
2.7585 4.8699 -2.0015 0.9765
1.8496 5.2824 -2.0015 0.9765
-1.1062 5.4865 -2.0015 0.9765
-1.5910 5.3660 -2.0015 0.9765
-2.0632 5.2027 -2.0015 0.9765
-2.9546 4.7535 -2.0015 0.9765
-3.3667 4.4711 -2.0015 0.9765
-4.9672 2.5791 -2.0015 0.9765
-5.3464 1.6557 -2.0015 0.9765
-5.5555 0.6797 -2.0015 0.9765
-5.5939 0.1816 -2.0015 0.9765
-5.5372 -0.8150 -2.0015 0.9765
-5.3044 -1.7857 -2.0015 0.9765
-4.3453 -3.5275 -2.0015 0.9765
-2.3963 -5.0580 -2.0015 0.9765
-1.4597 -5.4032 -2.0015 0.9765
-0.9720 -5.5118 -2.0015 0.9765
-0.4766 -5.5766 -2.0015 0.9765
0.5215 -5.5725 -2.0015 0.9765
1.0164 -5.5038 -2.0015 0.9765
2.4369 -5.0385 -2.0015 0.9765
2.8765 -4.8011 -2.0015 0.9765
3.2932 -4.5255 -2.0015 0.9765
3.6837 -4.2138 -2.0015 0.9765
4.0447 -3.8685 -2.0015 0.9765
4.6676 -3.0885 -2.0015 0.9765
5.1420 -2.2102 -2.0015 0.9765
5.4528 -1.2617 -2.0015 0.9765
5.5436 -0.7704 -2.0015 0.9765
5.5902 -0.2730 -2.0015 0.9765
5.4631 1.2164 -2.0015 0.9765
5.3329 1.6987 -2.0015 0.9765
5.1601 2.1675 -2.0015 0.9765
4.4024 3.4560 -2.0015 0.9765
4.0767 3.8348 -2.0015 0.9765
3.7185 4.1831 -2.0015 0.9765
2.9162 4.7771 -2.0015 0.9765
2.4786 5.0181 -2.0015 0.9765
1.0620 5.4952 -2.0015 0.9765
-0.4304 5.5803 -2.0015 0.9765
-1.4148 5.4151 -2.0015 0.9765
-1.8921 5.2674 -2.0015 0.9765
-2.3543 5.0777 -2.0015 0.9765
-2.7977 4.8475 -2.0015 0.9765
-4.3159 3.5634 -2.0015 0.9765
-4.8803 2.7401 -2.0015 0.9765
-5.1052 2.2940 -2.0015 0.9765
-5.2894 1.8296 -2.0015 0.9765
-5.5850 0.3643 -2.0015 0.9765
-5.5953 -0.1352 -2.0015 0.9765
-5.5609 -0.6336 -2.0015 0.9765
-5.3599 -1.6114 -2.0015 0.9765
-4.9884 -2.5378 -2.0015 0.9765
-4.4583 -3.3836 -2.0015 0.9765
-4.1388 -3.7677 -2.0015 0.9765
-3.7863 -4.1218 -2.0015 0.9765
-3.4037 -4.4430 -2.0015 0.9765
-2.5603 -4.9770 -2.0015 0.9765
-0.6171 5.1863 -2.0015 0.9779
-1.5286 4.9942 -2.0015 0.9779
-2.3915 4.6432 -2.0015 0.9779
-2.7960 4.4114 -2.0015 0.9779
-3.1782 4.1445 -2.0015 0.9779
-3.5351 3.8446 -2.0015 0.9779
-3.8639 3.5140 -2.0015 0.9779
-4.1619 3.1555 -2.0015 0.9779
-4.4267 2.7718 -2.0015 0.9779
-4.6562 2.3660 -2.0015 0.9779
-4.8486 1.9414 -2.0015 0.9779
-5.1164 1.0492 -2.0015 0.9779
-5.1896 0.5888 -2.0015 0.9779
-5.2214 0.1236 -2.0015 0.9779
-5.0679 -1.2628 -2.0015 0.9779
-4.3065 -2.9550 -2.0015 0.9779
-4.0259 -3.3272 -2.0015 0.9779
-3.7131 -3.6730 -2.0015 0.9779
-3.3708 -3.9895 -2.0015 0.9779
-2.1946 -4.7394 -2.0015 0.9779
-1.3178 -5.0539 -2.0015 0.9779
-0.8619 -5.1512 -2.0015 0.9779
-0.3991 -5.2076 -2.0015 0.9779
0.9935 -5.1275 -2.0015 0.9779
1.8885 -4.8695 -2.0015 0.9779
2.3152 -4.6817 -2.0015 0.9779
2.7235 -4.4565 -2.0015 0.9779
3.1101 -4.1959 -2.0015 0.9779
3.4718 -3.9019 -2.0015 0.9779
4.1097 -3.2231 -2.0015 0.9779
4.3808 -2.8438 -2.0015 0.9779
4.6169 -2.4418 -2.0015 0.9779
4.9772 -1.5828 -2.0015 0.9779
5.1792 -0.6735 -2.0015 0.9779
5.2187 -0.2090 -2.0015 0.9779
5.2165 0.2573 -2.0015 0.9779
5.0879 1.1798 -2.0015 0.9779
4.9624 1.6288 -2.0015 0.9779
4.7973 2.0648 -2.0015 0.9779
4.5941 2.4844 -2.0015 0.9779
4.3543 2.8842 -2.0015 0.9779
4.0797 3.2610 -2.0015 0.9779
3.7727 3.6118 -2.0015 0.9779
3.4356 3.9338 -2.0015 0.9779
3.0711 4.2245 -2.0015 0.9779
2.6821 4.4816 -2.0015 0.9779
2.2718 4.7029 -2.0015 0.9779
1.8434 4.8867 -2.0015 0.9779
1.4003 5.0316 -2.0015 0.9779
-0.4473 5.2037 -2.0015 0.9779
-0.9096 5.1430 -2.0015 0.9779
-1.3646 5.0414 -2.0015 0.9779
-1.8087 4.8997 -2.0015 0.9779
-2.2384 4.7189 -2.0015 0.9779
-3.0411 4.2462 -2.0015 0.9779
-3.4076 3.9581 -2.0015 0.9779
-3.7470 3.6385 -2.0015 0.9779
-4.0565 3.2898 -2.0015 0.9779
-4.7826 2.0988 -2.0015 0.9779
-5.0794 1.2158 -2.0015 0.9779
-5.1675 0.7580 -2.0015 0.9779
-5.2145 0.2942 -2.0015 0.9779
-5.1064 -1.0965 -2.0015 0.9779
-4.9883 -1.5475 -2.0015 0.9779
-4.6341 -2.4090 -2.0015 0.9779
-4.1325 -3.1939 -2.0015 0.9779
-3.8312 -3.5497 -2.0015 0.9779
-3.4994 -3.8772 -2.0015 0.9779
-3.1397 -4.1738 -2.0015 0.9779
-0.5691 -5.1917 -2.0015 0.9779
1.7284 -4.9286 -2.0015 0.9779
2.1610 -4.7548 -2.0015 0.9779
2.5764 -4.5432 -2.0015 0.9779
2.9713 -4.2953 -2.0015 0.9779
3.3425 -4.0133 -2.0015 0.9779
4.0022 -3.3557 -2.0015 0.9779
4.7477 -2.1767 -2.0015 0.9779
5.0588 -1.2987 -2.0015 0.9779
5.1545 -0.8424 -2.0015 0.9779
5.2090 -0.3794 -2.0015 0.9779
5.2221 0.0866 -2.0015 0.9779
5.1237 1.0129 -2.0015 0.9779
4.6729 2.3329 -2.0015 0.9779
4.4462 2.7403 -2.0015 0.9779
3.8887 3.4866 -2.0015 0.9779
2.4243 4.6261 -2.0015 0.9779
2.0021 4.8239 -2.0015 0.9779
1.5640 4.9832 -2.0015 0.9779
0.6539 5.1818 -2.0015 0.9779
0.1892 5.2194 -2.0015 0.9779
-0.7410 5.1700 -2.0015 0.9779
-1.1991 5.0833 -2.0015 0.9779
-1.6476 4.9562 -2.0015 0.9779
-3.6261 3.7590 -2.0015 0.9779
-3.9468 3.4206 -2.0015 0.9779
-4.4917 2.6652 -2.0015 0.9779
-4.7114 2.2540 -2.0015 0.9779
-5.0369 1.3812 -2.0015 0.9779
-5.2022 0.4645 -2.0015 0.9779
-5.2019 -0.4670 -2.0015 0.9779
-4.8928 -1.8272 -2.0015 0.9779
-4.7104 -2.2563 -2.0015 0.9779
-4.4904 -2.6673 -2.0015 0.9779
-2.8986 -4.3447 -2.0015 0.9779
-2.4996 -4.5859 -2.0015 0.9779
-2.0807 -4.7905 -2.0015 0.9779
-1.6452 -4.9570 -2.0015 0.9779
-0.7385 -5.1704 -2.0015 0.9779
0.6564 -5.1814 -2.0015 0.9779
1.1158 -5.1023 -2.0015 0.9779
1.5664 -4.9824 -2.0015 0.9779
2.4265 -4.6250 -2.0015 0.9779
2.8293 -4.3901 -2.0015 0.9779
3.2095 -4.1204 -2.0015 0.9779
3.5641 -3.8177 -2.0015 0.9779
3.8904 -3.4847 -2.0015 0.9779
4.4475 -2.7382 -2.0015 0.9779
4.6740 -2.3307 -2.0015 0.9779
5.0137 -1.4633 -2.0015 0.9779
5.1939 -0.5495 -2.0015 0.9779
5.2222 -0.0841 -2.0015 0.9779
5.1541 0.8449 -2.0015 0.9779
4.7466 2.1790 -2.0015 0.9779
4.5334 2.5935 -2.0015 0.9779
4.2841 2.9875 -2.0015 0.9779
3.6852 3.7010 -2.0015 0.9779
3.3405 4.0149 -2.0015 0.9779
2.9692 4.2968 -2.0015 0.9779
2.1587 4.7559 -2.0015 0.9779
1.7260 4.9294 -2.0015 0.9779
0.8229 5.1576 -2.0015 0.9779
0.3597 5.2104 -2.0015 0.9779
-1.4847 5.0074 -2.0015 0.9779
-1.9253 4.8550 -2.0015 0.9779
-3.1417 4.1723 -2.0015 0.9779
-4.6353 2.4068 -2.0015 0.9779
-4.8314 1.9838 -2.0015 0.9779
-4.9891 1.5451 -2.0015 0.9779
-5.1070 1.0940 -2.0015 0.9779
-5.1842 0.6343 -2.0015 0.9779
-5.2144 -0.2967 -2.0015 0.9779
-4.9499 -1.6663 -2.0015 0.9779
-4.7816 -2.1011 -2.0015 0.9779
-4.5752 -2.5191 -2.0015 0.9779
-4.0549 -3.2918 -2.0015 0.9779
-3.0390 -4.2477 -2.0015 0.9779
-2.2361 -4.7199 -2.0015 0.9779
-1.8063 -4.9005 -2.0015 0.9779
0.0210 -5.2228 -2.0015 0.9779
0.4867 -5.2001 -2.0015 0.9779
0.9485 -5.1360 -2.0015 0.9779
1.4027 -5.0310 -2.0015 0.9779
1.8457 -4.8858 -2.0015 0.9779
2.6843 -4.4803 -2.0015 0.9779
3.7744 -3.6100 -2.0015 0.9779
5.0884 -1.1774 -2.0015 0.9779
5.1731 -0.7189 -2.0015 0.9779
4.6157 2.4440 -2.0015 0.9779
3.8042 3.5786 -2.0015 0.9779
3.4699 3.9035 -2.0015 0.9779
3.1080 4.1974 -2.0015 0.9779
2.7213 4.4579 -2.0015 0.9779
2.3130 4.6828 -2.0015 0.9779
1.4444 5.0192 -2.0015 0.9779
0.9910 5.1280 -2.0015 0.9779
-0.8644 5.1508 -2.0015 0.9779
-1.3203 5.0532 -2.0015 0.9779
-2.6107 4.5235 -2.0015 0.9779
-3.7149 3.6712 -2.0015 0.9779
-4.5541 2.5570 -2.0015 0.9779
-4.7640 2.1407 -2.0015 0.9779
-4.9359 1.7073 -2.0015 0.9779
-5.1607 0.8034 -2.0015 0.9779
-5.2213 -0.1261 -2.0015 0.9779
-5.1893 -0.5913 -2.0015 0.9779
-5.1159 -1.0517 -2.0015 0.9779
-4.8477 -1.9437 -2.0015 0.9779
-4.6551 -2.3682 -2.0015 0.9779
-4.4253 -2.7739 -2.0015 0.9779
-3.8622 -3.5159 -2.0015 0.9779
-3.5333 -3.8463 -2.0015 0.9779
-3.1762 -4.1461 -2.0015 0.9779
-2.7938 -4.4128 -2.0015 0.9779
-1.0086 4.7852 -2.0015 0.9791
-1.4313 4.6762 -2.0015 0.9791
-1.8426 4.5299 -2.0015 0.9791
-2.2392 4.3476 -2.0015 0.9791
-2.6180 4.1306 -2.0015 0.9791
-2.9759 3.8807 -2.0015 0.9791
-3.3101 3.5998 -2.0015 0.9791
-3.6179 3.2903 -2.0015 0.9791
-3.8969 2.9546 -2.0015 0.9791
-4.1448 2.5953 -2.0015 0.9791
-4.3598 2.2154 -2.0015 0.9791
-1.9498 -0.1281 -0.7997 0.9916
-2.0068 -0.3134 -0.8313 0.9913
-4.6209 -1.6009 -2.0015 0.9791
-4.2630 -2.3962 -2.0015 0.9791
-3.7696 -3.1154 -2.0015 0.9791
-3.4767 -3.4391 -2.0015 0.9791
-3.1562 -3.7355 -2.0015 0.9791
-2.8105 -4.0020 -2.0015 0.9791
-2.4424 -4.2367 -2.0015 0.9791
-1.6510 -4.6032 -2.0015 0.9791
-1.2339 -4.7321 -2.0015 0.9791
-0.8070 -4.8233 -2.0015 0.9791
-0.3737 -4.8760 -2.0015 0.9791
0.0626 -4.8899 -2.0015 0.9791
0.4984 -4.8649 -2.0015 0.9791
1.3547 -4.6990 -2.0015 0.9791
1.7683 -4.5594 -2.0015 0.9791
2.1678 -4.3836 -2.0015 0.9791
2.5501 -4.1728 -2.0015 0.9791
2.9121 -3.9288 -2.0015 0.9791
3.2508 -3.6535 -2.0015 0.9791
3.8481 -3.0179 -2.0015 0.9791
4.3230 -2.2863 -2.0015 0.9791
4.7739 -1.0605 -2.0015 0.9791
4.8495 -0.6306 -2.0015 0.9791
4.8844 0.2409 -2.0015 0.9791
4.8435 0.6755 -2.0015 0.9791
4.6464 1.5251 -2.0015 0.9791
4.3016 2.3262 -2.0015 0.9791
4.0770 2.7006 -2.0015 0.9791
3.5325 3.3819 -2.0015 0.9791
2.8756 3.9556 -2.0015 0.9791
2.1272 4.4035 -2.0015 0.9791
1.7260 4.5756 -2.0015 0.9791
0.8858 4.8094 -2.0015 0.9791
0.0173 4.8903 -2.0015 0.9791
-1.2777 4.7205 -2.0015 0.9791
-1.6935 4.5877 -2.0015 0.9791
-2.0959 4.4184 -2.0015 0.9791
-2.8474 3.9759 -2.0015 0.9791
-3.1906 3.7061 -2.0015 0.9791
-3.7982 3.0804 -2.0015 0.9791
-4.0578 2.7294 -2.0015 0.9791
-4.2850 2.3567 -2.0015 0.9791
-1.9434 0.2851 -0.8039 0.9915
-1.9448 0.1097 -0.7972 0.9916
-4.6707 -1.4490 -2.0015 0.9791
-4.5229 -1.8597 -2.0015 0.9791
-4.3391 -2.2556 -2.0015 0.9791
-4.1206 -2.6336 -2.0015 0.9791
-3.8694 -2.9905 -2.0015 0.9791
-3.2766 -3.6303 -2.0015 0.9791
-2.1988 -4.3681 -2.0015 0.9791
-1.8006 -4.5468 -2.0015 0.9791
-1.3879 -4.6892 -2.0015 0.9791
-0.9642 -4.7943 -2.0015 0.9791
-0.5329 -4.8612 -2.0015 0.9791
0.7728 -4.8289 -2.0015 0.9791
1.2004 -4.7407 -2.0015 0.9791
1.6183 -4.6148 -2.0015 0.9791
2.0234 -4.4521 -2.0015 0.9791
2.7821 -4.0219 -2.0015 0.9791
3.4523 -3.4637 -2.0015 0.9791
3.7474 -3.1420 -2.0015 0.9791
4.2459 -2.4264 -2.0015 0.9791
4.6094 -1.6336 -2.0015 0.9791
4.8897 0.0811 -2.0015 0.9791
4.8629 0.5168 -2.0015 0.9791
3.6411 3.2646 -2.0015 0.9791
3.3355 3.5763 -2.0015 0.9791
2.2699 4.3316 -2.0015 0.9791
1.8746 4.5168 -2.0015 0.9791
1.4644 4.6659 -2.0015 0.9791
0.6123 4.8519 -2.0015 0.9791
-0.2594 4.8835 -2.0015 0.9791
-0.6938 4.8409 -2.0015 0.9791
-1.5427 4.6406 -2.0015 0.9791
-1.9504 4.4846 -2.0015 0.9791
-2.3425 4.2928 -2.0015 0.9791
-2.7160 4.0668 -2.0015 0.9791
-3.3952 3.5197 -2.0015 0.9791
-3.6955 3.2029 -2.0015 0.9791
-4.5821 1.7087 -2.0015 0.9791
-2.1697 0.3911 -0.9023 0.9905
-1.9578 0.1748 -0.8045 0.9915
-1.9579 -0.1758 -0.8045 0.9915
-4.7156 -1.2955 -2.0015 0.9791
-4.4105 -2.1126 -2.0015 0.9791
-4.2045 -2.4975 -2.0015 0.9791
-3.6940 -3.2046 -2.0015 0.9791
-1.9482 -4.4855 -2.0015 0.9791
-0.2570 -4.8836 -2.0015 0.9791
0.1795 -4.8870 -2.0015 0.9791
0.6146 -4.8516 -2.0015 0.9791
1.0448 -4.7774 -2.0015 0.9791
1.4666 -4.6652 -2.0015 0.9791
2.2720 -4.3305 -2.0015 0.9791
3.0052 -3.8580 -2.0015 0.9791
4.1644 -2.5639 -2.0015 0.9791
4.3764 -2.1823 -2.0015 0.9791
4.5536 -1.7833 -2.0015 0.9791
4.8632 -0.5145 -2.0015 0.9791
4.7362 1.2183 -2.0015 0.9791
4.6086 1.6358 -2.0015 0.9791
4.4444 2.0402 -2.0015 0.9791
4.2448 2.4284 -2.0015 0.9791
2.4103 4.2551 -2.0015 0.9791
1.6161 4.6156 -2.0015 0.9791
0.3368 4.8787 -2.0015 0.9791
-1.3902 4.6886 -2.0015 0.9791
-2.5816 4.1534 -2.0015 0.9791
-3.8708 2.9887 -2.0015 0.9791
-4.1219 2.6316 -2.0015 0.9791
-4.5238 1.8575 -2.0015 0.9791
-4.6714 1.4467 -2.0015 0.9791
-4.7818 1.0244 -2.0015 0.9791
-1.9536 0.2390 -0.8055 0.9915
-1.9451 -0.1107 -0.7974 0.9916
-1.9431 -0.2860 -0.8038 0.9915
-4.7554 -1.1407 -2.0015 0.9791
-4.6348 -1.5603 -2.0015 0.9791
-4.0565 -2.7314 -2.0015 0.9791
-3.7968 -3.0822 -2.0015 0.9791
-3.1888 -3.7076 -2.0015 0.9791
-2.8455 -3.9772 -2.0015 0.9791
-2.4795 -4.2151 -2.0015 0.9791
-1.2754 -4.7211 -2.0015 0.9791
-0.8493 -4.8160 -2.0015 0.9791
0.4557 -4.8691 -2.0015 0.9791
0.8881 -4.8090 -2.0015 0.9791
1.3134 -4.7107 -2.0015 0.9791
1.7282 -4.5748 -2.0015 0.9791
2.1293 -4.4024 -2.0015 0.9791
3.2186 -3.6818 -2.0015 0.9791
3.8215 -3.0515 -2.0015 0.9791
4.3027 -2.3242 -2.0015 0.9791
4.4929 -1.9312 -2.0015 0.9791
4.8845 -0.2385 -2.0015 0.9791
4.8863 0.1980 -2.0015 0.9791
4.7734 1.0629 -2.0015 0.9791
4.6596 1.4843 -2.0015 0.9791
4.5087 1.8939 -2.0015 0.9791
4.3219 2.2884 -2.0015 0.9791
3.2490 3.6550 -2.0015 0.9791
1.7661 4.5603 -2.0015 0.9791
1.3524 4.6996 -2.0015 0.9791
0.9279 4.8015 -2.0015 0.9791
0.4961 4.8651 -2.0015 0.9791
0.0602 4.8900 -2.0015 0.9791
-1.2362 4.7315 -2.0015 0.9791
-1.6532 4.6024 -2.0015 0.9791
-2.4445 4.2355 -2.0015 0.9791
-3.4784 3.4375 -2.0015 0.9791
-4.0337 2.7649 -2.0015 0.9791
-4.2642 2.3942 -2.0015 0.9791
-4.6217 1.5986 -2.0015 0.9791
-4.7458 1.1801 -2.0015 0.9791
-2.0029 0.3118 -0.8296 0.9913
-1.9495 0.1272 -0.7996 0.9916
-1.9213 -0.0464 -0.7866 0.9917
-4.5391 -1.8199 -2.0015 0.9791
-4.1436 -2.5973 -2.0015 0.9791
-3.8955 -2.9565 -2.0015 0.9791
-3.6163 -3.2921 -2.0015 0.9791
-3.3083 -3.6015 -2.0015 0.9791
-2.6160 -4.1318 -2.0015 0.9791
-1.4290 -4.6769 -2.0015 0.9791
-0.5427 4.5603 -2.0015 0.9802
-0.9472 4.4938 -2.0015 0.9802
-1.7304 4.2541 -2.0015 0.9802
-2.1028 4.0828 -2.0015 0.9802
-2.4585 3.8790 -2.0015 0.9802
-3.1085 3.3806 -2.0015 0.9802
-3.3976 3.0899 -2.0015 0.9802
-3.8924 2.4373 -2.0015 0.9802
-4.0942 2.0804 -2.0015 0.9802
-4.2635 1.7071 -2.0015 0.9802
-1.5739 0.4723 -0.7161 0.9929
-1.5113 0.3099 -0.6723 0.9933
-1.5236 0.1729 -0.6683 0.9933
-1.5295 -0.1005 -0.6680 0.9933
-1.5445 -0.3849 -0.6937 0.9931
-1.5919 -0.5515 -0.7342 0.9927
-4.1881 -1.8843 -2.0015 0.9802
-4.0034 -2.2503 -2.0015 0.9802
-3.5400 -2.9257 -2.0015 0.9802
-3.2650 -3.2297 -2.0015 0.9802
-2.2937 -3.9787 -2.0015 0.9802
-1.9298 -4.1674 -2.0015 0.9802
-1.1588 -4.4439 -2.0015 0.9802
0.0588 -4.5921 -2.0015 0.9802
0.4681 -4.5686 -2.0015 0.9802
0.8736 -4.5087 -2.0015 0.9802
2.0358 -4.1166 -2.0015 0.9802
2.7347 -3.6895 -2.0015 0.9802
3.0528 -3.4310 -2.0015 0.9802
3.3466 -3.1451 -2.0015 0.9802
3.8521 -2.5005 -2.0015 0.9802
4.2350 -1.7765 -2.0015 0.9802
4.4832 -0.9960 -2.0015 0.9802
4.5542 -0.5922 -2.0015 0.9802
4.5888 -0.1837 -2.0015 0.9802
4.4738 1.0374 -2.0015 0.9802
4.3635 1.4322 -2.0015 0.9802
4.2184 1.8156 -2.0015 0.9802
3.5873 2.8674 -2.0015 0.9802
3.3173 3.1759 -2.0015 0.9802
2.7004 3.7147 -2.0015 0.9802
0.8318 4.5165 -2.0015 0.9802
0.4257 4.5727 -2.0015 0.9802
0.0163 4.5925 -2.0015 0.9802
-0.3933 4.5756 -2.0015 0.9802
-1.1999 4.4330 -2.0015 0.9802
-1.5904 4.3083 -2.0015 0.9802
-1.9683 4.1494 -2.0015 0.9802
-2.6740 3.7337 -2.0015 0.9802
-3.2947 3.1993 -2.0015 0.9802
-4.0241 2.2131 -2.0015 0.9802
-1.5886 0.5340 -0.7304 0.9927
-1.5377 0.3681 -0.6891 0.9931
-1.5141 0.2221 -0.6669 0.9933
-1.5214 -0.1869 -0.6680 0.9933
-1.5192 -0.3262 -0.6772 0.9932
-4.0748 -2.1183 -2.0015 0.9802
-3.8697 -2.4732 -2.0015 0.9802
-3.3688 -3.1212 -2.0015 0.9802
-2.7608 -3.6700 -2.0015 0.9802
-2.4225 -3.9016 -2.0015 0.9802
-1.3034 -4.4037 -2.0015 0.9802
-0.0913 -4.5916 -2.0015 0.9802
0.3185 -4.5814 -2.0015 0.9802
0.7258 -4.5348 -2.0015 0.9802
1.1273 -4.4520 -2.0015 0.9802
2.2654 -3.9949 -2.0015 0.9802
2.6127 -3.7769 -2.0015 0.9802
2.9391 -3.5289 -2.0015 0.9802
4.1747 -1.9140 -2.0015 0.9802
4.3287 -1.5341 -2.0015 0.9802
4.4483 -1.1420 -2.0015 0.9802
4.5668 0.4853 -2.0015 0.9802
4.4079 1.2889 -2.0015 0.9802
4.2754 1.6768 -2.0015 0.9802
2.8204 3.6244 -2.0015 0.9802
2.4860 3.8615 -2.0015 0.9802
2.1317 4.0678 -2.0015 0.9802
1.3752 4.3818 -2.0015 0.9802
0.5750 4.5564 -2.0015 0.9802
0.1664 4.5895 -2.0015 0.9802
-0.2436 4.5860 -2.0015 0.9802
-1.8316 4.2115 -2.0015 0.9802
-2.5506 3.8191 -2.0015 0.9802
-3.4705 3.0078 -2.0015 0.9802
-3.9496 2.3435 -2.0015 0.9802
-4.1428 1.9819 -2.0015 0.9802
-1.5984 0.5960 -0.7435 0.9926
-1.5278 0.1364 -0.6685 0.9933
-1.5222 -0.0004 -0.6634 0.9934
-1.5277 -0.1372 -0.6685 0.9933
-1.5604 -0.4287 -0.7052 0.9930
-4.1419 -1.9839 -2.0015 0.9802
-3.7236 -2.6881 -2.0015 0.9802
-3.1868 -3.3068 -2.0015 0.9802
-2.8792 -3.5778 -2.0015 0.9802
-2.5487 -3.8204 -2.0015 0.9802
-2.1979 -4.0324 -2.0015 0.9802
-0.6493 -4.5464 -2.0015 0.9802
-0.2413 -4.5862 -2.0015 0.9802
0.1686 -4.5894 -2.0015 0.9802
0.9811 -4.4865 -2.0015 0.9802
1.3773 -4.3811 -2.0015 0.9802
2.4878 -3.8603 -2.0015 0.9802
3.1340 -3.3570 -2.0015 0.9802
3.4209 -3.0641 -2.0015 0.9802
3.9108 -2.4077 -2.0015 0.9802
4.1099 -2.0494 -2.0015 0.9802
4.2763 -1.6747 -2.0015 0.9802
4.4086 -1.2867 -2.0015 0.9802
4.5057 -0.8885 -2.0015 0.9802
4.5919 -0.0740 -2.0015 0.9802
4.4477 1.1441 -2.0015 0.9802
3.9863 2.2805 -2.0015 0.9802
3.7670 2.6269 -2.0015 0.9802
3.2405 3.2543 -2.0015 0.9802
2.9373 3.5303 -2.0015 0.9802
2.6108 3.7782 -2.0015 0.9802
1.5177 4.3345 -2.0015 0.9802
0.7236 4.5351 -2.0015 0.9802
-0.9077 4.5019 -2.0015 0.9802
-1.6930 4.2691 -2.0015 0.9802
-3.0787 3.4077 -2.0015 0.9802
-4.0758 2.1163 -2.0015 0.9802
-1.5783 0.4888 -0.7201 0.9928
-1.5188 0.3254 -0.6769 0.9932
-1.5215 0.1862 -0.6680 0.9933
-1.5280 0.0496 -0.6663 0.9934
-1.5296 -0.0870 -0.6677 0.9933
-1.5139 -0.2228 -0.6669 0.9933
-1.5381 -0.3690 -0.6894 0.9931
-4.2045 -1.8475 -2.0015 0.9802
-3.2932 -3.2009 -2.0015 0.9802
-2.9946 -3.4818 -2.0015 0.9802
-2.3285 -3.9584 -2.0015 0.9802
-1.9662 -4.1503 -2.0015 0.9802
-0.7976 -4.5227 -2.0015 0.9802
-0.3911 -4.5758 -2.0015 0.9802
0.0185 -4.5925 -2.0015 0.9802
0.4280 -4.5725 -2.0015 0.9802
1.6230 -4.2962 -2.0015 0.9802
2.3603 -3.9395 -2.0015 0.9802
2.7022 -3.7134 -2.0015 0.9802
3.3189 -3.1743 -2.0015 0.9802
3.5887 -2.8657 -2.0015 0.9802
3.8300 -2.5342 -2.0015 0.9802
4.2192 -1.8136 -2.0015 0.9802
4.3642 -1.4301 -2.0015 0.9802
4.4743 -1.0353 -2.0015 0.9802
4.5870 -0.2240 -2.0015 0.9802
4.5887 0.1859 -2.0015 0.9802
4.4827 0.9981 -2.0015 0.9802
4.3759 1.3939 -2.0015 0.9802
4.0587 2.1490 -2.0015 0.9802
3.6124 2.8358 -2.0015 0.9802
3.0512 3.4324 -2.0015 0.9802
2.7329 3.6908 -2.0015 0.9802
2.3929 3.9198 -2.0015 0.9802
1.6585 4.2826 -2.0015 0.9802
-0.3531 4.5789 -2.0015 0.9802
-0.7601 4.5292 -2.0015 0.9802
-1.1609 4.4433 -2.0015 0.9802
-1.5525 4.3221 -2.0015 0.9802
-2.2956 3.9776 -2.0015 0.9802
-2.6412 3.7570 -2.0015 0.9802
-2.9657 3.5065 -2.0015 0.9802
-3.5414 2.9240 -2.0015 0.9802
-3.7880 2.5965 -2.0015 0.9802
-1.5108 0.2352 -0.6664 0.9934
-1.5117 -0.3107 -0.6726 0.9933
-1.5741 -0.4732 -0.7164 0.9929
-4.0932 -2.0824 -2.0015 0.9802
-3.6582 -2.7764 -2.0015 0.9802
-3.1069 -3.3821 -2.0015 0.9802
-2.7929 -3.6457 -2.0015 0.9802
-2.4566 -3.8802 -2.0015 0.9802
-1.3420 -4.3921 -2.0015 0.9802
-0.5109 4.2937 -2.0015 0.9811
-0.8918 4.2310 -2.0015 0.9811
-1.2655 4.1346 -2.0015 0.9811
-1.6292 4.0053 -2.0015 0.9811
-1.9798 3.8440 -2.0015 0.9811
-2.3148 3.6522 -2.0015 0.9811
-2.6312 3.4312 -2.0015 0.9811
-3.1989 2.9092 -2.0015 0.9811
-3.8548 1.9588 -2.0015 0.9811
-1.3257 0.3979 -0.6407 0.9939
-1.3066 0.2679 -0.6174 0.9941
-1.3340 0.1513 -0.6215 0.9941
-1.3365 0.0317 -0.6188 0.9941
-1.3385 -0.0880 -0.6209 0.9941
-3.7693 -2.1187 -2.0015 0.9811
-3.5653 -2.4464 -2.0015 0.9811
-2.7907 -3.3028 -2.0015 0.9811
-2.1596 -3.7460 -2.0015 0.9811
-1.8169 -3.9237 -2.0015 0.9811
-1.4598 -4.0701 -2.0015 0.9811
-1.0910 -4.1840 -2.0015 0.9811
0.0554 -4.3236 -2.0015 0.9811
1.5635 -4.0314 -2.0015 0.9811
1.9168 -3.8759 -2.0015 0.9811
2.2548 -3.6895 -2.0015 0.9811
3.1509 -2.9611 -2.0015 0.9811
3.8223 -2.0215 -2.0015 0.9811
4.1206 -1.3104 -2.0015 0.9811
4.3205 -0.1730 -2.0015 0.9811
4.2122 0.9768 -2.0015 0.9811
4.1083 1.3485 -2.0015 0.9811
3.9717 1.7095 -2.0015 0.9811
3.8034 2.0568 -2.0015 0.9811
2.8443 3.2568 -2.0015 0.9811
2.5425 3.4975 -2.0015 0.9811
2.2205 3.7102 -2.0015 0.9811
1.5261 4.0457 -2.0015 0.9811
1.1593 4.1656 -2.0015 0.9811
0.4008 4.3053 -2.0015 0.9811
0.0153 4.3239 -2.0015 0.9811
-0.3703 4.3081 -2.0015 0.9811
-0.7530 4.2579 -2.0015 0.9811
-1.4974 4.0564 -2.0015 0.9811
-2.1941 3.7259 -2.0015 0.9811
-2.5177 3.5154 -2.0015 0.9811
-2.8211 3.2769 -2.0015 0.9811
-3.1021 3.0122 -2.0015 0.9811
-3.5878 2.4133 -2.0015 0.9811
-3.7887 2.0837 -2.0015 0.9811
-1.3374 -0.0441 -0.6194 0.9941
-1.3025 -0.2797 -0.6166 0.9941
-1.3269 -0.5456 -0.6641 0.9937
-3.8365 -1.9944 -2.0015 0.9811
-3.6434 -2.3286 -2.0015 0.9811
-2.8971 -3.2099 -2.0015 0.9811
-2.5993 -3.4554 -2.0015 0.9811
-2.2808 -3.6735 -2.0015 0.9811
-1.2272 -4.1461 -2.0015 0.9811
-0.8526 -4.2391 -2.0015 0.9811
2.4599 -3.5561 -2.0015 0.9811
2.7672 -3.3225 -2.0015 0.9811
3.0525 -3.0625 -2.0015 0.9811
3.3134 -2.7781 -2.0015 0.9811
3.7542 -2.1454 -2.0015 0.9811
3.9305 -1.8021 -2.0015 0.9811
4.3125 -0.3141 -2.0015 0.9811
4.3234 0.0717 -2.0015 0.9811
4.2997 0.4570 -2.0015 0.9811
4.1502 1.2135 -2.0015 0.9811
3.6810 2.2687 -2.0015 0.9811
2.9492 3.1621 -2.0015 0.9811
2.6555 3.4125 -2.0015 0.9811
2.0070 3.8299 -2.0015 0.9811
1.6575 3.9936 -2.0015 0.9811
0.9217 4.2246 -2.0015 0.9811
0.5413 4.2899 -2.0015 0.9811
0.1566 4.3211 -2.0015 0.9811
-0.9927 4.2085 -2.0015 0.9811
-2.0712 3.7956 -2.0015 0.9811
-2.4014 3.5958 -2.0015 0.9811
-3.0020 3.1120 -2.0015 0.9811
-3.2675 2.8319 -2.0015 0.9811
-3.5071 2.5293 -2.0015 0.9811
-3.9006 1.8660 -2.0015 0.9811
-1.3324 0.4969 -0.6582 0.9938
-1.3375 0.1194 -0.6216 0.9941
-1.3333 -0.0003 -0.6172 0.9941
-1.3375 -0.1201 -0.6216 0.9941
-3.7175 -2.2082 -2.0015 0.9811
-3.0005 -3.1135 -2.0015 0.9811
-2.7109 -3.3686 -2.0015 0.9811
-2.3997 -3.5969 -2.0015 0.9811
-1.3620 -4.1038 -2.0015 0.9811
-0.2272 -4.3180 -2.0015 0.9811
0.5434 -4.2897 -2.0015 0.9811
0.9238 -4.2241 -2.0015 0.9811
1.2968 -4.1249 -2.0015 0.9811
1.6594 -3.9928 -2.0015 0.9811
2.0089 -3.8290 -2.0015 0.9811
2.6571 -3.4112 -2.0015 0.9811
3.6821 -2.2669 -2.0015 0.9811
3.8695 -1.9296 -2.0015 0.9811
4.0262 -1.5768 -2.0015 0.9811
4.2423 -0.8365 -2.0015 0.9811
4.3124 0.3162 -2.0015 0.9811
4.2670 0.6995 -2.0015 0.9811
3.9297 1.8039 -2.0015 0.9811
3.7531 2.1472 -2.0015 0.9811
3.5467 2.4733 -2.0015 0.9811
3.0510 3.0640 -2.0015 0.9811
2.4582 3.5572 -2.0015 0.9811
2.1311 3.7623 -2.0015 0.9811
1.7872 3.9373 -2.0015 0.9811
1.0593 4.1922 -2.0015 0.9811
0.6813 4.2699 -2.0015 0.9811
0.2978 4.3137 -2.0015 0.9811
-0.0881 4.3231 -2.0015 0.9811
-0.4732 4.2980 -2.0015 0.9811
-1.5940 4.0194 -2.0015 0.9811
-2.2826 3.6724 -2.0015 0.9811
-2.8987 3.2085 -2.0015 0.9811
-3.4225 2.6425 -2.0015 0.9811
-3.6445 2.3268 -2.0015 0.9811
-1.3280 0.4113 -0.6435 0.9939
-1.3027 0.2791 -0.6167 0.9941
-1.3385 -0.0762 -0.6206 0.9941
-1.3264 -0.1952 -0.6206 0.9941
-1.3202 -0.5801 -0.6675 0.9937
-3.7877 -2.0856 -2.0015 0.9811
-3.5867 -2.4150 -2.0015 0.9811
-3.3570 -2.7252 -2.0015 0.9811
-2.8195 -3.2782 -2.0015 0.9811
-2.1923 -3.7269 -2.0015 0.9811
-1.4954 -4.0571 -2.0015 0.9811
-1.1277 -4.1743 -2.0015 0.9811
-0.7510 -4.2582 -2.0015 0.9811
-0.3682 -4.3082 -2.0015 0.9811
0.4029 -4.3051 -2.0015 0.9811
2.2223 -3.7092 -2.0015 0.9811
2.5442 -3.4962 -2.0015 0.9811
2.8458 -3.2554 -2.0015 0.9811
3.8044 -2.0550 -2.0015 0.9811
4.1090 -1.3465 -2.0015 0.9811
4.2828 -0.5952 -2.0015 0.9811
4.1200 1.3124 -2.0015 0.9811
3.8213 2.0234 -2.0015 0.9811
3.6257 2.3561 -2.0015 0.9811
3.1495 2.9627 -2.0015 0.9811
2.8727 3.2317 -2.0015 0.9811
2.5731 3.4750 -2.0015 0.9811
1.5616 4.0321 -2.0015 0.9811
1.1958 4.1553 -2.0015 0.9811
0.0533 4.3236 -2.0015 0.9811
-0.7156 4.2643 -2.0015 0.9811
-1.0930 4.1835 -2.0015 0.9811
-1.4617 4.0694 -2.0015 0.9811
-2.4867 3.5373 -2.0015 0.9811
-3.3343 2.7530 -2.0015 0.9811
-3.5665 2.4447 -2.0015 0.9811
-1.3173 0.5919 -0.6685 0.9937
-1.3336 0.4613 -0.6532 0.9938
-1.3240 0.2061 -0.6202 0.9941
-1.3366 -0.0323 -0.6189 0.9941
-1.3064 -0.2685 -0.6173 0.9941
-1.3259 -0.3986 -0.6409 0.9939
-1.3288 -0.5328 -0.6627 0.9937
-2.9252 -3.1843 -2.0015 0.9811
-2.6295 -3.4325 -2.0015 0.9811
-2.3130 -3.6533 -2.0015 0.9811
-1.9780 -3.8450 -2.0015 0.9811
-1.6272 -4.0061 -2.0015 0.9811
-1.2635 -4.1352 -2.0015 0.9811
-0.4821 4.0517 -2.0015 0.9820
-0.8415 3.9926 -2.0015 0.9820
-1.8683 3.6275 -2.0015 0.9820
-2.1843 3.4464 -2.0015 0.9820
-2.4830 3.2379 -2.0015 0.9820
-2.7618 3.0036 -2.0015 0.9820
-3.0186 2.7453 -2.0015 0.9820
-3.4583 2.1654 -2.0015 0.9820
-1.1271 0.5727 -0.6201 0.9944
-1.1913 0.1352 -0.5881 0.9947
-1.1963 0.0283 -0.5870 0.9947
-1.1596 -0.2889 -0.5862 0.9947
-1.1415 -0.5136 -0.6140 0.9944
-3.5569 -1.9993 -2.0015 0.9820
-3.3645 -2.3085 -2.0015 0.9820
-3.1452 -2.5994 -2.0015 0.9820
-2.3450 -3.3392 -2.0015 0.9820
-2.0379 -3.5350 -2.0015 0.9820
-1.7145 -3.7026 -2.0015 0.9820
-0.6734 -4.0244 -2.0015 0.9820
-0.3118 -4.0684 -2.0015 0.9820
0.0522 -4.0800 -2.0015 0.9820
0.4159 -4.0591 -2.0015 0.9820
0.7762 -4.0058 -2.0015 0.9820
1.4754 -3.8042 -2.0015 0.9820
1.8088 -3.6575 -2.0015 0.9820
2.1277 -3.4816 -2.0015 0.9820
2.4297 -3.2780 -2.0015 0.9820
2.7123 -3.0483 -2.0015 0.9820
2.9734 -2.7943 -2.0015 0.9820
3.2107 -2.5180 -2.0015 0.9820
3.4225 -2.2217 -2.0015 0.9820
3.6069 -1.9076 -2.0015 0.9820
3.7627 -1.5784 -2.0015 0.9820
4.0462 -0.5262 -2.0015 0.9820
4.0412 0.5636 -2.0015 0.9820
3.9748 0.9217 -2.0015 0.9820
3.4017 2.2533 -2.0015 0.9820
3.1873 2.5476 -2.0015 0.9820
2.3993 3.3004 -2.0015 0.9820
1.0939 3.9309 -2.0015 0.9820
0.7390 4.0128 -2.0015 0.9820
0.3783 4.0627 -2.0015 0.9820
0.0145 4.0803 -2.0015 0.9820
-2.6622 3.0922 -2.0015 0.9820
-3.1691 2.5702 -2.0015 0.9820
-1.1095 0.6102 -0.6211 0.9944
-1.1576 0.3891 -0.5991 0.9946
-1.1628 0.2783 -0.5865 0.9947
-1.1861 0.1740 -0.5881 0.9947
-1.1961 0.0675 -0.5876 0.9947
-1.1703 -0.2513 -0.5871 0.9947
-1.1489 -0.4724 -0.6094 0.9945
-1.1228 -0.5837 -0.6207 0.9944
-3.2285 -2.4952 -2.0015 0.9820
-2.9931 -2.7731 -2.0015 0.9820
-2.7339 -3.0290 -2.0015 0.9820
-1.8346 -3.6446 -2.0015 0.9820
-0.8045 -4.0002 -2.0015 0.9820
-0.4446 -4.0560 -2.0015 0.9820
-0.0811 -4.0795 -2.0015 0.9820
0.2830 -4.0705 -2.0015 0.9820
1.6883 -3.7147 -2.0015 0.9820
2.8805 -2.8900 -2.0015 0.9820
3.1267 -2.6216 -2.0015 0.9820
3.5427 -2.0245 -2.0015 0.9820
3.9522 -1.0146 -2.0015 0.9820
4.0695 -0.2964 -2.0015 0.9820
4.0575 0.4312 -2.0015 0.9820
4.0029 0.7913 -2.0015 0.9820
2.7830 2.9839 -2.0015 0.9820
2.2087 3.4308 -2.0015 0.9820
1.5641 3.7686 -2.0015 0.9820
0.8698 3.9865 -2.0015 0.9820
0.5108 4.0482 -2.0015 0.9820
-0.5789 4.0390 -2.0015 0.9820
-0.9368 3.9713 -2.0015 0.9820
-1.9545 3.5817 -2.0015 0.9820
-2.8328 2.9367 -2.0015 0.9820
-3.3094 2.3867 -2.0015 0.9820
-3.5091 2.0821 -2.0015 0.9820
-1.1543 0.4305 -0.6043 0.9945
-1.1587 0.3177 -0.5893 0.9947
-1.1954 -0.0003 -0.5864 0.9947
-1.1790 -0.2131 -0.5877 0.9947
-1.1587 -0.3183 -0.5894 0.9947
-3.3083 -2.3883 -2.0015 0.9820
-2.8314 -2.9380 -2.0015 0.9820
-2.5581 -3.1788 -2.0015 0.9820
-1.9528 -3.5827 -2.0015 0.9820
-1.6255 -3.7425 -2.0015 0.9820
-1.2853 -3.8726 -2.0015 0.9820
-0.9348 -3.9718 -2.0015 0.9820
-0.5769 -4.0393 -2.0015 0.9820
0.8717 -3.9861 -2.0015 0.9820
1.2237 -3.8925 -2.0015 0.9820
1.5659 -3.7679 -2.0015 0.9820
2.5074 -3.2190 -2.0015 0.9820
2.7845 -2.9826 -2.0015 0.9820
3.4746 -2.1392 -2.0015 0.9820
3.7994 -1.4880 -2.0015 0.9820
4.0032 -0.7894 -2.0015 0.9820
4.0577 -0.4293 -2.0015 0.9820
4.0798 -0.0657 -2.0015 0.9820
4.0694 0.2984 -2.0015 0.9820
4.0266 0.6601 -2.0015 0.9820
3.9517 1.0165 -2.0015 0.9820
3.8453 1.3648 -2.0015 0.9820
3.5417 2.0262 -2.0015 0.9820
3.3469 2.3340 -2.0015 0.9820
2.0111 3.5503 -2.0015 0.9820
1.6865 3.7155 -2.0015 0.9820
0.9996 3.9560 -2.0015 0.9820
0.6429 4.0294 -2.0015 0.9820
-0.4466 4.0558 -2.0015 0.9820
-2.1540 3.4654 -2.0015 0.9820
-2.4544 3.2596 -2.0015 0.9820
-3.4392 2.1957 -2.0015 0.9820
-1.1230 0.5831 -0.6207 0.9944
-1.1490 0.4718 -0.6093 0.9945
-1.1588 0.3589 -0.5951 0.9946
-1.1704 0.2507 -0.5871 0.9947
-1.1860 -0.1746 -0.5881 0.9947
-1.1626 -0.2789 -0.5865 0.9947
-1.1576 -0.3897 -0.5991 0.9946
-1.1437 -0.5026 -0.6128 0.9944
-3.3846 -2.2789 -2.0015 0.9820
-3.1679 -2.5717 -2.0015 0.9820
-2.6607 -3.0935 -2.0015 0.9820
-2.0688 -3.5170 -2.0015 0.9820
-1.7470 -3.6874 -2.0015 0.9820
-1.4112 -3.8285 -2.0015 0.9820
-1.0642 -3.9391 -2.0015 0.9820
-0.7086 -4.0183 -2.0015 0.9820
-0.3475 -4.0655 -2.0015 0.9820
0.0164 -4.0803 -2.0015 0.9820
0.3802 -4.0626 -2.0015 0.9820
1.0958 -3.9304 -2.0015 0.9820
1.4420 -3.8170 -2.0015 0.9820
1.7766 -3.6732 -2.0015 0.9820
2.0971 -3.5002 -2.0015 0.9820
2.4008 -3.2992 -2.0015 0.9820
2.6855 -3.0720 -2.0015 0.9820
3.4028 -2.2516 -2.0015 0.9820
4.0415 -0.5616 -2.0015 0.9820
4.0755 -0.1990 -2.0015 0.9820
4.0770 0.1652 -2.0015 0.9820
3.9828 0.8868 -2.0015 0.9820
3.8878 1.2384 -2.0015 0.9820
3.7619 1.5802 -2.0015 0.9820
3.6060 1.9094 -2.0015 0.9820
3.4214 2.2233 -2.0015 0.9820
3.2095 2.5196 -2.0015 0.9820
2.9720 2.7957 -2.0015 0.9820
2.7109 3.0496 -2.0015 0.9820
2.4281 3.2792 -2.0015 0.9820
2.1260 3.4827 -2.0015 0.9820
1.8070 3.6584 -2.0015 0.9820
1.1284 3.9212 -2.0015 0.9820
0.4139 4.0593 -2.0015 0.9820
0.0503 4.0800 -2.0015 0.9820
-0.6753 4.0240 -2.0015 0.9820
-1.0315 3.9478 -2.0015 0.9820
-1.3794 3.8401 -2.0015 0.9820
-2.3466 3.3380 -2.0015 0.9820
-2.6349 3.1155 -2.0015 0.9820
-2.9022 2.8681 -2.0015 0.9820
-3.1464 2.5979 -2.0015 0.9820
-1.1416 0.5130 -0.6139 0.9944
-1.1570 0.4002 -0.6005 0.9946
-1.1844 0.1844 -0.5880 0.9947
-1.1957 0.0780 -0.5878 0.9947
-1.1963 -0.0289 -0.5870 0.9947
-1.1728 -0.2411 -0.5873 0.9947
-1.1590 -0.3484 -0.5936 0.9946
-1.1506 -0.4613 -0.6081 0.9945
-1.1269 -0.5733 -0.6202 0.9944
-3.4572 -2.1671 -2.0015 0.9820
-3.0173 -2.7468 -2.0015 0.9820
-2.7603 -3.0049 -2.0015 0.9820
-1.5355 -3.7804 -2.0015 0.9820
-1.4536 3.5738 -2.0015 0.9828
-2.0654 3.2587 -2.0015 0.9828
-3.0743 2.3309 -2.0015 0.9828
-0.9770 0.6118 -0.5980 0.9948
-1.0269 0.5218 -0.5976 0.9948
-1.0537 0.4219 -0.5888 0.9949
-1.0847 0.2224 -0.5744 0.9950
-1.1017 0.1250 -0.5752 0.9950
-1.1065 0.0262 -0.5742 0.9950
-1.1058 -0.0727 -0.5749 0.9950
-1.0953 -0.1710 -0.5751 0.9950
-1.0605 -0.3674 -0.5823 0.9950
-1.0445 -0.4699 -0.5942 0.9949
-3.1812 -2.1828 -2.0015 0.9828
-2.2173 -3.1573 -2.0015 0.9828
-0.6367 -3.8052 -2.0015 0.9828
-0.2948 -3.8468 -2.0015 0.9828
0.0494 -3.8578 -2.0015 0.9828
1.3950 -3.5970 -2.0015 0.9828
2.2974 -3.0995 -2.0015 0.9828
2.5646 -2.8823 -2.0015 0.9828
2.8114 -2.6421 -2.0015 0.9828
3.4105 -1.8037 -2.0015 0.9828
3.8550 -0.1544 -2.0015 0.9828
3.6657 1.2032 -2.0015 0.9828
3.5438 1.5253 -2.0015 0.9828
3.3936 1.8352 -2.0015 0.9828
3.0137 2.4089 -2.0015 0.9828
2.2686 3.1206 -2.0015 0.9828
1.9813 3.3105 -2.0015 0.9828
1.6782 3.4740 -2.0015 0.9828
0.6988 3.7943 -2.0015 0.9828
0.3577 3.8415 -2.0015 0.9828
-0.3304 3.8439 -2.0015 0.9828
-0.6719 3.7991 -2.0015 0.9828
-1.6535 3.4858 -2.0015 0.9828
-2.2464 3.1366 -2.0015 0.9828
-1.0468 0.4594 -0.5930 0.9949
-1.0969 0.1609 -0.5752 0.9950
-1.0822 -0.2324 -0.5742 0.9950
-1.0519 -0.4325 -0.5901 0.9949
-2.8301 -2.6221 -2.0015 0.9828
-2.5850 -2.8640 -2.0015 0.9828
-2.3193 -3.0831 -2.0015 0.9828
-2.0351 -3.2777 -2.0015 0.9828
-1.7347 -3.4461 -2.0015 0.9828
-1.0950 -3.6994 -2.0015 0.9828
-0.7607 -3.7823 -2.0015 0.9828
-0.4204 -3.8351 -2.0015 0.9828
-0.0767 -3.8573 -2.0015 0.9828
1.5963 -3.5124 -2.0015 0.9828
1.9032 -3.3560 -2.0015 0.9828
2.4690 -2.9646 -2.0015 0.9828
2.7236 -2.7326 -2.0015 0.9828
2.9564 -2.4788 -2.0015 0.9828
3.6365 -1.2887 -2.0015 0.9828
3.7369 -0.9593 -2.0015 0.9828
3.8076 -0.6223 -2.0015 0.9828
3.8479 -0.2803 -2.0015 0.9828
3.8365 0.4077 -2.0015 0.9828
3.5917 1.4086 -2.0015 0.9828
3.0908 2.3091 -2.0015 0.9828
1.7908 3.4173 -2.0015 0.9828
1.4789 3.5634 -2.0015 0.9828
0.8224 3.7694 -2.0015 0.9828
0.4830 3.8277 -2.0015 0.9828
0.1398 3.8555 -2.0015 0.9828
-0.2046 3.8526 -2.0015 0.9828
-0.5474 3.8191 -2.0015 0.9828
-1.2171 3.6611 -2.0015 0.9828
-2.1427 3.2084 -2.0015 0.9828
-0.9917 0.5884 -0.5982 0.9948
-1.0642 0.2918 -0.5725 0.9950
-1.0905 0.1966 -0.5749 0.9950
-1.1058 -0.0003 -0.5737 0.9950
-1.0904 -0.1971 -0.5749 0.9950
-1.0640 -0.2923 -0.5724 0.9950
-1.0576 -0.3950 -0.5857 0.9949
-1.0377 -0.4971 -0.5969 0.9948
-3.1281 -2.2583 -2.0015 0.9828
-2.9143 -2.5282 -2.0015 0.9828
-2.6772 -2.7780 -2.0015 0.9828
-2.4188 -3.0057 -2.0015 0.9828
-0.8839 -3.7555 -2.0015 0.9828
1.1571 -3.6805 -2.0015 0.9828
1.4807 -3.5626 -2.0015 0.9828
1.7925 -3.4164 -2.0015 0.9828
2.0900 -3.2430 -2.0015 0.9828
2.3708 -3.0437 -2.0015 0.9828
2.6328 -2.8201 -2.0015 0.9828
3.0919 -2.3076 -2.0015 0.9828
3.7035 -1.0810 -2.0015 0.9828
3.7852 -0.7464 -2.0015 0.9828
3.8367 -0.4059 -2.0015 0.9828
3.8477 0.2821 -2.0015 0.9828
3.8073 0.6241 -2.0015 0.9828
3.6358 1.2905 -2.0015 0.9828
3.5063 1.6096 -2.0015 0.9828
3.3488 1.9158 -2.0015 0.9828
3.1646 2.2068 -2.0015 0.9828
2.7222 2.7339 -2.0015 0.9828
2.1933 3.1740 -2.0015 0.9828
1.9015 3.3569 -2.0015 0.9828
1.2750 3.6413 -2.0015 0.9828
0.9452 3.7405 -2.0015 0.9828
0.6079 3.8099 -2.0015 0.9828
-1.0968 3.6989 -2.0015 0.9828
-1.4222 3.5864 -2.0015 0.9828
-1.7364 3.4452 -2.0015 0.9828
-2.0367 3.2767 -2.0015 0.9828
-2.3208 3.0820 -2.0015 0.9828
-2.8313 2.6207 -2.0015 0.9828
-0.9715 0.6202 -0.5979 0.9948
-1.0520 0.4320 -0.5900 0.9949
-1.0823 0.2319 -0.5742 0.9950
-1.1006 0.1347 -0.5752 0.9950
-1.1066 0.0359 -0.5744 0.9950
-1.0969 -0.1614 -0.5752 0.9950
-1.0751 -0.2579 -0.5735 0.9950
-3.2002 -2.1548 -2.0015 0.9828
-2.9953 -2.4316 -2.0015 0.9828
