ply
format ascii 1.0
element vertex 1597
property float32 x
property float32 y
property float32 z
property float32 I
end_header
7.2322 2.7296 -2.0015 0.9686
6.9595 3.3648 -2.0015 0.9686
6.2497 4.5495 -2.0015 0.9686
5.8183 5.0895 -2.0015 0.9686
5.3404 5.5889 -2.0015 0.9686
3.6675 6.8048 -2.0015 0.9686
1.7282 7.5167 -1.9970 0.9686
0.3625 7.6927 -1.9940 0.9687
-0.3261 7.6942 -1.9940 0.9687
-1.0126 7.6380 -1.9949 0.9687
-1.6926 7.5250 -1.9970 0.9686
-2.3614 7.3543 -1.9999 0.9686
-3.0113 7.1196 -2.0015 0.9686
-3.6352 6.8221 -2.0015 0.9686
-4.2301 6.4701 -2.0015 0.9686
-4.7912 6.0664 -2.0015 0.9686
-6.2281 4.5790 -2.0015 0.9686
-6.6122 4.0044 -2.0015 0.9686
-6.9435 3.3977 -2.0015 0.9686
-7.5958 1.4352 -2.0015 0.9686
-7.6936 0.7509 -2.0015 0.9686
-7.7300 0.0606 -2.0015 0.9686
-7.7045 -0.6301 -2.0015 0.9686
-7.6174 -1.3158 -2.0015 0.9686
-6.9960 -3.2883 -2.0015 0.9686
-6.6742 -3.9001 -2.0015 0.9686
-6.2992 -4.4807 -2.0015 0.9686
-5.8737 -5.0255 -2.0015 0.9686
-5.4013 -5.5301 -2.0015 0.9686
-4.3311 -6.4029 -2.0015 0.9686
-3.1227 -7.0714 -2.0015 0.9686
-2.4785 -7.3221 -2.0015 0.9686
-1.1361 -7.6463 -2.0015 0.9686
-0.4485 -7.7172 -2.0015 0.9686
0.9319 -7.6738 -2.0015 0.9686
2.2825 -7.3856 -2.0015 0.9686
5.7377 -5.1802 -2.0015 0.9686
6.1775 -4.6470 -2.0015 0.9686
6.9058 -3.4736 -2.0015 0.9686
7.5796 -1.5184 -2.0015 0.9686
7.6850 -0.8352 -2.0015 0.9686
7.7109 0.5456 -2.0015 0.9686
7.4908 1.9090 -2.0015 0.9686
7.2903 2.5705 -2.0015 0.9686
7.0316 3.2114 -2.0015 0.9686
6.7166 3.8267 -2.0015 0.9686
5.9285 4.9608 -2.0015 0.9686
5.4616 5.4705 -2.0015 0.9686
4.9511 5.9365 -2.0015 0.9686
3.8158 6.7228 -2.0015 0.9686
3.2000 7.0368 -2.0015 0.9686
2.5577 7.2919 -2.0008 0.9686
0.5311 7.6835 -1.9941 0.9687
-0.1574 7.6992 -1.9939 0.9687
-1.5267 7.5574 -1.9963 0.9686
-2.8545 7.1839 -2.0015 0.9686
-5.1896 5.7293 -2.0015 0.9686
-5.6806 5.2428 -2.0015 0.9686
-6.1262 4.7144 -2.0015 0.9686
-6.5229 4.1483 -2.0015 0.9686
-7.3893 2.2705 -2.0015 0.9686
-7.6753 0.9194 -2.0015 0.9686
5.4302 4.5276 -2.0015 0.9710
5.0040 4.9946 -2.0015 0.9710
4.5379 5.4216 -2.0015 0.9710
4.0354 5.8053 -2.0015 0.9710
3.5007 6.1425 -2.0015 0.9710
2.9381 6.4307 -2.0015 0.9710
2.3519 6.6674 -2.0015 0.9710
1.7469 6.8509 -2.0015 0.9710
1.1279 6.9795 -2.0015 0.9710
-1.3877 6.9325 -2.0015 0.9710
-2.0015 6.7809 -2.0015 0.9710
-4.7372 5.2484 -2.0015 0.9710
-6.2752 3.2571 -2.0015 0.9710
-6.5410 2.6835 -2.0015 0.9710
-6.7546 2.0885 -2.0015 0.9710
-7.0666 0.2229 -2.0015 0.9710
-6.9935 -1.0381 -2.0015 0.9710
-6.8728 -1.6587 -2.0015 0.9710
-6.6971 -2.2660 -2.0015 0.9710
-5.0585 -4.9394 -2.0015 0.9710
-2.4248 -6.6413 -2.0015 0.9710
-1.2044 -6.9667 -2.0015 0.9710
-0.5772 -7.0465 -2.0015 0.9710
0.6858 -7.0367 -2.0015 0.9710
1.3117 -6.9473 -2.0015 0.9710
3.1067 -6.3510 -2.0015 0.9710
5.1341 -4.8608 -2.0015 0.9710
5.5477 -4.3827 -2.0015 0.9710
5.9171 -3.8697 -2.0015 0.9710
6.2391 -3.3256 -2.0015 0.9710
6.8975 -1.5525 -2.0015 0.9710
6.4988 2.7841 -2.0015 0.9710
6.2242 3.3535 -2.0015 0.9710
5.8997 3.8960 -2.0015 0.9710
5.5281 4.4075 -2.0015 0.9710
5.1123 4.8837 -2.0015 0.9710
4.6556 5.3208 -2.0015 0.9710
4.1617 5.7154 -2.0015 0.9710
3.6345 6.0643 -2.0015 0.9710
3.0783 6.3647 -2.0015 0.9710
2.4975 6.6143 -2.0015 0.9710
0.6544 7.0397 -2.0015 0.9710
-1.2355 6.9613 -2.0015 0.9710
-1.8523 6.8231 -2.0015 0.9710
-2.4544 6.6304 -2.0015 0.9710
-3.0369 6.3846 -2.0015 0.9710
-3.5951 6.0878 -2.0015 0.9710
-4.6210 5.3510 -2.0015 0.9710
-5.0805 4.9168 -2.0015 0.9710
-5.8743 3.9343 -2.0015 0.9710
-6.9980 1.0069 -2.0015 0.9710
-7.0655 -0.2544 -2.0015 0.9710
-6.5290 -2.7127 -2.0015 0.9710
-6.2605 -3.2850 -2.0015 0.9710
-5.5761 -4.3466 -2.0015 0.9710
-5.1655 -4.8273 -2.0015 0.9710
-2.5698 -6.5865 -2.0015 0.9710
-1.9712 -6.7897 -2.0015 0.9710
-0.7315 -7.0321 -2.0015 0.9710
-0.1004 -7.0694 -2.0015 0.9710
0.5314 -7.0501 -2.0015 0.9710
1.7775 -6.8430 -2.0015 0.9710
2.3816 -6.6569 -2.0015 0.9710
4.0613 -5.7872 -2.0015 0.9710
5.8308 -3.9984 -2.0015 0.9710
6.1647 -3.4616 -2.0015 0.9710
6.4493 -2.8971 -2.0015 0.9710
6.6823 -2.3094 -2.0015 0.9710
7.0238 0.8076 -2.0015 0.9710
6.7680 2.0446 -2.0015 0.9710
6.5583 2.6409 -2.0015 0.9710
5.6234 4.2852 -2.0015 0.9710
4.2860 5.6228 -2.0015 0.9710
3.7666 5.9832 -2.0015 0.9710
3.2171 6.2958 -2.0015 0.9710
0.8086 7.0237 -2.0015 0.9710
-0.4541 7.0555 -2.0015 0.9710
-2.3085 6.6826 -2.0015 0.9710
-2.8962 6.4497 -2.0015 0.9710
-3.4608 6.1652 -2.0015 0.9710
-5.4007 4.5628 -2.0015 0.9710
-5.7867 4.0621 -2.0015 0.9710
-6.1264 3.5290 -2.0015 0.9710
-6.6565 2.3825 -2.0015 0.9710
-6.8428 1.7784 -2.0015 0.9710
-6.9743 1.1600 -2.0015 0.9710
-7.0500 0.5324 -2.0015 0.9710
-7.0694 -0.0995 -2.0015 0.9710
-7.0322 -0.7306 -2.0015 0.9710
-6.9388 -1.3558 -2.0015 0.9710
-6.7900 -1.9703 -2.0015 0.9710
-6.3310 -3.1470 -2.0015 0.9710
-6.0246 -3.7000 -2.0015 0.9710
-5.2701 -4.7130 -2.0015 0.9710
-4.8281 -5.1649 -2.0015 0.9710
-4.3474 -5.5755 -2.0015 0.9710
-3.8320 -5.9416 -2.0015 0.9710
-3.2859 -6.2601 -2.0015 0.9710
-2.7136 -6.5286 -2.0015 0.9710
-2.1195 -6.7449 -2.0015 0.9710
-1.5085 -6.9073 -2.0015 0.9710
-0.8855 -7.0144 -2.0015 0.9710
-0.2554 -7.0655 -2.0015 0.9710
0.3768 -7.0600 -2.0015 0.9710
1.0059 -6.9982 -2.0015 0.9710
1.6270 -6.8803 -2.0015 0.9710
2.2351 -6.7075 -2.0015 0.9710
2.8253 -6.4810 -2.0015 0.9710
3.3930 -6.2027 -2.0015 0.9710
4.9161 -5.0812 -2.0015 0.9710
5.3503 -4.6217 -2.0015 0.9710
5.7418 -4.1253 -2.0015 0.9710
6.3842 -3.0378 -2.0015 0.9710
6.6300 -2.4553 -2.0015 0.9710
6.8229 -1.8533 -2.0015 0.9710
7.0700 0.0220 -2.0015 0.9710
6.9533 1.2797 -2.0015 0.9710
6.8112 1.8957 -2.0015 0.9710
6.6146 2.4966 -2.0015 0.9710
5.3215 4.6549 -2.0015 0.9710
4.8844 5.1117 -2.0015 0.9710
3.8968 5.8992 -2.0015 0.9710
2.7849 6.4985 -2.0015 0.9710
0.3328 7.0622 -2.0015 0.9710
-1.5515 6.8977 -2.0015 0.9710
-2.1615 6.7316 -2.0015 0.9710
-2.7542 6.5116 -2.0015 0.9710
-4.3820 5.5483 -2.0015 0.9710
-5.6962 4.1880 -2.0015 0.9710
-6.9472 1.3126 -2.0015 0.9710
-7.0699 0.0555 -2.0015 0.9710
-7.0466 -0.5763 -2.0015 0.9710
-6.8316 -1.8210 -2.0015 0.9710
-6.6416 -2.4239 -2.0015 0.9710
-5.7612 -4.0981 -2.0015 0.9710
-5.3721 -4.5963 -2.0015 0.9710
-4.9401 -5.0578 -2.0015 0.9710
-4.4685 -5.4789 -2.0015 0.9710
-3.4223 -6.1866 -2.0015 0.9710
-2.8560 -6.4676 -2.0015 0.9710
-2.2669 -6.6968 -2.0015 0.9710
-1.6596 -6.8725 -2.0015 0.9710
0.2219 -7.0666 -2.0015 0.9710
0.8523 -7.0185 -2.0015 0.9710
1.4758 -6.9143 -2.0015 0.9710
3.2562 -6.2756 -2.0015 0.9710
3.8038 -5.9596 -2.0015 0.9710
4.8035 -5.1877 -2.0015 0.9710
5.2477 -4.7379 -2.0015 0.9710
5.6500 -4.2502 -2.0015 0.9710
6.0071 -3.7285 -2.0015 0.9710
6.7806 -2.0024 -2.0015 0.9710
6.9324 -1.3887 -2.0015 0.9710
7.0287 -0.7639 -2.0015 0.9710
6.8511 1.7460 -2.0015 0.9710
6.4311 2.9372 -2.0015 0.9710
6.1430 3.4999 -2.0015 0.9710
5.8058 4.0347 -2.0015 0.9710
4.9952 5.0034 -2.0015 0.9710
3.4899 6.1487 -2.0015 0.9710
2.9267 6.4359 -2.0015 0.9710
2.3401 6.6716 -2.0015 0.9710
-0.1445 7.0686 -2.0015 0.9710
-0.7753 7.0274 -2.0015 0.9710
-2.6108 6.5704 -2.0015 0.9710
-3.1872 6.3109 -2.0015 0.9710
-3.7382 6.0010 -2.0015 0.9710
-4.2593 5.6431 -2.0015 0.9710
-4.7464 5.2400 -2.0015 0.9710
-5.1955 4.7951 -2.0015 0.9710
-5.6031 4.3118 -2.0015 0.9710
-5.9658 3.7941 -2.0015 0.9710
-6.2809 3.2460 -2.0015 0.9710
-6.5457 2.6720 -2.0015 0.9710
-6.7582 2.0766 -2.0015 0.9710
-6.9167 1.4646 -2.0015 0.9710
4.9979 4.1672 -2.0015 0.9731
3.7142 5.3431 -2.0015 0.9731
2.7042 5.9188 -2.0015 0.9731
2.1646 6.1367 -2.0015 0.9731
1.6078 6.3055 -2.0015 0.9731
1.0381 6.4239 -2.0015 0.9731
-0.7022 6.4693 -2.0015 0.9731
-1.2773 6.3807 -2.0015 0.9731
-2.3923 6.0516 -2.0015 0.9731
-2.9233 5.8137 -2.0015 0.9731
-3.4309 5.5293 -2.0015 0.9731
-3.9111 5.2007 -2.0015 0.9731
-4.3600 4.8306 -2.0015 0.9731
-4.7741 4.4218 -2.0015 0.9731
-5.1500 3.9776 -2.0015 0.9731
-6.0203 2.4699 -2.0015 0.9731
-6.2169 1.9222 -2.0015 0.9731
-6.4963 -0.3767 -2.0015 0.9731
-6.3256 -1.5266 -2.0015 0.9731
-5.9530 -2.6278 -2.0015 0.9731
-5.0433 -4.1121 -2.0015 0.9731
-4.6558 -4.5462 -2.0015 0.9731
-3.7725 -5.3021 -2.0015 0.9731
-2.2318 -6.1126 -2.0015 0.9731
-1.6768 -6.2875 -2.0015 0.9731
-1.1085 -6.4121 -2.0015 0.9731
0.0502 -6.5071 -2.0015 0.9731
0.6313 -6.4766 -2.0015 0.9731
1.2073 -6.3943 -2.0015 0.9731
1.7736 -6.2609 -2.0015 0.9731
2.8594 -5.8454 -2.0015 0.9731
3.3701 -5.5666 -2.0015 0.9731
4.7254 -4.4738 -2.0015 0.9731
5.1061 -4.0338 -2.0015 0.9731
5.9929 -2.5357 -2.0015 0.9731
6.1954 -1.9902 -2.0015 0.9731
6.4507 -0.8561 -2.0015 0.9731
6.5014 -0.2764 -2.0015 0.9731
6.5001 0.3054 -2.0015 0.9731
6.3420 1.4572 -2.0015 0.9731
6.1865 2.0179 -2.0015 0.9731
5.9815 2.5624 -2.0015 0.9731
5.7287 3.0865 -2.0015 0.9731
4.7053 4.4949 -2.0015 0.9731
3.8304 5.2604 -2.0015 0.9731
3.3452 5.5816 -2.0015 0.9731
1.7456 6.2687 -2.0015 0.9731
-1.7049 6.2799 -2.0015 0.9731
-2.7951 5.8764 -2.0015 0.9731
-3.3089 5.6032 -2.0015 0.9731
-4.2531 4.9250 -2.0015 0.9731
-4.6760 4.5254 -2.0015 0.9731
-5.4067 3.6211 -2.0015 0.9731
-5.7085 3.1236 -2.0015 0.9731
-5.9647 2.6012 -2.0015 0.9731
-6.3324 1.4984 -2.0015 0.9731
-6.4409 0.9267 -2.0015 0.9731
-6.5030 -0.2342 -2.0015 0.9731
-6.3576 -1.3876 -2.0015 0.9731
-6.2082 -1.9500 -2.0015 0.9731
-6.0092 -2.4967 -2.0015 0.9731
-3.4062 -5.5446 -2.0015 0.9731
-2.8973 -5.8267 -2.0015 0.9731
-0.6733 -6.4723 -2.0015 0.9731
4.1989 -4.9713 -2.0015 0.9731
4.6262 -4.5763 -2.0015 0.9731
5.0165 -4.1448 -2.0015 0.9731
5.3667 -3.6801 -2.0015 0.9731
5.6739 -3.1860 -2.0015 0.9731
5.9359 -2.6665 -2.0015 0.9731
6.1503 -2.1256 -2.0015 0.9731
6.3156 -1.5677 -2.0015 0.9731
6.4304 -0.9973 -2.0015 0.9731
6.5052 0.1629 -2.0015 0.9731
6.4647 0.7433 -2.0015 0.9731
6.3724 1.3178 -2.0015 0.9731
6.2292 1.8818 -2.0015 0.9731
5.5074 3.4660 -2.0015 0.9731
5.1757 3.9441 -2.0015 0.9731
4.8027 4.3907 -2.0015 0.9731
4.3913 4.8021 -2.0015 0.9731
3.9448 5.1752 -2.0015 0.9731
2.9610 5.7946 -2.0015 0.9731
1.8826 6.2290 -2.0015 0.9731
1.3187 6.3722 -2.0015 0.9731
0.1638 6.5052 -2.0015 0.9731
-0.9964 6.4305 -2.0015 0.9731
-3.1853 5.6744 -2.0015 0.9731
-4.5757 4.6268 -2.0015 0.9731
-5.6387 3.2480 -2.0015 0.9731
-6.1266 2.1928 -2.0015 0.9731
-6.5066 -0.0916 -2.0015 0.9731
-6.3865 -1.2479 -2.0015 0.9731
-6.0625 -2.3644 -2.0015 0.9731
-5.8271 -2.8965 -2.0015 0.9731
-4.8506 -4.3378 -2.0015 0.9731
-4.0013 -5.1317 -2.0015 0.9731
-3.5269 -5.4686 -2.0015 0.9731
-3.0243 -5.7618 -2.0015 0.9731
-1.9508 -6.2080 -2.0015 0.9731
-1.3885 -6.3574 -2.0015 0.9731
-0.8150 -6.4560 -2.0015 0.9731
1.4975 -6.3326 -2.0015 0.9731
4.0889 -5.0621 -2.0015 0.9731
4.5247 -4.6767 -2.0015 0.9731
5.2847 -3.7969 -2.0015 0.9731
5.6027 -3.3096 -2.0015 0.9731
5.8760 -2.7959 -2.0015 0.9731
6.1022 -2.2599 -2.0015 0.9731
6.4070 -1.1380 -2.0015 0.9731
6.3998 1.1778 -2.0015 0.9731
6.2690 1.7448 -2.0015 0.9731
6.0881 2.2978 -2.0015 0.9731
5.5820 3.3445 -2.0015 0.9731
5.2610 3.8297 -2.0015 0.9731
4.8978 4.2843 -2.0015 0.9731
4.0573 5.0875 -2.0015 0.9731
2.5632 5.9811 -2.0015 0.9731
2.0187 6.1862 -2.0015 0.9731
0.3063 6.5000 -2.0015 0.9731
-1.9894 6.1957 -2.0015 0.9731
-2.5349 5.9932 -2.0015 0.9731
-3.0601 5.7428 -2.0015 0.9731
-3.5609 5.4465 -2.0015 0.9731
-4.0332 5.1067 -2.0015 0.9731
-4.4732 4.7260 -2.0015 0.9731
-4.8775 4.3075 -2.0015 0.9731
-5.2428 3.8546 -2.0015 0.9731
-5.5661 3.3708 -2.0015 0.9731
-6.0771 2.3266 -2.0015 0.9731
-6.3941 1.2081 -2.0015 0.9731
-6.4856 -0.5304 -2.0015 0.9731
-6.2877 -1.6760 -2.0015 0.9731
-6.1129 -2.2309 -2.0015 0.9731
-5.6183 -3.2831 -2.0015 0.9731
-5.3026 -3.7718 -2.0015 0.9731
-4.5468 -4.6552 -2.0015 0.9731
-3.1499 -5.6941 -2.0015 0.9731
-2.6286 -5.9527 -2.0015 0.9731
-0.9563 -6.4366 -2.0015 0.9731
0.2043 -6.5040 -2.0015 0.9731
0.7844 -6.4598 -2.0015 0.9731
1.3584 -6.3639 -2.0015 0.9731
1.9214 -6.2171 -2.0015 0.9731
2.4691 -6.0206 -2.0015 0.9731
2.9970 -5.7760 -2.0015 0.9731
3.5010 -5.4852 -2.0015 0.9731
3.9770 -5.1506 -2.0015 0.9731
4.8300 -4.3607 -2.0015 0.9731
5.2002 -3.9118 -2.0015 0.9731
5.8133 -2.9240 -2.0015 0.9731
6.0512 -2.3931 -2.0015 0.9731
6.3805 -1.2781 -2.0015 0.9731
6.4910 0.4593 -2.0015 0.9731
6.1370 2.1638 -2.0015 0.9731
5.9191 2.7034 -2.0015 0.9731
5.6540 3.2213 -2.0015 0.9731
5.3436 3.7135 -2.0015 0.9731
4.5976 4.6051 -2.0015 0.9731
2.1538 6.1405 -2.0015 0.9731
1.5967 6.3083 -2.0015 0.9731
1.0268 6.4257 -2.0015 0.9731
-0.1330 6.5059 -2.0015 0.9731
-0.7136 6.4680 -2.0015 0.9731
-1.2885 6.3784 -2.0015 0.9731
-1.8531 6.2378 -2.0015 0.9731
-3.4406 5.5233 -2.0015 0.9731
-4.3685 4.8229 -2.0015 0.9731
-4.7819 4.4134 -2.0015 0.9731
-5.4909 3.4920 -2.0015 0.9731
-5.7809 2.9876 -2.0015 0.9731
-6.0246 2.4593 -2.0015 0.9731
-6.2202 1.9113 -2.0015 0.9731
-6.3661 1.3480 -2.0015 0.9731
-6.4611 0.7739 -2.0015 0.9731
4.6246 3.8559 -2.0015 0.9749
3.8647 4.6173 -2.0015 0.9749
3.4368 4.9441 -2.0015 0.9749
2.9814 5.2313 -2.0015 0.9749
2.0030 5.6783 -2.0015 0.9749
-2.2136 5.5996 -2.0015 0.9749
-2.7049 5.3794 -2.0015 0.9749
-3.1747 5.1163 -2.0015 0.9749
-4.7654 3.6806 -2.0015 0.9749
-5.3442 2.7739 -2.0015 0.9749
-5.7525 1.7786 -2.0015 0.9749
-5.9560 -0.8841 -2.0015 0.9749
-5.7036 -1.9298 -2.0015 0.9749
-4.6666 -3.8050 -2.0015 0.9749
-3.4908 -4.9061 -2.0015 0.9749
-2.5621 -5.4489 -2.0015 0.9749
-1.5516 -5.8179 -2.0015 0.9749
-1.0257 -5.9332 -2.0015 0.9749
0.0464 -6.0210 -2.0015 0.9749
2.6458 -5.4088 -2.0015 0.9749
4.3724 -4.1397 -2.0015 0.9749
5.3135 -2.8323 -2.0015 0.9749
5.7327 -1.8416 -2.0015 0.9749
5.8743 -1.3221 -2.0015 0.9749
6.0146 0.2826 -2.0015 0.9749
5.7244 1.8672 -2.0015 0.9749
5.0245 3.3181 -2.0015 0.9749
4.3539 4.1592 -2.0015 0.9749
3.0954 5.1647 -2.0015 0.9749
2.1269 5.6331 -2.0015 0.9749
1.0907 5.9216 -2.0015 0.9749
0.5573 5.9954 -2.0015 0.9749
-2.0903 5.6467 -2.0015 0.9749
-2.5864 5.4375 -2.0015 0.9749
-3.5126 4.8905 -2.0015 0.9749
-3.9354 4.5571 -2.0015 0.9749
-4.3268 4.1874 -2.0015 0.9749
-5.0029 3.3506 -2.0015 0.9749
-5.2821 2.8903 -2.0015 0.9749
-5.5192 2.4069 -2.0015 0.9749
-5.7122 1.9043 -2.0015 0.9749
-6.0126 0.3217 -2.0015 0.9749
-6.0173 -0.2167 -2.0015 0.9749
-5.8827 -1.2840 -2.0015 0.9749
-5.7445 -1.8043 -2.0015 0.9749
-5.3318 -2.7977 -2.0015 0.9749
-4.3992 -4.1112 -2.0015 0.9749
-3.5975 -4.8284 -2.0015 0.9749
-3.1518 -5.1304 -2.0015 0.9749
-2.1886 -5.6094 -2.0015 0.9749
-1.6787 -5.7825 -2.0015 0.9749
-0.6230 -5.9889 -2.0015 0.9749
-0.0855 -6.0206 -2.0015 0.9749
2.0283 -5.6693 -2.0015 0.9749
3.0047 -5.2179 -2.0015 0.9749
3.4588 -4.9287 -2.0015 0.9749
5.4925 -2.4673 -2.0015 0.9749
5.8439 -1.4506 -2.0015 0.9749
5.9501 -0.9228 -2.0015 0.9749
6.0087 -0.3876 -2.0015 0.9749
5.8965 1.2194 -2.0015 0.9749
5.7640 1.7412 -2.0015 0.9749
4.4440 4.0627 -2.0015 0.9749
3.2078 5.0956 -2.0015 0.9749
2.7398 5.3618 -2.0015 0.9749
2.2499 5.5851 -2.0015 0.9749
1.7420 5.7637 -2.0015 0.9749
1.2202 5.8963 -2.0015 0.9749
-0.3868 6.0088 -2.0015 0.9749
-0.9220 5.9502 -2.0015 0.9749
-1.9660 5.6912 -2.0015 0.9749
-2.4666 5.4928 -2.0015 0.9749
-3.8346 4.6423 -2.0015 0.9749
-4.9282 3.4595 -2.0015 0.9749
-5.2175 3.0054 -2.0015 0.9749
-5.6690 2.0291 -2.0015 0.9749
-5.9396 0.9879 -2.0015 0.9749
-6.0041 0.4534 -2.0015 0.9749
-6.0206 -0.0847 -2.0015 0.9749
-5.9890 -0.6222 -2.0015 0.9749
-5.9095 -1.1547 -2.0015 0.9749
-5.6097 -2.1878 -2.0015 0.9749
-5.3918 -2.6802 -2.0015 0.9749
-4.8289 -3.5968 -2.0015 0.9749
-4.4883 -4.0138 -2.0015 0.9749
-4.1118 -4.3987 -2.0015 0.9749
-3.7024 -4.7484 -2.0015 0.9749
-3.2635 -5.0601 -2.0015 0.9749
-2.3110 -5.5601 -2.0015 0.9749
-1.8051 -5.7443 -2.0015 0.9749
-1.2848 -5.8826 -2.0015 0.9749
-0.7541 -5.9738 -2.0015 0.9749
-0.2175 -6.0173 -2.0015 0.9749
0.3209 -6.0127 -2.0015 0.9749
0.8567 -5.9600 -2.0015 0.9749
1.3857 -5.8596 -2.0015 0.9749
2.4062 -5.5195 -2.0015 0.9749
2.8896 -5.2825 -2.0015 0.9749
4.1868 -4.3274 -2.0015 0.9749
5.1843 -3.0625 -2.0015 0.9749
5.6465 -2.0911 -2.0015 0.9749
5.9285 -1.0530 -2.0015 0.9749
6.0212 0.0187 -2.0015 0.9749
5.9955 0.5565 -2.0015 0.9749
5.9218 1.0899 -2.0015 0.9749
5.8007 1.6145 -2.0015 0.9749
5.4209 2.6209 -2.0015 0.9749
5.1651 3.0947 -2.0015 0.9749
4.8680 3.5437 -2.0015 0.9749
4.5320 3.9644 -2.0015 0.9749
3.7543 4.7075 -2.0015 0.9749
3.3187 5.0241 -2.0015 0.9749
0.8196 5.9652 -2.0015 0.9749
0.2835 6.0146 -2.0015 0.9749
-0.2550 6.0158 -2.0015 0.9749
-1.3214 5.8745 -2.0015 0.9749
-1.8408 5.7329 -2.0015 0.9749
-2.3456 5.5456 -2.0015 0.9749
-3.2949 5.0397 -2.0015 0.9749
-4.1391 4.3730 -2.0015 0.9749
-4.5132 3.9858 -2.0015 0.9749
-5.1504 3.1191 -2.0015 0.9749
-5.4084 2.6465 -2.0015 0.9749
-5.7930 1.6419 -2.0015 0.9749
-5.9165 1.1179 -2.0015 0.9749
-5.9928 0.5849 -2.0015 0.9749
-6.0012 -0.4908 -2.0015 0.9749
-5.9334 -1.0249 -2.0015 0.9749
-5.4493 -2.5613 -2.0015 0.9749
-5.1987 -3.0379 -2.0015 0.9749
-4.5752 -3.9144 -2.0015 0.9749
-4.2072 -4.3075 -2.0015 0.9749
-3.8056 -4.6661 -2.0015 0.9749
-2.9146 -5.2688 -2.0015 0.9749
-1.4134 -5.8530 -2.0015 0.9749
-0.3493 -6.0111 -2.0015 0.9749
0.1890 -6.0183 -2.0015 0.9749
0.7258 -5.9773 -2.0015 0.9749
1.2569 -5.8886 -2.0015 0.9749
1.7779 -5.7528 -2.0015 0.9749
2.7731 -5.3446 -2.0015 0.9749
3.2395 -5.0755 -2.0015 0.9749
3.6799 -4.7659 -2.0015 0.9749
4.4692 -4.0350 -2.0015 0.9749
4.8118 -3.6196 -2.0015 0.9749
5.3791 -2.7057 -2.0015 0.9749
5.7747 -1.7053 -2.0015 0.9749
5.9039 -1.1827 -2.0015 0.9749
5.9860 -0.6506 -2.0015 0.9749
6.0202 -0.1132 -2.0015 0.9749
5.8347 1.4869 -2.0015 0.9749
5.6786 2.0022 -2.0015 0.9749
5.2317 2.9807 -2.0015 0.9749
3.8566 4.6241 -2.0015 0.9749
3.4281 4.9501 -2.0015 0.9749
2.9722 5.2365 -2.0015 0.9749
2.4925 5.4811 -2.0015 0.9749
1.9930 5.6818 -2.0015 0.9749
1.4775 5.8371 -2.0015 0.9749
0.4152 6.0069 -2.0015 0.9749
-1.7147 5.7719 -2.0015 0.9749
-2.7144 5.3747 -2.0015 0.9749
-3.1837 5.1107 -2.0015 0.9749
-3.6274 4.8059 -2.0015 0.9749
-4.7718 3.6722 -2.0015 0.9749
-5.5747 2.2756 -2.0015 0.9749
2.7713 4.8626 -2.0015 0.9765
1.3829 5.4234 -2.0015 0.9765
0.8929 5.5252 -2.0015 0.9765
-0.1045 5.5959 -2.0015 0.9765
-2.5143 5.0003 -2.0015 0.9765
-2.9509 4.7558 -2.0015 0.9765
-3.3639 4.4731 -2.0015 0.9765
-3.7501 4.1548 -2.0015 0.9765
-4.1062 3.8032 -2.0015 0.9765
-4.4295 3.4212 -2.0015 0.9765
-4.9676 2.5784 -2.0015 0.9765
-5.1781 2.1243 -2.0015 0.9765
-5.5560 0.6754 -2.0015 0.9765
-5.5362 -0.8218 -2.0015 0.9765
-5.4407 -1.3130 -2.0015 0.9765
-5.1202 -2.2602 -2.0015 0.9765
-4.8978 -2.7085 -2.0015 0.9765
-4.6363 -3.1352 -2.0015 0.9765
-3.2448 -4.5603 -2.0015 0.9765
-2.8244 -4.8320 -2.0015 0.9765
-2.3815 -5.0649 -2.0015 0.9765
-0.9534 -5.5151 -2.0015 0.9765
0.0432 -5.5967 -2.0015 0.9765
0.5429 -5.5705 -2.0015 0.9765
2.4594 -5.0276 -2.0015 0.9765
2.8986 -4.7878 -2.0015 0.9765
3.3147 -4.5098 -2.0015 0.9765
3.7043 -4.1956 -2.0015 0.9765
4.0643 -3.8480 -2.0015 0.9765
4.3918 -3.4695 -2.0015 0.9765
4.6841 -3.0634 -2.0015 0.9765
4.9391 -2.6327 -2.0015 0.9765
5.1545 -2.1810 -2.0015 0.9765
5.3287 -1.7118 -2.0015 0.9765
5.4603 -1.2290 -2.0015 0.9765
5.5482 -0.7363 -2.0015 0.9765
5.5918 -0.2377 -2.0015 0.9765
5.5907 0.2627 -2.0015 0.9765
4.9272 2.6547 -2.0015 0.9765
4.6704 3.0842 -2.0015 0.9765
3.6855 4.2121 -2.0015 0.9765
3.2946 4.5245 -2.0015 0.9765
2.8772 4.8007 -2.0015 0.9765
2.4369 5.0385 -2.0015 0.9765
1.5014 5.3917 -2.0015 0.9765
1.0138 5.5043 -2.0015 0.9765
0.5181 5.5729 -2.0015 0.9765
0.0182 5.5969 -2.0015 0.9765
-0.4818 5.5761 -2.0015 0.9765
-0.9780 5.5108 -2.0015 0.9765
-1.4664 5.4014 -2.0015 0.9765
-3.2651 4.5458 -2.0015 0.9765
-4.0219 3.8923 -2.0015 0.9765
-4.3535 3.5174 -2.0015 0.9765
-4.6503 3.1145 -2.0015 0.9765
-5.3096 1.7701 -2.0015 0.9765
-5.4465 1.2887 -2.0015 0.9765
-5.5398 0.7971 -2.0015 0.9765
-5.5889 0.2990 -2.0015 0.9765
-5.4682 -1.1935 -2.0015 0.9765
-4.9560 -2.6005 -2.0015 0.9765
-4.0892 -3.8215 -2.0015 0.9765
-3.3439 -4.4881 -2.0015 0.9765
-2.9297 -4.7689 -2.0015 0.9765
-2.4919 -5.0115 -2.0015 0.9765
-2.0343 -5.2141 -2.0015 0.9765
-1.5604 -5.3750 -2.0015 0.9765
1.8854 -5.2698 -2.0015 0.9765
2.3486 -5.0803 -2.0015 0.9765
2.7930 -4.8502 -2.0015 0.9765
3.2151 -4.5813 -2.0015 0.9765
3.6115 -4.2758 -2.0015 0.9765
4.3147 -3.5650 -2.0015 0.9765
4.6159 -3.1653 -2.0015 0.9765
4.8802 -2.7403 -2.0015 0.9765
5.2899 -1.8282 -2.0015 0.9765
5.4321 -1.3484 -2.0015 0.9765
5.5603 0.6393 -2.0015 0.9765
5.1918 2.0906 -2.0015 0.9765
4.7369 2.9811 -2.0015 0.9765
3.7770 4.1303 -2.0015 0.9765
3.3929 4.4512 -2.0015 0.9765
2.5467 4.9839 -2.0015 0.9765
1.6193 5.3575 -2.0015 0.9765
1.1342 5.4808 -2.0015 0.9765
0.1409 5.5951 -2.0015 0.9765
-1.3476 5.4322 -2.0015 0.9765
-1.8275 5.2901 -2.0015 0.9765
-2.2927 5.1057 -2.0015 0.9765
-3.1647 4.6163 -2.0015 0.9765
-3.5644 4.3151 -2.0015 0.9765
-4.5809 3.2157 -2.0015 0.9765
-5.0800 2.3492 -2.0015 0.9765
-5.2695 1.8861 -2.0015 0.9765
-5.4169 1.4078 -2.0015 0.9765
-5.5210 0.9183 -2.0015 0.9765
-5.5810 0.4215 -2.0015 0.9765
-5.5963 -0.0788 -2.0015 0.9765
-5.4930 -1.0733 -2.0015 0.9765
-5.3752 -1.5597 -2.0015 0.9765
-5.2144 -2.0336 -2.0015 0.9765
-5.0119 -2.4913 -2.0015 0.9765
-4.4886 -3.3433 -2.0015 0.9765
-4.1720 -3.7309 -2.0015 0.9765
-3.8220 -4.0887 -2.0015 0.9765
-3.4415 -4.4137 -2.0015 0.9765
-2.1481 -5.1682 -2.0015 0.9765
-1.1942 -5.4680 -2.0015 0.9765
-0.7010 -5.5528 -2.0015 0.9765
-0.2022 -5.5932 -2.0015 0.9765
0.2983 -5.5890 -2.0015 0.9765
2.2366 -5.1306 -2.0015 0.9765
2.6860 -4.9103 -2.0015 0.9765
3.1139 -4.6507 -2.0015 0.9765
3.5169 -4.3540 -2.0015 0.9765
3.8917 -4.0224 -2.0015 0.9765
4.2355 -3.6587 -2.0015 0.9765
4.5454 -3.2657 -2.0015 0.9765
4.8189 -2.8466 -2.0015 0.9765
5.0539 -2.4048 -2.0015 0.9765
5.4012 -1.4671 -2.0015 0.9765
5.5106 -0.9788 -2.0015 0.9765
5.5760 -0.4826 -2.0015 0.9765
5.5044 1.0130 -2.0015 0.9765
5.3919 1.5007 -2.0015 0.9765
5.0389 2.4362 -2.0015 0.9765
4.8011 2.8766 -2.0015 0.9765
4.5250 3.2939 -2.0015 0.9765
3.4897 4.3758 -2.0015 0.9765
3.0849 4.6700 -2.0015 0.9765
2.6554 4.9269 -2.0015 0.9765
2.2047 5.1444 -2.0015 0.9765
0.2635 5.5907 -2.0015 0.9765
-1.2282 5.4605 -2.0015 0.9765
-1.7111 5.3289 -2.0015 0.9765
-2.6320 4.9394 -2.0015 0.9765
-3.0627 4.6845 -2.0015 0.9765
-3.8474 4.0648 -2.0015 0.9765
-4.7874 2.8993 -2.0015 0.9765
-5.2269 2.0011 -2.0015 0.9765
-5.3848 1.5262 -2.0015 0.9765
-5.4996 1.0391 -2.0015 0.9765
-5.5704 0.5437 -2.0015 0.9765
-5.5967 0.0439 -2.0015 0.9765
-5.5152 -0.9527 -2.0015 0.9765
-5.4081 -1.4415 -2.0015 0.9765
-5.0653 -2.3808 -2.0015 0.9765
-4.8323 -2.8238 -2.0015 0.9765
-3.9107 -4.0039 -2.0015 0.9765
-3.1359 -4.6359 -2.0015 0.9765
-1.7945 -5.3014 -2.0015 0.9765
-0.3247 -5.5875 -2.0015 0.9765
0.1757 -5.5941 -2.0015 0.9765
1.6526 -5.3474 -2.0015 0.9765
2.5777 -4.9680 -2.0015 0.9765
3.4206 -4.4300 -2.0015 0.9765
4.7554 -2.9516 -2.0015 0.9765
5.2047 -2.0583 -2.0015 0.9765
5.3677 -1.5851 -2.0015 0.9765
5.5641 -0.6047 -2.0015 0.9765
5.5253 0.8922 -2.0015 0.9765
5.4236 1.3822 -2.0015 0.9765
5.2784 1.8611 -2.0015 0.9765
4.5961 3.1940 -2.0015 0.9765
4.2924 3.5917 -2.0015 0.9765
3.9544 3.9608 -2.0015 0.9765
3.5848 4.2982 -2.0015 0.9765
3.1865 4.6013 -2.0015 0.9765
0.8832 5.5268 -2.0015 0.9765
-0.6138 5.5631 -2.0015 0.9765
-2.0668 5.2013 -2.0015 0.9765
-2.5231 4.9959 -2.0015 0.9765
-3.7574 4.1482 -2.0015 0.9765
-4.1129 3.7959 -2.0015 0.9765
-4.7227 3.0035 -2.0015 0.9765
-5.1818 2.1152 -2.0015 0.9765
-5.5572 0.6657 -2.0015 0.9765
4.0114 3.3446 -2.0015 0.9779
3.6966 3.6896 -2.0015 0.9779
3.3523 4.0051 -2.0015 0.9779
2.9811 4.2885 -2.0015 0.9779
1.2905 5.0609 -2.0015 0.9779
0.8332 5.1560 -2.0015 0.9779
-0.0975 5.2219 -2.0015 0.9779
-0.5636 5.1923 -2.0015 0.9779
-1.0252 5.1212 -2.0015 0.9779
-1.4785 5.0092 -2.0015 0.9779
-1.9201 4.8571 -2.0015 0.9779
-2.7537 4.4379 -2.0015 0.9779
-3.1391 4.1742 -2.0015 0.9779
-3.4995 3.8771 -2.0015 0.9779
-3.8318 3.5490 -2.0015 0.9779
-4.1335 3.1925 -2.0015 0.9779
-4.4022 2.8105 -2.0015 0.9779
-4.6356 2.4061 -2.0015 0.9779
-4.9898 1.5428 -2.0015 0.9779
-5.1076 1.0909 -2.0015 0.9779
-5.1847 0.6303 -2.0015 0.9779
-5.2141 -0.3023 -2.0015 0.9779
-4.5705 -2.5275 -2.0015 0.9779
-4.0478 -3.3005 -2.0015 0.9779
-3.7368 -3.6489 -2.0015 0.9779
-2.2223 -4.7264 -2.0015 0.9779
-1.7913 -4.9061 -2.0015 0.9779
-1.3458 -5.0465 -2.0015 0.9779
-0.8897 -5.1465 -2.0015 0.9779
1.4235 -5.0251 -2.0015 0.9779
2.2950 -4.6916 -2.0015 0.9779
3.0932 -4.2084 -2.0015 0.9779
3.7927 -3.5908 -2.0015 0.9779
4.0983 -3.2377 -2.0015 0.9779
4.3711 -2.8586 -2.0015 0.9779
4.8100 -2.0352 -2.0015 0.9779
4.9726 -1.5974 -2.0015 0.9779
5.0954 -1.1468 -2.0015 0.9779
5.1775 -0.6871 -2.0015 0.9779
5.0902 1.1696 -2.0015 0.9779
4.5980 2.4773 -2.0015 0.9779
4.0838 3.2559 -2.0015 0.9779
3.4392 3.9306 -2.0015 0.9779
2.2740 4.7018 -2.0015 0.9779
1.4011 5.0314 -2.0015 0.9779
0.4834 5.2004 -2.0015 0.9779
0.0170 5.2228 -2.0015 0.9779
-0.4496 5.2035 -2.0015 0.9779
-1.3684 5.0404 -2.0015 0.9779
-2.6558 4.4972 -2.0015 0.9779
-3.0469 4.2420 -2.0015 0.9779
-3.4136 3.9529 -2.0015 0.9779
-4.3395 2.9064 -2.0015 0.9779
-4.5818 2.5071 -2.0015 0.9779
-4.9548 1.6518 -2.0015 0.9779
-5.1696 0.7438 -2.0015 0.9779
-5.1818 -0.6534 -2.0015 0.9779
-4.9828 -1.5651 -2.0015 0.9779
-4.8231 -2.0039 -2.0015 0.9779
-4.6248 -2.4267 -2.0015 0.9779
-4.3896 -2.8302 -2.0015 0.9779
-3.8159 -3.5661 -2.0015 0.9779
-3.1205 -4.1882 -2.0015 0.9779
-2.7339 -4.4502 -2.0015 0.9779
-2.3254 -4.6766 -2.0015 0.9779
-1.0023 -5.1258 -2.0015 0.9779
-0.5404 -5.1948 -2.0015 0.9779
0.8562 -5.1522 -2.0015 0.9779
1.7594 -4.9176 -2.0015 0.9779
2.1916 -4.7408 -2.0015 0.9779
2.6063 -4.5261 -2.0015 0.9779
3.0002 -4.2751 -2.0015 0.9779
3.3701 -3.9901 -2.0015 0.9779
3.7131 -3.6731 -2.0015 0.9779
4.3074 -2.9537 -2.0015 0.9779
4.9364 -1.7060 -2.0015 0.9779
5.0690 -1.2583 -2.0015 0.9779
5.1612 -0.8004 -2.0015 0.9779
5.2120 -0.3362 -2.0015 0.9779
5.2212 0.1307 -2.0015 0.9779
5.1146 1.0577 -2.0015 0.9779
4.9997 1.5104 -2.0015 0.9779
4.8448 1.9509 -2.0015 0.9779
4.1542 3.1656 -2.0015 0.9779
2.7825 4.4199 -2.0015 0.9779
2.3765 4.6508 -2.0015 0.9779
1.9516 4.8445 -2.0015 0.9779
0.5973 5.1886 -2.0015 0.9779
-0.3355 5.2121 -2.0015 0.9779
-1.7053 4.9366 -2.0015 0.9779
-3.3262 4.0268 -2.0015 0.9779
-3.6726 3.7135 -2.0015 0.9779
-3.9896 3.3706 -2.0015 0.9779
-4.9174 1.7600 -2.0015 0.9779
-5.0549 1.3137 -2.0015 0.9779
-5.2223 -0.0735 -2.0015 0.9779
-5.1949 -0.5397 -2.0015 0.9779
-5.0159 -1.4555 -2.0015 0.9779
-4.6769 -2.3248 -2.0015 0.9779
-3.8932 -3.4816 -2.0015 0.9779
-3.5666 -3.8154 -2.0015 0.9779
-3.2115 -4.1188 -2.0015 0.9779
-2.8307 -4.3892 -2.0015 0.9779
-2.0046 -4.8228 -2.0015 0.9779
-1.5657 -4.9826 -2.0015 0.9779
-1.1144 -5.1026 -2.0015 0.9779
1.2019 -5.0827 -2.0015 0.9779
1.6511 -4.9550 -2.0015 0.9779
2.0872 -4.7877 -2.0015 0.9779
2.5065 -4.5821 -2.0015 0.9779
3.9524 -3.4142 -2.0015 0.9779
4.2416 -3.0475 -2.0015 0.9779
4.4969 -2.6564 -2.0015 0.9779
4.7162 -2.2441 -2.0015 0.9779
5.0402 -1.3691 -2.0015 0.9779
5.1424 -0.9133 -2.0015 0.9779
5.2005 0.4827 -2.0015 0.9779
4.8864 1.8443 -2.0015 0.9779
4.7021 2.2734 -2.0015 0.9779
4.2226 3.0738 -2.0015 0.9779
3.9311 3.4387 -2.0015 0.9779
2.8787 4.3579 -2.0015 0.9779
2.4779 4.5976 -2.0015 0.9779
2.0573 4.8006 -2.0015 0.9779
1.1703 5.0900 -2.0015 0.9779
0.2459 5.2171 -2.0015 0.9779
-0.6864 5.1775 -2.0015 0.9779
-1.1461 5.0955 -2.0015 0.9779
-1.5967 4.9728 -2.0015 0.9779
-2.0346 4.8103 -2.0015 0.9779
-2.4561 4.6093 -2.0015 0.9779
-2.8580 4.3715 -2.0015 0.9779
-3.2371 4.0987 -2.0015 0.9779
-3.9148 3.4573 -2.0015 0.9779
-4.2079 3.0938 -2.0015 0.9779
-4.4675 2.7055 -2.0015 0.9779
-4.6913 2.2956 -2.0015 0.9779
-5.0249 1.4242 -2.0015 0.9779
-5.1981 0.5074 -2.0015 0.9779
-5.2227 0.0410 -2.0015 0.9779
-5.2055 -0.4257 -2.0015 0.9779
-5.1466 -0.8890 -2.0015 0.9779
-5.0466 -1.3452 -2.0015 0.9779
-4.7267 -2.2217 -2.0015 0.9779
-4.2560 -3.0273 -2.0015 0.9779
-3.9685 -3.3954 -2.0015 0.9779
-3.6494 -3.7363 -2.0015 0.9779
-3.3010 -4.0474 -2.0015 0.9779
-2.1098 -4.7778 -2.0015 0.9779
-1.6746 -4.9471 -2.0015 0.9779
-0.7676 -5.1661 -2.0015 0.9779
-0.3030 -5.2141 -2.0015 0.9779
0.1640 -5.2203 -2.0015 0.9779
0.6296 -5.1848 -2.0015 0.9779
1.0902 -5.1078 -2.0015 0.9779
1.5421 -4.9900 -2.0015 0.9779
1.9817 -4.8323 -2.0015 0.9779
2.4054 -4.6359 -2.0015 0.9779
2.8099 -4.4025 -2.0015 0.9779
3.5485 -3.8323 -2.0015 0.9779
4.6659 -2.3469 -2.0015 0.9779
5.0090 -1.4792 -2.0015 0.9779
5.1211 -1.0258 -2.0015 0.9779
5.2219 -0.0982 -2.0015 0.9779
5.2098 0.3686 -2.0015 0.9779
5.1561 0.8325 -2.0015 0.9779
4.5380 2.5855 -2.0015 0.9779
4.2889 2.9805 -2.0015 0.9779
4.0055 3.3517 -2.0015 0.9779
3.6901 3.6961 -2.0015 0.9779
3.3452 4.0110 -2.0015 0.9779
2.9735 4.2937 -2.0015 0.9779
2.5781 4.5422 -2.0015 0.9779
1.7287 4.9285 -2.0015 0.9779
1.2816 5.0632 -2.0015 0.9779
0.8241 5.1574 -2.0015 0.9779
-0.5727 5.1914 -2.0015 0.9779
-2.3545 4.6620 -2.0015 0.9779
-3.1465 4.1687 -2.0015 0.9779
-4.1391 3.1853 -2.0015 0.9779
-4.8355 1.9739 -2.0015 0.9779
-4.9925 1.5340 -2.0015 0.9779
-5.1096 1.0819 -2.0015 0.9779
3.7560 3.1317 -2.0015 0.9791
3.4613 3.4547 -2.0015 0.9791
2.4214 4.2488 -2.0015 0.9791
2.0322 4.4481 -2.0015 0.9791
1.6268 4.6118 -2.0015 0.9791
1.2083 4.7387 -2.0015 0.9791
0.3458 4.8781 -2.0015 0.9791
-0.5277 4.8618 -2.0015 0.9791
-1.3844 4.6903 -2.0015 0.9791
-1.7978 4.5479 -2.0015 0.9791
-2.5784 4.1554 -2.0015 0.9791
-2.9393 3.9084 -2.0015 0.9791
-3.2767 3.6303 -2.0015 0.9791
-3.5878 3.3231 -2.0015 0.9791
-4.3405 2.2529 -2.0015 0.9791
-4.5244 1.8562 -2.0015 0.9791
-4.7825 1.0215 -2.0015 0.9791
-1.9539 0.2375 -0.8056 0.9915
-1.9275 0.0608 -0.7893 0.9917
-4.2795 -2.3666 -2.0015 0.9791
-4.0510 -2.7394 -2.0015 0.9791
-3.7901 -3.0904 -2.0015 0.9791
-3.1797 -3.7155 -2.0015 0.9791
-2.8351 -3.9846 -2.0015 0.9791
-1.6772 -4.5937 -2.0015 0.9791
-1.2602 -4.7252 -2.0015 0.9791
-0.8330 -4.8189 -2.0015 0.9791
0.0377 -4.8902 -2.0015 0.9791
0.9073 -4.8054 -2.0015 0.9791
1.3329 -4.7052 -2.0015 0.9791
1.7479 -4.5673 -2.0015 0.9791
2.1489 -4.3929 -2.0015 0.9791
2.5327 -4.1834 -2.0015 0.9791
4.0928 -2.6766 -2.0015 0.9791
4.7710 -1.0738 -2.0015 0.9791
4.8849 0.2295 -2.0015 0.9791
4.8449 0.6650 -2.0015 0.9791
4.7661 1.0951 -2.0015 0.9791
4.4952 1.9257 -2.0015 0.9791
4.3052 2.3196 -2.0015 0.9791
2.1292 4.4025 -2.0015 0.9791
1.7275 4.5751 -2.0015 0.9791
1.3119 4.7111 -2.0015 0.9791
0.8858 4.8094 -2.0015 0.9791
0.0159 4.8903 -2.0015 0.9791
-0.8546 4.8151 -2.0015 0.9791
-1.2813 4.7195 -2.0015 0.9791
-2.8529 3.9719 -2.0015 0.9791
-3.5141 3.4009 -2.0015 0.9791
-3.8039 3.0734 -2.0015 0.9791
-4.4826 1.9549 -2.0015 0.9791
-4.6393 1.5467 -2.0015 0.9791
-4.7589 1.1261 -2.0015 0.9791
-1.9449 0.2798 -0.8042 0.9915
-1.9431 0.1040 -0.7964 0.9916
-1.9310 -0.0695 -0.7908 0.9917
-1.9524 -0.2462 -0.8054 0.9915
-4.5160 -1.8763 -2.0015 0.9791
-4.3304 -2.2722 -2.0015 0.9791
-4.1101 -2.6500 -2.0015 0.9791
-3.5730 -3.3391 -2.0015 0.9791
-2.9218 -3.9215 -2.0015 0.9791
-2.1774 -4.3789 -2.0015 0.9791
-0.9385 -4.7994 -2.0015 0.9791
1.2295 -4.7333 -2.0015 0.9791
2.4404 -4.2379 -2.0015 0.9791
3.7700 -3.1149 -2.0015 0.9791
4.0332 -2.7657 -2.0015 0.9791
4.6221 -1.5974 -2.0015 0.9791
4.7463 -1.1781 -2.0015 0.9791
4.8326 -0.7495 -2.0015 0.9791
4.8802 -0.3148 -2.0015 0.9791
4.8888 0.1224 -2.0015 0.9791
4.7890 0.9904 -2.0015 0.9791
4.5363 1.8267 -2.0015 0.9791
3.6094 3.2997 -2.0015 0.9791
3.3002 3.6089 -2.0015 0.9791
2.9646 3.8893 -2.0015 0.9791
2.2252 4.3547 -2.0015 0.9791
1.8273 4.5361 -2.0015 0.9791
0.5593 4.8582 -2.0015 0.9791
0.1231 4.8888 -2.0015 0.9791
-1.1775 4.7465 -2.0015 0.9791
-2.0033 4.4612 -2.0015 0.9791
-2.3938 4.2644 -2.0015 0.9791
-3.1144 3.7704 -2.0015 0.9791
-4.0026 2.8097 -2.0015 0.9791
-4.2376 2.4410 -2.0015 0.9791
-2.0891 0.3475 -0.8668 0.9909
-1.9541 0.1476 -0.8020 0.9916
-1.9121 -0.0269 -0.7826 0.9918
-1.9574 -0.2034 -0.8054 0.9915
-4.5561 -1.7769 -2.0015 0.9791
-3.6453 -3.2599 -2.0015 0.9791
-3.3395 -3.5725 -2.0015 0.9791
-3.0070 -3.8565 -2.0015 0.9791
-1.8769 -4.5158 -2.0015 0.9791
-0.6125 -4.8518 -2.0015 0.9791
-0.1766 -4.8871 -2.0015 0.9791
0.2606 -4.8834 -2.0015 0.9791
0.6958 -4.8406 -2.0015 0.9791
2.3469 -4.2904 -2.0015 0.9791
3.7008 -3.1968 -2.0015 0.9791
3.9716 -2.8534 -2.0015 0.9791
4.2106 -2.4873 -2.0015 0.9791
4.8150 -0.8552 -2.0015 0.9791
4.8721 -0.4217 -2.0015 0.9791
4.8903 0.0152 -2.0015 0.9791
4.8694 0.4520 -2.0015 0.9791
4.5753 1.7268 -2.0015 0.9791
4.4027 2.1287 -2.0015 0.9791
4.1950 2.5134 -2.0015 0.9791
3.9537 2.8781 -2.0015 0.9791
3.6808 3.2198 -2.0015 0.9791
3.3785 3.5357 -2.0015 0.9791
2.6954 4.0804 -2.0015 0.9791
2.3201 4.3049 -2.0015 0.9791
1.5171 4.6491 -2.0015 0.9791
1.0958 4.7660 -2.0015 0.9791
0.2302 4.8849 -2.0015 0.9791
-0.6427 4.8479 -2.0015 0.9791
-1.4951 4.6562 -2.0015 0.9791
-1.9050 4.5040 -2.0015 0.9791
-3.3617 3.5517 -2.0015 0.9791
-4.1831 2.5333 -2.0015 0.9791
-4.3926 2.1495 -2.0015 0.9791
-4.5671 1.7485 -2.0015 0.9791
-4.7050 1.3335 -2.0015 0.9791
-1.9059 0.0149 -0.7801 0.9918
-1.9564 -0.1600 -0.8034 0.9916
-4.7253 -1.2595 -2.0015 0.9791
-4.4258 -2.0803 -2.0015 0.9791
-4.2223 -2.4673 -2.0015 0.9791
-3.4170 -3.4985 -2.0015 0.9791
-2.3672 -4.2792 -2.0015 0.9791
-1.1479 -4.7537 -2.0015 0.9791
-0.7187 -4.8372 -2.0015 0.9791
-0.2837 -4.8821 -2.0015 0.9791
0.5895 -4.8547 -2.0015 0.9791
1.0208 -4.7826 -2.0015 0.9791
1.4440 -4.6723 -2.0015 0.9791
1.8556 -4.5246 -2.0015 0.9791
3.3226 -3.5883 -2.0015 0.9791
3.9081 -2.9398 -2.0015 0.9791
4.1550 -2.5790 -2.0015 0.9791
4.5476 -1.7985 -2.0015 0.9791
4.6901 -1.3850 -2.0015 0.9791
4.8895 -0.0920 -2.0015 0.9791
4.8781 0.3452 -2.0015 0.9791
4.8278 0.7795 -2.0015 0.9791
4.7389 1.2077 -2.0015 0.9791
4.6121 1.6261 -2.0015 0.9791
4.2491 2.4209 -2.0015 0.9791
3.7505 3.1383 -2.0015 0.9791
2.7842 4.0204 -2.0015 0.9791
2.0244 4.4516 -2.0015 0.9791
1.2000 4.7408 -2.0015 0.9791
-0.9683 4.7935 -2.0015 0.9791
-2.5857 4.1508 -2.0015 0.9791
-3.5937 3.3167 -2.0015 0.9791
-4.1265 2.6243 -2.0015 0.9791
-4.3444 2.2452 -2.0015 0.9791
-4.5276 1.8482 -2.0015 0.9791
-4.7842 1.0130 -2.0015 0.9791
-1.9544 0.2341 -0.8056 0.9915
2.9477 3.5217 -2.0015 0.9802
2.6213 3.7709 -2.0015 0.9802
2.2740 3.9900 -2.0015 0.9802
1.9085 4.1772 -2.0015 0.9802
1.5277 4.3310 -2.0015 0.9802
1.1347 4.4501 -2.0015 0.9802
0.7327 4.5337 -2.0015 0.9802
0.3248 4.5810 -2.0015 0.9802
-0.0858 4.5917 -2.0015 0.9802
-0.4956 4.5657 -2.0015 0.9802
-1.3001 4.4046 -2.0015 0.9802
-1.6883 4.2709 -2.0015 0.9802
-2.4214 3.9023 -2.0015 0.9802
-2.7603 3.6704 -2.0015 0.9802
-3.3693 3.1207 -2.0015 0.9802
-3.8709 2.4713 -2.0015 0.9802
-4.0761 2.1157 -2.0015 0.9802
-4.2488 1.7431 -2.0015 0.9802
-1.5781 0.4879 -0.7199 0.9928
-1.5183 0.3243 -0.6766 0.9932
-1.5217 0.1850 -0.6681 0.9933
-1.5279 0.0482 -0.6662 0.9934
-1.5296 -0.0887 -0.6677 0.9933
-1.5391 -0.3715 -0.6900 0.9931
-4.2014 -1.8546 -2.0015 0.9802
-3.8043 -2.5726 -2.0015 0.9802
-3.2858 -3.2085 -2.0015 0.9802
-1.1834 -4.4374 -2.0015 0.9802
-0.7823 -4.5254 -2.0015 0.9802
-0.3749 -4.5772 -2.0015 0.9802
0.4455 -4.5708 -2.0015 0.9802
2.0180 -4.1254 -2.0015 0.9802
2.3785 -3.9286 -2.0015 0.9802
3.0396 -3.4427 -2.0015 0.9802
3.3349 -3.1574 -2.0015 0.9802
3.6036 -2.8469 -2.0015 0.9802
4.0527 -2.1602 -2.0015 0.9802
4.2295 -1.7896 -2.0015 0.9802
4.3724 -1.4046 -2.0015 0.9802
4.5526 -0.6042 -2.0015 0.9802
4.5884 -0.1951 -2.0015 0.9802
4.5874 0.2156 -2.0015 0.9802
4.5499 0.6245 -2.0015 0.9802
4.3661 1.4241 -2.0015 0.9802
4.2214 1.8084 -2.0015 0.9802
4.0430 2.1783 -2.0015 0.9802
3.8323 2.5308 -2.0015 0.9802
3.5909 2.8630 -2.0015 0.9802
3.3208 3.1723 -2.0015 0.9802
3.0242 3.4562 -2.0015 0.9802
2.3609 3.9392 -2.0015 0.9802
1.9996 4.1343 -2.0015 0.9802
1.2320 4.4242 -2.0015 0.9802
0.8319 4.5165 -2.0015 0.9802
0.0149 4.5925 -2.0015 0.9802
-0.3954 4.5754 -2.0015 0.9802
-0.8025 4.5218 -2.0015 0.9802
-1.5943 4.3069 -2.0015 0.9802
-1.9727 4.1473 -2.0015 0.9802
-3.0016 3.4758 -2.0015 0.9802
-3.3001 3.1938 -2.0015 0.9802
-3.5722 2.8862 -2.0015 0.9802
-4.0288 2.2045 -2.0015 0.9802
-4.2096 1.8358 -2.0015 0.9802
-1.5151 0.2180 -0.6671 0.9933
-1.5220 -0.3322 -0.6789 0.9932
-1.5802 -0.4963 -0.7219 0.9928
-4.2410 -1.7621 -2.0015 0.9802
-4.0667 -2.1339 -2.0015 0.9802
-3.8598 -2.4886 -2.0015 0.9802
-3.6221 -2.8234 -2.0015 0.9802
-3.3554 -3.1357 -2.0015 0.9802
-3.0618 -3.4229 -2.0015 0.9802
-2.7439 -3.6827 -2.0015 0.9802
-1.2804 -4.4104 -2.0015 0.9802
-0.4752 -4.5679 -2.0015 0.9802
-0.0652 -4.5920 -2.0015 0.9802
1.1546 -4.4450 -2.0015 0.9802
1.5470 -4.3241 -2.0015 0.9802
1.9271 -4.1686 -2.0015 0.9802
2.2918 -3.9798 -2.0015 0.9802
2.9634 -3.5085 -2.0015 0.9802
3.2649 -3.2298 -2.0015 0.9802
3.7875 -2.5973 -2.0015 0.9802
4.0044 -2.2485 -2.0015 0.9802
4.1892 -1.8819 -2.0015 0.9802
4.3406 -1.5001 -2.0015 0.9802
4.5383 -0.7038 -2.0015 0.9802
4.5830 -0.2956 -2.0015 0.9802
4.4973 0.9301 -2.0015 0.9802
4.0898 2.0892 -2.0015 0.9802
3.6528 2.7836 -2.0015 0.9802
3.3895 3.0987 -2.0015 0.9802
2.4467 3.8865 -2.0015 0.9802
2.0897 4.0895 -2.0015 0.9802
1.7161 4.2598 -2.0015 0.9802
1.3287 4.3961 -2.0015 0.9802
0.9307 4.4972 -2.0015 0.9802
-0.2950 4.5830 -2.0015 0.9802
-1.1058 4.4574 -2.0015 0.9802
-1.4995 4.3408 -2.0015 0.9802
-1.8813 4.1895 -2.0015 0.9802
-2.2480 4.0047 -2.0015 0.9802
-2.5967 3.7879 -2.0015 0.9802
-2.9247 3.5408 -2.0015 0.9802
-3.2293 3.2654 -2.0015 0.9802
-3.5081 2.9638 -2.0015 0.9802
-3.7588 2.6386 -2.0015 0.9802
-1.5065 0.2506 -0.6656 0.9934
-1.5030 -0.2937 -0.6674 0.9933
-1.5689 -0.4552 -0.7120 0.9929
-3.9134 -2.4034 -2.0015 0.9802
-3.6831 -2.7434 -2.0015 0.9802
-3.4233 -3.0614 -2.0015 0.9802
-3.1361 -3.3549 -2.0015 0.9802
-2.8239 -3.6217 -2.0015 0.9802
-1.3768 -4.3813 -2.0015 0.9802
-0.9799 -4.4867 -2.0015 0.9802
-0.1659 -4.5895 -2.0015 0.9802
0.6534 -4.5458 -2.0015 0.9802
1.0569 -4.4692 -2.0015 0.9802
1.4519 -4.3570 -2.0015 0.9802
1.8353 -4.2099 -2.0015 0.9802
2.8857 -3.5726 -2.0015 0.9802
3.1933 -3.3006 -2.0015 0.9802
3.4754 -3.0021 -2.0015 0.9802
3.7297 -2.6797 -2.0015 0.9802
3.9541 -2.3358 -2.0015 0.9802
4.3067 -1.5949 -2.0015 0.9802
4.4319 -1.2038 -2.0015 0.9802
4.5217 -0.8031 -2.0015 0.9802
4.5754 -0.3960 -2.0015 0.9802
4.5925 0.0143 -2.0015 0.9802
4.5729 0.4245 -2.0015 0.9802
4.2967 1.6217 -2.0015 0.9802
4.1346 1.9990 -2.0015 0.9802
3.7129 2.7028 -2.0015 0.9802
3.4566 3.0237 -2.0015 0.9802
2.8634 3.5905 -2.0015 0.9802
2.5313 3.8319 -2.0015 0.9802
1.8090 4.2212 -2.0015 0.9802
1.4247 4.3659 -2.0015 0.9802
1.0290 4.4757 -2.0015 0.9802
0.6251 4.5498 -2.0015 0.9802
0.2162 4.5874 -2.0015 0.9802
-1.0078 4.4806 -2.0015 0.9802
-1.4040 4.3726 -2.0015 0.9802
-2.1597 4.0530 -2.0015 0.9802
-2.5131 3.8439 -2.0015 0.9802
-3.4423 3.0400 -2.0015 0.9802
-3.7001 2.7204 -2.0015 0.9802
-3.9283 2.3790 -2.0015 0.9802
-4.2889 1.6420 -2.0015 0.9802
-1.5653 0.4437 -0.7091 0.9929
-1.4975 0.2829 -0.6642 0.9934
-1.5286 -0.1250 -0.6684 0.9933
-1.5555 -0.4146 -0.7016 0.9930
-1.5967 -0.5827 -0.7408 0.9926
-3.7423 -2.6620 -2.0015 0.9802
-3.4896 -2.9856 -2.0015 0.9802
-2.2230 -4.0186 -2.0015 0.9802
-1.0780 -4.4642 -2.0015 0.9802
-0.6749 -4.5426 -2.0015 0.9802
-0.2664 -4.5848 -2.0015 0.9802
0.9587 -4.4913 -2.0015 0.9802
1.7425 -4.2491 -2.0015 0.9802
2.1151 -4.0764 -2.0015 0.9802
2.4708 -3.8712 -2.0015 0.9802
3.1202 -3.3698 -2.0015 0.9802
3.4088 -3.0776 -2.0015 0.9802
3.6700 -2.7608 -2.0015 0.9802
4.1027 -2.0637 -2.0015 0.9802
4.2707 -1.6889 -2.0015 0.9802
4.5030 -0.9021 -2.0015 0.9802
4.5917 -0.0864 -2.0015 0.9802
4.5338 0.7321 -2.0015 0.9802
4.4503 1.1341 -2.0015 0.9802
4.3312 1.5271 -2.0015 0.9802
3.9903 2.2734 -2.0015 0.9802
3.7713 2.6208 -2.0015 0.9802
3.2447 3.2500 -2.0015 0.9802
2.9415 3.5269 -2.0015 0.9802
2.2669 3.9940 -2.0015 0.9802
1.9011 4.1805 -2.0015 0.9802
1.5201 4.3336 -2.0015 0.9802
1.1269 4.4521 -2.0015 0.9802
0.7247 4.5350 -2.0015 0.9802
-0.0938 4.5915 -2.0015 0.9802
-0.5036 4.5648 -2.0015 0.9802
-0.9094 4.5016 -2.0015 0.9802
-1.6959 4.2679 -2.0015 0.9802
-2.0703 4.0994 -2.0015 0.9802
-2.4282 3.8980 -2.0015 0.9802
-2.7667 3.6656 -2.0015 0.9802
-1.5772 0.4846 -0.7191 0.9928
-1.5168 0.3212 -0.6757 0.9933
3.0604 3.0546 -2.0015 0.9811
2.7753 3.3158 -2.0015 0.9811
2.1410 3.7567 -2.0015 0.9811
0.3058 4.3131 -2.0015 0.9811
-0.8487 4.2398 -2.0015 0.9811
-1.9425 3.8631 -2.0015 0.9811
-2.2798 3.6741 -2.0015 0.9811
-2.5989 3.4558 -2.0015 0.9811
-2.8972 3.2098 -2.0015 0.9811
-3.1723 2.9382 -2.0015 0.9811
-3.4221 2.6431 -2.0015 0.9811
-3.6445 2.3268 -2.0015 0.9811
-3.8378 1.9920 -2.0015 0.9811
-1.3271 0.5444 -0.6640 0.9937
-1.3279 0.4106 -0.6434 0.9939
-1.3385 -0.0776 -0.6206 0.9941
-1.3196 -0.5825 -0.6677 0.9937
-3.7839 -2.0925 -2.0015 0.9811
-3.5818 -2.4222 -2.0015 0.9811
-3.3512 -2.7324 -2.0015 0.9811
-3.0937 -3.0209 -2.0015 0.9811
-2.5068 -3.5231 -2.0015 0.9811
-0.7366 -4.2607 -2.0015 0.9811
-0.3530 -4.3095 -2.0015 0.9811
0.7971 -4.2217 -1.9887 0.9812
1.5454 -4.0383 -2.0015 0.9811
2.2394 -3.6989 -2.0015 0.9811
3.1399 -2.9728 -2.0015 0.9811
3.3929 -2.6804 -2.0015 0.9811
3.6188 -2.3666 -2.0015 0.9811
4.1167 -1.3225 -2.0015 0.9811
4.2184 -0.9495 -2.0015 0.9811
4.2864 -0.5688 -2.0015 0.9811
4.3192 0.2030 -2.0015 0.9811
4.2838 0.5880 -2.0015 0.9811
4.2141 0.9683 -2.0015 0.9811
4.1108 1.3408 -2.0015 0.9811
3.8066 2.0509 -2.0015 0.9811
3.3809 2.6955 -2.0015 0.9811
2.5452 3.4955 -2.0015 0.9811
1.8826 3.8926 -2.0015 0.9811
1.5274 4.0452 -2.0015 0.9811
1.1599 4.1655 -2.0015 0.9811
0.4002 4.3054 -2.0015 0.9811
0.0140 4.3239 -2.0015 0.9811
-0.3723 4.3079 -2.0015 0.9811
-0.7556 4.2574 -2.0015 0.9811
-2.1987 3.7232 -2.0015 0.9811
-2.5225 3.5119 -2.0015 0.9811
-2.8261 3.2726 -2.0015 0.9811
-3.1071 3.0070 -2.0015 0.9811
-3.3633 2.7175 -2.0015 0.9811
-1.3211 0.5761 -0.6671 0.9937
-1.3325 0.4442 -0.6502 0.9938
-1.3041 0.3086 -0.6203 0.9941
-1.3273 0.1910 -0.6207 0.9941
-1.3315 -0.1679 -0.6212 0.9941
-1.3290 -0.4174 -0.6448 0.9939
-1.3260 -0.5509 -0.6647 0.9937
-3.8288 -2.0091 -2.0015 0.9811
-3.6341 -2.3431 -2.0015 0.9811
-2.8828 -3.2227 -2.0015 0.9811
-2.5834 -3.4674 -2.0015 0.9811
-2.2633 -3.6843 -2.0015 0.9811
-1.5716 -4.0282 -2.0015 0.9811
-1.2055 -4.1525 -2.0015 0.9811
-0.0614 -4.3235 -2.0015 0.9811
0.3250 -4.3117 -2.0015 0.9811
1.4566 -4.0712 -2.0015 0.9811
2.4838 -3.5394 -2.0015 0.9811
3.5660 -2.4454 -2.0015 0.9811
3.7702 -2.1171 -2.0015 0.9811
4.0868 -1.4124 -2.0015 0.9811
4.1966 -1.0417 -2.0015 0.9811
4.2729 -0.6626 -2.0015 0.9811
4.3150 -0.2783 -2.0015 0.9811
4.3226 0.1082 -2.0015 0.9811
4.1392 1.2504 -2.0015 0.9811
3.8506 1.9670 -2.0015 0.9811
3.4392 2.6208 -2.0015 0.9811
2.9180 3.1909 -2.0015 0.9811
1.6157 4.0107 -2.0015 0.9811
1.2510 4.1390 -2.0015 0.9811
0.8762 4.2342 -2.0015 0.9811
0.1088 4.3226 -2.0015 0.9811
-0.6621 4.2730 -2.0015 0.9811
-1.0411 4.1967 -2.0015 0.9811
-3.7468 2.1583 -2.0015 0.9811
-1.3334 0.4772 -0.6555 0.9938
-1.3383 0.1011 -0.6212 0.9941
-1.3356 -0.1388 -0.6216 0.9941
-1.3104 -0.2561 -0.6180 0.9941
-1.3231 -0.3839 -0.6377 0.9939
-1.3305 -0.5189 -0.6610 0.9937
-3.2231 -2.8824 -2.0015 0.9811
-2.6588 -3.4099 -2.0015 0.9811
-2.0096 -3.8286 -2.0015 0.9811
-1.2963 -4.1251 -2.0015 0.9811
-0.1562 -4.3211 -2.0015 0.9811
0.6152 -4.2800 -2.0015 0.9811
0.9951 -4.2079 -2.0015 0.9811
2.0751 -3.7935 -2.0015 0.9811
2.4057 -3.5930 -2.0015 0.9811
3.5116 -2.5230 -2.0015 0.9811
3.9045 -1.8578 -2.0015 0.9811
4.1728 -1.1334 -2.0015 0.9811
4.3079 -0.3728 -2.0015 0.9811
4.1656 1.1594 -2.0015 0.9811
3.7092 2.2223 -2.0015 0.9811
3.2545 2.8469 -2.0015 0.9811
2.9872 3.1262 -2.0015 0.9811
1.3414 4.1106 -2.0015 0.9811
0.9688 4.2140 -2.0015 0.9811
0.5885 4.2837 -2.0015 0.9811
0.2035 4.3192 -2.0015 0.9811
-0.1831 4.3201 -2.0015 0.9811
-0.5683 4.2864 -2.0015 0.9811
-2.3661 3.6191 -2.0015 0.9811
-2.6800 3.3933 -2.0015 0.9811
-2.9724 3.1403 -2.0015 0.9811
-3.2410 2.8623 -2.0015 0.9811
-3.8839 1.9005 -2.0015 0.9811
-1.3129 0.2481 -0.6185 0.9941
-1.3380 -0.1094 -0.6214 0.9941
-1.3186 -0.2278 -0.6194 0.9941
-3.9132 -1.8393 -2.0015 0.9811
-3.2855 -2.8110 -2.0015 0.9811
-3.0213 -3.0933 -2.0015 0.9811
-2.7329 -3.3508 -2.0015 0.9811
-1.7467 -3.9555 -2.0015 0.9811
-1.0150 -4.2031 -2.0015 0.9811
-0.2509 -4.3167 -2.0015 0.9811
0.9009 -4.2209 -1.9978 0.9812
1.9915 -3.8381 -2.0015 0.9811
2.3263 -3.6448 -2.0015 0.9811
2.9378 -3.1727 -2.0015 0.9811
3.2094 -2.8976 -2.0015 0.9811
3.4554 -2.5993 -2.0015 0.9811
3.6738 -2.2803 -2.0015 0.9811
3.8628 -1.9430 -2.0015 0.9811
4.1469 -1.2246 -2.0015 0.9811
4.2397 -0.8493 -2.0015 0.9811
4.2986 -0.4672 -2.0015 0.9811
4.3232 -0.0813 -2.0015 0.9811
3.9331 1.7963 -2.0015 0.9811
3.7570 2.1405 -2.0015 0.9811
3.5508 2.4675 -2.0015 0.9811
3.3161 2.7749 -2.0015 0.9811
3.0550 3.0600 -2.0015 0.9811
2.7695 3.3206 -2.0015 0.9811
2.1344 3.7604 -2.0015 0.9811
1.0610 4.1918 -2.0015 0.9811
0.6823 4.2698 -2.0015 0.9811
0.2982 4.3137 -2.0015 0.9811
-0.0883 4.3230 -2.0015 0.9811
-0.4742 4.2979 -2.0015 0.9811
-0.8562 4.2383 -2.0015 0.9811
-1.9493 3.8596 -2.0015 0.9811
-2.2862 3.6701 -2.0015 0.9811
-2.6049 3.4512 -2.0015 0.9811
-3.1775 2.9326 -2.0015 0.9811
-3.6486 2.3204 -2.0015 0.9811
-3.8413 1.9852 -2.0015 0.9811
-1.3275 0.5419 -0.6637 0.9937
2.6189 3.1289 -2.0015 0.9820
2.3290 3.3504 -2.0015 0.9820
2.0204 3.5450 -2.0015 0.9820
1.3573 3.8479 -2.0015 0.9820
1.0082 3.9538 -2.0015 0.9820
0.6510 4.0280 -2.0015 0.9820
0.2885 4.0701 -2.0015 0.9820
-0.4403 4.0565 -2.0015 0.9820
-0.8009 4.0009 -2.0015 0.9820
-1.1551 3.9134 -2.0015 0.9820
-1.5001 3.7946 -2.0015 0.9820
-1.8330 3.6454 -2.0015 0.9820
-2.1513 3.4671 -2.0015 0.9820
-2.4524 3.2611 -2.0015 0.9820
-3.4391 2.1957 -2.0015 0.9820
-1.1902 0.1447 -0.5881 0.9947
-1.1964 0.0377 -0.5872 0.9947
-1.1575 -0.3916 -0.5994 0.9946
-1.1433 -0.5047 -0.6130 0.9944
-3.1623 -2.5785 -2.0015 0.9820
-2.9194 -2.8507 -2.0015 0.9820
-2.3655 -3.3246 -2.0015 0.9820
-2.0591 -3.5226 -2.0015 0.9820
-1.7362 -3.6925 -2.0015 0.9820
-1.3994 -3.8328 -2.0015 0.9820
-1.0514 -3.9425 -2.0015 0.9820
-0.6951 -4.0207 -2.0015 0.9820
-0.3331 -4.0667 -2.0015 0.9820
0.0315 -4.0802 -2.0015 0.9820
0.3958 -4.0611 -2.0015 0.9820
0.7570 -4.0095 -2.0015 0.9820
1.1121 -3.9258 -2.0015 0.9820
1.7929 -3.6653 -2.0015 0.9820
2.4165 -3.2877 -2.0015 0.9820
2.7006 -3.0587 -2.0015 0.9820
3.2017 -2.5294 -2.0015 0.9820
3.4149 -2.2333 -2.0015 0.9820
3.6007 -1.9193 -2.0015 0.9820
3.7578 -1.5900 -2.0015 0.9820
3.9807 -0.8960 -2.0015 0.9820
4.0449 -0.5368 -2.0015 0.9820
4.0766 -0.1733 -2.0015 0.9820
4.0758 0.1915 -2.0015 0.9820
4.0424 0.5548 -2.0015 0.9820
3.8792 1.2653 -2.0015 0.9820
3.7506 1.6068 -2.0015 0.9820
3.5921 1.9354 -2.0015 0.9820
3.1904 2.5437 -2.0015 0.9820
2.4018 3.2985 -2.0015 0.9820
2.0976 3.4999 -2.0015 0.9820
1.7766 3.6733 -2.0015 0.9820
1.4413 3.8173 -2.0015 0.9820
0.7391 4.0128 -2.0015 0.9820
-0.3513 4.0652 -2.0015 0.9820
-0.7130 4.0175 -2.0015 0.9820
-1.0690 3.9378 -2.0015 0.9820
-1.7527 3.6847 -2.0015 0.9820
-2.0748 3.5134 -2.0015 0.9820
-2.3804 3.3140 -2.0015 0.9820
-2.6669 3.0882 -2.0015 0.9820
-2.9321 2.8376 -2.0015 0.9820
-3.1738 2.5643 -2.0015 0.9820
-1.1108 0.6078 -0.6211 0.9944
-1.1444 0.4991 -0.6124 0.9945
-1.1637 0.2754 -0.5866 0.9947
-1.1866 0.1707 -0.5881 0.9947
-1.1896 -0.1500 -0.5881 0.9947
-1.1482 -0.4771 -0.6099 0.9945
-3.2181 -2.5085 -2.0015 0.9820
-2.9812 -2.7860 -2.0015 0.9820
-2.4378 -3.2720 -2.0015 0.9820
-2.1358 -3.4767 -2.0015 0.9820
-1.8167 -3.6536 -2.0015 0.9820
-0.7830 -4.0045 -2.0015 0.9820
-0.4222 -4.0584 -2.0015 0.9820
1.0258 -3.9493 -2.0015 0.9820
1.3745 -3.8418 -2.0015 0.9820
2.0362 -3.5360 -2.0015 0.9820
2.3439 -3.3399 -2.0015 0.9820
3.1455 -2.5990 -2.0015 0.9820
3.8565 -1.3328 -2.0015 0.9820
3.9601 -0.9830 -2.0015 0.9820
4.0321 -0.6253 -2.0015 0.9820
4.0790 0.1021 -2.0015 0.9820
4.0536 0.4661 -2.0015 0.9820
3.9060 1.1800 -2.0015 0.9820
3.7850 1.5242 -2.0015 0.9820
3.6337 1.8562 -2.0015 0.9820
3.4534 2.1733 -2.0015 0.9820
3.2454 2.4731 -2.0015 0.9820
3.0115 2.7531 -2.0015 0.9820
2.4736 3.2451 -2.0015 0.9820
1.1805 3.9058 -2.0015 0.9820
0.8269 3.9957 -2.0015 0.9820
0.4667 4.0535 -2.0015 0.9820
0.1027 4.0790 -2.0015 0.9820
-0.2621 4.0719 -2.0015 0.9820
-0.6248 4.0322 -2.0015 0.9820
-0.9825 3.9603 -2.0015 0.9820
-1.3323 3.8567 -2.0015 0.9820
-1.6715 3.7223 -2.0015 0.9820
-1.9973 3.5581 -2.0015 0.9820
-2.3071 3.3654 -2.0015 0.9820
-2.5985 3.1459 -2.0015 0.9820
-3.1168 2.6333 -2.0015 0.9820
-3.3396 2.3443 -2.0015 0.9820
-1.1823 0.1966 -0.5879 0.9947
-1.1951 0.0902 -0.5879 0.9947
-1.1961 -0.0168 -0.5868 0.9947
-1.1925 -0.1239 -0.5881 0.9947
-1.1754 -0.2297 -0.5875 0.9947
-1.1590 -0.3363 -0.5920 0.9946
-1.1522 -0.4494 -0.6066 0.9945
-1.1301 -0.5617 -0.6190 0.9944
-3.4770 -2.1353 -2.0015 0.9820
-2.7864 -2.9808 -2.0015 0.9820
-2.5090 -3.2178 -2.0015 0.9820
-2.2115 -3.4290 -2.0015 0.9820
-1.8964 -3.6129 -2.0015 0.9820
-1.5660 -3.7678 -2.0015 0.9820
-1.2232 -3.8926 -2.0015 0.9820
-0.8706 -3.9864 -2.0015 0.9820
-0.5110 -4.0482 -2.0015 0.9820
-0.1474 -4.0777 -2.0015 0.9820
0.2174 -4.0745 -2.0015 0.9820
0.5805 -4.0388 -2.0015 0.9820
0.9390 -3.9708 -2.0015 0.9820
1.6306 -3.7404 -2.0015 0.9820
1.9582 -3.5797 -2.0015 0.9820
2.2701 -3.3905 -2.0015 0.9820
2.5639 -3.1742 -2.0015 0.9820
2.8372 -2.9325 -2.0015 0.9820
3.0878 -2.6673 -2.0015 0.9820
