ply
format ascii 1.0
element vertex 1593
property float32 x
property float32 y
property float32 z
property float32 I
end_header
-7.0661 -0.2365 -2.0015 0.9710
-7.0167 -0.8668 -2.0015 0.9710
-6.7505 -2.1017 -2.0015 0.9710
-5.5868 -4.3328 -2.0015 0.9710
-4.7266 -5.2579 -2.0015 0.9710
-4.2380 -5.6591 -2.0015 0.9710
-3.7155 -6.0151 -2.0015 0.9710
-1.9875 -6.7850 -2.0015 0.9710
-1.3734 -6.9354 -2.0015 0.9710
-0.7484 -7.0304 -2.0015 0.9710
0.5147 -7.0513 -2.0015 0.9710
2.3660 -6.6625 -2.0015 0.9710
4.0479 -5.7966 -2.0015 0.9710
5.0148 -4.9837 -2.0015 0.9710
5.8217 -4.0117 -2.0015 0.9710
6.4427 -2.9117 -2.0015 0.9710
7.0683 0.1613 -2.0015 0.9710
5.2284 4.7592 -2.0015 0.9710
4.7823 5.2073 -2.0015 0.9710
4.2980 5.6137 -2.0015 0.9710
3.7793 5.9752 -2.0015 0.9710
3.2304 6.2889 -2.0015 0.9710
2.6556 6.5524 -2.0015 0.9710
1.4472 6.9204 -2.0015 0.9710
0.8232 7.0220 -2.0015 0.9710
0.1925 7.0675 -2.0015 0.9710
-1.0683 6.9889 -2.0015 0.9710
-3.4484 6.1721 -2.0015 0.9710
-3.9860 5.8394 -2.0015 0.9710
-5.3917 4.5734 -2.0015 0.9710
-5.7787 4.0735 -2.0015 0.9710
-6.6519 2.3954 -2.0015 0.9710
-6.8393 1.7916 -2.0015 0.9710
-7.0490 0.5459 -2.0015 0.9710
-7.0696 -0.0860 -2.0015 0.9710
-5.3024 3.7721 -2.0015 0.9731
-5.6182 3.2834 -2.0015 0.9731
-6.1128 2.2312 -2.0015 0.9731
-6.4123 1.1077 -2.0015 0.9731
-6.4856 0.5304 -2.0015 0.9731
-6.2606 -1.7746 -2.0015 0.9731
-6.0770 -2.3269 -2.0015 0.9731
-5.8448 -2.8604 -2.0015 0.9731
-5.2425 -3.8549 -2.0015 0.9731
-4.8771 -4.3079 -2.0015 0.9731
-4.4728 -4.7263 -2.0015 0.9731
-4.0327 -5.1070 -2.0015 0.9731
-3.5603 -5.4469 -2.0015 0.9731
-0.8542 -6.4509 -2.0015 0.9731
-0.2745 -6.5015 -2.0015 0.9731
0.3074 -6.5000 -2.0015 0.9731
2.5645 -5.9806 -2.0015 0.9731
4.4967 -4.7037 -2.0015 0.9731
4.8989 -4.2831 -2.0015 0.9731
5.5829 -3.3430 -2.0015 0.9731
6.0887 -2.2961 -2.0015 0.9731
6.4796 -0.5994 -2.0015 0.9731
6.1014 2.2621 -2.0015 0.9731
5.8749 2.7981 -2.0015 0.9731
5.6015 3.3117 -2.0015 0.9731
5.2832 3.7989 -2.0015 0.9731
4.0868 5.0638 -2.0015 0.9731
3.6181 5.4087 -2.0015 0.9731
3.1204 5.7103 -2.0015 0.9731
2.0544 6.1744 -2.0015 0.9731
0.9228 6.4415 -2.0015 0.9731
-1.9540 6.2070 -2.0015 0.9731
-2.5007 6.0076 -2.0015 0.9731
-3.5299 5.4667 -2.0015 0.9731
-4.0041 5.1295 -2.0015 0.9731
-4.4464 4.7512 -2.0015 0.9731
-4.8530 4.3350 -2.0015 0.9731
-5.5470 3.4022 -2.0015 0.9731
-5.8288 2.8930 -2.0015 0.9731
-6.0639 2.3607 -2.0015 0.9731
-6.5067 0.0874 -2.0015 0.9731
-6.4183 -1.0719 -2.0015 0.9731
-5.9044 -2.7354 -2.0015 0.9731
-5.6364 -3.2519 -2.0015 0.9731
-4.5724 -4.6301 -2.0015 0.9731
-3.6754 -5.3699 -2.0015 0.9731
-2.6611 -5.9382 -2.0015 0.9731
-1.5619 -6.3170 -2.0015 0.9731
-0.9913 -6.4313 -2.0015 0.9731
-0.4128 -6.4941 -2.0015 0.9731
0.1690 -6.5051 -2.0015 0.9731
0.7495 -6.4639 -2.0015 0.9731
1.3239 -6.3711 -2.0015 0.9731
1.8878 -6.2274 -2.0015 0.9731
2.4366 -6.0338 -2.0015 0.9731
2.9659 -5.7920 -2.0015 0.9731
3.4715 -5.5039 -2.0015 0.9731
3.9493 -5.1718 -2.0015 0.9731
4.3955 -4.7983 -2.0015 0.9731
4.8066 -4.3864 -2.0015 0.9731
5.5105 -3.4610 -2.0015 0.9731
6.3736 -1.3118 -2.0015 0.9731
6.4654 -0.7372 -2.0015 0.9731
6.4933 0.4251 -2.0015 0.9731
6.4294 1.0035 -2.0015 0.9731
5.9332 2.6724 -2.0015 0.9731
5.6707 3.1918 -2.0015 0.9731
5.3629 3.6856 -2.0015 0.9731
5.0122 4.1500 -2.0015 0.9731
4.6214 4.5812 -2.0015 0.9731
4.1936 4.9757 -2.0015 0.9731
3.2412 5.6426 -2.0015 0.9731
1.6290 6.3000 -2.0015 0.9731
1.0597 6.4204 -2.0015 0.9731
0.4819 6.4894 -2.0015 0.9731
-0.6806 6.4716 -2.0015 0.9731
-2.9041 5.8233 -2.0015 0.9731
-3.4127 5.5406 -2.0015 0.9731
-3.8940 5.2135 -2.0015 0.9731
-4.7597 4.4373 -2.0015 0.9731
-5.1371 3.9944 -2.0015 0.9731
-5.4734 3.5195 -2.0015 0.9731
-5.7659 3.0164 -2.0015 0.9731
-6.4571 0.8059 -2.0015 0.9731
-6.5033 0.2259 -2.0015 0.9731
-6.3304 -1.5066 -2.0015 0.9731
-5.9613 -2.6091 -2.0015 0.9731
-5.7043 -3.1313 -2.0015 0.9731
-5.4018 -3.6283 -2.0015 0.9731
-5.0561 -4.0964 -2.0015 0.9731
-4.6699 -4.5317 -2.0015 0.9731
-3.7889 -5.2904 -2.0015 0.9731
-3.3011 -5.6078 -2.0015 0.9731
-2.7869 -5.8803 -2.0015 0.9731
-2.2505 -6.1057 -2.0015 0.9731
-1.6960 -6.2823 -2.0015 0.9731
-1.1280 -6.4087 -2.0015 0.9731
0.6117 -6.4784 -2.0015 0.9731
1.7549 -6.2662 -2.0015 0.9731
3.8383 -5.2547 -2.0015 0.9731
4.2924 -4.8907 -2.0015 0.9731
5.4356 -3.5775 -2.0015 0.9731
6.1896 -2.0082 -2.0015 0.9731
6.3443 -1.4472 -2.0015 0.9731
6.5006 -0.2951 -2.0015 0.9731
6.5009 0.2869 -2.0015 0.9731
6.4493 0.8665 -2.0015 0.9731
6.1922 2.0004 -2.0015 0.9731
5.9887 2.5455 -2.0015 0.9731
5.0994 4.0424 -2.0015 0.9731
3.3606 5.5723 -2.0015 0.9731
2.3153 6.0814 -2.0015 0.9731
1.7628 6.2639 -2.0015 0.9731
1.1961 6.3964 -2.0015 0.9731
0.6199 6.4777 -2.0015 0.9731
0.0387 6.5071 -2.0015 0.9731
-1.1199 6.4102 -2.0015 0.9731
-1.6881 6.2845 -2.0015 0.9731
-2.2428 6.1086 -2.0015 0.9731
-2.7795 5.8838 -2.0015 0.9731
-3.7822 5.2952 -2.0015 0.9731
-4.2401 4.9361 -2.0015 0.9731
-5.3972 3.6352 -2.0015 0.9731
-5.7004 3.1384 -2.0015 0.9731
-6.4971 0.3642 -2.0015 0.9731
-6.5036 -0.2177 -2.0015 0.9731
-6.4582 -0.7978 -2.0015 0.9731
-6.3611 -1.3716 -2.0015 0.9731
-6.2131 -1.9344 -2.0015 0.9731
-5.7697 -3.0091 -2.0015 0.9731
-5.4778 -3.5126 -2.0015 0.9731
-4.3503 -4.8393 -2.0015 0.9731
-3.9006 -5.2086 -2.0015 0.9731
-3.4197 -5.5362 -2.0015 0.9731
-2.9114 -5.8196 -2.0015 0.9731
-1.8293 -6.2448 -2.0015 0.9731
-1.2641 -6.3833 -2.0015 0.9731
-0.1080 -6.5064 -2.0015 0.9731
1.0516 -6.4217 -2.0015 0.9731
2.1776 -6.1321 -2.0015 0.9731
2.7167 -5.9130 -2.0015 0.9731
4.1874 -4.9810 -2.0015 0.9731
4.6156 -4.5870 -2.0015 0.9731
5.0069 -4.1563 -2.0015 0.9731
6.1455 -2.1394 -2.0015 0.9731
6.3121 -1.5819 -2.0015 0.9731
6.4281 -1.0116 -2.0015 0.9731
6.2333 1.8681 -2.0015 0.9731
5.8014 2.9476 -2.0015 0.9731
5.5149 3.4541 -2.0015 0.9731
4.8122 4.3804 -2.0015 0.9731
4.4016 4.7927 -2.0015 0.9731
2.9732 5.7883 -2.0015 0.9731
1.8957 6.2250 -2.0015 0.9731
1.3320 6.3695 -2.0015 0.9731
0.7576 6.4630 -2.0015 0.9731
-0.4046 6.4947 -2.0015 0.9731
-2.1122 6.1549 -2.0015 0.9731
-2.6537 5.9416 -2.0015 0.9731
-3.1738 5.6808 -2.0015 0.9731
-4.5665 4.6358 -2.0015 0.9731
-4.9624 4.2093 -2.0015 0.9731
-5.6323 3.2590 -2.0015 0.9731
-5.9009 2.7428 -2.0015 0.9731
-6.5068 -0.0792 -2.0015 0.9731
-6.3888 -1.2359 -2.0015 0.9731
-6.2529 -1.8017 -2.0015 0.9731
-5.1986 3.0381 -2.0015 0.9749
-5.4492 2.5616 -2.0015 0.9749
-5.6562 2.0645 -2.0015 0.9749
-6.0210 -0.0473 -2.0015 0.9749
-5.9927 -0.5850 -2.0015 0.9749
-5.9165 -1.1180 -2.0015 0.9749
-5.1502 -3.1194 -2.0015 0.9749
-4.8509 -3.5670 -2.0015 0.9749
-4.5129 -3.9861 -2.0015 0.9749
-3.7315 -4.7256 -2.0015 0.9749
-3.2944 -5.0400 -2.0015 0.9749
-2.8310 -5.3142 -2.0015 0.9749
-1.3205 -5.8746 -2.0015 0.9749
0.2844 -6.0145 -2.0015 0.9749
0.8206 -5.9650 -2.0015 0.9749
1.3502 -5.8679 -2.0015 0.9749
1.8691 -5.7238 -2.0015 0.9749
2.3729 -5.5339 -2.0015 0.9749
2.8578 -5.2998 -2.0015 0.9749
3.3199 -5.0233 -2.0015 0.9749
4.1608 -4.3523 -2.0015 0.9749
5.1659 -3.0933 -2.0015 0.9749
5.4216 -2.6194 -2.0015 0.9749
5.9221 -1.0881 -2.0015 0.9749
5.9986 0.5212 -2.0015 0.9749
5.9281 1.0550 -2.0015 0.9749
5.8101 1.5804 -2.0015 0.9749
5.1831 3.0644 -2.0015 0.9749
4.8886 3.5152 -2.0015 0.9749
3.3479 5.0047 -2.0015 0.9749
0.8539 5.9604 -2.0015 0.9749
-0.7571 5.9734 -2.0015 0.9749
-1.2877 5.8819 -2.0015 0.9749
-2.3139 5.5589 -2.0015 0.9749
-3.2662 5.0584 -2.0015 0.9749
-5.1327 3.1481 -2.0015 0.9749
-5.3934 2.6770 -2.0015 0.9749
-5.6110 2.1844 -2.0015 0.9749
-5.7837 1.6744 -2.0015 0.9749
-5.9102 1.1510 -2.0015 0.9749
-6.0207 0.0809 -2.0015 0.9749
-5.9390 -0.9918 -2.0015 0.9749
-5.8266 -1.5185 -2.0015 0.9749
-5.6677 -2.0329 -2.0015 0.9749
-5.4634 -2.5311 -2.0015 0.9749
-5.2154 -3.0091 -2.0015 0.9749
-3.4009 -4.9688 -2.0015 0.9749
-2.9434 -5.2528 -2.0015 0.9749
-1.9617 -5.6927 -2.0015 0.9749
-1.4453 -5.8452 -2.0015 0.9749
-0.9173 -5.9509 -2.0015 0.9749
-0.3820 -6.0091 -2.0015 0.9749
0.1564 -6.0192 -2.0015 0.9749
1.2251 -5.8953 -2.0015 0.9749
2.2546 -5.5832 -2.0015 0.9749
2.7444 -5.3594 -2.0015 0.9749
3.6543 -4.7855 -2.0015 0.9749
4.7924 -3.6452 -2.0015 0.9749
5.0989 -3.2025 -2.0015 0.9749
5.3646 -2.7342 -2.0015 0.9749
5.7656 -1.7359 -2.0015 0.9749
5.8976 -1.2139 -2.0015 0.9749
5.9825 -0.6821 -2.0015 0.9749
6.0195 -0.1450 -2.0015 0.9749
6.0084 0.3934 -2.0015 0.9749
5.8425 1.4564 -2.0015 0.9749
5.4900 2.4728 -2.0015 0.9749
3.8804 4.6041 -2.0015 0.9749
3.4536 4.9323 -2.0015 0.9749
2.5207 5.4682 -2.0015 0.9749
2.0221 5.6715 -2.0015 0.9749
0.4459 6.0047 -2.0015 0.9749
-1.1622 5.9080 -2.0015 0.9749
-1.6854 5.7805 -2.0015 0.9749
-3.1578 5.1267 -2.0015 0.9749
-3.6032 4.8241 -2.0015 0.9749
-4.0198 4.4829 -2.0015 0.9749
-5.0646 3.2566 -2.0015 0.9749
-5.7468 1.7971 -2.0015 0.9749
-5.8844 1.2765 -2.0015 0.9749
-6.0122 -0.3294 -2.0015 0.9749
-5.9587 -0.8652 -2.0015 0.9749
-5.5160 -2.4143 -2.0015 0.9749
-4.9983 -3.3573 -2.0015 0.9749
-4.6784 -3.7905 -2.0015 0.9749
-3.5059 -4.8953 -2.0015 0.9749
-2.5788 -5.4411 -2.0015 0.9749
1.6238 -5.7981 -2.0015 0.9749
3.5517 -4.8622 -2.0015 0.9749
3.9718 -4.5255 -2.0015 0.9749
4.3602 -4.1525 -2.0015 0.9749
4.7138 -3.7464 -2.0015 0.9749
5.3052 -2.8478 -2.0015 0.9749
5.5384 -2.3624 -2.0015 0.9749
5.7273 -1.8582 -2.0015 0.9749
5.9666 -0.8093 -2.0015 0.9749
6.0150 -0.2730 -2.0015 0.9749
5.8721 1.3317 -2.0015 0.9749
5.7297 1.8510 -2.0015 0.9749
5.3088 2.8411 -2.0015 0.9749
5.0338 3.3040 -2.0015 0.9749
4.7185 3.7404 -2.0015 0.9749
4.3655 4.1470 -2.0015 0.9749
3.9775 4.5204 -2.0015 0.9749
3.1096 5.1561 -2.0015 0.9749
2.1424 5.6272 -2.0015 0.9749
1.6311 5.7961 -2.0015 0.9749
0.0358 6.0211 -2.0015 0.9749
-1.5620 5.8151 -2.0015 0.9749
-2.0752 5.6523 -2.0015 0.9749
-2.5719 5.4443 -2.0015 0.9749
-3.4997 4.8997 -2.0015 0.9749
-3.9234 4.5675 -2.0015 0.9749
-4.6736 3.7963 -2.0015 0.9749
-5.2746 2.9040 -2.0015 0.9749
-5.5130 2.4212 -2.0015 0.9749
-5.7072 1.9190 -2.0015 0.9749
-5.9576 0.8727 -2.0015 0.9749
-5.8860 -1.2691 -2.0015 0.9749
-5.3387 -2.7844 -2.0015 0.9749
-5.0687 -3.2502 -2.0015 0.9749
-4.7580 -3.6900 -2.0015 0.9749
-2.6940 -5.3850 -2.0015 0.9749
-2.2021 -5.6041 -2.0015 0.9749
-0.0999 -6.0204 -2.0015 0.9749
0.4383 -6.0052 -2.0015 0.9749
0.9731 -5.9421 -2.0015 0.9749
1.5000 -5.8314 -2.0015 0.9749
2.0150 -5.6741 -2.0015 0.9749
3.4474 -4.9367 -2.0015 0.9749
3.8746 -4.6090 -2.0015 0.9749
5.2434 -2.9600 -2.0015 0.9749
5.8406 -1.4637 -2.0015 0.9749
5.8991 1.2064 -2.0015 0.9749
5.1030 3.1961 -2.0015 0.9749
4.4527 4.0532 -2.0015 0.9749
4.0728 4.4348 -2.0015 0.9749
3.2186 5.0888 -2.0015 0.9749
2.7511 5.3560 -2.0015 0.9749
1.7541 5.7601 -2.0015 0.9749
1.2325 5.8937 -2.0015 0.9749
0.7010 5.9803 -2.0015 0.9749
-1.4379 5.8470 -2.0015 0.9749
-1.9545 5.6952 -2.0015 0.9749
-2.4555 5.4978 -2.0015 0.9749
-4.2255 4.2896 -2.0015 0.9749
-4.5918 3.8950 -2.0015 0.9749
-4.9214 3.4692 -2.0015 0.9749
-5.2116 3.0156 -2.0015 0.9749
-5.8247 1.5258 -2.0015 0.9749
-6.0033 0.4649 -2.0015 0.9749
-5.9902 -0.6109 -2.0015 0.9749
-4.5606 3.2444 -2.0015 0.9765
-4.8322 2.8240 -2.0015 0.9765
-5.2576 1.9190 -2.0015 0.9765
-5.5152 0.9527 -2.0015 0.9765
-5.5783 0.4562 -2.0015 0.9765
-4.7873 -2.8996 -2.0015 0.9765
-4.5091 -3.3156 -2.0015 0.9765
-4.1948 -3.7052 -2.0015 0.9765
-3.8471 -4.0651 -2.0015 0.9765
-3.4685 -4.3926 -2.0015 0.9765
-2.1796 -5.1550 -2.0015 0.9765
-1.7104 -5.3291 -2.0015 0.9765
-0.7347 -5.5485 -2.0015 0.9765
-0.2361 -5.5919 -2.0015 0.9765
0.7628 -5.5447 -2.0015 0.9765
1.2551 -5.4544 -2.0015 0.9765
2.2057 -5.1439 -2.0015 0.9765
2.6564 -4.9263 -2.0015 0.9765
3.0859 -4.6693 -2.0015 0.9765
3.4907 -4.3750 -2.0015 0.9765
4.8019 -2.8753 -2.0015 0.9765
5.0395 -2.4348 -2.0015 0.9765
5.5048 -1.0114 -2.0015 0.9765
5.5969 -0.0156 -2.0015 0.9765
5.5759 0.4844 -2.0015 0.9765
5.2478 1.9456 -2.0015 0.9765
5.0531 2.4066 -2.0015 0.9765
4.8178 2.8484 -2.0015 0.9765
4.2340 3.6603 -2.0015 0.9765
3.8901 4.0240 -2.0015 0.9765
3.5151 4.3554 -2.0015 0.9765
2.2344 5.1315 -2.0015 0.9765
1.2855 5.4473 -2.0015 0.9765
-0.2049 5.5931 -2.0015 0.9765
-1.6806 5.3386 -2.0015 0.9765
-2.6038 4.9543 -2.0015 0.9765
-3.4439 4.4119 -2.0015 0.9765
-4.1741 3.7286 -2.0015 0.9765
-4.7710 2.9262 -2.0015 0.9765
-5.2156 2.0305 -2.0015 0.9765
-5.4937 1.0699 -2.0015 0.9765
-5.5673 0.5748 -2.0015 0.9765
-5.5964 0.0752 -2.0015 0.9765
-5.5807 -0.4251 -2.0015 0.9765
-5.0784 -2.3527 -2.0015 0.9765
-4.8479 -2.7970 -2.0015 0.9765
-4.5786 -3.2189 -2.0015 0.9765
-4.2727 -3.6151 -2.0015 0.9765
-3.9327 -3.9823 -2.0015 0.9765
-3.5612 -4.3178 -2.0015 0.9765
-2.2888 -5.1075 -2.0015 0.9765
-1.8234 -5.2915 -2.0015 0.9765
-1.3434 -5.4333 -2.0015 0.9765
-0.8526 -5.5316 -2.0015 0.9765
1.6237 -5.3562 -2.0015 0.9765
2.0957 -5.1897 -2.0015 0.9765
5.1937 -2.0859 -2.0015 0.9765
5.5953 -0.1347 -2.0015 0.9765
5.5299 0.8631 -2.0015 0.9765
5.1031 2.2985 -2.0015 0.9765
4.8774 2.7453 -2.0015 0.9765
4.6126 3.1700 -2.0015 0.9765
2.7878 4.8532 -2.0015 0.9765
2.3431 5.0828 -2.0015 0.9765
1.4011 5.4187 -2.0015 0.9765
0.9115 5.5222 -2.0015 0.9765
0.4145 5.5815 -2.0015 0.9765
-1.5666 5.3732 -2.0015 0.9765
-3.3493 4.4842 -2.0015 0.9765
-4.0938 3.8165 -2.0015 0.9765
-4.4184 3.4356 -2.0015 0.9765
-4.9592 2.5944 -2.0015 0.9765
-5.1712 2.1410 -2.0015 0.9765
-5.3418 1.6705 -2.0015 0.9765
-5.5935 0.1943 -2.0015 0.9765
-5.5885 -0.3062 -2.0015 0.9765
-5.5388 -0.8043 -2.0015 0.9765
-5.1273 -2.2441 -2.0015 0.9765
-4.6461 -3.1207 -2.0015 0.9765
-4.0166 -3.8977 -2.0015 0.9765
-3.6523 -4.2410 -2.0015 0.9765
-3.2588 -4.5503 -2.0015 0.9765
-2.3970 -5.0576 -2.0015 0.9765
-1.9356 -5.2515 -2.0015 0.9765
0.0263 -5.5968 -2.0015 0.9765
0.5261 -5.5721 -2.0015 0.9765
1.0219 -5.5028 -2.0015 0.9765
1.5094 -5.3895 -2.0015 0.9765
2.4444 -5.0349 -2.0015 0.9765
3.3014 -4.5195 -2.0015 0.9765
3.6919 -4.2065 -2.0015 0.9765
4.3816 -3.4824 -2.0015 0.9765
4.9314 -2.6471 -2.0015 0.9765
5.4567 -1.2447 -2.0015 0.9765
5.5915 0.2467 -2.0015 0.9765
5.5471 0.7453 -2.0015 0.9765
5.4583 1.2378 -2.0015 0.9765
5.3259 1.7205 -2.0015 0.9765
5.1509 2.1894 -2.0015 0.9765
4.9347 2.6408 -2.0015 0.9765
4.6790 3.0711 -2.0015 0.9765
4.3860 3.4769 -2.0015 0.9765
3.6972 4.2019 -2.0015 0.9765
3.3071 4.5154 -2.0015 0.9765
2.8905 4.7928 -2.0015 0.9765
1.9914 5.2306 -2.0015 0.9765
0.0333 5.5968 -2.0015 0.9765
-1.9290 5.2540 -2.0015 0.9765
-2.3907 5.0606 -2.0015 0.9765
-2.8332 4.8268 -2.0015 0.9765
-3.2531 4.5544 -2.0015 0.9765
-4.0116 3.9028 -2.0015 0.9765
-4.6422 3.1266 -2.0015 0.9765
-4.9029 2.6994 -2.0015 0.9765
-5.1245 2.2506 -2.0015 0.9765
-5.3050 1.7838 -2.0015 0.9765
-5.4432 1.3027 -2.0015 0.9765
-5.5378 0.8112 -2.0015 0.9765
-5.5881 0.3133 -2.0015 0.9765
-5.4712 -1.1797 -2.0015 0.9765
-5.3439 -1.6637 -2.0015 0.9765
-5.1739 -2.1345 -2.0015 0.9765
-4.7115 -3.0212 -2.0015 0.9765
-4.4227 -3.4300 -2.0015 0.9765
-3.3549 -4.4799 -2.0015 0.9765
-2.9413 -4.7617 -2.0015 0.9765
-2.5041 -5.0055 -2.0015 0.9765
-2.0469 -5.2092 -2.0015 0.9765
-0.0929 -5.5961 -2.0015 0.9765
1.3943 -5.4204 -2.0015 0.9765
2.3367 -5.0858 -2.0015 0.9765
3.6016 -4.2842 -2.0015 0.9765
4.3065 -3.5748 -2.0015 0.9765
4.6086 -3.1758 -2.0015 0.9765
4.8739 -2.7514 -2.0015 0.9765
5.2858 -1.8401 -2.0015 0.9765
5.5288 -0.8701 -2.0015 0.9765
5.5845 -0.3727 -2.0015 0.9765
5.5617 0.6270 -2.0015 0.9765
5.4834 1.1214 -2.0015 0.9765
4.9898 2.5352 -2.0015 0.9765
4.7433 2.9708 -2.0015 0.9765
4.4590 3.3827 -2.0015 0.9765
4.1389 3.7675 -2.0015 0.9765
3.4024 4.4440 -2.0015 0.9765
2.9918 4.7302 -2.0015 0.9765
2.5573 4.9785 -2.0015 0.9765
2.1023 5.1871 -2.0015 0.9765
1.6305 5.3541 -2.0015 0.9765
0.1524 5.5948 -2.0015 0.9765
-0.3480 5.5861 -2.0015 0.9765
-1.8167 5.2938 -2.0015 0.9765
-3.5558 4.3222 -2.0015 0.9765
-4.5746 3.2247 -2.0015 0.9765
-4.8443 2.8031 -2.0015 0.9765
-5.0754 2.3591 -2.0015 0.9765
-5.2659 1.8963 -2.0015 0.9765
-5.5193 0.9289 -2.0015 0.9765
-5.5802 0.4321 -2.0015 0.9765
-5.3781 -1.5496 -2.0015 0.9765
-4.5093 2.6353 -2.0015 0.9779
-4.7267 2.2219 -2.0015 0.9779
-4.9062 1.7908 -2.0015 0.9779
-5.0466 1.3453 -2.0015 0.9779
-5.1466 0.8891 -2.0015 0.9779
-5.2227 -0.0410 -2.0015 0.9779
-5.0249 -1.4244 -2.0015 0.9779
-4.8775 -1.8676 -2.0015 0.9779
-4.2077 -3.0940 -2.0015 0.9779
-3.5900 -3.7935 -2.0015 0.9779
-2.4556 -4.6096 -2.0015 0.9779
-2.0340 -4.8105 -2.0015 0.9779
-1.5961 -4.9730 -2.0015 0.9779
-0.2203 -5.2182 -2.0015 0.9779
0.7118 -5.1741 -2.0015 0.9779
1.6212 -4.9649 -2.0015 0.9779
2.4789 -4.5971 -2.0015 0.9779
2.8797 -4.3573 -2.0015 0.9779
3.2574 -4.0826 -2.0015 0.9779
3.9320 -3.4377 -2.0015 0.9779
4.2233 -3.0727 -2.0015 0.9779
5.2006 -0.4811 -2.0015 0.9779
5.0397 1.3708 -2.0015 0.9779
4.7154 2.2458 -2.0015 0.9779
4.4959 2.6581 -2.0015 0.9779
3.9511 3.4157 -2.0015 0.9779
3.2802 4.0643 -2.0015 0.9779
0.7407 5.1701 -2.0015 0.9779
-1.1170 5.1020 -2.0015 0.9779
-2.4298 4.6232 -2.0015 0.9779
-2.8331 4.3877 -2.0015 0.9779
-3.2138 4.1170 -2.0015 0.9779
-3.5687 3.8134 -2.0015 0.9779
-3.8951 3.4794 -2.0015 0.9779
-4.1904 3.1175 -2.0015 0.9779
-4.4521 2.7307 -2.0015 0.9779
-4.6783 2.3220 -2.0015 0.9779
-5.0168 1.4524 -2.0015 0.9779
-5.1265 0.9984 -2.0015 0.9779
-5.2224 0.0702 -2.0015 0.9779
-5.1515 -0.8603 -2.0015 0.9779
-5.0540 -1.3171 -2.0015 0.9779
-4.7390 -2.1955 -2.0015 0.9779
-4.5239 -2.6101 -2.0015 0.9779
-4.2726 -3.0038 -2.0015 0.9779
-3.9872 -3.3735 -2.0015 0.9779
-3.6699 -3.7162 -2.0015 0.9779
-3.3232 -4.0292 -2.0015 0.9779
-2.9500 -4.3100 -2.0015 0.9779
-1.7016 -4.9379 -2.0015 0.9779
-1.2536 -5.0702 -2.0015 0.9779
-0.3313 -5.2123 -2.0015 0.9779
0.6015 -5.1881 -2.0015 0.9779
1.9557 -4.8429 -2.0015 0.9779
3.5280 -3.8512 -2.0015 0.9779
3.8579 -3.5206 -2.0015 0.9779
4.6533 -2.3717 -2.0015 0.9779
5.0011 -1.5057 -2.0015 0.9779
5.1156 -1.0529 -2.0015 0.9779
5.0678 1.2633 -2.0015 0.9779
4.7621 2.1449 -2.0015 0.9779
4.0229 3.3309 -2.0015 0.9779
3.3659 3.9936 -2.0015 0.9779
2.6015 4.5288 -2.0015 0.9779
2.1865 4.7431 -2.0015 0.9779
0.3868 5.2085 -2.0015 0.9779
-0.0801 5.2222 -2.0015 0.9779
-1.0081 5.1246 -2.0015 0.9779
-1.9040 4.8634 -2.0015 0.9779
-3.4868 3.8885 -2.0015 0.9779
-3.8202 3.5615 -2.0015 0.9779
-4.3930 2.8248 -2.0015 0.9779
-4.9848 1.5588 -2.0015 0.9779
-5.1826 0.6469 -2.0015 0.9779
-5.2150 -0.2858 -2.0015 0.9779
-5.1686 -0.7505 -2.0015 0.9779
-5.0809 -1.2093 -2.0015 0.9779
-2.6495 -4.5009 -2.0015 0.9779
-1.3612 -5.0423 -2.0015 0.9779
-0.9053 -5.1438 -2.0015 0.9779
0.9536 -5.1351 -2.0015 0.9779
1.4085 -5.0294 -2.0015 0.9779
1.8522 -4.8834 -2.0015 0.9779
2.6916 -4.4758 -2.0015 0.9779
4.6018 -2.4702 -2.0015 0.9779
5.0921 -1.1615 -2.0015 0.9779
5.2178 0.2302 -2.0015 0.9779
5.1763 0.6954 -2.0015 0.9779
4.9700 1.6055 -2.0015 0.9779
4.8067 2.0431 -2.0015 0.9779
3.4501 3.9211 -2.0015 0.9779
3.0860 4.2136 -2.0015 0.9779
2.6973 4.4725 -2.0015 0.9779
2.2869 4.6955 -2.0015 0.9779
1.4148 5.0276 -2.0015 0.9779
0.4976 5.1991 -2.0015 0.9779
-0.8989 5.1449 -2.0015 0.9779
-1.8001 4.9028 -2.0015 0.9779
-2.2309 4.7224 -2.0015 0.9779
-2.6438 4.5042 -2.0015 0.9779
-3.0357 4.2500 -2.0015 0.9779
-4.0539 3.2930 -2.0015 0.9779
-4.3319 2.9176 -2.0015 0.9779
-4.5752 2.5190 -2.0015 0.9779
-4.7820 2.1002 -2.0015 0.9779
-5.1834 -0.6403 -2.0015 0.9779
-4.9868 -1.5526 -2.0015 0.9779
-4.8281 -1.9918 -2.0015 0.9779
-4.1271 -3.2008 -2.0015 0.9779
-3.8247 -3.5567 -2.0015 0.9779
-3.4917 -3.8841 -2.0015 0.9779
-2.3368 -4.6709 -2.0015 0.9779
-1.4682 -5.0122 -2.0015 0.9779
-1.0146 -5.1234 -2.0015 0.9779
-0.5528 -5.1935 -2.0015 0.9779
-0.0867 -5.2221 -2.0015 0.9779
0.3802 -5.2090 -2.0015 0.9779
1.7478 -4.9217 -2.0015 0.9779
2.1805 -4.7459 -2.0015 0.9779
2.5958 -4.5321 -2.0015 0.9779
3.7046 -3.6816 -2.0015 0.9779
4.0187 -3.3359 -2.0015 0.9779
4.3006 -2.9636 -2.0015 0.9779
4.5482 -2.5675 -2.0015 0.9779
4.7594 -2.1509 -2.0015 0.9779
4.9325 -1.7171 -2.0015 0.9779
5.0662 -1.2696 -2.0015 0.9779
5.2113 -0.3478 -2.0015 0.9779
5.2215 0.1191 -2.0015 0.9779
5.0030 1.4994 -2.0015 0.9779
4.6563 2.3658 -2.0015 0.9779
4.1610 3.1566 -2.0015 0.9779
3.5328 3.8467 -2.0015 0.9779
2.3864 4.6458 -2.0015 0.9779
0.6081 5.1873 -2.0015 0.9779
0.1422 5.2209 -2.0015 0.9779
-1.2472 5.0717 -2.0015 0.9779
-2.1299 4.7688 -2.0015 0.9779
-3.9829 3.3785 -2.0015 0.9779
-4.2688 3.0092 -2.0015 0.9779
-4.7362 2.2015 -2.0015 0.9779
-4.9139 1.7695 -2.0015 0.9779
-5.1504 0.8668 -2.0015 0.9779
-5.2225 -0.0636 -2.0015 0.9779
-5.1278 -0.9919 -2.0015 0.9779
-5.0187 -1.4461 -2.0015 0.9779
-3.9849 2.8348 -2.0015 0.9791
-4.2222 2.4675 -2.0015 0.9791
-4.4257 2.0804 -2.0015 0.9791
-4.5939 1.6768 -2.0015 0.9791
-1.9564 0.1600 -0.8034 0.9916
-1.9060 -0.0150 -0.7801 0.9918
-4.3925 -2.1497 -2.0015 0.9791
-3.9398 -2.8971 -2.0015 0.9791
-3.6653 -3.2374 -2.0015 0.9791
-3.3614 -3.5519 -2.0015 0.9791
-3.0306 -3.8380 -2.0015 0.9791
-2.6756 -4.0934 -2.0015 0.9791
-2.2993 -4.3161 -2.0015 0.9791
-1.4945 -4.6564 -2.0015 0.9791
-1.0725 -4.7713 -2.0015 0.9791
0.6665 -4.8447 -2.0015 0.9791
1.9272 -4.4946 -2.0015 0.9791
2.3211 -4.3044 -2.0015 0.9791
2.6963 -4.0799 -2.0015 0.9791
3.3793 -3.5349 -2.0015 0.9791
3.6816 -3.2189 -2.0015 0.9791
4.7117 -1.3099 -2.0015 0.9791
4.8098 -0.8837 -2.0015 0.9791
4.8903 -0.0136 -2.0015 0.9791
4.8720 0.4233 -2.0015 0.9791
4.8147 0.8568 -2.0015 0.9791
4.2096 2.4888 -2.0015 0.9791
3.6995 3.1983 -2.0015 0.9791
3.3990 3.5160 -2.0015 0.9791
3.0713 3.8056 -2.0015 0.9791
2.7191 4.0647 -2.0015 0.9791
2.3451 4.2914 -2.0015 0.9791
1.9523 4.4837 -2.0015 0.9791
1.5439 4.6402 -2.0015 0.9791
1.1232 4.7596 -2.0015 0.9791
0.2583 4.8835 -2.0015 0.9791
-0.1790 4.8871 -2.0015 0.9791
-0.6149 4.8515 -2.0015 0.9791
-1.0459 4.7772 -2.0015 0.9791
-1.4685 4.6647 -2.0015 0.9791
-1.8793 4.5148 -2.0015 0.9791
-2.2751 4.3289 -2.0015 0.9791
-2.6528 4.1083 -2.0015 0.9791
-3.3415 3.5706 -2.0015 0.9791
-3.6471 3.2579 -2.0015 0.9791
-3.9236 2.9190 -2.0015 0.9791
-4.1687 2.5568 -2.0015 0.9791
-4.5572 1.7741 -2.0015 0.9791
-4.6974 1.3599 -2.0015 0.9791
-4.8001 0.9348 -2.0015 0.9791
-1.9115 0.0257 -0.7824 0.9918
-1.9544 -0.1489 -0.8022 0.9916
-2.0948 -0.3498 -0.8692 0.9909
-4.4373 -2.0557 -2.0015 0.9791
-4.0006 -2.8126 -2.0015 0.9791
-3.7334 -3.1587 -2.0015 0.9791
-3.4362 -3.4796 -2.0015 0.9791
-3.1116 -3.7727 -2.0015 0.9791
-1.1738 -4.7474 -2.0015 0.9791
0.5632 -4.8578 -2.0015 0.9791
0.9950 -4.7880 -2.0015 0.9791
1.4187 -4.6800 -2.0015 0.9791
1.8312 -4.5346 -2.0015 0.9791
3.3033 -3.6060 -2.0015 0.9791
3.6123 -3.2965 -2.0015 0.9791
3.8923 -2.9606 -2.0015 0.9791
4.1413 -2.6010 -2.0015 0.9791
4.5380 -1.8225 -2.0015 0.9791
4.8588 -0.5540 -2.0015 0.9791
4.8799 0.3195 -2.0015 0.9791
4.8318 0.7542 -2.0015 0.9791
4.4589 2.0084 -2.0015 0.9791
4.2616 2.3987 -2.0015 0.9791
1.6423 4.6063 -2.0015 0.9791
0.7964 4.8251 -2.0015 0.9791
-2.1825 4.3763 -2.0015 0.9791
-2.5647 4.1638 -2.0015 0.9791
-4.1133 2.6450 -2.0015 0.9791
-4.3332 2.2669 -2.0015 0.9791
-4.6674 1.4596 -2.0015 0.9791
-4.7792 1.0368 -2.0015 0.9791
-1.9529 0.2437 -0.8055 0.9915
-1.9442 -0.2823 -0.8040 0.9915
-4.6373 -1.5527 -2.0015 0.9791
-4.4800 -1.9608 -2.0015 0.9791
-4.2869 -2.3532 -2.0015 0.9791
-4.0596 -2.7268 -2.0015 0.9791
-3.1912 -3.7056 -2.0015 0.9791
-2.8474 -3.9759 -2.0015 0.9791
-2.4808 -4.2144 -2.0015 0.9791
-2.0944 -4.4191 -2.0015 0.9791
-1.6913 -4.5886 -2.0015 0.9791
-1.2746 -4.7213 -2.0015 0.9791
-0.8477 -4.8163 -2.0015 0.9791
-0.4140 -4.8728 -2.0015 0.9791
0.0229 -4.8903 -2.0015 0.9791
0.8928 -4.8081 -2.0015 0.9791
1.3188 -4.7092 -2.0015 0.9791
1.7342 -4.5725 -2.0015 0.9791
2.8846 -3.9490 -2.0015 0.9791
3.2258 -3.6755 -2.0015 0.9791
3.5413 -3.3726 -2.0015 0.9791
3.8284 -3.0428 -2.0015 0.9791
4.0850 -2.6886 -2.0015 0.9791
4.4982 -1.9187 -2.0015 0.9791
4.6516 -1.5092 -2.0015 0.9791
4.8460 -0.6573 -2.0015 0.9791
4.8468 0.6512 -2.0015 0.9791
4.6535 1.5033 -2.0015 0.9791
4.3117 2.3075 -2.0015 0.9791
4.0884 2.6834 -2.0015 0.9791
3.8323 3.0379 -2.0015 0.9791
3.5456 3.3681 -2.0015 0.9791
3.2305 3.6714 -2.0015 0.9791
2.5256 4.1877 -2.0015 0.9791
1.7400 4.5703 -2.0015 0.9791
0.0291 4.8902 -2.0015 0.9791
-0.4079 4.8733 -2.0015 0.9791
-0.8416 4.8174 -2.0015 0.9791
-1.6855 4.5907 -2.0015 0.9791
-2.0889 4.4218 -2.0015 0.9791
-2.4755 4.2175 -2.0015 0.9791
-2.8424 3.9794 -2.0015 0.9791
-3.5052 3.4101 -2.0015 0.9791
-3.7958 3.0833 -2.0015 0.9791
-4.2840 2.3586 -2.0015 0.9791
-4.4775 1.9665 -2.0015 0.9791
-4.7560 1.1383 -2.0015 0.9791
-1.9291 -0.0646 -0.7900 0.9917
-1.9533 -0.2413 -0.8055 0.9915
-4.7805 -1.0308 -2.0015 0.9791
-4.6693 -1.4537 -2.0015 0.9791
-4.3360 -2.2614 -2.0015 0.9791
-4.1167 -2.6398 -2.0015 0.9791
-3.2694 -3.6368 -2.0015 0.9791
-2.9314 -3.9144 -2.0015 0.9791
-2.5700 -4.1606 -2.0015 0.9791
-1.3748 -4.6931 -2.0015 0.9791
-0.9500 -4.7972 -2.0015 0.9791
-0.5176 -4.8629 -2.0015 0.9791
-0.0811 -4.8897 -2.0015 0.9791
1.2183 -4.7361 -2.0015 0.9791
1.6365 -4.6084 -2.0015 0.9791
2.0417 -4.4437 -2.0015 0.9791
2.7999 -4.0095 -2.0015 0.9791
3.1469 -3.7433 -2.0015 0.9791
4.0268 -2.7749 -2.0015 0.9791
4.2586 -2.4041 -2.0015 0.9791
4.4564 -2.0140 -2.0015 0.9791
4.8309 -0.7603 -2.0015 0.9791
4.8596 0.5479 -2.0015 0.9791
4.7912 0.9798 -2.0015 0.9791
4.6845 1.4039 -2.0015 0.9791
4.5403 1.8168 -2.0015 0.9791
4.3599 2.2152 -2.0015 0.9791
4.1445 2.5958 -2.0015 0.9791
3.3079 3.6018 -2.0015 0.9791
2.2344 4.3500 -2.0015 0.9791
1.4246 4.6782 -2.0015 0.9791
0.5694 4.8571 -2.0015 0.9791
-1.1678 4.7488 -2.0015 0.9791
-1.5874 4.6255 -2.0015 0.9791
-1.9943 4.4652 -2.0015 0.9791
-2.3852 4.2692 -2.0015 0.9791
-2.7571 4.0390 -2.0015 0.9791
-3.9971 2.8176 -2.0015 0.9791
-4.2328 2.4492 -2.0015 0.9791
-4.7307 1.2392 -2.0015 0.9791
-2.1056 0.3544 -0.8739 0.9908
-1.9549 0.1514 -0.8025 0.9916
-1.9576 -0.1996 -0.8053 0.9915
-4.6992 -1.3540 -2.0015 0.9791
-3.7422 2.6622 -2.0015 0.9802
-3.9650 2.3172 -2.0015 0.9802
-1.5240 -0.0120 -0.6642 0.9934
-1.5266 -0.1490 -0.6685 0.9933
-1.5653 -0.4437 -0.7091 0.9929
-4.2889 -1.6422 -2.0015 0.9802
-3.4421 -3.0403 -2.0015 0.9802
-3.1567 -3.3356 -2.0015 0.9802
-2.8461 -3.6043 -2.0015 0.9802
-2.5127 -3.8441 -2.0015 0.9802
-2.1592 -4.0532 -2.0015 0.9802
-0.6029 -4.5528 -2.0015 0.9802
0.6259 -4.5497 -2.0015 0.9802
1.0299 -4.4755 -2.0015 0.9802
1.8099 -4.2208 -2.0015 0.9802
2.1797 -4.0423 -2.0015 0.9802
2.8643 -3.5899 -2.0015 0.9802
3.4574 -3.0228 -2.0015 0.9802
4.1352 -1.9979 -2.0015 0.9802
4.2971 -1.6205 -2.0015 0.9802
4.5169 -0.8299 -2.0015 0.9802
4.5730 -0.4230 -2.0015 0.9802
4.5753 0.3975 -2.0015 0.9802
4.4315 1.2054 -2.0015 0.9802
4.3061 1.5964 -2.0015 0.9802
4.1463 1.9748 -2.0015 0.9802
3.7287 2.6811 -2.0015 0.9802
3.4742 3.0035 -2.0015 0.9802
3.1920 3.3018 -2.0015 0.9802
2.2022 4.0300 -2.0015 0.9802
1.8334 4.2107 -2.0015 0.9802
1.4499 4.3576 -2.0015 0.9802
1.0548 4.4697 -2.0015 0.9802
0.6513 4.5461 -2.0015 0.9802
0.2426 4.5861 -2.0015 0.9802
-0.1681 4.5894 -2.0015 0.9802
-2.1366 4.0652 -2.0015 0.9802
-2.4912 3.8581 -2.0015 0.9802
-3.6847 2.7412 -2.0015 0.9802
-3.9148 2.4011 -2.0015 0.9802
-4.1137 2.0418 -2.0015 0.9802
-1.5685 0.4541 -0.7117 0.9929
-1.5025 0.2926 -0.6671 0.9933
-1.5257 0.1575 -0.6685 0.9933
-1.5251 0.0205 -0.6647 0.9934
-1.5290 -0.1165 -0.6683 0.9933
-1.5519 -0.4044 -0.6989 0.9930
-1.5953 -0.5722 -0.7386 0.9926
-4.1670 -1.9305 -2.0015 0.9802
-3.9779 -2.2951 -2.0015 0.9802
-3.7569 -2.6413 -2.0015 0.9802
-3.5060 -2.9663 -2.0015 0.9802
-2.9221 -3.5429 -2.0015 0.9802
-2.2450 -4.0064 -2.0015 0.9802
-1.8781 -4.1909 -2.0015 0.9802
-1.1023 -4.4582 -2.0015 0.9802
-0.2913 -4.5833 -2.0015 0.9802
0.1193 -4.5910 -2.0015 0.9802
0.9344 -4.4964 -2.0015 0.9802
1.3323 -4.3950 -2.0015 0.9802
2.0932 -4.0877 -2.0015 0.9802
2.4500 -3.8844 -2.0015 0.9802
3.1022 -3.3864 -2.0015 0.9802
3.6553 -2.7803 -2.0015 0.9802
3.8890 -2.4426 -2.0015 0.9802
4.2617 -1.7115 -2.0015 0.9802
4.3975 -1.3240 -2.0015 0.9802
4.5629 -0.5203 -2.0015 0.9802
4.5912 -0.1106 -2.0015 0.9802
4.4562 1.1108 -2.0015 0.9802
4.3391 1.5044 -2.0015 0.9802
4.0021 2.2526 -2.0015 0.9802
3.2616 3.2332 -2.0015 0.9802
2.9597 3.5116 -2.0015 0.9802
2.2875 3.9823 -2.0015 0.9802
1.9226 4.1707 -2.0015 0.9802
1.1497 4.4463 -2.0015 0.9802
0.3401 4.5799 -2.0015 0.9802
-2.0496 4.1098 -2.0015 0.9802
-2.4085 3.9102 -2.0015 0.9802
-2.7482 3.6794 -2.0015 0.9802
-3.3591 3.1316 -2.0015 0.9802
-3.6255 2.8190 -2.0015 0.9802
-1.5796 0.4940 -0.7213 0.9928
-1.5209 0.3299 -0.6783 0.9932
-1.5296 -0.0838 -0.6676 0.9933
-1.5368 -0.3658 -0.6885 0.9931
-4.2072 -1.8414 -2.0015 0.9802
-3.8123 -2.5607 -2.0015 0.9802
-2.3298 -3.9577 -2.0015 0.9802
-1.5883 -4.3091 -2.0015 0.9802
-1.1970 -4.4338 -2.0015 0.9802
-0.7961 -4.5230 -2.0015 0.9802
-0.3888 -4.5760 -2.0015 0.9802
0.0215 -4.5925 -2.0015 0.9802
0.8385 -4.5153 -2.0015 0.9802
2.7089 -3.7085 -2.0015 0.9802
3.0294 -3.4517 -2.0015 0.9802
3.3256 -3.1672 -2.0015 0.9802
3.5953 -2.8575 -2.0015 0.9802
3.8362 -2.5248 -2.0015 0.9802
4.2243 -1.8019 -2.0015 0.9802
4.3683 -1.4173 -2.0015 0.9802
4.4775 -1.0213 -2.0015 0.9802
4.5508 -0.6173 -2.0015 0.9802
4.5880 0.2025 -2.0015 0.9802
4.0491 2.1669 -2.0015 0.9802
3.8394 2.5200 -2.0015 0.9802
3.5989 2.8529 -2.0015 0.9802
3.3296 3.1630 -2.0015 0.9802
2.7136 3.7051 -2.0015 0.9802
2.0109 4.1288 -2.0015 0.9802
1.6340 4.2920 -2.0015 0.9802
1.2441 4.4208 -2.0015 0.9802
0.4375 4.5716 -2.0015 0.9802
0.0273 4.5924 -2.0015 0.9802
-0.7904 4.5240 -2.0015 0.9802
-2.3248 3.9606 -2.0015 0.9802
-3.5647 2.8955 -2.0015 0.9802
-3.8091 2.5655 -2.0015 0.9802
-4.0231 2.2150 -2.0015 0.9802
-4.2048 1.8467 -2.0015 0.9802
-1.5142 0.2218 -0.6670 0.9933
-1.5296 0.0857 -0.6677 0.9933
-1.5281 -0.0511 -0.6664 0.9934
-1.5790 -0.4916 -0.7207 0.9928
-4.2454 -1.7514 -2.0015 0.9802
-3.6290 -2.8144 -2.0015 0.9802
-3.3631 -3.1274 -2.0015 0.9802
-3.0703 -3.4153 -2.0015 0.9802
-2.7529 -3.6760 -2.0015 0.9802
-2.0547 -4.1072 -2.0015 0.9802
-1.2910 -4.4073 -2.0015 0.9802
1.1441 -4.4477 -2.0015 0.9802
1.5369 -4.3277 -2.0015 0.9802
1.9174 -4.1731 -2.0015 0.9802
2.2825 -3.9851 -2.0015 0.9802
2.9552 -3.5153 -2.0015 0.9802
3.2575 -3.2373 -2.0015 0.9802
3.5337 -2.9333 -2.0015 0.9802
3.7816 -2.6059 -2.0015 0.9802
3.9993 -2.2577 -2.0015 0.9802
4.1850 -1.8914 -2.0015 0.9802
4.5367 -0.7140 -2.0015 0.9802
4.5913 0.1048 -2.0015 0.9802
4.5636 0.5145 -2.0015 0.9802
4.4994 0.9201 -2.0015 0.9802
4.3992 1.3184 -2.0015 0.9802
4.2638 1.7062 -2.0015 0.9802
4.0943 2.0803 -2.0015 0.9802
3.8921 2.4377 -2.0015 0.9802
3.6588 2.7757 -2.0015 0.9802
3.1064 3.3825 -2.0015 0.9802
2.4549 3.8813 -2.0015 0.9802
2.0983 4.0851 -2.0015 0.9802
1.3379 4.3933 -2.0015 0.9802
0.1251 4.5908 -2.0015 0.9802
-0.6939 4.5398 -2.0015 0.9802
-1.8728 4.1932 -2.0015 0.9802
-2.2399 4.0092 -2.0015 0.9802
-3.5022 2.9707 -2.0015 0.9802
-3.7536 2.6460 -2.0015 0.9802
-1.5956 0.5746 -0.7391 0.9926
-1.5290 0.1184 -0.6683 0.9933
-1.3330 0.4865 -0.6568 0.9938
-1.3157 0.3507 -0.6303 0.9940
-1.3186 0.2278 -0.6194 0.9941
-1.3380 0.1094 -0.6214 0.9941
-1.3345 -0.0105 -0.6178 0.9941
-1.3366 -0.1305 -0.6216 0.9941
-1.3129 -0.2481 -0.6185 0.9941
-1.3212 -0.3745 -0.6356 0.9940
-1.3314 -0.5098 -0.6599 0.9937
-3.8838 -1.9007 -2.0015 0.9811
-3.6985 -2.2401 -2.0015 0.9811
-3.4835 -2.5615 -2.0015 0.9811
-3.2408 -2.8625 -2.0015 0.9811
-2.6796 -3.3935 -2.0015 0.9811
-2.3658 -3.6194 -2.0015 0.9811
-0.5676 -4.2865 -2.0015 0.9811
0.2043 -4.3191 -2.0015 0.9811
0.5893 -4.2836 -2.0015 0.9811
0.9696 -4.2138 -2.0015 0.9811
2.0523 -3.8059 -2.0015 0.9811
2.3841 -3.6073 -2.0015 0.9811
2.6968 -3.3799 -2.0015 0.9811
3.7098 -2.2213 -2.0015 0.9811
3.8934 -1.8810 -2.0015 0.9811
4.1660 -1.1582 -2.0015 0.9811
4.3239 -0.0121 -2.0015 0.9811
4.3077 0.3743 -2.0015 0.9811
4.1724 1.1349 -2.0015 0.9811
3.5106 2.5243 -2.0015 0.9811
2.4041 3.5940 -2.0015 0.9811
2.0735 3.7944 -2.0015 0.9811
1.7262 3.9644 -2.0015 0.9811
0.9931 4.2084 -2.0015 0.9811
-0.1583 4.3210 -2.0015 0.9811
-0.5437 4.2896 -2.0015 0.9811
-0.9247 4.2239 -2.0015 0.9811
-1.2984 4.1244 -2.0015 0.9811
-1.6616 3.9919 -2.0015 0.9811
-3.6859 2.2607 -2.0015 0.9811
-1.3229 0.3830 -0.6375 0.9939
-1.3129 -0.6082 -0.6698 0.9936
-3.7453 -2.1609 -2.0015 0.9811
-3.3010 -2.7929 -2.0015 0.9811
-3.0383 -3.0766 -2.0015 0.9811
-2.4423 -3.5682 -2.0015 0.9811
-1.7683 -3.9458 -2.0015 0.9811
-1.4087 -4.0880 -2.0015 0.9811
0.1123 -4.3225 -2.0015 0.9811
1.2544 -4.1380 -2.0015 0.9811
1.6191 -4.0094 -2.0015 0.9811
1.9708 -3.8487 -2.0015 0.9811
3.1939 -2.9147 -2.0015 0.9811
3.4415 -2.6177 -2.0015 0.9811
3.6616 -2.2998 -2.0015 0.9811
4.2352 -0.8717 -2.0015 0.9811
4.2961 -0.4899 -2.0015 0.9811
4.0854 1.4165 -2.0015 0.9811
3.7681 2.1209 -2.0015 0.9811
3.0708 3.0441 -2.0015 0.9811
2.7866 3.3063 -2.0015 0.9811
2.4801 3.5420 -2.0015 0.9811
1.4521 4.0728 -2.0015 0.9811
0.7042 4.2662 -2.0015 0.9811
0.3202 4.3121 -2.0015 0.9811
-1.5763 4.0264 -2.0015 0.9811
-1.9297 3.8695 -2.0015 0.9811
-2.2677 3.6816 -2.0015 0.9811
-2.8867 3.2193 -2.0015 0.9811
-3.1627 2.9485 -2.0015 0.9811
-1.3263 0.5491 -0.6645 0.9937
-1.3287 0.4155 -0.6444 0.9939
-1.3318 0.1662 -0.6212 0.9941
-1.3375 0.0465 -0.6195 0.9941
-1.3327 -0.4462 -0.6506 0.9938
-3.3597 -2.7220 -2.0015 0.9811
-3.1031 -3.0112 -2.0015 0.9811
-2.8216 -3.2764 -2.0015 0.9811
-2.5176 -3.5154 -2.0015 0.9811
-2.1935 -3.7263 -2.0015 0.9811
-1.4954 -4.0571 -2.0015 0.9811
-1.1270 -4.1745 -2.0015 0.9811
-0.7495 -4.2585 -2.0015 0.9811
0.0203 -4.3239 -2.0015 0.9811
0.7847 -4.2257 -1.9895 0.9812
1.8884 -3.8898 -2.0015 0.9811
2.5505 -3.4916 -2.0015 0.9811
2.8522 -3.2498 -2.0015 0.9811
3.3850 -2.6904 -2.0015 0.9811
3.6119 -2.3772 -2.0015 0.9811
4.1129 -1.3344 -2.0015 0.9811
4.2157 -0.9616 -2.0015 0.9811
4.2847 -0.5812 -2.0015 0.9811
4.3195 -0.1961 -2.0015 0.9811
4.3197 0.1906 -2.0015 0.9811
4.2854 0.5758 -2.0015 0.9811
4.1146 1.3292 -2.0015 0.9811
3.9794 1.6915 -2.0015 0.9811
3.8124 2.0402 -2.0015 0.9811
3.6149 2.3726 -2.0015 0.9811
2.8563 3.2462 -2.0015 0.9811
2.2331 3.7027 -2.0015 0.9811
1.5385 4.0410 -2.0015 0.9811
0.7948 4.2503 -2.0015 0.9811
0.4119 4.3043 -2.0015 0.9811
0.0257 4.3239 -2.0015 0.9811
-0.7442 4.2594 -2.0015 0.9811
-3.0992 3.0152 -2.0015 0.9811
-3.3562 2.7262 -2.0015 0.9811
-3.5863 2.4155 -2.0015 0.9811
-1.3203 0.5798 -0.6675 0.9937
-1.3053 0.3124 -0.6213 0.9941
-1.3374 -0.0448 -0.6194 0.9941
-1.3321 -0.1646 -0.6213 0.9941
-1.3021 -0.2808 -0.6166 0.9941
-1.3284 -0.4136 -0.6440 0.9939
-3.6399 -2.3340 -2.0015 0.9811
-3.4168 -2.6499 -2.0015 0.9811
-3.1664 -2.9445 -2.0015 0.9811
-2.8907 -3.2156 -2.0015 0.9811
-2.5919 -3.4610 -2.0015 0.9811
-2.2723 -3.6787 -2.0015 0.9811
-1.9346 -3.8670 -2.0015 0.9811
-1.5814 -4.0244 -2.0015 0.9811
-0.8400 -4.2416 -2.0015 0.9811
-0.4577 -4.2997 -2.0015 0.9811
-0.0717 -4.3234 -2.0015 0.9811
0.3148 -4.3125 -2.0015 0.9811
1.0772 -4.1876 -2.0015 0.9811
1.8052 -3.9291 -2.0015 0.9811
2.4756 -3.5451 -2.0015 0.9811
2.7824 -3.3098 -2.0015 0.9811
3.0670 -3.0480 -2.0015 0.9811
3.3270 -2.7618 -2.0015 0.9811
3.5604 -2.4535 -2.0015 0.9811
3.7654 -2.1256 -2.0015 0.9811
3.9402 -1.7807 -2.0015 0.9811
4.0836 -1.4216 -2.0015 0.9811
4.1942 -1.0511 -2.0015 0.9811
4.2714 -0.6722 -2.0015 0.9811
4.2967 0.4844 -2.0015 0.9811
4.1419 1.2413 -2.0015 0.9811
4.0145 1.6064 -2.0015 0.9811
3.4448 2.6134 -2.0015 0.9811
3.1976 2.9107 -2.0015 0.9811
2.6286 3.4332 -2.0015 0.9811
2.3113 3.6543 -2.0015 0.9811
1.2596 4.1364 -2.0015 0.9811
0.1178 4.3223 -2.0015 0.9811
-0.2689 4.3156 -2.0015 0.9811
-1.0326 4.1988 -2.0015 0.9811
-1.7633 3.9481 -2.0015 0.9811
-2.1090 3.7748 -2.0015 0.9811
-2.4377 3.5713 -2.0015 0.9811
-3.0344 3.0804 -2.0015 0.9811
-3.5341 2.4913 -2.0015 0.9811
-1.3141 0.3442 -0.6288 0.9940
-1.3201 0.2222 -0.6196 0.9941
-1.3351 -0.0162 -0.6181 0.9941
-1.3359 -0.1362 -0.6216 0.9941
-1.3225 -0.3811 -0.6371 0.9940
-3.3248 2.3653 -2.0015 0.9820
-3.5228 2.0588 -2.0015 0.9820
-1.1552 0.4217 -0.6032 0.9945
-1.1584 0.3088 -0.5881 0.9947
-1.1946 0.0977 -0.5879 0.9947
-1.1932 -0.1165 -0.5881 0.9947
-1.1589 -0.3285 -0.5909 0.9946
-1.1531 -0.4415 -0.6057 0.9945
-1.1321 -0.5541 -0.6183 0.9944
-3.4901 -2.1139 -2.0015 0.9820
-1.5890 -3.7582 -2.0015 0.9820
-0.1721 -4.0767 -2.0015 0.9820
0.1928 -4.0758 -2.0015 0.9820
0.9150 -3.9764 -2.0015 0.9820
1.2666 -3.8788 -2.0015 0.9820
3.2995 -2.4005 -2.0015 0.9820
3.9312 -1.0929 -2.0015 0.9820
4.0803 -0.0114 -2.0015 0.9820
4.0172 0.7149 -2.0015 0.9820
3.9373 1.0709 -2.0015 0.9820
2.8360 2.9336 -2.0015 0.9820
2.5626 3.1752 -2.0015 0.9820
2.2687 3.3915 -2.0015 0.9820
1.2882 3.8716 -2.0015 0.9820
0.9372 3.9712 -2.0015 0.9820
-0.8726 3.9859 -2.0015 0.9820
-1.8983 3.6119 -2.0015 0.9820
-2.5107 3.2164 -2.0015 0.9820
-2.7880 2.9792 -2.0015 0.9820
-3.0430 2.7182 -2.0015 0.9820
-3.2737 2.4355 -2.0015 0.9820
-3.4782 2.1333 -2.0015 0.9820
-1.1303 0.5610 -0.6190 0.9944
-1.1756 0.2290 -0.5875 0.9947
-1.1950 -0.0910 -0.5879 0.9947
-1.1559 -0.4146 -0.6023 0.9945
-1.1385 -0.5275 -0.6155 0.9944
-3.1150 -2.6355 -2.0015 0.9820
-2.5962 -3.1478 -2.0015 0.9820
-1.9946 -3.5596 -2.0015 0.9820
-1.3293 -3.8577 -2.0015 0.9820
-0.6216 -4.0327 -2.0015 0.9820
0.4700 -4.0532 -2.0015 0.9820
0.8302 -3.9950 -2.0015 0.9820
1.1837 -3.9048 -2.0015 0.9820
1.5278 -3.7835 -2.0015 0.9820
2.1768 -3.4512 -2.0015 0.9820
2.4764 -3.2429 -2.0015 0.9820
2.7562 -3.0087 -2.0015 0.9820
3.7864 -1.5207 -2.0015 0.9820
3.9071 -1.1763 -2.0015 0.9820
4.0540 -0.4623 -2.0015 0.9820
4.0791 -0.0982 -2.0015 0.9820
4.0716 0.2666 -2.0015 0.9820
3.8552 1.3367 -2.0015 0.9820
3.5558 2.0014 -2.0015 0.9820
3.1428 2.6022 -2.0015 0.9820
2.6296 3.1200 -2.0015 0.9820
2.0324 3.5381 -2.0015 0.9820
1.0215 3.9504 -2.0015 0.9820
-0.4268 4.0579 -2.0015 0.9820
-0.7876 4.0036 -2.0015 0.9820
-1.8210 3.6514 -2.0015 0.9820
-2.4417 3.2691 -2.0015 0.9820
-3.2212 2.5046 -2.0015 0.9820
-3.4320 2.2069 -2.0015 0.9820
-1.1214 0.5866 -0.6208 0.9944
-1.1484 0.4755 -0.6097 0.9945
-1.1965 0.0416 -0.5872 0.9947
-1.1961 -0.0655 -0.5876 0.9947
-1.1864 -0.1723 -0.5881 0.9947
-1.1577 -0.3877 -0.5989 0.9946
-1.1441 -0.5007 -0.6126 0.9945
-1.1100 -0.6093 -0.6211 0.9944
-3.1704 -2.5686 -2.0015 0.9820
-2.9282 -2.8416 -2.0015 0.9820
-2.3758 -3.3173 -2.0015 0.9820
-2.0699 -3.5163 -2.0015 0.9820
-1.7475 -3.6872 -2.0015 0.9820
-1.4111 -3.8285 -2.0015 0.9820
-1.0635 -3.9393 -2.0015 0.9820
-0.7073 -4.0185 -2.0015 0.9820
0.0191 -4.0803 -2.0015 0.9820
0.3836 -4.0622 -2.0015 0.9820
0.7450 -4.0117 -2.0015 0.9820
1.4470 -3.8151 -2.0015 0.9820
2.4068 -3.2949 -2.0015 0.9820
2.6915 -3.0667 -2.0015 0.9820
3.4083 -2.2433 -2.0015 0.9820
3.8812 -1.2592 -2.0015 0.9820
4.0761 -0.1850 -2.0015 0.9820
3.9793 0.9024 -2.0015 0.9820
3.5975 1.9253 -2.0015 0.9820
3.4112 2.2389 -2.0015 0.9820
3.1975 2.5347 -2.0015 0.9820
2.9583 2.8103 -2.0015 0.9820
2.6954 3.0633 -2.0015 0.9820
2.4109 3.2919 -2.0015 0.9820
2.1072 3.4941 -2.0015 0.9820
1.4518 3.8133 -2.0015 0.9820
0.3887 4.0618 -2.0015 0.9820
-1.4063 3.8303 -2.0015 0.9820
-2.0655 3.5189 -2.0015 0.9820
-2.6587 3.0952 -2.0015 0.9820
-3.1671 2.5726 -2.0015 0.9820
-1.1438 0.5023 -0.6128 0.9944
-1.1576 0.3893 -0.5991 0.9946
-1.1487 -0.4739 -0.6095 0.9945
-1.1221 -0.5852 -0.6208 0.9944
-3.2243 -2.5006 -2.0015 0.9820
-2.9880 -2.7786 -2.0015 0.9820
-2.7278 -3.0344 -2.0015 0.9820
-2.1443 -3.4715 -2.0015 0.9820
-1.8256 -3.6491 -2.0015 0.9820
-1.1470 -3.9158 -2.0015 0.9820
-0.7926 -4.0026 -2.0015 0.9820
0.2970 -4.0695 -2.0015 0.9820
0.6594 -4.0267 -2.0015 0.9820
1.3655 -3.8451 -2.0015 0.9820
2.8942 -2.8762 -2.0015 0.9820
3.5532 -2.0059 -2.0015 0.9820
3.7182 -1.6804 -2.0015 0.9820
3.8535 -1.3415 -2.0015 0.9820
4.0307 -0.6343 -2.0015 0.9820
4.0713 -0.2717 -2.0015 0.9820
3.7883 1.5159 -2.0015 0.9820
3.4581 2.1658 -2.0015 0.9820
3.2507 2.4661 -2.0015 0.9820
2.4805 3.2398 -2.0015 0.9820
2.1811 3.4484 -2.0015 0.9820
0.8352 3.9939 -2.0015 0.9820
0.1111 4.0788 -2.0015 0.9820
-0.2537 4.0724 -2.0015 0.9820
-0.9744 3.9623 -2.0015 0.9820
-1.3245 3.8594 -2.0015 0.9820
-1.9901 3.5621 -2.0015 0.9820
-2.8634 2.9069 -2.0015 0.9820
-3.5317 2.0436 -2.0015 0.9820
-1.1382 0.5290 -0.6157 0.9944
-1.1557 0.4162 -0.6025 0.9945
-1.1818 0.1989 -0.5879 0.9947
-1.1949 0.0925 -0.5879 0.9947
-1.1927 -0.1216 -0.5881 0.9947
-3.1437 2.2365 -2.0015 0.9828
-1.0400 0.4889 -0.5961 0.9948
-1.0921 0.1887 -0.5750 0.9950
-1.1048 0.0904 -0.5751 0.9950
-1.1061 -0.0087 -0.5739 0.9950
-1.1035 -0.1077 -0.5752 0.9950
-1.0638 -0.3015 -0.5736 0.9950
-1.0563 -0.4045 -0.5868 0.9949
-1.0339 -0.5060 -0.5972 0.9948
-3.1082 -2.2855 -2.0015 0.9828
-2.8916 -2.5541 -2.0015 0.9828
-1.8139 -3.4051 -2.0015 0.9828
-1.1790 -3.6735 -2.0015 0.9828
-0.5065 -3.8247 -2.0015 0.9828
-0.1628 -3.8546 -2.0015 0.9828
0.1823 -3.8538 -2.0015 0.9828
1.1976 -3.6675 -2.0015 0.9828
1.8311 -3.3958 -2.0015 0.9828
2.1272 -3.2187 -2.0015 0.9828
2.4062 -3.0158 -2.0015 0.9828
2.6660 -2.7887 -2.0015 0.9828
2.9045 -2.5394 -2.0015 0.9828
3.1198 -2.2698 -2.0015 0.9828
3.4739 -1.6784 -2.0015 0.9828
3.7946 -0.6972 -2.0015 0.9828
3.8417 -0.3554 -2.0015 0.9828
3.8581 -0.0108 -2.0015 0.9828
3.7228 1.0126 -2.0015 0.9828
3.6175 1.3411 -2.0015 0.9828
3.3211 1.9635 -2.0015 0.9828
3.1324 2.2523 -2.0015 0.9828
2.9186 2.5232 -2.0015 0.9828
1.5402 3.5373 -2.0015 0.9828
1.2180 3.6608 -2.0015 0.9828
0.5471 3.8191 -2.0015 0.9828
0.2038 3.8527 -2.0015 0.9828
-0.1412 3.8555 -2.0015 0.9828
-0.4851 3.8275 -2.0015 0.9828
-0.8251 3.7688 -2.0015 0.9828
-1.7949 3.4151 -2.0015 0.9828
-2.0928 3.2411 -2.0015 0.9828
-2.6362 2.8170 -2.0015 0.9828
-3.0954 2.3029 -2.0015 0.9828
-0.9828 0.6028 -0.5981 0.9948
-1.0313 0.5119 -0.5973 0.9948
-1.1063 0.0149 -0.5740 0.9950
-1.1052 -0.0842 -0.5750 0.9950
-1.0687 -0.2785 -0.5729 0.9950
-1.0415 -0.4825 -0.5955 0.9948
-0.9988 -0.5763 -0.5982 0.9948
-3.1562 -2.2189 -2.0015 0.9828
-2.9453 -2.4920 -2.0015 0.9828
-2.4548 -2.9763 -2.0015 0.9828
-2.1791 -3.1837 -2.0015 0.9828
-1.8860 -3.3657 -2.0015 0.9828
-1.5778 -3.5207 -2.0015 0.9828
-1.2569 -3.6476 -2.0015 0.9828
-0.9260 -3.7453 -2.0015 0.9828
-0.2447 -3.8503 -2.0015 0.9828
0.4444 -3.8324 -2.0015 0.9828
0.7850 -3.7774 -2.0015 0.9828
1.4446 -3.5774 -2.0015 0.9828
1.7585 -3.4340 -2.0015 0.9828
2.6061 -2.8449 -2.0015 0.9828
2.8498 -2.6007 -2.0015 0.9828
3.4374 -1.7519 -2.0015 0.9828
3.6943 -1.1123 -2.0015 0.9828
3.7789 -0.7778 -2.0015 0.9828
3.8332 -0.4371 -2.0015 0.9828
3.8119 0.5950 -2.0015 0.9828
3.6452 1.2638 -2.0015 0.9828
3.3621 1.8924 -2.0015 0.9828
3.1796 2.1852 -2.0015 0.9828
2.7400 2.7161 -2.0015 0.9828
0.9659 3.7352 -2.0015 0.9828
0.6283 3.8066 -2.0015 0.9828
-0.0592 3.8576 -2.0015 0.9828
-0.4035 3.8369 -2.0015 0.9828
-0.7447 3.7855 -2.0015 0.9828
-1.4065 3.5926 -2.0015 0.9828
-1.7218 3.4526 -2.0015 0.9828
-3.0457 2.3682 -2.0015 0.9828
-1.1062 -0.0606 -0.5748 0.9950
-1.0470 -0.4583 -0.5929 0.9949
-2.9977 -2.4287 -2.0015 0.9828
-2.5176 -2.9234 -2.0015 0.9828
-2.2464 -3.1366 -2.0015 0.9828
-1.9572 -3.3248 -2.0015 0.9828
-1.3343 -3.6200 -2.0015 0.9828
-1.0055 -3.7247 -2.0015 0.9828
0.0181 -3.8580 -2.0015 0.9828
0.7044 -3.7932 -2.0015 0.9828
1.6850 -3.4707 -2.0015 0.9828
1.9883 -3.3063 -2.0015 0.9828
2.2757 -3.1154 -2.0015 0.9828
2.7938 -2.6607 -2.0015 0.9828
3.0203 -2.4005 -2.0015 0.9828
3.2227 -2.1211 -2.0015 0.9828
3.7615 -0.8580 -2.0015 0.9828
3.8237 0.5137 -2.0015 0.9828
3.0234 2.3967 -2.0015 0.9828
2.7972 2.6572 -2.0015 0.9828
2.5486 2.8965 -2.0015 0.9828
1.9925 3.3038 -2.0015 0.9828
1.3727 3.6056 -2.0015 0.9828
0.7092 3.7923 -2.0015 0.9828
0.0230 3.8580 -2.0015 0.9828
-0.3218 3.8446 -2.0015 0.9828
-0.6640 3.8005 -2.0015 0.9828
-1.0008 3.7260 -2.0015 0.9828
-1.3297 3.6217 -2.0015 0.9828
-1.6479 3.4884 -2.0015 0.9828
-2.2424 3.1395 -2.0015 0.9828
-2.5139 2.9266 -2.0015 0.9828
-2.9946 2.4325 -2.0015 0.9828
-1.0467 0.4597 -0.5931 0.9949
-1.0970 0.1607 -0.5752 0.9950
-1.1062 0.0620 -0.5748 0.9950
-1.1005 -0.1359 -0.5752 0.9950
-1.0517 -0.4339 -0.5902 0.9949
-1.0217 -0.5328 -0.5978 0.9948
-3.0487 -2.3644 -2.0015 0.9828
-1.7262 -3.4504 -2.0015 0.9828
-0.7495 -3.7846 -2.0015 0.9828
-0.4084 -3.8364 -2.0015 0.9828
-0.0640 -3.8575 -2.0015 0.9828
0.2809 -3.8478 -2.0015 0.9828
0.6235 -3.8074 -2.0015 0.9828
1.6107 -3.5058 -2.0015 0.9828
1.9175 -3.3478 -2.0015 0.9828
2.2089 -3.1631 -2.0015 0.9828
2.7365 -2.7196 -2.0015 0.9828
2.9686 -2.4642 -2.0015 0.9828
3.3597 -1.8966 -2.0015 0.9828
3.6436 -1.2685 -2.0015 0.9828
3.8571 0.0880 -2.0015 0.9828
3.6957 1.1076 -2.0015 0.9828
3.4396 1.7476 -2.0015 0.9828
3.2697 2.0479 -2.0015 0.9828
3.0737 2.3318 -2.0015 0.9828
2.3454 3.0633 -2.0015 0.9828
1.4491 3.5756 -2.0015 0.9828
-0.2399 3.8506 -2.0015 0.9828
-1.2523 3.6492 -2.0015 0.9828
-3.1533 2.2229 -2.0015 0.9828
-0.9981 0.5775 -0.5982 0.9948
-1.0412 0.4840 -0.5956 0.9948
-1.0591 0.3814 -0.5840 0.9949
-1.0682 0.2798 -0.5729 0.9950
-1.1051 0.0856 -0.5750 0.9950
-1.1063 -0.0135 -0.5740 0.9950
-1.1030 -0.1125 -0.5752 0.9950
-1.0876 -0.2104 -0.5747 0.9950
-1.0637 -0.3065 -0.5743 0.9950
-0.8587 0.6109 -0.5772 0.9952
-0.9537 0.4483 -0.5772 0.9952
-0.9905 0.2640 -0.5614 0.9953
-1.0139 0.1752 -0.5635 0.9953
-1.0259 0.0839 -0.5637 0.9953
-1.0272 -0.0081 -0.5626 0.9953
-1.0246 -0.1000 -0.5638 0.9953
-1.0106 -0.1910 -0.5633 0.9953
-0.9853 -0.2793 -0.5609 0.9953
-0.9727 -0.3724 -0.5705 0.9953
-0.9472 -0.4636 -0.5776 0.9952
-0.8482 -0.6237 -0.5767 0.9952
-2.5118 -2.6542 -2.0015 0.9835
-1.9994 -3.0588 -2.0015 0.9835
-1.7181 -3.2252 -2.0015 0.9835
-1.1168 -3.4795 -2.0015 0.9835
-0.8014 -3.5654 -2.0015 0.9835
-0.1542 -3.6511 -2.0015 0.9835
0.4981 -3.6202 -2.0015 0.9835
0.8195 -3.5613 -2.0015 0.9835
1.1344 -3.4738 -2.0015 0.9835
1.7344 -3.2165 -2.0015 0.9835
2.2792 -2.8565 -2.0015 0.9835
3.1352 -1.8773 -2.0015 0.9835
3.2904 -1.5897 -2.0015 0.9835
3.6543 -0.0102 -2.0015 0.9835
3.5978 0.6403 -2.0015 0.9835
3.4264 1.2703 -2.0015 0.9835
3.2992 1.5713 -2.0015 0.9835
2.9670 2.1334 -2.0015 0.9835
2.7645 2.3899 -2.0015 0.9835
2.5399 2.6273 -2.0015 0.9835
2.2951 2.8437 -2.0015 0.9835
1.4589 3.3505 -2.0015 0.9835
0.1930 3.6492 -2.0015 0.9835
-0.1338 3.6519 -2.0015 0.9835
-0.4595 3.6253 -2.0015 0.9835
-0.7815 3.5698 -2.0015 0.9835
-1.4043 3.3737 -2.0015 0.9835
-1.7001 3.2348 -2.0015 0.9835
-1.9823 3.0700 -2.0015 0.9835
-2.4970 2.6682 -2.0015 0.9835
-2.7254 2.4345 -2.0015 0.9835
-2.9319 2.1812 -2.0015 0.9835
-0.9718 0.3783 -0.5712 0.9953
-1.0093 0.1966 -0.5632 0.9953
-1.0262 -0.0782 -0.5637 0.9953
-0.9922 -0.2586 -0.5616 0.9953
-0.9559 -0.4429 -0.5770 0.9952
-0.8623 -0.6063 -0.5773 0.9952
-2.7898 -2.3604 -2.0015 0.9835
-2.5677 -2.6002 -2.0015 0.9835
-2.3252 -2.8192 -2.0015 0.9835
-2.0640 -3.0156 -2.0015 0.9835
-1.7864 -3.1879 -2.0015 0.9835
-0.8771 -3.5475 -2.0015 0.9835
-0.5567 -3.6117 -2.0015 0.9835
-0.2318 -3.6470 -2.0015 0.9835
0.0949 -3.6531 -2.0015 0.9835
0.4209 -3.6300 -2.0015 0.9835
1.3683 -3.3885 -2.0015 0.9835
1.9495 -3.0909 -2.0015 0.9835
2.4684 -2.6946 -2.0015 0.9835
2.6993 -2.4633 -2.0015 0.9835
3.2558 -1.6594 -2.0015 0.9835
3.4992 -1.0535 -2.0015 0.9835
3.6308 -0.4140 -2.0015 0.9835
3.6106 0.5636 -2.0015 0.9835
3.5458 0.8839 -2.0015 0.9835
3.3319 1.5008 -2.0015 0.9835
3.1845 1.7924 -2.0015 0.9835
0.9148 3.5380 -2.0015 0.9835
0.5951 3.6056 -2.0015 0.9835
0.2706 3.6443 -2.0015 0.9835
-0.3822 3.6343 -2.0015 0.9835
-1.3322 3.4029 -2.0015 0.9835
-1.6309 3.2702 -2.0015 0.9835
-1.9165 3.1115 -2.0015 0.9835
-2.1868 2.9278 -2.0015 0.9835
-2.6729 2.4919 -2.0015 0.9835
-2.8849 2.2431 -2.0015 0.9835
-0.8880 0.5710 -0.5782 0.9952
-0.9800 0.3065 -0.5624 0.9953
-1.0216 0.1275 -0.5639 0.9953
-1.0276 0.0357 -0.5632 0.9953
-1.0188 -0.1479 -0.5638 0.9953
-0.9783 -0.3276 -0.5651 0.9953
-0.9633 -0.4216 -0.5760 0.9952
-2.8394 -2.3005 -2.0015 0.9835
-2.6225 -2.5449 -2.0015 0.9835
-2.3847 -2.7690 -2.0015 0.9835
-1.8538 -3.1492 -2.0015 0.9835
-1.2638 -3.4288 -2.0015 0.9835
-0.9524 -3.5280 -2.0015 0.9835
-0.3094 -3.6412 -2.0015 0.9835
0.0171 -3.6543 -2.0015 0.9835
0.6672 -3.5929 -2.0015 0.9835
0.9855 -3.5189 -2.0015 0.9835
1.2959 -3.4168 -2.0015 0.9835
1.5960 -3.2874 -2.0015 0.9835
2.4105 -2.7465 -2.0015 0.9835
2.8608 -2.2737 -2.0015 0.9835
3.2198 -1.7283 -2.0015 0.9835
3.3613 -1.4338 -2.0015 0.9835
3.4760 -1.1277 -2.0015 0.9835
3.5628 -0.8127 -2.0015 0.9835
3.6212 -0.4912 -2.0015 0.9835
3.6506 -0.1657 -2.0015 0.9835
3.6218 0.4866 -2.0015 0.9835
3.4774 1.1234 -2.0015 0.9835
3.3631 1.4295 -2.0015 0.9835
2.6494 2.5169 -2.0015 0.9835
1.8872 3.1293 -2.0015 0.9835
1.3002 3.4152 -2.0015 0.9835
0.9899 3.5177 -2.0015 0.9835
0.6717 3.5921 -2.0015 0.9835
0.3481 3.6377 -2.0015 0.9835
0.0217 3.6543 -2.0015 0.9835
-0.6289 3.5998 -2.0015 0.9835
-2.1240 2.9737 -2.0015 0.9835
-2.6193 2.5482 -2.0015 0.9835
-0.8751 0.5894 -0.5778 0.9952
-0.9251 0.5094 -0.5784 0.9952
-0.9630 0.4230 -0.5761 0.9952
-0.9782 0.3289 -0.5652 0.9953
-1.0276 -0.0344 -0.5631 0.9953
-0.9801 -0.3051 -0.5622 0.9953
-0.9359 -0.4881 -0.5781 0.9952
-0.8887 -0.5699 -0.5783 0.9952
-2.8877 -2.2395 -2.0015 0.9835
-2.6761 -2.4885 -2.0015 0.9835
-2.1905 -2.9250 -2.0015 0.9835
-1.6350 -3.2682 -2.0015 0.9835
-0.7099 -3.5847 -2.0015 0.9835
0.2660 -3.6446 -2.0015 0.9835
0.9104 -3.5391 -2.0015 0.9835
1.8162 -3.1710 -2.0015 0.9835
2.0923 -2.9961 -2.0015 0.9835
2.5920 -2.5759 -2.0015 0.9835
3.0091 -2.0736 -2.0015 0.9835
