ply
format ascii 1.0
element vertex 1593
property float32 x
property float32 y
property float32 z
property float32 I
end_header
-4.4561 8.7717 -1.8493 0.9607
-6.4202 8.4623 -1.9965 0.9577
-7.1685 7.8741 -2.0015 0.9576
-7.8436 7.2019 -2.0015 0.9576
-8.4559 6.4720 -2.0015 0.9576
-9.8698 3.9970 -2.0015 0.9576
-10.4237 2.1759 -2.0015 0.9576
-10.6275 -0.6672 -2.0015 0.9576
-10.5254 -1.6144 -2.0015 0.9576
-9.7200 -4.3487 -2.0015 0.9576
-7.5800 -7.4788 -2.0015 0.9576
-4.4790 -9.6606 -2.0015 0.9576
-3.5976 -10.0223 -2.0015 0.9576
-1.7558 -10.5027 -2.0015 0.9576
0.1421 -10.6475 -2.0015 0.9576
2.2645 8.4505 -1.8493 0.9649
1.5001 8.6191 -1.8493 0.9649
-1.6150 8.5983 -1.8493 0.9649
-2.3771 8.4195 -1.8493 0.9649
-3.1201 8.1734 -1.8493 0.9649
-3.8381 7.8618 -1.8493 0.9649
-6.2623 7.1021 -2.0015 0.9620
-7.4267 5.8736 -2.0015 0.9620
-8.3538 4.4575 -2.0015 0.9620
-8.7188 3.6931 -2.0015 0.9620
-9.4583 -0.4432 -2.0015 0.9620
-9.3808 -1.2868 -2.0015 0.9620
-9.2283 -2.1200 -2.0015 0.9620
-8.7034 -3.7292 -2.0015 0.9620
-8.3353 -4.4921 -2.0015 0.9620
-7.9004 -5.2192 -2.0015 0.9620
-7.4023 -5.9044 -2.0015 0.9620
-6.8450 -6.5423 -2.0015 0.9620
-4.1187 -8.5260 -2.0015 0.9620
-3.3402 -8.8600 -2.0015 0.9620
-0.8701 -9.4286 -2.0015 0.9620
0.8224 -9.4329 -2.0015 0.9620
1.6622 -9.3216 -2.0015 0.9620
6.1967 -7.1594 -2.0015 0.9620
7.3724 -5.9417 -2.0015 0.9620
8.3125 -4.5342 -2.0015 0.9620
9.3742 -1.3342 -2.0015 0.9620
9.4560 -0.4910 -2.0015 0.9620
9.4620 0.3561 -2.0015 0.9620
9.3923 1.2004 -2.0015 0.9620
9.2474 2.0350 -2.0015 0.9620
8.7374 3.6489 -2.0015 0.9620
7.4563 5.8360 -2.0015 0.9620
6.9049 6.4791 -2.0015 0.9620
2.4196 8.4074 -1.8493 0.9649
0.8841 8.7039 -1.8493 0.9649
-0.6797 8.7222 -1.8493 0.9649
-1.4565 8.6266 -1.8493 0.9649
-2.2217 8.4619 -1.8493 0.9649
-2.9691 8.2294 -1.8493 0.9649
-4.6073 7.9498 -1.9422 0.9631
-5.4612 7.7354 -2.0015 0.9620
-6.1306 7.2161 -2.0015 0.9620
-7.3174 6.0093 -2.0015 0.9620
-7.8252 5.3313 -2.0015 0.9620
-8.2704 4.6105 -2.0015 0.9620
-8.9591 3.0644 -2.0015 0.9620
-9.3615 1.4204 -2.0015 0.9620
-9.4510 0.5780 -2.0015 0.9620
-9.4029 -1.1139 -2.0015 0.9620
-9.0544 -2.7702 -2.0015 0.9620
-8.7706 -3.5684 -2.0015 0.9620
-7.9951 -5.0729 -2.0015 0.9620
-7.5097 -5.7671 -2.0015 0.9620
-6.9642 -6.4153 -2.0015 0.9620
-6.3630 -7.0120 -2.0015 0.9620
-5.0129 -8.0329 -2.0015 0.9620
-4.2749 -8.4488 -2.0015 0.9620
-3.5026 -8.7970 -2.0015 0.9620
-1.8805 -9.2801 -2.0015 0.9620
-1.0435 -9.4110 -2.0015 0.9620
0.6487 -9.4464 -2.0015 0.9620
1.4904 -9.3507 -2.0015 0.9620
2.3202 -9.1800 -2.0015 0.9620
3.9175 -8.6203 -2.0015 0.9620
5.3897 -7.7851 -2.0015 0.9620
6.6896 -6.7011 -2.0015 0.9620
7.7758 -5.4030 -2.0015 0.9620
8.2276 -4.6864 -2.0015 0.9620
8.9305 -3.1467 -2.0015 0.9620
9.1760 -2.3360 -2.0015 0.9620
9.3481 -1.5065 -2.0015 0.9620
9.4453 -0.6649 -2.0015 0.9620
9.4669 0.1819 -2.0015 0.9620
9.4128 1.0273 -2.0015 0.9620
8.8030 3.4875 -2.0015 0.9620
8.4561 4.2603 -2.0015 0.9620
8.0415 4.9991 -2.0015 0.9620
4.9112 7.7110 -1.9325 0.9633
4.0215 7.7696 -1.8493 0.9649
1.0441 8.6861 -1.8493 0.9649
-1.2975 8.6519 -1.8493 0.9649
-2.8172 8.2827 -1.8493 0.9649
-4.3877 7.9026 -1.9107 0.9637
-5.3119 7.8257 -1.9993 0.9621
-6.6277 6.7624 -2.0015 0.9620
-7.2055 6.1430 -2.0015 0.9620
-9.1541 2.4203 -2.0015 0.9620
-9.3338 1.5924 -2.0015 0.9620
-9.4218 -0.9407 -2.0015 0.9620
-9.1038 -2.6031 -2.0015 0.9620
-8.4949 -4.1823 -2.0015 0.9620
-8.0871 -4.9249 -2.0015 0.9620
-7.0811 -6.2860 -2.0015 0.9620
-5.8488 -7.4463 -2.0015 0.9620
-5.1599 -7.9393 -2.0015 0.9620
-3.6640 -8.7311 -2.0015 0.9620
-2.0509 -9.2439 -2.0015 0.9620
-1.2165 -9.3902 -2.0015 0.9620
0.4748 -9.4568 -2.0015 0.9620
1.3181 -9.3765 -2.0015 0.9620
2.1509 -9.2212 -2.0015 0.9620
3.7582 -8.6909 -2.0015 0.9620
5.2455 -7.8830 -2.0015 0.9620
5.9290 -7.3826 -2.0015 0.9620
7.1487 -6.2090 -2.0015 0.9620
7.6751 -5.5452 -2.0015 0.9620
8.1400 -4.8371 -2.0015 0.9620
9.1315 -2.5044 -2.0015 0.9620
9.3188 -1.6783 -2.0015 0.9620
9.4315 -0.8387 -2.0015 0.9620
9.1274 2.5192 -2.0015 0.9620
8.8657 3.3249 -2.0015 0.9620
7.1387 6.2206 -2.0015 0.9620
6.5541 6.8337 -2.0015 0.9620
4.1805 7.7252 -1.8567 0.9647
1.9735 8.5232 -1.8493 0.9649
1.2038 8.6654 -1.8493 0.9649
0.4245 8.7383 -1.8493 0.9649
-0.3582 8.7413 -1.8493 0.9649
-1.9088 8.5379 -1.8493 0.9649
-2.6642 8.3331 -1.8493 0.9649
-4.1763 7.8592 -1.8813 0.9643
-5.1612 7.9132 -1.9970 0.9621
-6.5021 6.8832 -2.0015 0.9620
-7.0913 6.2745 -2.0015 0.9620
-8.5017 4.1686 -2.0015 0.9620
-9.1080 2.5883 -2.0015 0.9620
-9.3029 1.7639 -2.0015 0.9620
-9.4375 -0.7671 -2.0015 0.9620
-9.3312 -1.6076 -2.0015 0.9620
-8.5705 -4.0253 -2.0015 0.9620
-8.1764 -4.7752 -2.0015 0.9620
-7.7169 -5.4869 -2.0015 0.9620
-7.1956 -6.1546 -2.0015 0.9620
-4.5829 -8.2857 -2.0015 0.9620
-3.8240 -8.6622 -2.0015 0.9620
-2.2207 -9.2046 -2.0015 0.9620
-0.5464 -9.4529 -2.0015 0.9620
0.3006 -9.4639 -2.0015 0.9620
3.5976 -8.7586 -2.0015 0.9620
4.3661 -8.4020 -2.0015 0.9620
5.0995 -7.9781 -2.0015 0.9620
5.7922 -7.4904 -2.0015 0.9620
6.4385 -6.9428 -2.0015 0.9620
7.5717 -5.6856 -2.0015 0.9620
8.8087 -3.4733 -2.0015 0.9620
9.4442 0.6802 -2.0015 0.9620
9.1722 2.3508 -2.0015 0.9620
8.9254 3.1612 -2.0015 0.9620
7.7670 5.4156 -2.0015 0.9620
6.0506 7.2801 -2.0010 0.9620
5.3141 7.7025 -1.9781 0.9625
4.3642 7.7217 -1.8749 0.9644
2.8799 8.2611 -1.8493 0.9649
2.1300 8.4854 -1.8493 0.9649
1.3631 8.6418 -1.8493 0.9649
-1.7514 8.5716 -1.8493 0.9649
-3.2494 8.1228 -1.8493 0.9649
-6.9746 6.4040 -2.0015 0.9620
-8.0033 5.0599 -2.0015 0.9620
-8.4235 4.3243 -2.0015 0.9620
-9.4501 -0.5933 -2.0015 0.9620
-9.3592 -1.4355 -2.0015 0.9620
-8.9541 -3.0789 -2.0015 0.9620
-8.6431 -3.8669 -2.0015 0.9620
-8.2629 -4.6239 -2.0015 0.9620
-7.3076 -6.0212 -2.0015 0.9620
-5.4485 -7.7440 -2.0015 0.9620
-4.7346 -8.2000 -2.0015 0.9620
-2.3897 -9.1622 -2.0015 0.9620
0.1264 -9.4678 -2.0015 0.9620
-0.0525 7.8684 -1.8493 0.9682
-1.4527 7.7343 -1.8495 0.9682
-2.9471 7.7203 -1.9422 0.9666
-3.7266 7.6335 -1.9964 0.9657
-5.0389 6.8654 -2.0015 0.9656
-6.1807 5.8586 -2.0015 0.9656
-6.6796 5.2828 -2.0015 0.9656
-8.1072 2.6074 -2.0015 0.9656
-8.3078 1.8723 -2.0015 0.9656
-8.4419 1.1223 -2.0015 0.9656
-8.4371 -1.1573 -2.0015 0.9656
-7.8279 -3.3540 -2.0015 0.9656
-7.4968 -4.0402 -2.0015 0.9656
-7.1056 -4.6941 -2.0015 0.9656
-5.6058 -6.4109 -2.0015 0.9656
-3.7043 -7.6683 -2.0015 0.9656
-3.0041 -7.9687 -2.0015 0.9656
-2.2799 -8.2053 -2.0015 0.9656
-0.7826 -8.4801 -2.0015 0.9656
-0.0215 -8.5161 -2.0015 0.9656
0.7397 -8.4840 -2.0015 0.9656
2.9638 -7.9838 -2.0015 0.9656
3.6655 -7.6869 -2.0015 0.9656
4.3379 -7.3285 -2.0015 0.9656
5.5733 -6.4392 -2.0015 0.9656
6.1266 -5.9153 -2.0015 0.9656
6.6307 -5.3440 -2.0015 0.9656
7.0818 -4.7300 -2.0015 0.9656
8.0828 -2.6819 -2.0015 0.9656
8.2902 -1.9487 -2.0015 0.9656
8.5047 -0.4416 -2.0015 0.9656
8.3171 1.8303 -2.0015 0.9656
8.1203 2.5663 -2.0015 0.9656
7.8584 3.2818 -2.0015 0.9656
6.7063 5.2489 -2.0015 0.9656
6.2103 5.8273 -2.0015 0.9656
4.4414 7.2650 -2.0012 0.9656
2.9875 7.7090 -1.9431 0.9666
0.7952 7.8283 -1.8493 0.9682
0.0923 7.8680 -1.8493 0.9682
-0.6113 7.8448 -1.8493 0.9682
-1.3100 7.7587 -1.8493 0.9682
-2.7836 7.7152 -1.9277 0.9669
-4.2702 7.3682 -2.0015 0.9656
-4.9117 6.9570 -2.0015 0.9656
-5.5138 6.4902 -2.0015 0.9656
-6.0719 5.9714 -2.0015 0.9656
-6.5813 5.4048 -2.0015 0.9656
-7.0380 4.7949 -2.0015 0.9656
-7.4384 4.1467 -2.0015 0.9656
-8.0578 2.7561 -2.0015 0.9656
-8.2719 2.0249 -2.0015 0.9656
-8.5127 -0.2420 -2.0015 0.9656
-8.4570 -1.0018 -2.0015 0.9656
-8.3336 -1.7537 -2.0015 0.9656
-8.1435 -2.4915 -2.0015 0.9656
-7.8882 -3.2094 -2.0015 0.9656
-7.5698 -3.9016 -2.0015 0.9656
-6.2636 -5.7699 -2.0015 0.9656
-5.7229 -6.3066 -2.0015 0.9656
-5.1363 -6.7929 -2.0015 0.9656
-3.8448 -7.5988 -2.0015 0.9656
-2.4305 -8.1619 -2.0015 0.9656
-0.9385 -8.4643 -2.0015 0.9656
0.5834 -8.4961 -2.0015 0.9656
1.3405 -8.4100 -2.0015 0.9656
2.0868 -8.2565 -2.0015 0.9656
3.5234 -7.7531 -2.0015 0.9656
5.4539 -6.5406 -2.0015 0.9656
6.5312 -5.4651 -2.0015 0.9656
6.9936 -4.8595 -2.0015 0.9656
7.7470 -3.5367 -2.0015 0.9656
8.0321 -2.8302 -2.0015 0.9656
8.4077 -1.3549 -2.0015 0.9656
8.4951 -0.5980 -2.0015 0.9656
8.5146 0.1636 -2.0015 0.9656
8.3494 1.6769 -2.0015 0.9656
8.1661 2.4165 -2.0015 0.9656
7.9175 3.1367 -2.0015 0.9656
7.6054 3.8318 -2.0015 0.9656
7.2325 4.4962 -2.0015 0.9656
6.8017 5.1246 -2.0015 0.9656
5.7807 6.2537 -2.0015 0.9656
4.5749 7.1830 -2.0015 0.9656
3.1509 7.7065 -1.9567 0.9664
2.3757 7.7174 -1.8978 0.9674
1.6397 7.7257 -1.8562 0.9681
0.9391 7.8123 -1.8493 0.9682
-1.8765 7.7230 -1.8679 0.9679
-3.4296 7.7348 -1.9885 0.9658
-4.1321 7.4422 -2.0006 0.9656
-4.7828 7.0462 -2.0015 0.9656
-5.3935 6.5905 -2.0015 0.9656
-5.9609 6.0821 -2.0015 0.9656
-6.4807 5.5250 -2.0015 0.9656
-7.7141 3.6079 -2.0015 0.9656
-8.3948 1.4322 -2.0015 0.9656
-8.4892 0.6762 -2.0015 0.9656
-8.5157 -0.0853 -2.0015 0.9656
-8.4740 -0.8460 -2.0015 0.9656
-8.3645 -1.6000 -2.0015 0.9656
-8.1880 -2.3412 -2.0015 0.9656
-6.8486 -5.0618 -2.0015 0.9656
-6.3688 -5.6536 -2.0015 0.9656
-4.6408 -7.1406 -2.0015 0.9656
-3.2954 -7.8527 -2.0015 0.9656
-2.5803 -8.1158 -2.0015 0.9656
-1.0942 -8.4456 -2.0015 0.9656
1.9345 -8.2935 -2.0015 0.9656
3.3801 -7.8166 -2.0015 0.9656
5.3326 -6.6399 -2.0015 0.9656
6.4296 -5.5844 -2.0015 0.9656
6.9030 -4.9874 -2.0015 0.9656
7.3211 -4.3505 -2.0015 0.9656
7.6806 -3.6787 -2.0015 0.9656
7.9787 -2.9775 -2.0015 0.9656
8.2129 -2.2525 -2.0015 0.9656
8.4827 -0.7543 -2.0015 0.9656
8.4814 0.7680 -2.0015 0.9656
8.3789 1.5230 -2.0015 0.9656
8.2092 2.2658 -2.0015 0.9656
5.8948 6.1463 -2.0015 0.9656
4.7063 7.0976 -2.0015 0.9656
2.5314 7.7154 -1.9084 0.9672
1.7884 7.7238 -1.8633 0.9679
1.0827 7.7937 -1.8493 0.9682
0.3818 7.8593 -1.8493 0.9682
-2.4670 7.7163 -1.9039 0.9673
-3.2585 7.7298 -1.9715 0.9661
-3.9915 7.5114 -1.9991 0.9657
-4.6523 7.1330 -2.0015 0.9656
-5.2713 6.6887 -2.0015 0.9656
-5.8480 6.1908 -2.0015 0.9656
-6.3779 5.6433 -2.0015 0.9656
-7.2807 4.4176 -2.0015 0.9656
-7.9509 3.0508 -2.0015 0.9656
-8.1918 2.3280 -2.0015 0.9656
-8.4754 0.8323 -2.0015 0.9656
-8.5158 0.0715 -2.0015 0.9656
-8.4881 -0.6899 -2.0015 0.9656
-8.3925 -1.4458 -2.0015 0.9656
-8.2297 -2.1901 -2.0015 0.9656
-6.9406 -4.9349 -2.0015 0.9656
-6.4717 -5.5355 -2.0015 0.9656
-4.7714 -7.0539 -2.0015 0.9656
-3.4393 -7.7908 -2.0015 0.9656
-1.9973 -8.2786 -2.0015 0.9656
-1.2494 -8.4240 -2.0015 0.9656
-0.4915 -8.5020 -2.0015 0.9656
1.0301 -8.4536 -2.0015 0.9656
2.5187 -8.1352 -2.0015 0.9656
3.9268 -7.5568 -2.0015 0.9656
4.5865 -7.1756 -2.0015 0.9656
5.2095 -6.7369 -2.0015 0.9656
5.7908 -6.2443 -2.0015 0.9656
7.2398 -4.4845 -2.0015 0.9656
7.9225 -3.1238 -2.0015 0.9656
8.4674 -0.9103 -2.0015 0.9656
8.4941 0.6118 -2.0015 0.9656
8.4055 1.3685 -2.0015 0.9656
8.0275 2.8432 -2.0015 0.9656
7.7413 3.5493 -2.0015 0.9656
6.0069 6.0367 -2.0015 0.9656
5.4433 6.5495 -2.0015 0.9656
4.8361 7.0097 -2.0015 0.9656
3.4847 7.7010 -1.9866 0.9659
2.6889 7.7133 -1.9198 0.9670
1.2259 7.7725 -1.8493 0.9682
0.5264 7.8509 -1.8493 0.9682
-0.1774 7.8665 -1.8493 0.9682
-0.8798 7.8192 -1.8493 0.9682
-2.3120 7.7182 -1.8936 0.9674
-3.0902 7.7247 -1.9554 0.9664
-3.8497 7.5780 -1.9977 0.9657
-4.5203 7.2175 -2.0015 0.9656
-5.1473 6.7846 -2.0015 0.9656
-5.7331 6.2974 -2.0015 0.9656
-6.2730 5.7597 -2.0015 0.9656
-8.1476 2.4783 -2.0015 0.9656
-8.3365 1.7402 -2.0015 0.9656
-8.4177 -1.2911 -2.0015 0.9656
-7.4317 -4.1588 -2.0015 0.9656
-6.0622 -5.9812 -2.0015 0.9656
-4.2583 -7.3751 -2.0015 0.9656
-3.5821 -7.7261 -2.0015 0.9656
-2.1493 -8.2405 -2.0015 0.9656
-1.4042 -8.3996 -2.0015 0.9656
-0.6479 -8.4915 -2.0015 0.9656
0.1137 -8.5154 -2.0015 0.9656
3.2983 6.9913 -2.0015 0.9686
2.6601 7.2576 -2.0014 0.9686
1.3216 7.5936 -1.9957 0.9687
-2.0974 7.4289 -1.9987 0.9686
-3.9986 6.6157 -2.0015 0.9686
-4.5739 6.2318 -2.0015 0.9686
-5.1126 5.7981 -2.0015 0.9686
-6.4675 4.2341 -2.0015 0.9686
-6.8200 3.6391 -2.0015 0.9686
-7.1180 3.0150 -2.0015 0.9686
-7.6628 1.0188 -2.0015 0.9686
-7.7232 0.3298 -2.0015 0.9686
-7.6585 -1.0505 -2.0015 0.9686
-6.8049 -3.6674 -2.0015 0.9686
-5.0885 -5.8192 -2.0015 0.9686
-4.5480 -6.2507 -2.0015 0.9686
-3.9711 -6.6322 -2.0015 0.9686
-2.7269 -7.2333 -2.0015 0.9686
-2.0695 -7.4481 -2.0015 0.9686
-0.0195 -7.7302 -2.0015 0.9686
2.0318 -7.4584 -2.0015 0.9686
3.9375 -6.6522 -2.0015 0.9686
5.0590 -5.8449 -2.0015 0.9686
5.5611 -5.3693 -2.0015 0.9686
6.0188 -4.8508 -2.0015 0.9686
6.7863 -3.7017 -2.0015 0.9686
7.0900 -3.0804 -2.0015 0.9686
7.3369 -2.4344 -2.0015 0.9686
7.6531 -1.0892 -2.0015 0.9686
7.7198 -0.4008 -2.0015 0.9686
7.5496 1.6614 -2.0015 0.9686
7.1332 2.9790 -2.0015 0.9686
6.0873 4.7645 -2.0015 0.9686
5.6371 5.2895 -2.0015 0.9686
4.6053 6.2086 -2.0015 0.9686
4.0320 6.5954 -2.0015 0.9686
3.4264 6.9294 -2.0015 0.9686
2.7933 7.2079 -2.0015 0.9686
2.1349 7.4181 -1.9986 0.9686
1.4615 7.5695 -1.9961 0.9686
0.7784 7.6637 -1.9945 0.9687
-1.2831 7.5998 -1.9956 0.9687
-3.2629 7.0078 -2.0015 0.9686
-5.0050 5.8912 -2.0015 0.9686
-6.3885 4.3524 -2.0015 0.9686
-7.5085 1.8381 -2.0015 0.9686
-7.6427 1.1596 -2.0015 0.9686
-7.7158 0.4719 -2.0015 0.9686
-7.7271 -0.2196 -2.0015 0.9686
-7.6765 -0.9094 -2.0015 0.9686
-7.5645 -1.5919 -2.0015 0.9686
-7.3920 -2.2616 -2.0015 0.9686
-7.1603 -2.9132 -2.0015 0.9686
-6.8712 -3.5415 -2.0015 0.9686
-6.5272 -4.1415 -2.0015 0.9686
-6.1309 -4.7083 -2.0015 0.9686
-5.1947 -5.7246 -2.0015 0.9686
-2.2062 -7.4087 -2.0015 0.9686
-1.5352 -7.5762 -2.0015 0.9686
-0.1618 -7.7285 -2.0015 0.9686
0.5296 -7.7121 -2.0015 0.9686
1.2168 -7.6338 -2.0015 0.9686
1.8942 -7.4946 -2.0015 0.9686
2.5565 -7.2953 -2.0015 0.9686
3.8145 -6.7236 -2.0015 0.9686
4.4001 -6.3557 -2.0015 0.9686
5.4614 -5.4708 -2.0015 0.9686
6.3481 -4.4110 -2.0015 0.9686
7.4913 -1.9071 -2.0015 0.9686
7.7111 -0.5429 -2.0015 0.9686
7.7288 0.1485 -2.0015 0.9686
7.6846 0.8387 -2.0015 0.9686
7.5789 1.5222 -2.0015 0.9686
7.4125 2.1935 -2.0015 0.9686
6.9035 3.4781 -2.0015 0.9686
6.1740 4.6517 -2.0015 0.9686
5.2472 5.6766 -2.0015 0.9686
3.5533 6.8651 -2.0015 0.9686
2.9255 7.1552 -2.0015 0.9686
2.2718 7.3800 -1.9993 0.9686
-0.4569 7.6880 -1.9941 0.9687
-1.1429 7.6207 -1.9952 0.9687
-3.1334 7.0667 -2.0015 0.9686
-5.8826 5.0151 -2.0015 0.9686
-6.6815 3.8876 -2.0015 0.9686
-7.0022 3.2749 -2.0015 0.9686
-7.2669 2.6360 -2.0015 0.9686
-7.4734 1.9759 -2.0015 0.9686
-7.6201 1.3001 -2.0015 0.9686
-7.7058 0.6138 -2.0015 0.9686
-7.4324 -2.1252 -2.0015 0.9686
-7.2127 -2.7809 -2.0015 0.9686
-6.2165 -4.5947 -2.0015 0.9686
-4.2125 -6.4816 -2.0015 0.9686
-2.9912 -7.1280 -2.0015 0.9686
-2.3422 -7.3668 -2.0015 0.9686
-1.6744 -7.5467 -2.0015 0.9686
1.0761 -7.6550 -2.0015 0.9686
1.7560 -7.5281 -2.0015 0.9686
3.0682 -7.0952 -2.0015 0.9686
4.2824 -6.4356 -2.0015 0.9686
5.3598 -5.5704 -2.0015 0.9686
5.8362 -5.0690 -2.0015 0.9686
6.2659 -4.5271 -2.0015 0.9686
6.6454 -3.9490 -2.0015 0.9686
6.9718 -3.3392 -2.0015 0.9686
7.6078 -1.3701 -2.0015 0.9686
7.7302 0.0062 -2.0015 0.9686
7.4516 2.0567 -2.0015 0.9686
7.2379 2.7145 -2.0015 0.9686
6.9664 3.3505 -2.0015 0.9686
6.6390 3.9597 -2.0015 0.9686
6.2586 4.5372 -2.0015 0.9686
5.3508 5.5790 -2.0015 0.9686
4.8307 6.0350 -2.0015 0.9686
4.2720 6.4425 -2.0015 0.9686
3.0567 7.1002 -2.0015 0.9686
1.7399 7.5141 -1.9970 0.9686
1.0602 7.6319 -1.9950 0.9687
0.3737 7.6922 -1.9940 0.9687
-1.0023 7.6393 -1.9949 0.9687
-1.6828 7.5270 -1.9970 0.9686
-2.3522 7.3571 -1.9999 0.9686
-4.7848 6.0714 -2.0015 0.9686
-6.6088 4.0100 -2.0015 0.9686
-7.2172 2.7693 -2.0015 0.9686
-7.5949 1.4401 -2.0015 0.9686
-7.6932 0.7555 -2.0015 0.9686
-7.7299 0.0649 -2.0015 0.9686
-4.8860 -5.9902 -2.0015 0.9686
-4.3311 -6.4030 -2.0015 0.9686
-3.1219 -7.0718 -2.0015 0.9686
-2.4774 -7.3225 -2.0015 0.9686
0.9350 -7.6735 -2.0015 0.9686
1.6171 -7.5592 -2.0015 0.9686
2.2862 -7.3844 -2.0015 0.9686
4.7287 -6.1152 -2.0015 0.9686
6.9092 -3.4670 -2.0015 0.9686
7.1914 -2.8356 -2.0015 0.9686
7.4160 -2.1815 -2.0015 0.9686
7.7102 0.5553 -2.0015 0.9686
7.2867 2.5808 -2.0015 0.9686
6.3410 4.4213 -2.0015 0.9686
5.4525 5.4796 -2.0015 0.9686
4.9410 5.9450 -2.0015 0.9686
3.8036 6.7297 -2.0015 0.9686
2.5436 7.2965 -2.0007 0.9686
1.2007 7.6124 -1.9953 0.9687
-0.1736 7.6989 -1.9939 0.9687
-2.2157 7.3967 -1.9992 0.9686
-2.8712 7.1772 -2.0015 0.9686
-3.5012 6.8919 -2.0015 0.9686
-4.1031 6.5514 -2.0015 0.9686
-5.2040 5.7162 -2.0015 0.9686
-5.6940 5.2282 -2.0015 0.9686
-6.1385 4.6984 -2.0015 0.9686
-6.5339 4.1309 -2.0015 0.9686
-6.8770 3.5304 -2.0015 0.9686
-7.1650 2.9016 -2.0015 0.9686
-7.3956 2.2496 -2.0015 0.9686
-7.7274 0.2071 -2.0015 0.9686
-7.7150 -0.4844 -2.0015 0.9686
-7.3101 -2.5136 -2.0015 0.9686
-6.7458 -3.7750 -2.0015 0.9686
-5.5027 -5.4292 -2.0015 0.9686
-4.4482 -6.3222 -2.0015 0.9686
-2.6117 -7.2757 -2.0015 0.9686
-0.5881 -7.7078 -2.0015 0.9686
0.7936 -7.6894 -2.0015 0.9686
2.4330 6.6382 -2.0015 0.9710
1.2123 6.9654 -2.0015 0.9710
-0.0472 7.0699 -2.0015 0.9710
-1.9210 6.8041 -2.0015 0.9710
-3.1017 6.3534 -2.0015 0.9710
-3.6571 6.0507 -2.0015 0.9710
-5.5454 4.3857 -2.0015 0.9710
-5.9152 3.8725 -2.0015 0.9710
-6.2376 3.3284 -2.0015 0.9710
-6.7305 2.1646 -2.0015 0.9710
-6.7215 -2.1925 -2.0015 0.9710
-6.4987 -2.7845 -2.0015 0.9710
-6.2238 -3.3542 -2.0015 0.9710
-5.8991 -3.8970 -2.0015 0.9710
-5.5272 -4.4087 -2.0015 0.9710
-5.1110 -4.8850 -2.0015 0.9710
-4.1596 -5.7170 -2.0015 0.9710
-3.0753 -6.3662 -2.0015 0.9710
-1.8928 -6.8120 -2.0015 0.9710
-1.2763 -6.9539 -2.0015 0.9710
-0.6497 -7.0402 -2.0015 0.9710
-0.0179 -7.0701 -2.0015 0.9710
1.8583 -6.8215 -2.0015 0.9710
3.6013 -6.0841 -2.0015 0.9710
4.6270 -5.3458 -2.0015 0.9710
5.5048 -4.4366 -2.0015 0.9710
5.8793 -3.9268 -2.0015 0.9710
6.4845 -2.8173 -2.0015 0.9710
6.7104 -2.2265 -2.0015 0.9710
6.8825 -1.6178 -2.0015 0.9710
6.9995 -0.9962 -2.0015 0.9710
7.0606 -0.3666 -2.0015 0.9710
7.0651 0.2659 -2.0015 0.9710
6.7414 2.1306 -2.0015 0.9710
6.5240 2.7246 -2.0015 0.9710
5.5675 4.3576 -2.0015 0.9710
5.1558 4.8378 -2.0015 0.9710
3.6877 6.0322 -2.0015 0.9710
2.5548 6.5923 -2.0015 0.9710
0.0829 7.0696 -2.0015 0.9710
-0.5493 7.0487 -2.0015 0.9710
-1.7954 6.8383 -2.0015 0.9710
-2.3994 6.6505 -2.0015 0.9710
-2.9842 6.4094 -2.0015 0.9710
-5.4637 4.4870 -2.0015 0.9710
-6.1753 3.4426 -2.0015 0.9710
-6.4583 2.8769 -2.0015 0.9710
-7.0569 0.4316 -2.0015 0.9710
-7.0672 -0.2009 -2.0015 0.9710
-7.0210 -0.8317 -2.0015 0.9710
-5.9698 -3.7878 -2.0015 0.9710
-4.2641 -5.6394 -2.0015 0.9710
-3.7430 -5.9980 -2.0015 0.9710
-3.1920 -6.3085 -2.0015 0.9710
-2.6153 -6.5686 -2.0015 0.9710
-2.0178 -6.7760 -2.0015 0.9710
-0.7792 -7.0270 -2.0015 0.9710
-0.1480 -7.0685 -2.0015 0.9710
6.1434 -3.4993 -2.0015 0.9710
6.4316 -2.9362 -2.0015 0.9710
6.6682 -2.3496 -2.0015 0.9710
6.8516 -1.7442 -2.0015 0.9710
6.9800 -1.1249 -2.0015 0.9710
7.0688 0.1358 -2.0015 0.9710
6.3140 3.1811 -2.0015 0.9710
5.6468 4.2544 -2.0015 0.9710
4.7991 5.1918 -2.0015 0.9710
4.3158 5.6000 -2.0015 0.9710
3.7981 5.9633 -2.0015 0.9710
3.2499 6.2789 -2.0015 0.9710
2.6757 6.5442 -2.0015 0.9710
2.0801 6.7572 -2.0015 0.9710
1.4678 6.9160 -2.0015 0.9710
0.8438 7.0196 -2.0015 0.9710
0.2130 7.0669 -2.0015 0.9710
-1.0486 6.9919 -2.0015 0.9710
-1.6693 6.8702 -2.0015 0.9710
-2.2766 6.6935 -2.0015 0.9710
-2.8658 6.4632 -2.0015 0.9710
-5.3802 4.5868 -2.0015 0.9710
-5.7687 4.0876 -2.0015 0.9710
-6.1109 3.5557 -2.0015 0.9710
-6.4043 2.9952 -2.0015 0.9710
-7.0351 -0.7024 -2.0015 0.9710
-6.9442 -1.3283 -2.0015 0.9710
-6.7977 -1.9437 -2.0015 0.9710
-6.5967 -2.5435 -2.0015 0.9710
-6.3430 -3.1229 -2.0015 0.9710
-5.6857 -4.2023 -2.0015 0.9710
-5.2873 -4.6936 -2.0015 0.9710
-4.8467 -5.1474 -2.0015 0.9710
-3.8528 -5.9281 -2.0015 0.9710
-3.3075 -6.2487 -2.0015 0.9710
-2.7358 -6.5193 -2.0015 0.9710
-2.1422 -6.7377 -2.0015 0.9710
-1.5314 -6.9022 -2.0015 0.9710
-0.2780 -7.0646 -2.0015 0.9710
0.3545 -7.0612 -2.0015 0.9710
0.9842 -7.0012 -2.0015 0.9710
1.6060 -6.8853 -2.0015 0.9710
2.2149 -6.7142 -2.0015 0.9710
2.8062 -6.4893 -2.0015 0.9710
3.3749 -6.2126 -2.0015 0.9710
3.9167 -5.8860 -2.0015 0.9710
4.9021 -5.0947 -2.0015 0.9710
5.7308 -4.1405 -2.0015 0.9710
7.0701 0.0057 -2.0015 0.9710
7.0413 0.6376 -2.0015 0.9710
6.0721 3.6216 -2.0015 0.9710
4.8938 5.1026 -2.0015 0.9710
4.4182 5.5196 -2.0015 0.9710
3.9072 5.8924 -2.0015 0.9710
3.3649 6.2180 -2.0015 0.9710
0.3431 7.0618 -2.0015 0.9710
-0.2895 7.0642 -2.0015 0.9710
-1.5426 6.8998 -2.0015 0.9710
-2.1531 6.7343 -2.0015 0.9710
-2.7463 6.5149 -2.0015 0.9710
-3.3176 6.2433 -2.0015 0.9710
-3.8624 5.9218 -2.0015 0.9710
-4.3762 5.5529 -2.0015 0.9710
-4.8550 5.1396 -2.0015 0.9710
-5.2949 4.6851 -2.0015 0.9710
-5.6925 4.1931 -2.0015 0.9710
-6.3480 3.1126 -2.0015 0.9710
-6.6008 2.5328 -2.0015 0.9710
-6.8008 1.9327 -2.0015 0.9710
-6.9463 1.3171 -2.0015 0.9710
-7.0362 0.6910 -2.0015 0.9710
-7.0698 0.0593 -2.0015 0.9710
-7.0468 -0.5728 -2.0015 0.9710
-3.9612 -5.8562 -2.0015 0.9710
-3.4220 -6.1868 -2.0015 0.9710
-2.2658 -6.6972 -2.0015 0.9710
-1.6582 -6.8729 -2.0015 0.9710
-1.0372 -6.9936 -2.0015 0.9710
-0.4080 -7.0583 -2.0015 0.9710
0.8552 -7.0182 -2.0015 0.9710
3.8077 -5.9571 -2.0015 0.9710
4.3249 -5.5930 -2.0015 0.9710
4.8075 -5.1840 -2.0015 0.9710
6.3191 -3.1709 -2.0015 0.9710
6.5773 -2.5934 -2.0015 0.9710
6.7827 -1.9952 -2.0015 0.9710
6.9339 -1.3810 -2.0015 0.9710
7.0518 0.5079 -2.0015 0.9710
6.9782 1.1362 -2.0015 0.9710
6.8487 1.7553 -2.0015 0.9710
6.4268 2.9466 -2.0015 0.9710
6.1377 3.5092 -2.0015 0.9710
5.7995 4.0437 -2.0015 0.9710
5.4149 4.5459 -2.0015 0.9710
4.9869 5.0117 -2.0015 0.9710
4.0150 5.8195 -2.0015 0.9710
2.3273 6.6760 -2.0015 0.9710
1.1015 6.9837 -2.0015 0.9710
0.4730 7.0542 -2.0015 0.9710
-0.1594 7.0683 -2.0015 0.9710
-0.7905 7.0258 -2.0015 0.9710
-2.6260 6.5643 -2.0015 0.9710
-3.7527 5.9919 -2.0015 0.9710
-4.2733 5.6325 -2.0015 0.9710
-4.7596 5.2280 -2.0015 0.9710
-5.6143 4.2971 -2.0015 0.9710
-6.7641 2.0575 -2.0015 0.9710
-6.9209 1.4447 -2.0015 0.9710
-7.0223 0.8204 -2.0015 0.9710
-7.0562 -0.4430 -2.0015 0.9710
-6.9883 -1.0719 -2.0015 0.9710
-6.8646 -1.6922 -2.0015 0.9710
-6.6858 -2.2990 -2.0015 0.9710
-6.1697 -3.4526 -2.0015 0.9710
-5.8365 -3.9902 -2.0015 0.9710
-5.0328 -4.9656 -2.0015 0.9710
-4.0683 -5.7823 -2.0015 0.9710
-3.5352 -6.1228 -2.0015 0.9710
-1.7844 -6.8412 -2.0015 0.9710
-1.1658 -6.9733 -2.0015 0.9710
0.7259 -7.0327 -2.0015 0.9710
1.1158 6.4109 -2.0015 0.9731
0.5383 6.4849 -2.0015 0.9731
-0.0434 6.5071 -2.0015 0.9731
-0.6248 6.4772 -2.0015 0.9731
-1.2013 6.3954 -2.0015 0.9731
-3.3660 5.5691 -2.0015 0.9731
-3.8503 5.2459 -2.0015 0.9731
-4.3037 4.8808 -2.0015 0.9731
-5.1039 4.0366 -2.0015 0.9731
-5.4443 3.5643 -2.0015 0.9731
-5.7411 3.0634 -2.0015 0.9731
-5.9919 2.5380 -2.0015 0.9731
-6.3480 1.4307 -2.0015 0.9731
-6.5013 0.2776 -2.0015 0.9731
-6.3420 -1.4570 -2.0015 0.9731
-6.1864 -2.0180 -2.0015 0.9731
-4.2835 -4.8986 -2.0015 0.9731
-2.2955 -6.0889 -2.0015 0.9731
-1.1747 -6.4003 -2.0015 0.9731
-0.5980 -6.4797 -2.0015 0.9731
0.5652 -6.4827 -2.0015 0.9731
1.1424 -6.4062 -2.0015 0.9731
1.7104 -6.2785 -2.0015 0.9731
2.2646 -6.1005 -2.0015 0.9731
2.8008 -5.8736 -2.0015 0.9731
5.7126 -3.1161 -2.0015 0.9731
5.9683 -2.5930 -2.0015 0.9731
6.1762 -2.0492 -2.0015 0.9731
6.3346 -1.4890 -2.0015 0.9731
6.4423 -0.9169 -2.0015 0.9731
6.4985 -0.3375 -2.0015 0.9731
6.3552 1.3985 -2.0015 0.9731
6.0047 2.5077 -2.0015 0.9731
5.7565 3.0343 -2.0015 0.9731
5.1243 4.0107 -2.0015 0.9731
4.7453 4.4527 -2.0015 0.9731
0.6576 6.4739 -2.0015 0.9731
-0.5055 6.4876 -2.0015 0.9731
-1.0833 6.4164 -2.0015 0.9731
-2.2084 6.1210 -2.0015 0.9731
-3.2629 5.6301 -2.0015 0.9731
-3.7531 5.3159 -2.0015 0.9731
-4.2132 4.9592 -2.0015 0.9731
-4.6396 4.5628 -2.0015 0.9731
-5.0288 4.1298 -2.0015 0.9731
-5.3778 3.6639 -2.0015 0.9731
-5.6837 3.1685 -2.0015 0.9731
-6.1570 2.1060 -2.0015 0.9731
-6.3206 1.5473 -2.0015 0.9731
-6.4951 0.3972 -2.0015 0.9731
-6.3678 -1.3400 -2.0015 0.9731
-6.2225 -1.9038 -2.0015 0.9731
-5.7842 -2.9812 -2.0015 0.9731
-4.7861 -4.4088 -2.0015 0.9731
-4.3729 -4.8189 -2.0015 0.9731
-1.8572 -6.2366 -2.0015 0.9731
-0.1362 -6.5058 -2.0015 0.9731
2.6923 -5.9242 -2.0015 0.9731
3.7040 -5.3502 -2.0015 0.9731
4.9906 -4.1759 -2.0015 0.9731
5.9196 -2.7024 -2.0015 0.9731
6.4244 -1.0353 -2.0015 0.9731
6.4912 -0.4570 -2.0015 0.9731
6.5061 0.1250 -2.0015 0.9731
6.4688 0.7060 -2.0015 0.9731
6.3798 1.2814 -2.0015 0.9731
6.2398 1.8464 -2.0015 0.9731
6.0498 2.3967 -2.0015 0.9731
5.5264 3.4356 -2.0015 0.9731
4.8265 4.3646 -2.0015 0.9731
4.4170 4.7785 -2.0015 0.9731
1.9145 6.2192 -2.0015 0.9731
0.7766 6.4607 -2.0015 0.9731
0.1961 6.5043 -2.0015 0.9731
-0.3861 6.4958 -2.0015 0.9731
-1.5364 6.3233 -2.0015 0.9731
-2.0954 6.1606 -2.0015 0.9731
-3.1588 5.6892 -2.0015 0.9731
-3.6546 5.3841 -2.0015 0.9731
-4.1212 5.0359 -2.0015 0.9731
-4.5548 4.6474 -2.0015 0.9731
-5.3094 3.7622 -2.0015 0.9731
-6.3914 -1.2226 -2.0015 0.9731
-6.2565 -1.7890 -2.0015 0.9731
-6.0716 -2.3410 -2.0015 0.9731
-5.5578 -3.3846 -2.0015 0.9731
-5.2330 -3.8678 -2.0015 0.9731
-4.8664 -4.3200 -2.0015 0.9731
-4.4608 -4.7376 -2.0015 0.9731
-4.0195 -5.1174 -2.0015 0.9731
-2.5180 -6.0003 -2.0015 0.9731
-0.8360 -6.4533 -2.0015 0.9731
0.9058 -6.4439 -2.0015 0.9731
2.5828 -5.9727 -2.0015 0.9731
3.6049 -5.4175 -2.0015 0.9731
4.0747 -5.0736 -2.0015 0.9731
4.5118 -4.6891 -2.0015 0.9731
4.9129 -4.2671 -2.0015 0.9731
6.4042 -1.1534 -2.0015 0.9731
6.4817 -0.5764 -2.0015 0.9731
6.4023 1.1637 -2.0015 0.9731
5.8643 2.8204 -2.0015 0.9731
5.2684 3.8194 -2.0015 0.9731
4.9060 4.2750 -2.0015 0.9731
4.5042 4.6964 -2.0015 0.9731
3.5961 5.4233 -2.0015 0.9731
3.0970 5.7230 -2.0015 0.9731
2.5731 5.9769 -2.0015 0.9731
2.0286 6.1830 -2.0015 0.9731
1.4679 6.3395 -2.0015 0.9731
-0.8465 6.4520 -2.0015 0.9731
-1.4198 6.3505 -2.0015 0.9731
-1.9817 6.1982 -2.0015 0.9731
-2.5277 5.9962 -2.0015 0.9731
-3.0535 5.7463 -2.0015 0.9731
-3.5549 5.4504 -2.0015 0.9731
-4.0278 5.1109 -2.0015 0.9731
-4.4685 4.7304 -2.0015 0.9731
-5.5633 3.3756 -2.0015 0.9731
-6.0754 2.3312 -2.0015 0.9731
-6.2594 1.7788 -2.0015 0.9731
-6.5070 0.0546 -2.0015 0.9731
-6.4128 -1.1048 -2.0015 0.9731
-6.2884 -1.6735 -2.0015 0.9731
-5.8900 -2.7663 -2.0015 0.9731
-5.6191 -3.2817 -2.0015 0.9731
-4.9451 -4.2297 -2.0015 0.9731
-4.5473 -4.6548 -2.0015 0.9731
-4.1130 -5.0425 -2.0015 0.9731
-3.6459 -5.3900 -2.0015 0.9731
-1.5262 -6.3258 -2.0015 0.9731
-0.9547 -6.4368 -2.0015 0.9731
1.3613 -6.3633 -2.0015 0.9731
2.4724 -6.0193 -2.0015 0.9731
3.9806 -5.1477 -2.0015 0.9731
4.4248 -4.7713 -2.0015 0.9731
5.2036 -3.9073 -2.0015 0.9731
5.5320 -3.4266 -2.0015 0.9731
6.4227 1.0457 -2.0015 0.9731
6.3035 1.6156 -2.0015 0.9731
6.1339 2.1725 -2.0015 0.9731
5.9152 2.7120 -2.0015 0.9731
5.3378 3.7218 -2.0015 0.9731
4.9838 4.1840 -2.0015 0.9731
4.5899 4.6127 -2.0015 0.9731
3.6953 5.3562 -2.0015 0.9731
3.2018 5.6650 -2.0015 0.9731
2.1420 6.1446 -2.0015 0.9731
1.5843 6.3114 -2.0015 0.9731
-0.1467 6.5056 -2.0015 0.9731
-2.9473 5.8015 -2.0015 0.9731
-4.3807 4.8119 -2.0015 0.9731
-6.0314 2.4426 -2.0015 0.9731
-6.2256 1.8937 -2.0015 0.9731
-6.3699 1.3297 -2.0015 0.9731
-6.4633 0.7551 -2.0015 0.9731
-6.5049 0.1744 -2.0015 0.9731
-6.1536 -2.1160 -2.0015 0.9731
-5.9399 -2.6575 -2.0015 0.9731
-5.6786 -3.1777 -2.0015 0.9731
-5.3718 -3.6725 -2.0015 0.9731
-5.0221 -4.1380 -2.0015 0.9731
-4.6322 -4.5703 -2.0015 0.9731
-4.2051 -4.9660 -2.0015 0.9731
-3.2538 -5.6353 -2.0015 0.9731
-2.7371 -5.9036 -2.0015 0.9731
-2.1985 -6.1246 -2.0015 0.9731
-0.4950 -6.4884 -2.0015 0.9731
0.6681 -6.4729 -2.0015 0.9731
2.5691 5.4456 -2.0015 0.9749
2.0721 5.6535 -2.0015 0.9749
1.5585 5.8160 -2.0015 0.9749
1.0325 5.9321 -2.0015 0.9749
0.4981 6.0006 -2.0015 0.9749
-0.5782 5.9934 -2.0015 0.9749
-1.1115 5.9177 -2.0015 0.9749
-3.1146 5.1531 -2.0015 0.9749
-3.5627 4.8541 -2.0015 0.9749
-4.3700 4.1423 -2.0015 0.9749
-5.7321 1.8435 -2.0015 0.9749
-5.8739 1.3238 -2.0015 0.9749
-5.9687 0.7935 -2.0015 0.9749
-6.0158 0.2569 -2.0015 0.9749
-6.0146 -0.2818 -2.0015 0.9749
-5.9654 -0.8183 -2.0015 0.9749
-5.8684 -1.3482 -2.0015 0.9749
-5.3005 -2.8566 -2.0015 0.9749
-5.0239 -3.3189 -2.0015 0.9749
-4.3528 -4.1603 -2.0015 0.9749
-3.5425 -4.8688 -2.0015 0.9749
-3.0932 -5.1660 -2.0015 0.9749
-2.1240 -5.6342 -2.0015 0.9749
-1.0870 -5.9223 -2.0015 0.9749
3.0670 -5.1816 -2.0015 0.9749
3.9406 -4.5527 -2.0015 0.9749
4.6882 -3.7784 -2.0015 0.9749
5.0071 -3.3443 -2.0015 0.9749
5.7149 -1.8962 -2.0015 0.9749
5.8615 -1.3778 -2.0015 0.9749
6.0170 0.2265 -2.0015 0.9749
5.9726 0.7633 -2.0015 0.9749
5.5562 2.3204 -2.0015 0.9749
5.3265 2.8077 -2.0015 0.9749
5.0543 3.2725 -2.0015 0.9749
4.7416 3.7112 -2.0015 0.9749
4.3909 4.1201 -2.0015 0.9749
4.0051 4.4961 -2.0015 0.9749
3.1406 5.1373 -2.0015 0.9749
2.1758 5.6144 -2.0015 0.9749
0.6085 5.9904 -2.0015 0.9749
0.0706 6.0208 -2.0015 0.9749
-0.4678 6.0030 -2.0015 0.9749
-1.0024 5.9372 -2.0015 0.9749
-2.0435 5.6639 -2.0015 0.9749
-3.0192 5.2096 -2.0015 0.9749
-4.6532 3.8214 -2.0015 0.9749
-5.6972 1.9487 -2.0015 0.9749
-5.9531 0.9032 -2.0015 0.9749
-6.0100 0.3676 -2.0015 0.9749
-5.9794 -0.7083 -2.0015 0.9749
-5.5773 -2.2692 -2.0015 0.9749
-4.0463 -4.4590 -2.0015 0.9749
-3.6315 -4.8028 -2.0015 0.9749
-3.1877 -5.1082 -2.0015 0.9749
-2.7184 -5.3726 -2.0015 0.9749
-2.2274 -5.5941 -2.0015 0.9749
-1.7185 -5.7708 -2.0015 0.9749
-0.6636 -5.9846 -2.0015 0.9749
-0.1260 -6.0199 -2.0015 0.9749
0.9478 -5.9462 -2.0015 0.9749
1.4754 -5.8377 -2.0015 0.9749
4.9447 -3.4358 -2.0015 0.9749
5.2320 -2.9802 -2.0015 0.9749
5.4774 -2.5006 -2.0015 0.9749
5.6790 -2.0010 -2.0015 0.9749
5.8351 -1.4855 -2.0015 0.9749
6.0201 0.1157 -2.0015 0.9749
5.9033 1.1857 -2.0015 0.9749
5.7737 1.7085 -2.0015 0.9749
5.5979 2.2177 -2.0015 0.9749
5.1136 3.1790 -2.0015 0.9749
4.4660 4.0386 -2.0015 0.9749
4.0871 4.4216 -2.0015 0.9749
3.6756 4.7692 -2.0015 0.9749
3.2346 5.0786 -2.0015 0.9749
2.2787 5.5734 -2.0015 0.9749
0.7186 5.9782 -2.0015 0.9749
-0.8930 5.9546 -2.0015 0.9749
-1.4216 5.8510 -2.0015 0.9749
-1.9389 5.7005 -2.0015 0.9749
-2.4406 5.5044 -2.0015 0.9749
-2.9228 5.2642 -2.0015 0.9749
-3.3816 4.9819 -2.0015 0.9749
-3.8134 4.6598 -2.0015 0.9749
-4.2146 4.3003 -2.0015 0.9749
-5.2044 3.0282 -2.0015 0.9749
-5.6603 2.0532 -2.0015 0.9749
-5.9355 1.0126 -2.0015 0.9749
-6.0209 -0.0603 -2.0015 0.9749
-5.9914 -0.5982 -2.0015 0.9749
-5.9140 -1.1313 -2.0015 0.9749
-5.1427 -3.1318 -2.0015 0.9749
-4.5029 -3.9973 -2.0015 0.9749
-3.7193 -4.7352 -2.0015 0.9749
-2.8168 -5.3217 -2.0015 0.9749
-2.3299 -5.5522 -2.0015 0.9749
-1.3042 -5.8783 -2.0015 0.9749
-0.2368 -6.0166 -2.0015 0.9749
1.3677 -5.8638 -2.0015 0.9749
2.3899 -5.5266 -2.0015 0.9749
3.3357 -5.0128 -2.0015 0.9749
3.7703 -4.6946 -2.0015 0.9749
4.5459 -3.9484 -2.0015 0.9749
4.8806 -3.5263 -2.0015 0.9749
5.6412 -2.1052 -2.0015 0.9749
5.8068 -1.5926 -2.0015 0.9749
5.9259 -1.0672 -2.0015 0.9749
5.9976 -0.5333 -2.0015 0.9749
6.0212 0.0049 -2.0015 0.9749
5.9967 0.5430 -2.0015 0.9749
5.9242 1.0768 -2.0015 0.9749
5.8042 1.6020 -2.0015 0.9749
5.1713 3.0843 -2.0015 0.9749
4.8749 3.5342 -2.0015 0.9749
3.7627 4.7008 -2.0015 0.9749
1.8771 5.7212 -2.0015 0.9749
0.8285 5.9640 -2.0015 0.9749
-0.7833 5.9701 -2.0015 0.9749
-1.3137 5.8762 -2.0015 0.9749
-1.8337 5.7352 -2.0015 0.9749
-2.3389 5.5484 -2.0015 0.9749
-3.2894 5.0433 -2.0015 0.9749
-4.1347 4.3771 -2.0015 0.9749
-4.5094 3.9900 -2.0015 0.9749
-4.8480 3.5710 -2.0015 0.9749
-5.1478 3.1234 -2.0015 0.9749
-5.4063 2.6508 -2.0015 0.9749
-5.6216 2.1570 -2.0015 0.9749
-5.7919 1.6460 -2.0015 0.9749
-5.9158 1.1217 -2.0015 0.9749
-5.9924 0.5885 -2.0015 0.9749
-6.0210 0.0505 -2.0015 0.9749
-6.0014 -0.4878 -2.0015 0.9749
-5.9338 -1.0223 -2.0015 0.9749
-5.4500 -2.5597 -2.0015 0.9749
-4.9072 -3.4892 -2.0015 0.9749
-4.2076 -4.3071 -2.0015 0.9749
-2.9143 -5.2690 -2.0015 0.9749
-1.9297 -5.7036 -2.0015 0.9749
-1.4122 -5.8533 -2.0015 0.9749
-0.3475 -6.0112 -2.0015 0.9749
1.2596 -5.8880 -2.0015 0.9749
2.2878 -5.5697 -2.0015 0.9749
4.0943 -4.4150 -2.0015 0.9749
4.4725 -4.0314 -2.0015 0.9749
5.1188 -3.1707 -2.0015 0.9749
5.3817 -2.7005 -2.0015 0.9749
5.6015 -2.2087 -2.0015 0.9749
5.7765 -1.6992 -2.0015 0.9749
5.9053 -1.1761 -2.0015 0.9749
5.9867 -0.6436 -2.0015 0.9749
6.0203 -0.1059 -2.0015 0.9749
5.9430 0.9676 -2.0015 0.9749
5.6758 2.0102 -2.0015 0.9749
4.6116 3.8715 -2.0015 0.9749
1.9821 5.6856 -2.0015 0.9749
1.4660 5.8400 -2.0015 0.9749
-1.2054 5.8994 -2.0015 0.9749
-1.7278 5.7680 -2.0015 0.9749
-2.2364 5.5905 -2.0015 0.9749
-2.7271 5.3682 -2.0015 0.9749
-3.1960 5.1030 -2.0015 0.9749
-4.4352 4.0724 -2.0015 0.9749
-5.0894 3.2176 -2.0015 0.9749
-5.5809 2.2601 -2.0015 0.9749
-5.7606 1.7523 -2.0015 0.9749
-5.9805 0.6987 -2.0015 0.9749
-6.0094 -0.3773 -2.0015 0.9749
-4.9706 -3.3983 -2.0015 0.9749
-4.6470 -3.8289 -2.0015 0.9749
-4.2862 -4.2289 -2.0015 0.9749
-3.8911 -4.5951 -2.0015 0.9749
-2.5327 -5.4627 -2.0015 0.9749
-2.0343 -5.6672 -2.0015 0.9749
-0.9928 -5.9388 -2.0015 0.9749
-0.4581 -6.0038 -2.0015 0.9749
0.0804 -6.0207 -2.0015 0.9749
2.3880 5.0619 -2.0015 0.9765
1.4487 5.4062 -2.0015 0.9765
0.9597 5.5140 -2.0015 0.9765
0.4630 5.5777 -2.0015 0.9765
-0.0373 5.5968 -2.0015 0.9765
-0.5374 5.5710 -2.0015 0.9765
-1.0332 5.5007 -2.0015 0.9765
-1.5207 5.3863 -2.0015 0.9765
-1.9960 5.2289 -2.0015 0.9765
-2.4554 5.0296 -2.0015 0.9765
-2.8951 4.7900 -2.0015 0.9765
-3.3116 4.5120 -2.0015 0.9765
-3.7016 4.1980 -2.0015 0.9765
-4.0620 3.8503 -2.0015 0.9765
-4.3899 3.4719 -2.0015 0.9765
-4.9379 2.6348 -2.0015 0.9765
-5.1536 2.1830 -2.0015 0.9765
-5.4599 1.2305 -2.0015 0.9765
-5.5481 0.7376 -2.0015 0.9765
-5.5908 -0.2620 -2.0015 0.9765
-5.4548 -1.2531 -2.0015 0.9765
-5.3210 -1.7357 -2.0015 0.9765
-5.1445 -2.2043 -2.0015 0.9765
-4.9269 -2.6553 -2.0015 0.9765
-4.6699 -3.0850 -2.0015 0.9765
-3.6842 -4.2133 -2.0015 0.9765
-3.2929 -4.5257 -2.0015 0.9765
-1.9743 -5.2371 -2.0015 0.9765
-1.0104 -5.5049 -2.0015 0.9765
-0.5143 -5.5732 -2.0015 0.9765
0.4862 -5.5757 -2.0015 0.9765
0.9825 -5.5100 -2.0015 0.9765
1.4711 -5.4001 -2.0015 0.9765
2.4090 -5.0519 -2.0015 0.9765
2.8509 -4.8164 -2.0015 0.9765
3.6629 -4.2319 -2.0015 0.9765
4.0264 -3.8876 -2.0015 0.9765
4.3578 -3.5121 -2.0015 0.9765
4.9134 -2.6802 -2.0015 0.9765
5.3121 -1.7626 -2.0015 0.9765
5.4484 -1.2807 -2.0015 0.9765
5.5411 -0.7886 -2.0015 0.9765
5.5894 -0.2902 -2.0015 0.9765
5.5517 0.7095 -2.0015 0.9765
5.4661 1.2029 -2.0015 0.9765
4.9512 2.6098 -2.0015 0.9765
4.4074 3.4496 -2.0015 0.9765
4.0814 3.8297 -2.0015 0.9765
3.7228 4.1792 -2.0015 0.9765
2.9193 4.7753 -2.0015 0.9765
2.0225 5.2187 -2.0015 0.9765
1.5479 5.3786 -2.0015 0.9765
-0.4348 5.5800 -2.0015 0.9765
-1.4213 5.4134 -2.0015 0.9765
-1.8995 5.2647 -2.0015 0.9765
-2.3624 5.0739 -2.0015 0.9765
-2.8065 4.8424 -2.0015 0.9765
-3.6237 4.2654 -2.0015 0.9765
-3.9905 3.9245 -2.0015 0.9765
-4.3253 3.5521 -2.0015 0.9765
-4.6254 3.1513 -2.0015 0.9765
-5.1126 2.2774 -2.0015 0.9765
-5.5865 0.3417 -2.0015 0.9765
-5.5946 -0.1590 -2.0015 0.9765
-5.1842 -2.1092 -2.0015 0.9765
-4.9750 -2.5642 -2.0015 0.9765
-4.7259 -2.9985 -2.0015 0.9765
-4.1165 -3.7920 -2.0015 0.9765
-2.5268 -4.9940 -2.0015 0.9765
-2.0704 -5.1999 -2.0015 0.9765
-1.5974 -5.3641 -2.0015 0.9765
-1.1115 -5.4854 -2.0015 0.9765
-0.1171 -5.5957 -2.0015 0.9765
0.8810 -5.5271 -2.0015 0.9765
1.3715 -5.4263 -2.0015 0.9765
2.7618 -4.8680 -2.0015 0.9765
3.1858 -4.6017 -2.0015 0.9765
3.5844 -4.2986 -2.0015 0.9765
4.2924 -3.5917 -2.0015 0.9765
5.0914 -2.3244 -2.0015 0.9765
5.2788 -1.8600 -2.0015 0.9765
5.4239 -1.3808 -2.0015 0.9765
5.5831 -0.3930 -2.0015 0.9765
5.5959 0.1075 -2.0015 0.9765
5.5639 0.6072 -2.0015 0.9765
5.4873 1.1021 -2.0015 0.9765
5.3669 1.5881 -2.0015 0.9765
5.2034 2.0614 -2.0015 0.9765
4.4702 3.3679 -2.0015 0.9765
4.1512 3.7540 -2.0015 0.9765
3.7991 4.1100 -2.0015 0.9765
3.0067 4.7207 -2.0015 0.9765
2.5727 4.9705 -2.0015 0.9765
2.1182 5.1806 -2.0015 0.9765
1.6466 5.3492 -2.0015 0.9765
0.6680 5.5569 -2.0015 0.9765
-0.3321 5.5870 -2.0015 0.9765
-0.8301 5.5350 -2.0015 0.9765
-1.3215 5.4387 -2.0015 0.9765
-2.2686 5.1165 -2.0015 0.9765
-2.7169 4.8933 -2.0015 0.9765
-3.5446 4.3314 -2.0015 0.9765
-3.9176 3.9972 -2.0015 0.9765
-4.2592 3.6311 -2.0015 0.9765
-4.5667 3.2359 -2.0015 0.9765
-4.8376 2.8148 -2.0015 0.9765
-5.4110 1.4306 -2.0015 0.9765
-5.5172 0.9413 -2.0015 0.9765
-5.5966 -0.0560 -2.0015 0.9765
-5.5692 -0.5560 -2.0015 0.9765
-5.3812 -1.5387 -2.0015 0.9765
-5.2222 -2.0135 -2.0015 0.9765
-5.0213 -2.4722 -2.0015 0.9765
-3.8368 -4.0749 -2.0015 0.9765
-3.4572 -4.4015 -2.0015 0.9765
-3.0500 -4.6929 -2.0015 0.9765
-1.6958 -5.3338 -2.0015 0.9765
0.7791 -5.5424 -2.0015 0.9765
1.2714 -5.4506 -2.0015 0.9765
1.7534 -5.3151 -2.0015 0.9765
2.2215 -5.1372 -2.0015 0.9765
2.6717 -4.9181 -2.0015 0.9765
3.8806 -4.0331 -2.0015 0.9765
4.2256 -3.6701 -2.0015 0.9765
4.5367 -3.2778 -2.0015 0.9765
4.8115 -2.8592 -2.0015 0.9765
5.3976 -1.4804 -2.0015 0.9765
5.5083 -0.9920 -2.0015 0.9765
5.5969 0.0045 -2.0015 0.9765
5.5067 1.0009 -2.0015 0.9765
5.3952 1.4891 -2.0015 0.9765
5.2405 1.9653 -2.0015 0.9765
4.5314 3.2851 -2.0015 0.9765
3.8741 4.0394 -2.0015 0.9765
3.4976 4.3695 -2.0015 0.9765
3.0930 4.6646 -2.0015 0.9765
2.2131 5.1407 -2.0015 0.9765
1.2625 5.4526 -2.0015 0.9765
0.7701 5.5437 -2.0015 0.9765
-0.2292 5.5922 -2.0015 0.9765
-1.7044 5.3311 -2.0015 0.9765
-2.6263 4.9424 -2.0015 0.9765
-3.8434 4.0686 -2.0015 0.9765
-4.1916 3.7088 -2.0015 0.9765
-4.7850 2.9033 -2.0015 0.9765
-5.3837 1.5300 -2.0015 0.9765
-5.4989 1.0427 -2.0015 0.9765
-5.5701 0.5470 -2.0015 0.9765
-5.5785 -0.4534 -2.0015 0.9765
-5.4086 -1.4394 -2.0015 0.9765
-5.2583 -1.9170 -2.0015 0.9765
-5.0660 -2.3793 -2.0015 0.9765
-4.8330 -2.8226 -2.0015 0.9765
-4.5614 -3.2433 -2.0015 0.9765
-4.2533 -3.6380 -2.0015 0.9765
-3.9111 -4.0036 -2.0015 0.9765
-1.3126 -5.4408 -2.0015 0.9765
-0.3230 -5.5876 -2.0015 0.9765
0.1777 -5.5941 -2.0015 0.9765
2.1265 -5.1772 -2.0015 0.9765
2.5808 -4.9664 -2.0015 0.9765
3.8058 -4.1038 -2.0015 0.9765
4.1573 -3.7473 -2.0015 0.9765
4.4756 -3.3607 -2.0015 0.9765
4.7581 -2.9472 -2.0015 0.9765
5.0024 -2.5102 -2.0015 0.9765
5.2068 -2.0530 -2.0015 0.9765
5.4891 -1.0932 -2.0015 0.9765
5.5960 -0.0985 -2.0015 0.9765
5.5824 0.4021 -2.0015 0.9765
5.5242 0.8994 -2.0015 0.9765
4.8588 2.7780 -2.0015 0.9765
4.5911 3.2012 -2.0015 0.9765
3.1784 4.6069 -2.0015 0.9765
2.7539 4.8725 -2.0015 0.9765
1.8424 5.2850 -2.0015 0.9765
1.3627 5.4285 -2.0015 0.9765
-0.6258 5.5618 -2.0015 0.9765
-2.0788 5.1965 -2.0015 0.9765
-2.5349 4.9899 -2.0015 0.9765
-3.3828 4.4589 -2.0015 0.9765
-3.7678 4.1387 -2.0015 0.9765
-4.4445 3.4017 -2.0015 0.9765
-4.9791 2.5561 -2.0015 0.9765
-5.5859 -0.3507 -2.0015 0.9765
-5.4342 -1.3396 -2.0015 0.9765
-4.8842 -2.7332 -2.0015 0.9765
-4.6203 -3.1588 -2.0015 0.9765
-4.3195 -3.5591 -2.0015 0.9765
-3.9841 -3.9309 -2.0015 0.9765
-3.6168 -4.2713 -2.0015 0.9765
-2.7986 -4.8470 -2.0015 0.9765
-2.3542 -5.0777 -2.0015 0.9765
-1.8909 -5.2678 -2.0015 0.9765
-1.4126 -5.4157 -2.0015 0.9765
0.0747 -5.5964 -2.0015 0.9765
0.5746 -5.5673 -2.0015 0.9765
1.7974 4.9038 -2.0015 0.9779
1.3519 5.0449 -2.0015 0.9779
0.8956 5.1455 -2.0015 0.9779
-0.0348 5.2227 -2.0015 0.9779
-0.5015 5.1987 -2.0015 0.9779
-0.9642 5.1331 -2.0015 0.9779
-1.4191 5.0264 -2.0015 0.9779
-1.8626 4.8794 -2.0015 0.9779
-2.2913 4.6934 -2.0015 0.9779
-3.4543 3.9174 -2.0015 0.9779
-4.3697 2.8608 -2.0015 0.9779
-4.6079 2.4588 -2.0015 0.9779
-4.8092 2.0371 -2.0015 0.9779
-4.9720 1.5991 -2.0015 0.9779
-5.0951 1.1483 -2.0015 0.9779
-5.2181 0.2228 -2.0015 0.9779
-4.5977 -2.4778 -2.0015 0.9779
-3.0728 -4.2233 -2.0015 0.9779
-2.6831 -4.4810 -2.0015 0.9779
-1.3982 -5.0322 -2.0015 0.9779
-0.9429 -5.1370 -2.0015 0.9779
-0.4800 -5.2008 -2.0015 0.9779
-0.0132 -5.2228 -2.0015 0.9779
0.9169 -5.1417 -2.0015 0.9779
1.8177 -4.8964 -2.0015 0.9779
3.0514 -4.2387 -2.0015 0.9779
3.4181 -3.9491 -2.0015 0.9779
3.7573 -3.6277 -2.0015 0.9779
4.3432 -2.9008 -2.0015 0.9779
4.5851 -2.5010 -2.0015 0.9779
4.7903 -2.0812 -2.0015 0.9779
5.0843 -1.1951 -2.0015 0.9779
5.1707 -0.7359 -2.0015 0.9779
5.1807 0.6621 -2.0015 0.9779
4.6203 2.4354 -2.0015 0.9779
4.3841 2.8386 -2.0015 0.9779
2.7242 4.4561 -2.0015 0.9779
1.8873 4.8699 -2.0015 0.9779
1.4445 5.0191 -2.0015 0.9779
0.5278 5.1961 -2.0015 0.9779
0.0613 5.2225 -2.0015 0.9779
-0.4057 5.2071 -2.0015 0.9779
-0.8695 5.1500 -2.0015 0.9779
-1.3263 5.0516 -2.0015 0.9779
-3.3816 3.9803 -2.0015 0.9779
-4.0362 3.3147 -2.0015 0.9779
-4.5619 2.5431 -2.0015 0.9779
-4.7709 2.1252 -2.0015 0.9779
-5.0731 1.2419 -2.0015 0.9779
-5.1866 -0.6144 -2.0015 0.9779
-4.8378 -1.9683 -2.0015 0.9779
-4.6425 -2.3928 -2.0015 0.9779
-3.8414 -3.5386 -2.0015 0.9779
-3.5098 -3.8678 -2.0015 0.9779
-3.1500 -4.1660 -2.0015 0.9779
-2.7651 -4.4309 -2.0015 0.9779
-2.3580 -4.6603 -2.0015 0.9779
-1.9320 -4.8524 -2.0015 0.9779
-0.5756 -5.1910 -2.0015 0.9779
1.2798 -5.0636 -2.0015 0.9779
1.7272 -4.9290 -2.0015 0.9779
2.1609 -4.7549 -2.0015 0.9779
2.5772 -4.5427 -2.0015 0.9779
2.9729 -4.2942 -2.0015 0.9779
3.3448 -4.0113 -2.0015 0.9779
4.0055 -3.3517 -2.0015 0.9779
4.2891 -2.9803 -2.0015 0.9779
4.5383 -2.5850 -2.0015 0.9779
4.9260 -1.7357 -2.0015 0.9779
5.2100 -0.3668 -2.0015 0.9779
5.1206 1.0284 -2.0015 0.9779
5.0082 1.4820 -2.0015 0.9779
4.8557 1.9237 -2.0015 0.9779
4.6643 2.3500 -2.0015 0.9779
4.1714 3.1428 -2.0015 0.9779
3.8738 3.5031 -2.0015 0.9779
2.8057 4.4052 -2.0015 0.9779
2.4008 4.6384 -2.0015 0.9779
1.9766 4.8344 -2.0015 0.9779
1.5366 4.9917 -2.0015 0.9779
1.0843 5.1090 -2.0015 0.9779
-0.3099 5.2136 -2.0015 0.9779
-0.7746 5.1651 -2.0015 0.9779
-1.6818 4.9447 -2.0015 0.9779
-2.5353 4.5662 -2.0015 0.9779
-2.9332 4.3214 -2.0015 0.9779
-3.3077 4.0419 -2.0015 0.9779
-3.6558 3.7301 -2.0015 0.9779
-3.9745 3.3884 -2.0015 0.9779
-4.2615 3.0196 -2.0015 0.9779
-4.5143 2.6267 -2.0015 0.9779
-4.9098 1.7810 -2.0015 0.9779
-5.1485 0.8784 -2.0015 0.9779
-5.2063 0.4147 -2.0015 0.9779
-5.0216 -1.4359 -2.0015 0.9779
-4.6857 -2.3069 -2.0015 0.9779
-3.9059 -3.4673 -2.0015 0.9779
-3.5804 -3.8025 -2.0015 0.9779
-3.2262 -4.1073 -2.0015 0.9779
-1.5825 -4.9773 -2.0015 0.9779
-1.1313 -5.0989 -2.0015 0.9779
0.2619 -5.2163 -2.0015 0.9779
0.7270 -5.1720 -2.0015 0.9779
1.6362 -4.9599 -2.0015 0.9779
2.4932 -4.5894 -2.0015 0.9779
3.2704 -4.0722 -2.0015 0.9779
3.6213 -3.7636 -2.0015 0.9779
4.2335 -3.0587 -2.0015 0.9779
4.4899 -2.6681 -2.0015 0.9779
4.7104 -2.2561 -2.0015 0.9779
5.0368 -1.3814 -2.0015 0.9779
5.1402 -0.9257 -2.0015 0.9779
5.2229 0.0042 -2.0015 0.9779
5.1386 0.9340 -2.0015 0.9779
4.4856 2.6753 -2.0015 0.9779
2.4857 4.5934 -2.0015 0.9779
2.0652 4.7972 -2.0015 0.9779
1.6282 4.9626 -2.0015 0.9779
0.2534 5.2167 -2.0015 0.9779
-0.2138 5.2185 -2.0015 0.9779
-1.1395 5.0970 -2.0015 0.9779
-2.4508 4.6121 -2.0015 0.9779
-2.8532 4.3746 -2.0015 0.9779
-3.5865 3.7967 -2.0015 0.9779
-4.2052 3.0975 -2.0015 0.9779
-4.4652 2.7093 -2.0015 0.9779
-4.8762 1.8710 -2.0015 0.9779
-5.1314 0.9730 -2.0015 0.9779
-5.1978 0.5104 -2.0015 0.9779
-5.2227 0.0438 -2.0015 0.9779
-5.1470 -0.8867 -2.0015 0.9779
-5.0472 -1.3432 -2.0015 0.9779
-4.9069 -1.7889 -2.0015 0.9779
-4.7274 -2.2203 -2.0015 0.9779
-3.3012 -4.0473 -2.0015 0.9779
-2.9263 -4.3261 -2.0015 0.9779
-2.1093 -4.7780 -2.0015 0.9779
-0.7662 -5.1663 -2.0015 0.9779
-0.3014 -5.2142 -2.0015 0.9779
0.1658 -5.2202 -2.0015 0.9779
1.5447 -4.9892 -2.0015 0.9779
2.8129 -4.4007 -2.0015 0.9779
3.1949 -4.1317 -2.0015 0.9779
4.1765 -3.1361 -2.0015 0.9779
4.8588 -1.9158 -2.0015 0.9779
5.0106 -1.4739 -2.0015 0.9779
5.1223 -1.0202 -2.0015 0.9779
5.1929 -0.5583 -2.0015 0.9779
4.0001 3.3582 -2.0015 0.9779
3.3383 4.0167 -2.0015 0.9779
2.5698 4.5469 -2.0015 0.9779
1.2716 5.0657 -2.0015 0.9779
0.8137 5.1591 -2.0015 0.9779
0.3494 5.2111 -2.0015 0.9779
-0.1178 5.2215 -2.0015 0.9779
-0.5840 5.1901 -2.0015 0.9779
-1.0455 5.1171 -2.0015 0.9779
-1.4987 5.0032 -2.0015 0.9779
-2.3655 4.6564 -2.0015 0.9779
-3.1568 4.1609 -2.0015 0.9779
-4.4146 2.7910 -2.0015 0.9779
-4.6463 2.3853 -2.0015 0.9779
-4.9968 1.5199 -2.0015 0.9779
-5.1126 1.0672 -2.0015 0.9779
-5.1876 0.6060 -2.0015 0.9779
-5.2210 0.1399 -2.0015 0.9779
-4.9390 -1.6983 -2.0015 0.9779
-4.3115 -2.9477 -2.0015 0.9779
-3.7179 -3.6682 -2.0015 0.9779
-3.3751 -3.9858 -2.0015 0.9779
-3.0054 -4.2715 -2.0015 0.9779
-1.7646 -4.9157 -2.0015 0.9779
-1.3182 -5.0538 -2.0015 0.9779
-0.3973 -5.2077 -2.0015 0.9779
0.0697 -5.2224 -2.0015 0.9779
0.5362 -5.1953 -2.0015 0.9779
1.6829 4.5916 -2.0015 0.9791
1.2658 4.7237 -2.0015 0.9791
0.4046 4.8736 -2.0015 0.9791
-0.0326 4.8902 -2.0015 0.9791
-0.4696 4.8677 -2.0015 0.9791
-0.9028 4.8063 -2.0015 0.9791
-1.3287 4.7064 -2.0015 0.9791
-1.7440 4.5688 -2.0015 0.9791
-2.1454 4.3946 -2.0015 0.9791
-2.5296 4.1853 -2.0015 0.9791
-3.2343 3.6680 -2.0015 0.9791
-4.3145 2.3022 -2.0015 0.9791
-4.5030 1.9074 -2.0015 0.9791
-4.6555 1.4973 -2.0015 0.9791
-4.7707 1.0752 -2.0015 0.9791
-1.9499 0.2592 -0.8051 0.9915
-4.7662 -1.0949 -2.0015 0.9791
-4.6492 -1.5166 -2.0015 0.9791
-4.4951 -1.9260 -2.0015 0.9791
-4.3049 -2.3201 -2.0015 0.9791
-3.8231 -3.0495 -2.0015 0.9791
-3.5353 -3.3790 -2.0015 0.9791
-2.8772 -3.9544 -2.0015 0.9791
-2.5122 -4.1957 -2.0015 0.9791
-2.1272 -4.4035 -2.0015 0.9791
-0.4494 -4.8696 -2.0015 0.9791
0.4248 -4.8719 -2.0015 0.9791
0.8585 -4.8144 -2.0015 0.9791
2.1049 -4.4142 -2.0015 0.9791
2.4910 -4.2084 -2.0015 0.9791
2.8572 -3.9689 -2.0015 0.9791
3.2004 -3.6976 -2.0015 0.9791
3.5181 -3.3968 -2.0015 0.9791
3.8076 -3.0688 -2.0015 0.9791
4.7606 -1.1190 -2.0015 0.9791
4.8415 -0.6891 -2.0015 0.9791
4.8869 0.1839 -2.0015 0.9791
4.8509 0.6200 -2.0015 0.9791
4.7760 1.0510 -2.0015 0.9791
4.6630 1.4737 -2.0015 0.9791
4.1050 2.6579 -2.0015 0.9791
3.2529 3.6516 -2.0015 0.9791
2.9135 3.9277 -2.0015 0.9791
2.5508 4.1724 -2.0015 0.9791
2.1676 4.3837 -2.0015 0.9791
1.7671 4.5599 -2.0015 0.9791
0.4942 4.8653 -2.0015 0.9791
0.0574 4.8900 -2.0015 0.9791
-0.8142 4.8221 -2.0015 0.9791
-1.2419 4.7300 -2.0015 0.9791
-2.4522 4.2311 -2.0015 0.9791
-3.1663 3.7269 -2.0015 0.9791
-3.4867 3.4290 -2.0015 0.9791
-3.7792 3.1037 -2.0015 0.9791
-4.0415 2.7535 -2.0015 0.9791
-4.4672 1.9899 -2.0015 0.9791
-4.6271 1.5827 -2.0015 0.9791
-1.9722 0.2992 -0.8164 0.9914
-4.7855 -1.0070 -2.0015 0.9791
-4.3469 -2.2404 -2.0015 0.9791
-4.1293 -2.6200 -2.0015 0.9791
-3.8786 -2.9786 -2.0015 0.9791
-3.2863 -3.6215 -2.0015 0.9791
-0.9712 -4.7929 -2.0015 0.9791
-0.5389 -4.8605 -2.0015 0.9791
0.7698 -4.8294 -2.0015 0.9791
1.6173 -4.6152 -2.0015 0.9791
2.0233 -4.4521 -2.0015 0.9791
2.7836 -4.0208 -2.0015 0.9791
3.1319 -3.7559 -2.0015 0.9791
3.7505 -3.1383 -2.0015 0.9791
4.2493 -2.4204 -2.0015 0.9791
4.4487 -2.0309 -2.0015 0.9791
4.7392 -1.2065 -2.0015 0.9791
4.8783 -0.3434 -2.0015 0.9791
4.8894 0.0940 -2.0015 0.9791
4.8615 0.5306 -2.0015 0.9791
4.5465 1.8012 -2.0015 0.9791
4.3674 2.2004 -2.0015 0.9791
4.1532 2.5819 -2.0015 0.9791
3.6272 3.2801 -2.0015 0.9791
3.3195 3.5911 -2.0015 0.9791
2.6271 4.1248 -2.0015 0.9791
2.2479 4.3431 -2.0015 0.9791
1.8508 4.5266 -2.0015 0.9791
1.4388 4.6739 -2.0015 0.9791
1.0153 4.7838 -2.0015 0.9791
-0.2901 4.8817 -2.0015 0.9791
-1.1546 4.7521 -2.0015 0.9791
-1.5747 4.6299 -2.0015 0.9791
-1.9822 4.4706 -2.0015 0.9791
-2.7465 4.0462 -2.0015 0.9791
-3.4230 3.4926 -2.0015 0.9791
-3.7215 3.1727 -2.0015 0.9791
-4.4298 2.0718 -2.0015 0.9791
-4.7279 1.2500 -2.0015 0.9791
-1.9557 0.1558 -0.8029 0.9916
-4.8032 -0.9188 -2.0015 0.9791
-4.7019 -1.3444 -2.0015 0.9791
-4.5629 -1.7593 -2.0015 0.9791
-4.1768 -2.5436 -2.0015 0.9791
-3.6572 -3.2466 -2.0015 0.9791
-3.3524 -3.5604 -2.0015 0.9791
-3.0208 -3.8458 -2.0015 0.9791
-2.6649 -4.1004 -2.0015 0.9791
-1.4817 -4.6605 -2.0015 0.9791
-0.1923 -4.8865 -2.0015 0.9791
1.1109 -4.7625 -2.0015 0.9791
1.5321 -4.6441 -2.0015 0.9791
2.7092 -4.0713 -2.0015 0.9791
3.6921 -3.2068 -2.0015 0.9791
4.2041 -2.4982 -2.0015 0.9791
4.5817 -1.7098 -2.0015 0.9791
4.7162 -1.2935 -2.0015 0.9791
4.8129 -0.8668 -2.0015 0.9791
4.4071 2.1196 -2.0015 0.9791
3.9593 2.8704 -2.0015 0.9791
3.3850 3.5294 -2.0015 0.9791
2.3275 4.3010 -2.0015 0.9791
0.6729 4.8438 -2.0015 0.9791
-0.6362 4.8488 -2.0015 0.9791
-1.0670 4.7725 -2.0015 0.9791
-1.4893 4.6581 -2.0015 0.9791
-1.8996 4.5063 -2.0015 0.9791
-2.2948 4.3185 -2.0015 0.9791
-3.0270 3.8409 -2.0015 0.9791
-3.3582 3.5550 -2.0015 0.9791
-3.9374 2.9003 -2.0015 0.9791
-4.1809 2.5368 -2.0015 0.9791
-1.9578 0.1923 -0.8051 0.9915
-2.1377 -0.3683 -0.8878 0.9907
-4.7258 -1.2577 -2.0015 0.9791
-4.5945 -1.6750 -2.0015 0.9791
-4.4264 -2.0790 -2.0015 0.9791
-4.2229 -2.4663 -2.0015 0.9791
-3.9856 -2.8338 -2.0015 0.9791
-3.4174 -3.4981 -2.0015 0.9791
-2.3669 -4.2794 -2.0015 0.9791
1.0230 -4.7821 -2.0015 0.9791
2.2550 -4.3394 -2.0015 0.9791
2.6338 -4.1205 -2.0015 0.9791
3.6325 -3.2742 -2.0015 0.9791
4.1574 -2.5752 -2.0015 0.9791
4.3709 -2.1933 -2.0015 0.9791
4.6916 -1.3800 -2.0015 0.9791
4.7961 -0.9552 -2.0015 0.9791
4.7372 1.2141 -2.0015 0.9791
4.6097 1.6327 -2.0015 0.9791
4.2454 2.4273 -2.0015 0.9791
