ply
format ascii 1.0
element vertex 1592
property float32 x
property float32 y
property float32 z
property float32 I
end_header
-7.7165 -0.4596 -2.0015 0.9686
-7.6449 -1.1456 -2.0015 0.9686
-7.5123 -1.8224 -2.0015 0.9686
-7.3200 -2.4848 -2.0015 0.9686
-6.7624 -3.7451 -2.0015 0.9686
-6.4017 -4.3329 -2.0015 0.9686
-5.5306 -5.4008 -2.0015 0.9686
-5.0272 -5.8723 -2.0015 0.9686
-3.9046 -6.6716 -2.0015 0.9686
-3.2944 -6.9931 -2.0015 0.9686
-2.6579 -7.2589 -2.0015 0.9686
-2.0003 -7.4669 -2.0015 0.9686
-1.3268 -7.6155 -2.0015 0.9686
0.0465 -7.7301 -2.0015 0.9686
0.7354 -7.6952 -2.0015 0.9686
1.4184 -7.5990 -2.0015 0.9686
2.0900 -7.4423 -2.0015 0.9686
3.3783 -6.9529 -2.0015 0.9686
3.9846 -6.6241 -2.0015 0.9686
5.0975 -5.8113 -2.0015 0.9686
5.5952 -5.3338 -2.0015 0.9686
6.0484 -4.8139 -2.0015 0.9686
6.4534 -4.2556 -2.0015 0.9686
7.3494 -2.3965 -2.0015 0.9686
7.5337 -1.7319 -2.0015 0.9686
7.7235 0.3231 -2.0015 0.9686
7.6639 1.0102 -2.0015 0.9686
7.5434 1.6893 -2.0015 0.9686
7.1235 3.0019 -2.0015 0.9686
6.0754 4.7796 -2.0015 0.9686
5.1302 5.7825 -2.0015 0.9686
4.5944 6.2168 -2.0015 0.9686
2.7858 7.2108 -2.0015 0.9686
2.1290 7.4197 -1.9986 0.9686
1.4572 7.5703 -1.9961 0.9686
0.7760 7.6639 -1.9945 0.9687
0.0898 7.6996 -1.9937 0.9687
-0.5971 7.6790 -1.9942 0.9687
-1.2800 7.6003 -1.9956 0.9687
-2.6167 7.2731 -2.0013 0.9686
-5.5001 5.4319 -2.0015 0.9686
-6.3772 4.3690 -2.0015 0.9686
-6.7412 3.7832 -2.0015 0.9686
-7.0516 3.1672 -2.0015 0.9686
-7.5019 1.8648 -2.0015 0.9686
-7.6383 1.1887 -2.0015 0.9686
-7.7138 0.5031 -2.0015 0.9686
-7.6806 -0.8746 -2.0015 0.9686
-7.4032 -2.2245 -2.0015 0.9686
-6.8906 -3.5037 -2.0015 0.9686
-6.5509 -4.1039 -2.0015 0.9686
-5.2316 -5.6909 -2.0015 0.9686
-3.5395 -6.8723 -2.0015 0.9686
-2.2630 -7.3915 -2.0015 0.9686
-1.5952 -7.5638 -2.0015 0.9686
0.4629 -7.7163 -2.0015 0.9686
2.4880 -7.3189 -2.0015 0.9686
3.7480 -6.7608 -2.0015 0.9686
4.3357 -6.3998 -2.0015 0.9686
4.8889 -5.9879 -2.0015 0.9686
5.4032 -5.5283 -2.0015 0.9686
5.8744 -5.0247 -2.0015 0.9686
7.2600 -2.6548 -2.0015 0.9686
7.4678 -1.9971 -2.0015 0.9686
7.6948 0.7387 -2.0015 0.9686
7.4414 2.0933 -2.0015 0.9686
6.9515 3.3813 -2.0015 0.9686
6.6224 3.9875 -2.0015 0.9686
6.2406 4.5619 -2.0015 0.9686
5.8091 5.1000 -2.0015 0.9686
3.0390 7.1078 -2.0015 0.9686
2.3914 7.3445 -1.9999 0.9686
1.7247 7.5174 -1.9970 0.9686
1.0467 7.6337 -1.9950 0.9687
0.3620 7.6927 -1.9940 0.9687
-2.3563 7.3559 -1.9999 0.9686
-3.0050 7.1222 -2.0015 0.9686
-4.2219 6.4755 -2.0015 0.9686
-4.7823 6.0734 -2.0015 0.9686
-5.3046 5.6229 -2.0015 0.9686
-5.7847 5.1277 -2.0015 0.9686
-6.2187 4.5917 -2.0015 0.9686
-7.2120 2.7827 -2.0015 0.9686
-7.4313 2.1288 -2.0015 0.9686
-7.5915 1.4579 -2.0015 0.9686
-7.7297 0.0868 -2.0015 0.9686
-7.7067 -0.6026 -2.0015 0.9686
-7.6223 -1.2871 -2.0015 0.9686
-7.0101 -3.2579 -2.0015 0.9686
-5.8984 -4.9965 -2.0015 0.9686
-5.4295 -5.5024 -2.0015 0.9686
-4.3662 -6.3791 -2.0015 0.9686
-3.1642 -7.0530 -2.0015 0.9686
-2.5229 -7.3069 -2.0015 0.9686
-1.8615 -7.5027 -2.0015 0.9686
-0.4997 -7.7140 -2.0015 0.9686
0.8779 -7.6802 -2.0015 0.9686
2.2277 -7.4023 -2.0015 0.9686
4.1068 -6.5491 -2.0015 0.9686
6.8738 -3.5366 -2.0015 0.9686
7.6763 -0.9113 -2.0015 0.9686
7.7270 -0.2234 -2.0015 0.9686
7.7161 0.4662 -2.0015 0.9686
7.5107 1.8289 -2.0015 0.9686
7.0666 3.1335 -2.0015 0.9686
5.5260 5.4056 -2.0015 0.9686
5.0221 5.8766 -2.0015 0.9686
4.4783 6.3009 -2.0015 0.9686
3.8988 6.6750 -2.0015 0.9686
2.6514 7.2605 -2.0013 0.9686
1.9904 7.4556 -1.9980 0.9686
1.3164 7.5944 -1.9957 0.9687
0.6337 7.6762 -1.9943 0.9687
-0.0530 7.6997 -1.9936 0.9687
-2.0935 7.4299 -1.9986 0.9686
-3.3843 6.9500 -2.0015 0.9686
-4.5646 6.2386 -2.0015 0.9686
-6.0525 4.8086 -2.0015 0.9686
-6.4571 4.2500 -2.0015 0.9686
-6.8102 3.6575 -2.0015 0.9686
-7.1091 3.0359 -2.0015 0.9686
-7.5352 1.7254 -2.0015 0.9686
-7.7218 0.3600 -2.0015 0.9686
-7.6630 -1.0169 -2.0015 0.9686
-7.5419 -1.6959 -2.0015 0.9686
-6.8245 -3.6308 -2.0015 0.9686
-6.0713 -4.7849 -2.0015 0.9686
-5.6206 -5.3070 -2.0015 0.9686
-5.1252 -5.7869 -2.0015 0.9686
-4.5890 -6.2207 -2.0015 0.9686
-4.0162 -6.6050 -2.0015 0.9686
-3.4115 -6.9367 -2.0015 0.9686
-2.7796 -7.2132 -2.0015 0.9686
-1.4546 -7.5921 -2.0015 0.9686
-0.0834 -7.7298 -2.0015 0.9686
1.2904 -7.6217 -2.0015 0.9686
2.6232 -7.2715 -2.0015 0.9686
7.5035 -1.8583 -2.0015 0.9686
7.6393 -1.1821 -2.0015 0.9686
6.8876 3.5096 -2.0015 0.9686
6.1549 4.6768 -2.0015 0.9686
5.7136 5.2069 -2.0015 0.9686
5.2267 5.6954 -2.0015 0.9686
4.6982 6.1386 -2.0015 0.9686
3.5336 6.8753 -2.0015 0.9686
1.5846 7.5462 -1.9965 0.9686
-1.8285 7.4951 -1.9975 0.9686
-2.4932 7.3135 -2.0006 0.9686
-6.3028 4.4756 -2.0015 0.9686
-6.6767 3.8960 -2.0015 0.9686
-6.9973 3.2853 -2.0015 0.9686
-7.2623 2.6485 -2.0015 0.9686
-7.4695 1.9906 -2.0015 0.9686
-7.6172 1.3169 -2.0015 0.9686
-7.7300 -0.0566 -2.0015 0.9686
-7.5971 -1.4282 -2.0015 0.9686
-7.4396 -2.0997 -2.0015 0.9686
-6.9485 -3.3873 -2.0015 0.9686
-5.8047 -5.1050 -2.0015 0.9686
-5.3266 -5.6021 -2.0015 0.9686
-4.8060 -6.0546 -2.0015 0.9686
-3.6546 -6.8118 -2.0015 0.9686
-7.0576 -0.4203 -2.0015 0.9710
-6.9920 -1.0477 -2.0015 0.9710
-6.8708 -1.6668 -2.0015 0.9710
-6.4656 -2.8603 -2.0015 0.9710
-6.1849 -3.4252 -2.0015 0.9710
-5.4785 -4.4690 -2.0015 0.9710
-5.0583 -4.9396 -2.0015 0.9710
-4.5979 -5.3708 -2.0015 0.9710
-4.1008 -5.7593 -2.0015 0.9710
-3.0131 -6.3959 -2.0015 0.9710
-1.8295 -6.8293 -2.0015 0.9710
-1.2135 -6.9652 -2.0015 0.9710
-0.5878 -7.0456 -2.0015 0.9710
0.6726 -7.0380 -2.0015 0.9710
1.2972 -6.9500 -2.0015 0.9710
1.9116 -6.8068 -2.0015 0.9710
2.5107 -6.6093 -2.0015 0.9710
3.0898 -6.3592 -2.0015 0.9710
3.6444 -6.0584 -2.0015 0.9710
4.1699 -5.7095 -2.0015 0.9710
4.6622 -5.3151 -2.0015 0.9710
5.1174 -4.8783 -2.0015 0.9710
5.5319 -4.4028 -2.0015 0.9710
5.9023 -3.8922 -2.0015 0.9710
6.8904 -1.5840 -2.0015 0.9710
7.0041 -0.9635 -2.0015 0.9710
6.2445 3.3154 -2.0015 0.9710
5.9242 3.8588 -2.0015 0.9710
5.5566 4.3715 -2.0015 0.9710
4.6921 5.2887 -2.0015 0.9710
3.6785 6.0378 -2.0015 0.9710
2.5479 6.5950 -2.0015 0.9710
1.9499 6.7959 -2.0015 0.9710
1.3364 6.9426 -2.0015 0.9710
0.7123 7.0341 -2.0015 0.9710
-1.7910 6.8395 -2.0015 0.9710
-2.9769 6.4128 -2.0015 0.9710
-3.5367 6.1219 -2.0015 0.9710
-4.0683 5.7823 -2.0015 0.9710
-4.5675 5.3966 -2.0015 0.9710
-5.0304 4.9680 -2.0015 0.9710
-6.8613 1.7055 -2.0015 0.9710
-6.9860 1.0872 -2.0015 0.9710
-7.0551 0.4601 -2.0015 0.9710
-6.7710 -2.0345 -2.0015 0.9710
-5.2298 -4.7577 -2.0015 0.9710
-4.3019 -5.6107 -2.0015 0.9710
-2.6641 -6.5489 -2.0015 0.9710
-2.0698 -6.7603 -2.0015 0.9710
-1.4589 -6.9179 -2.0015 0.9710
-0.8365 -7.0204 -2.0015 0.9710
2.2755 -6.6939 -2.0015 0.9710
2.8631 -6.4644 -2.0015 0.9710
3.4279 -6.1835 -2.0015 0.9710
5.3728 -4.5956 -2.0015 0.9710
6.6401 -2.4281 -2.0015 0.9710
7.0459 -0.5848 -2.0015 0.9710
7.0699 0.0456 -2.0015 0.9710
7.0377 0.6756 -2.0015 0.9710
6.3578 3.0926 -2.0015 0.9710
6.0569 3.6470 -2.0015 0.9710
5.7077 4.1723 -2.0015 0.9710
5.3131 4.6645 -2.0015 0.9710
4.4004 5.5338 -2.0015 0.9710
3.8896 5.9040 -2.0015 0.9710
2.7795 6.5008 -2.0015 0.9710
1.5810 6.8910 -2.0015 0.9710
0.9605 7.0045 -2.0015 0.9710
-0.2985 7.0638 -2.0015 0.9710
-0.9270 7.0090 -2.0015 0.9710
-1.5481 6.8985 -2.0015 0.9710
-3.3181 6.2431 -2.0015 0.9710
-4.3739 5.5547 -2.0015 0.9710
-4.8516 5.1427 -2.0015 0.9710
-5.6877 4.1996 -2.0015 0.9710
-6.0394 3.6759 -2.0015 0.9710
-6.3430 3.1229 -2.0015 0.9710
-6.9432 1.3334 -2.0015 0.9710
-6.9714 -1.1772 -2.0015 0.9710
-6.6516 -2.3963 -2.0015 0.9710
-6.1204 -3.5393 -2.0015 0.9710
-5.7805 -4.0708 -2.0015 0.9710
-5.3947 -4.5698 -2.0015 0.9710
-4.4975 -5.4551 -2.0015 0.9710
-3.4574 -6.1670 -2.0015 0.9710
-2.3074 -6.6830 -2.0015 0.9710
-1.0841 -6.9865 -2.0015 0.9710
-0.4571 -7.0553 -2.0015 0.9710
0.8030 -7.0243 -2.0015 0.9710
2.6328 -6.5616 -2.0015 0.9710
4.7600 -5.2277 -2.0015 0.9710
5.6126 -4.2995 -2.0015 0.9710
6.9185 -1.4560 -2.0015 0.9710
7.0572 0.4264 -2.0015 0.9710
6.6929 2.2784 -2.0015 0.9710
6.1820 3.4306 -2.0015 0.9710
5.4746 4.4738 -2.0015 0.9710
4.0959 5.7628 -2.0015 0.9710
3.5659 6.1050 -2.0015 0.9710
1.2075 6.9662 -2.0015 0.9710
-0.0487 7.0699 -2.0015 0.9710
-2.5164 6.6071 -2.0015 0.9710
-4.1748 5.7059 -2.0015 0.9710
-4.6668 5.3110 -2.0015 0.9710
-5.1216 4.8739 -2.0015 0.9710
-6.2286 3.3452 -2.0015 0.9710
-6.5020 2.7767 -2.0015 0.9710
-6.8978 -1.5511 -2.0015 0.9710
-6.2417 -3.3208 -2.0015 0.9710
-5.9208 -3.8639 -2.0015 0.9710
-5.5528 -4.3763 -2.0015 0.9710
-5.1407 -4.8538 -2.0015 0.9710
-3.1202 -6.3443 -2.0015 0.9710
-2.5422 -6.5972 -2.0015 0.9710
-1.3304 -6.9438 -2.0015 0.9710
-0.7062 -7.0347 -2.0015 0.9710
-0.0763 -7.0697 -2.0015 0.9710
1.1802 -6.9709 -2.0015 0.9710
1.7969 -6.8379 -2.0015 0.9710
2.3992 -6.6506 -2.0015 0.9710
2.9825 -6.4102 -2.0015 0.9710
3.5420 -6.1189 -2.0015 0.9710
4.0733 -5.7788 -2.0015 0.9710
4.5722 -5.3927 -2.0015 0.9710
5.0347 -4.9637 -2.0015 0.9710
5.8360 -3.9908 -2.0015 0.9710
6.1685 -3.4548 -2.0015 0.9710
6.4519 -2.8912 -2.0015 0.9710
6.6839 -2.3046 -2.0015 0.9710
6.8628 -1.6996 -2.0015 0.9710
6.9869 -1.0811 -2.0015 0.9710
7.0555 -0.4540 -2.0015 0.9710
6.9242 1.4289 -2.0015 0.9710
6.7693 2.0404 -2.0015 0.9710
6.2994 3.2099 -2.0015 0.9710
5.9882 3.7586 -2.0015 0.9710
5.6293 4.2775 -2.0015 0.9710
4.2970 5.6144 -2.0015 0.9710
1.4530 6.9192 -2.0015 0.9710
0.8304 7.0211 -2.0015 0.9710
0.2013 7.0672 -2.0015 0.9710
-0.4295 7.0570 -2.0015 0.9710
-1.6757 6.8686 -2.0015 0.9710
-2.2813 6.6919 -2.0015 0.9710
-3.4333 6.1805 -2.0015 0.9710
-3.9705 5.8499 -2.0015 0.9710
-4.9461 5.0519 -2.0015 0.9710
-5.3768 4.5909 -2.0015 0.9710
-5.7646 4.0934 -2.0015 0.9710
-6.1065 3.5633 -2.0015 0.9710
-6.8316 1.8206 -2.0015 0.9710
-7.0464 0.5787 -2.0015 0.9710
-7.0371 -0.6817 -2.0015 0.9710
-6.6060 -2.5193 -2.0015 0.9710
-6.3551 -3.0981 -2.0015 0.9710
-5.7041 -4.1773 -2.0015 0.9710
-5.3090 -4.6691 -2.0015 0.9710
-4.8717 -5.1237 -2.0015 0.9710
-4.3956 -5.5376 -2.0015 0.9710
-3.8845 -5.9073 -2.0015 0.9710
-3.3425 -6.2301 -2.0015 0.9710
-6.3238 -1.5341 -2.0015 0.9731
-5.6926 -3.1526 -2.0015 0.9731
-5.3889 -3.6474 -2.0015 0.9731
-5.0423 -4.1133 -2.0015 0.9731
-3.7744 -5.3008 -2.0015 0.9731
-3.2869 -5.6161 -2.0015 0.9731
0.0392 -6.5071 -2.0015 0.9731
0.6190 -6.4777 -2.0015 0.9731
1.1940 -6.3968 -2.0015 0.9731
2.3108 -6.0831 -2.0015 0.9731
2.8439 -5.8529 -2.0015 0.9731
4.7100 -4.4900 -2.0015 0.9731
5.7301 -3.0838 -2.0015 0.9731
5.9822 -2.5608 -2.0015 0.9731
6.4465 -0.8868 -2.0015 0.9731
6.5016 0.2720 -2.0015 0.9731
6.3500 1.4221 -2.0015 0.9731
5.7474 3.0515 -2.0015 0.9731
5.4526 3.5516 -2.0015 0.9731
5.1143 4.0235 -2.0015 0.9731
4.7353 4.4633 -2.0015 0.9731
3.3857 5.5571 -2.0015 0.9731
2.3451 6.0700 -2.0015 0.9731
0.0759 6.5068 -2.0015 0.9731
-0.5044 6.4877 -2.0015 0.9731
-2.2029 6.1230 -2.0015 0.9731
-2.7399 5.9023 -2.0015 0.9731
-3.2552 5.6346 -2.0015 0.9731
-3.7444 5.3220 -2.0015 0.9731
-4.6299 4.5725 -2.0015 0.9731
-5.3683 3.6778 -2.0015 0.9731
-5.6747 3.1846 -2.0015 0.9731
-5.9360 2.6661 -2.0015 0.9731
-6.3151 1.5698 -2.0015 0.9731
-5.8005 -2.9494 -2.0015 0.9731
-5.1846 -3.9325 -2.0015 0.9731
-4.8134 -4.3789 -2.0015 0.9731
-3.9594 -5.1640 -2.0015 0.9731
-2.9796 -5.7850 -2.0015 0.9731
-1.9050 -6.2222 -2.0015 0.9731
-1.3428 -6.3672 -2.0015 0.9731
-0.7699 -6.4615 -2.0015 0.9731
0.9671 -6.4350 -2.0015 0.9731
1.5368 -6.3232 -2.0015 0.9731
2.0944 -6.1610 -2.0015 0.9731
3.6498 -5.3873 -2.0015 0.9731
4.1155 -5.0406 -2.0015 0.9731
4.5484 -4.6537 -2.0015 0.9731
5.3024 -3.7721 -2.0015 0.9731
6.2863 -1.6812 -2.0015 0.9731
6.4112 -1.1141 -2.0015 0.9731
6.4850 -0.5382 -2.0015 0.9731
6.2641 1.7621 -2.0015 0.9731
5.8517 2.8464 -2.0015 0.9731
5.5747 3.3567 -2.0015 0.9731
5.2533 3.8402 -2.0015 0.9731
3.5800 5.4340 -2.0015 0.9731
3.0813 5.7315 -2.0015 0.9731
2.5582 5.9833 -2.0015 0.9731
1.4551 6.3425 -2.0015 0.9731
-0.2748 6.5014 -2.0015 0.9731
-1.9851 6.1971 -2.0015 0.9731
-2.5296 5.9955 -2.0015 0.9731
-3.0539 5.7461 -2.0015 0.9731
-4.0257 5.1125 -2.0015 0.9731
-4.8695 4.3165 -2.0015 0.9731
-5.5586 3.3832 -2.0015 0.9731
-5.8380 2.8743 -2.0015 0.9731
-6.3905 1.2273 -2.0015 0.9731
-6.4744 0.6528 -2.0015 0.9731
-6.5068 0.0731 -2.0015 0.9731
-6.4164 -1.0835 -2.0015 0.9731
-6.1221 -2.2056 -2.0015 0.9731
-5.3204 -3.7467 -2.0015 0.9731
-4.9652 -4.2061 -2.0015 0.9731
-4.1395 -5.0209 -2.0015 0.9731
-3.6755 -5.3698 -2.0015 0.9731
-2.6636 -5.9372 -2.0015 0.9731
-2.1237 -6.1509 -2.0015 0.9731
-1.5670 -6.3157 -2.0015 0.9731
1.8753 -6.2312 -2.0015 0.9731
3.4571 -5.5130 -2.0015 0.9731
3.9347 -5.1829 -2.0015 0.9731
5.1657 -3.9572 -2.0015 0.9731
6.2230 -1.9023 -2.0015 0.9731
6.3678 -1.3400 -2.0015 0.9731
6.5045 -0.1881 -2.0015 0.9731
6.4346 0.9699 -2.0015 0.9731
6.3225 1.5396 -2.0015 0.9731
6.1601 2.0970 -2.0015 0.9731
5.3858 3.6521 -2.0015 0.9731
5.0388 4.1176 -2.0015 0.9731
4.6517 4.5504 -2.0015 0.9731
3.2820 5.6190 -2.0015 0.9731
2.2322 6.1124 -2.0015 0.9731
1.6784 6.2871 -2.0015 0.9731
1.1114 6.4116 -2.0015 0.9731
-0.6246 6.4772 -2.0015 0.9731
-1.1995 6.3957 -2.0015 0.9731
-2.8489 5.8505 -2.0015 0.9731
-3.8425 5.2516 -2.0015 0.9731
-4.2953 4.8882 -2.0015 0.9731
-4.7139 4.4859 -2.0015 0.9731
-5.0950 4.0479 -2.0015 0.9731
-5.9844 2.5556 -2.0015 0.9731
-6.1884 2.0120 -2.0015 0.9731
-6.3431 1.4524 -2.0015 0.9731
-6.4473 0.8812 -2.0015 0.9731
-6.5002 0.3030 -2.0015 0.9731
-6.5013 -0.2776 -2.0015 0.9731
-6.1962 -1.9878 -2.0015 0.9731
-5.4495 -3.5563 -2.0015 0.9731
-5.1108 -4.0279 -2.0015 0.9731
-4.7314 -4.4674 -2.0015 0.9731
-3.3808 -5.5601 -2.0015 0.9731
-2.8718 -5.8393 -2.0015 0.9731
-2.3399 -6.0720 -2.0015 0.9731
-1.2245 -6.3910 -2.0015 0.9731
-0.0702 -6.5069 -2.0015 0.9731
0.5100 -6.4872 -2.0015 0.9731
1.6538 -6.2936 -2.0015 0.9731
3.7490 -5.3187 -2.0015 0.9731
4.6339 -4.5685 -2.0015 0.9731
5.0227 -4.1373 -2.0015 0.9731
5.9383 -2.6610 -2.0015 0.9731
6.1519 -2.1211 -2.0015 0.9731
6.3164 -1.5643 -2.0015 0.9731
6.4307 -0.9951 -2.0015 0.9731
6.4938 -0.4179 -2.0015 0.9731
6.5052 0.1626 -2.0015 0.9731
6.4648 0.7418 -2.0015 0.9731
6.2304 1.8779 -2.0015 0.9731
5.7979 2.9544 -2.0015 0.9731
3.4786 5.4994 -2.0015 0.9731
2.9745 5.7876 -2.0015 0.9731
2.4468 6.0297 -2.0015 0.9731
1.8996 6.2238 -2.0015 0.9731
1.3373 6.3683 -2.0015 0.9731
0.7643 6.4622 -2.0015 0.9731
0.1853 6.5046 -2.0015 0.9731
-1.5423 6.3218 -2.0015 0.9731
-2.0997 6.1592 -2.0015 0.9731
-3.6544 5.3842 -2.0015 0.9731
-4.1198 5.0370 -2.0015 0.9731
-4.5524 4.6497 -2.0015 0.9731
-5.3057 3.7675 -2.0015 0.9731
-5.8903 2.7656 -2.0015 0.9731
-6.2878 1.6757 -2.0015 0.9731
-6.4854 0.5326 -2.0015 0.9731
-6.5071 -0.0476 -2.0015 0.9731
-6.4769 -0.6274 -2.0015 0.9731
-6.3952 -1.2023 -2.0015 0.9731
-6.2626 -1.7675 -2.0015 0.9731
-5.8492 -2.8514 -2.0015 0.9731
-5.5718 -3.3615 -2.0015 0.9731
-5.2500 -3.8447 -2.0015 0.9731
-4.8864 -4.2974 -2.0015 0.9731
-4.4839 -4.7159 -2.0015 0.9731
-4.0457 -5.0967 -2.0015 0.9731
-6.0185 0.1792 -2.0015 0.9749
-6.0106 -0.3580 -2.0015 0.9749
-5.8515 -1.4195 -2.0015 0.9749
-5.5065 -2.4360 -2.0015 0.9749
-5.2674 -2.9171 -2.0015 0.9749
-4.6657 -3.8061 -2.0015 0.9749
-2.5661 -5.4471 -2.0015 0.9749
-1.5581 -5.8161 -2.0015 0.9749
-0.5006 -6.0004 -2.0015 0.9749
0.5728 -5.9939 -2.0015 0.9749
1.6280 -5.7970 -2.0015 0.9749
3.1037 -5.1597 -2.0015 0.9749
3.5513 -4.8625 -2.0015 0.9749
4.3582 -4.1546 -2.0015 0.9749
4.7112 -3.7496 -2.0015 0.9749
5.0267 -3.3148 -2.0015 0.9749
5.3022 -2.8535 -2.0015 0.9749
5.8682 -1.3490 -2.0015 0.9749
5.9650 -0.8206 -2.0015 0.9749
5.8757 1.3159 -2.0015 0.9749
5.0453 3.2863 -2.0015 0.9749
4.7323 3.7230 -2.0015 0.9749
4.3816 4.1300 -2.0015 0.9749
2.6620 5.4008 -2.0015 0.9749
2.1699 5.6166 -2.0015 0.9749
1.1382 5.9127 -2.0015 0.9749
0.0702 6.0208 -2.0015 0.9749
-0.4667 6.0031 -2.0015 0.9749
-1.0000 5.9376 -2.0015 0.9749
-1.5253 5.8248 -2.0015 0.9749
-2.0384 5.6657 -2.0015 0.9749
-2.5353 5.4615 -2.0015 0.9749
-3.0120 5.2137 -2.0015 0.9749
-3.4648 4.9245 -2.0015 0.9749
-4.2841 4.2310 -2.0015 0.9749
-4.6442 3.8323 -2.0015 0.9749
-4.9673 3.4031 -2.0015 0.9749
-5.6907 1.9676 -2.0015 0.9749
-5.8434 1.4525 -2.0015 0.9749
-5.9496 0.9259 -2.0015 0.9749
-6.0195 -0.1453 -2.0015 0.9749
-5.8980 -1.2118 -2.0015 0.9749
-5.7665 -1.7327 -2.0015 0.9749
-5.5891 -2.2398 -2.0015 0.9749
-5.1026 -3.1966 -2.0015 0.9749
-4.4539 -4.0519 -2.0015 0.9749
-3.6637 -4.7783 -2.0015 0.9749
-2.7570 -5.3529 -2.0015 0.9749
-1.7627 -5.7574 -2.0015 0.9749
-1.2425 -5.8916 -2.0015 0.9749
-0.1766 -6.0186 -2.0015 0.9749
0.3606 -6.0104 -2.0015 0.9749
1.4221 -5.8509 -2.0015 0.9749
2.4384 -5.5054 -2.0015 0.9749
3.3772 -4.9850 -2.0015 0.9749
4.2087 -4.3061 -2.0015 0.9749
4.9064 -3.4904 -2.0015 0.9749
5.1980 -3.0391 -2.0015 0.9749
5.9323 -1.0309 -2.0015 0.9749
5.9185 1.1073 -2.0015 0.9749
5.7963 1.6305 -2.0015 0.9749
4.8609 3.5534 -2.0015 0.9749
2.3671 5.5364 -2.0015 0.9749
0.2830 6.0146 -2.0015 0.9749
-0.2543 6.0159 -2.0015 0.9749
-1.8369 5.7342 -2.0015 0.9749
-4.8439 3.5765 -2.0015 0.9749
-5.6176 2.1675 -2.0015 0.9749
-5.7884 1.6582 -2.0015 0.9749
-5.9132 1.1356 -2.0015 0.9749
-5.9908 0.6040 -2.0015 0.9749
-6.0208 0.0676 -2.0015 0.9749
-6.0029 -0.4694 -2.0015 0.9749
-5.2124 -3.0143 -2.0015 0.9749
-4.9230 -3.4669 -2.0015 0.9749
-4.2292 -4.2859 -2.0015 0.9749
-3.8303 -4.6458 -2.0015 0.9749
-3.4009 -4.9688 -2.0015 0.9749
-0.9233 -5.9500 -2.0015 0.9749
-0.3893 -6.0086 -2.0015 0.9749
0.1479 -6.0194 -2.0015 0.9749
0.6839 -5.9823 -2.0015 0.9749
1.2143 -5.8975 -2.0015 0.9749
1.7352 -5.7658 -2.0015 0.9749
2.2422 -5.5882 -2.0015 0.9749
2.7314 -5.3661 -2.0015 0.9749
3.6408 -4.7958 -2.0015 0.9749
4.4345 -4.0731 -2.0015 0.9749
5.3541 -2.7547 -2.0015 0.9749
5.9792 -0.7098 -2.0015 0.9749
6.0103 0.3632 -2.0015 0.9749
5.8503 1.4246 -2.0015 0.9749
5.7000 1.9404 -2.0015 0.9749
5.5044 2.4407 -2.0015 0.9749
5.2649 2.9217 -2.0015 0.9749
3.9118 4.5774 -2.0015 0.9749
3.4883 4.9079 -2.0015 0.9749
3.0369 5.1993 -2.0015 0.9749
2.0654 5.6559 -2.0015 0.9749
-0.5780 5.9934 -2.0015 0.9749
-1.1099 5.9180 -2.0015 0.9749
-1.6330 5.7956 -2.0015 0.9749
-3.5555 4.8594 -2.0015 0.9749
-3.9745 4.5231 -2.0015 0.9749
-4.3618 4.1509 -2.0015 0.9749
-5.0296 3.3104 -2.0015 0.9749
-5.3046 2.8489 -2.0015 0.9749
-5.5374 2.3647 -2.0015 0.9749
-5.7262 1.8617 -2.0015 0.9749
-5.8693 1.3439 -2.0015 0.9749
-6.0147 0.2804 -2.0015 0.9749
-5.7334 -1.8393 -2.0015 0.9749
-5.3157 -2.8281 -2.0015 0.9749
-4.7291 -3.7271 -2.0015 0.9749
-3.9921 -4.5076 -2.0015 0.9749
-3.5744 -4.8455 -2.0015 0.9749
-3.1283 -5.1448 -2.0015 0.9749
-2.6573 -5.4032 -2.0015 0.9749
-1.6556 -5.7891 -2.0015 0.9749
-1.1330 -5.9137 -2.0015 0.9749
1.0051 -5.9367 -2.0015 0.9749
1.5303 -5.8235 -2.0015 0.9749
2.5400 -5.4593 -2.0015 0.9749
3.8939 -4.5927 -2.0015 0.9749
5.6924 -1.9627 -2.0015 0.9749
5.9504 -0.9207 -2.0015 0.9749
5.7650 1.7377 -2.0015 0.9749
5.5872 2.2446 -2.0015 0.9749
5.3649 2.7337 -2.0015 0.9749
5.0998 3.2011 -2.0015 0.9749
4.4504 4.0557 -2.0015 0.9749
4.0712 4.4363 -2.0015 0.9749
3.6596 4.7815 -2.0015 0.9749
3.2188 5.0887 -2.0015 0.9749
2.7524 5.3553 -2.0015 0.9749
2.2641 5.5793 -2.0015 0.9749
1.7577 5.7589 -2.0015 0.9749
0.1714 6.0188 -2.0015 0.9749
-0.3658 6.0101 -2.0015 0.9749
-0.9000 5.9536 -2.0015 0.9749
-1.4271 5.8496 -2.0015 0.9749
-3.3815 4.9820 -2.0015 0.9749
-3.8121 4.6608 -2.0015 0.9749
-4.5791 3.9098 -2.0015 0.9749
-5.2006 3.0347 -2.0015 0.9749
-5.4504 2.5590 -2.0015 0.9749
-5.6568 2.0630 -2.0015 0.9749
-5.8181 1.5506 -2.0015 0.9749
-5.9332 1.0258 -2.0015 0.9749
-5.9932 -0.5806 -2.0015 0.9749
-5.9176 -1.1125 -2.0015 0.9749
-5.4124 -2.6385 -2.0015 0.9749
-4.5214 -3.9764 -2.0015 0.9749
-3.3082 -5.0310 -2.0015 0.9749
-2.3623 -5.5385 -2.0015 0.9749
-5.5944 0.1666 -2.0015 0.9765
-5.5351 -0.8294 -2.0015 0.9765
-5.2999 -1.7991 -2.0015 0.9765
-5.1184 -2.2643 -2.0015 0.9765
-4.3369 -3.5378 -2.0015 0.9765
-4.0043 -3.9103 -2.0015 0.9765
-3.2464 -4.5592 -2.0015 0.9765
-1.4483 -5.4063 -2.0015 0.9765
-0.4653 -5.5775 -2.0015 0.9765
0.0337 -5.5968 -2.0015 0.9765
1.0269 -5.5019 -2.0015 0.9765
1.5133 -5.3884 -2.0015 0.9765
2.8850 -4.7961 -2.0015 0.9765
4.6724 -3.0812 -2.0015 0.9765
5.3211 -1.7351 -2.0015 0.9765
5.4546 -1.2539 -2.0015 0.9765
5.5906 -0.2655 -2.0015 0.9765
5.5489 0.7314 -2.0015 0.9765
5.4616 1.2231 -2.0015 0.9765
4.9434 2.6246 -2.0015 0.9765
4.0728 3.8389 -2.0015 0.9765
3.7144 4.1867 -2.0015 0.9765
2.9120 4.7797 -2.0015 0.9765
1.5436 5.3798 -2.0015 0.9765
1.0580 5.4960 -2.0015 0.9765
0.5639 5.5684 -2.0015 0.9765
0.0653 5.5965 -2.0015 0.9765
-0.4338 5.5801 -2.0015 0.9765
-1.8947 5.2664 -2.0015 0.9765
-2.7998 4.8463 -2.0015 0.9765
-3.2206 4.5775 -2.0015 0.9765
-3.9822 3.9329 -2.0015 0.9765
-4.3169 3.5622 -2.0015 0.9765
-4.8808 2.7391 -2.0015 0.9765
-5.2896 1.8289 -2.0015 0.9765
-5.5303 0.8606 -2.0015 0.9765
-5.5850 0.3642 -2.0015 0.9765
-5.5953 -0.1350 -2.0015 0.9765
-5.3601 -1.6106 -2.0015 0.9765
-5.1953 -2.0820 -2.0015 0.9765
-4.9890 -2.5368 -2.0015 0.9765
-4.7430 -2.9714 -2.0015 0.9765
-3.4055 -4.4416 -2.0015 0.9765
-2.5627 -4.9757 -2.0015 0.9765
0.3352 -5.5869 -2.0015 0.9765
0.8318 -5.5347 -2.0015 0.9765
1.8014 -5.2991 -2.0015 0.9765
2.2665 -5.1174 -2.0015 0.9765
2.7136 -4.8950 -2.0015 0.9765
5.2565 -1.9221 -2.0015 0.9765
5.5777 -0.4629 -2.0015 0.9765
5.5968 0.0361 -2.0015 0.9765
5.5713 0.5348 -2.0015 0.9765
5.5014 1.0293 -2.0015 0.9765
5.3878 1.5156 -2.0015 0.9765
5.0331 2.4482 -2.0015 0.9765
4.2060 3.6926 -2.0015 0.9765
3.0791 4.6738 -2.0015 0.9765
2.6503 4.9296 -2.0015 0.9765
2.2003 5.1462 -2.0015 0.9765
1.2516 5.4552 -2.0015 0.9765
0.2630 5.5907 -2.0015 0.9765
-2.6267 4.9422 -2.0015 0.9765
-3.4625 4.3973 -2.0015 0.9765
-4.1883 3.7126 -2.0015 0.9765
-4.7810 2.9099 -2.0015 0.9765
-5.3805 1.5413 -2.0015 0.9765
-5.5687 0.5614 -2.0015 0.9765
-5.5799 -0.4363 -2.0015 0.9765
-5.4137 -1.4201 -2.0015 0.9765
-5.2656 -1.8970 -2.0015 0.9765
-4.8451 -2.8019 -2.0015 0.9765
-3.9311 -3.9839 -2.0015 0.9765
-3.5604 -4.3184 -2.0015 0.9765
-3.1613 -4.6186 -2.0015 0.9765
-2.7370 -4.8820 -2.0015 0.9765
-0.3618 -5.5852 -2.0015 0.9765
0.1375 -5.5952 -2.0015 0.9765
0.6357 -5.5607 -2.0015 0.9765
1.1288 -5.4819 -2.0015 0.9765
3.3842 -4.4578 -2.0015 0.9765
4.1220 -3.7861 -2.0015 0.9765
4.9768 -2.5606 -2.0015 0.9765
5.5579 -0.6598 -2.0015 0.9765
5.5946 -0.1618 -2.0015 0.9765
5.5344 0.8342 -2.0015 0.9765
5.1165 2.2687 -2.0015 0.9765
4.6323 3.1412 -2.0015 0.9765
3.2424 4.5620 -2.0015 0.9765
1.9199 5.2573 -2.0015 0.9765
1.4436 5.4075 -2.0015 0.9765
-1.0317 5.5010 -2.0015 0.9765
-1.9921 5.2304 -2.0015 0.9765
-3.3049 4.5170 -2.0015 0.9765
-3.6944 4.2044 -2.0015 0.9765
-4.0544 3.8583 -2.0015 0.9765
-4.6751 3.0771 -2.0015 0.9765
-4.9308 2.6481 -2.0015 0.9765
-5.1472 2.1981 -2.0015 0.9765
-5.5918 -0.2388 -2.0015 0.9765
-5.5483 -0.7362 -2.0015 0.9765
-5.3294 -1.7097 -2.0015 0.9765
-5.1558 -2.1779 -2.0015 0.9765
-4.6871 -3.0588 -2.0015 0.9765
-2.4700 -5.0224 -2.0015 0.9765
-2.0125 -5.2225 -2.0015 0.9765
-0.5590 -5.5689 -2.0015 0.9765
0.9343 -5.5184 -2.0015 0.9765
1.4225 -5.4131 -2.0015 0.9765
2.3610 -5.0745 -2.0015 0.9765
2.8039 -4.8439 -2.0015 0.9765
3.2246 -4.5747 -2.0015 0.9765
3.6195 -4.2690 -2.0015 0.9765
3.9856 -3.9294 -2.0015 0.9765
4.3200 -3.5585 -2.0015 0.9765
5.5854 -0.3594 -2.0015 0.9765
5.4814 1.1311 -2.0015 0.9765
5.1935 2.0864 -2.0015 0.9765
4.4564 3.3862 -2.0015 0.9765
3.4017 4.4445 -2.0015 0.9765
2.5584 4.9779 -2.0015 0.9765
1.6339 5.3531 -2.0015 0.9765
1.1502 5.4774 -2.0015 0.9765
-0.3400 5.5866 -2.0015 0.9765
-0.8366 5.5340 -2.0015 0.9765
-1.8059 5.2975 -2.0015 0.9765
-2.2709 5.1155 -2.0015 0.9765
-2.7179 4.8927 -2.0015 0.9765
-3.5435 4.3324 -2.0015 0.9765
-4.8341 2.8208 -2.0015 0.9765
-5.4081 1.4413 -2.0015 0.9765
-5.5151 0.9535 -2.0015 0.9765
-5.5708 -0.5397 -2.0015 0.9765
-5.5005 -1.0341 -2.0015 0.9765
-5.3865 -1.5202 -2.0015 0.9765
-5.0309 -2.4525 -2.0015 0.9765
-4.7923 -2.8912 -2.0015 0.9765
-4.5155 -3.3069 -2.0015 0.9765
-4.2028 -3.6962 -2.0015 0.9765
-3.8566 -4.0561 -2.0015 0.9765
-3.0751 -4.6764 -2.0015 0.9765
-2.1959 -5.1481 -2.0015 0.9765
-5.0756 -1.2313 -2.0015 0.9779
-4.7763 -2.1130 -2.0015 0.9779
-4.0471 -3.3014 -2.0015 0.9779
-0.8964 -5.1453 -2.0015 0.9779
-0.4342 -5.2048 -2.0015 0.9779
0.0314 -5.2227 -2.0015 0.9779
2.2825 -4.6977 -2.0015 0.9779
2.6922 -4.4755 -2.0015 0.9779
3.0804 -4.2177 -2.0015 0.9779
3.7804 -3.6037 -2.0015 0.9779
4.0865 -3.2524 -2.0015 0.9779
4.3602 -2.8752 -2.0015 0.9779
4.5991 -2.4751 -2.0015 0.9779
5.2183 0.2183 -2.0015 0.9779
5.1781 0.6826 -2.0015 0.9779
5.0966 1.1414 -2.0015 0.9779
4.8130 2.0282 -2.0015 0.9779
3.8006 3.5824 -2.0015 0.9779
3.1041 4.2003 -2.0015 0.9779
0.5262 5.1963 -2.0015 0.9779
-0.4049 5.2071 -2.0015 0.9779
-0.8674 5.1503 -2.0015 0.9779
-4.3087 2.9519 -2.0015 0.9779
-4.5546 2.5561 -2.0015 0.9779
-4.7643 2.1399 -2.0015 0.9779
-5.0686 1.2599 -2.0015 0.9779
-5.1893 -0.5909 -2.0015 0.9779
-5.1160 -1.0511 -2.0015 0.9779
-5.0019 -1.5030 -2.0015 0.9779
-4.8480 -1.9428 -2.0015 0.9779
-4.4260 -2.7728 -2.0015 0.9779
-4.1613 -3.1563 -2.0015 0.9779
-3.8633 -3.5146 -2.0015 0.9779
-3.1779 -4.1448 -2.0015 0.9779
-2.3914 -4.6432 -2.0015 0.9779
-1.9681 -4.8379 -2.0015 0.9779
-1.5290 -4.9940 -2.0015 0.9779
-1.0777 -5.1104 -2.0015 0.9779
-0.6179 -5.1862 -2.0015 0.9779
-0.1532 -5.2206 -2.0015 0.9779
0.3128 -5.2135 -2.0015 0.9779
0.7762 -5.1648 -2.0015 0.9779
1.2335 -5.0751 -2.0015 0.9779
3.6506 -3.7351 -2.0015 0.9779
3.9690 -3.3949 -2.0015 0.9779
4.2558 -3.0276 -2.0015 0.9779
4.5088 -2.6362 -2.0015 0.9779
4.7258 -2.2238 -2.0015 0.9779
4.9052 -1.7937 -2.0015 0.9779
5.1457 -0.8942 -2.0015 0.9779
5.2050 -0.4320 -2.0015 0.9779
5.2227 0.0337 -2.0015 0.9779
5.1990 0.4991 -2.0015 0.9779
5.1338 0.9605 -2.0015 0.9779
5.0277 1.4143 -2.0015 0.9779
4.4744 2.6941 -2.0015 0.9779
3.6021 3.7819 -2.0015 0.9779
2.8734 4.3614 -2.0015 0.9779
2.4732 4.6002 -2.0015 0.9779
2.0533 4.8023 -2.0015 0.9779
1.6170 4.9662 -2.0015 0.9779
0.7095 5.1744 -2.0015 0.9779
-0.2205 5.2182 -2.0015 0.9779
-1.1436 5.0961 -2.0015 0.9779
-1.5933 4.9739 -2.0015 0.9779
-2.0303 4.8121 -2.0015 0.9779
-3.2311 4.1034 -2.0015 0.9779
-3.5840 3.7991 -2.0015 0.9779
-4.2016 3.1023 -2.0015 0.9779
-4.4614 2.7155 -2.0015 0.9779
-4.6857 2.3070 -2.0015 0.9779
-4.8727 1.8801 -2.0015 0.9779
-5.1291 0.9850 -2.0015 0.9779
-5.1965 0.5239 -2.0015 0.9779
-5.2225 0.0586 -2.0015 0.9779
-5.2069 -0.4071 -2.0015 0.9779
-5.1499 -0.8696 -2.0015 0.9779
-5.0519 -1.3252 -2.0015 0.9779
-4.7363 -2.2012 -2.0015 0.9779
-4.2702 -3.0072 -2.0015 0.9779
-3.9852 -3.3759 -2.0015 0.9779
-3.3224 -4.0298 -2.0015 0.9779
-2.9500 -4.3100 -2.0015 0.9779
-2.5541 -4.5557 -2.0015 0.9779
-2.1378 -4.7653 -2.0015 0.9779
-1.7046 -4.9369 -2.0015 0.9779
-0.8009 -5.1611 -2.0015 0.9779
0.5932 -5.1891 -2.0015 0.9779
1.9449 -4.8472 -2.0015 0.9779
2.7747 -4.4248 -2.0015 0.9779
3.1581 -4.1599 -2.0015 0.9779
3.5163 -3.8618 -2.0015 0.9779
4.6442 -2.3894 -2.0015 0.9779
4.8387 -1.9660 -2.0015 0.9779
4.9947 -1.5268 -2.0015 0.9779
5.1109 -1.0756 -2.0015 0.9779
5.1864 -0.6157 -2.0015 0.9779
5.0746 1.2357 -2.0015 0.9779
4.9442 1.6831 -2.0015 0.9779
4.7745 2.1171 -2.0015 0.9779
4.5668 2.5343 -2.0015 0.9779
4.3227 2.9313 -2.0015 0.9779
4.0442 3.3049 -2.0015 0.9779
3.7336 3.6522 -2.0015 0.9779
3.0257 4.2571 -2.0015 0.9779
1.7916 4.9060 -2.0015 0.9779
0.8920 5.1461 -2.0015 0.9779
-0.0359 5.2227 -2.0015 0.9779
-0.5013 5.1987 -2.0015 0.9779
-0.9627 5.1334 -2.0015 0.9779
-1.4165 5.0271 -2.0015 0.9779
-2.2866 4.6957 -2.0015 0.9779
-2.6961 4.4732 -2.0015 0.9779
-3.4475 3.9234 -2.0015 0.9779
-3.7835 3.6005 -2.0015 0.9779
-4.0894 3.2489 -2.0015 0.9779
-4.6012 2.4712 -2.0015 0.9779
-4.9669 1.6149 -2.0015 0.9779
-5.1747 0.7073 -2.0015 0.9779
-5.0956 -1.1458 -2.0015 0.9779
-4.9732 -1.5954 -2.0015 0.9779
-4.6109 -2.4531 -2.0015 0.9779
-4.3739 -2.8544 -2.0015 0.9779
-4.1020 -3.2329 -2.0015 0.9779
-3.7975 -3.5857 -2.0015 0.9779
-3.4628 -3.9099 -2.0015 0.9779
-3.1005 -4.2030 -2.0015 0.9779
-2.7135 -4.4626 -2.0015 0.9779
-2.3049 -4.6867 -2.0015 0.9779
-1.4361 -5.0215 -2.0015 0.9779
-0.5217 -5.1967 -2.0015 0.9779
0.8719 -5.1496 -2.0015 0.9779
1.3274 -5.0514 -2.0015 0.9779
1.7724 -4.9129 -2.0015 0.9779
2.6166 -4.5202 -2.0015 0.9779
3.0091 -4.2689 -2.0015 0.9779
4.0313 -3.3207 -2.0015 0.9779
4.3112 -2.9481 -2.0015 0.9779
4.5569 -2.5521 -2.0015 0.9779
5.0697 -1.2555 -2.0015 0.9779
5.1614 -0.7986 -2.0015 0.9779
4.4236 2.7766 -2.0015 0.9779
4.1585 3.1599 -2.0015 0.9779
3.1743 4.1475 -2.0015 0.9779
1.9639 4.8396 -2.0015 0.9779
-0.3173 5.2132 -2.0015 0.9779
-0.7807 5.1642 -2.0015 0.9779
-1.6852 4.9435 -2.0015 0.9779
-2.5362 4.5657 -2.0015 0.9779
-3.6538 3.7320 -2.0015 0.9779
-3.9720 3.3914 -2.0015 0.9779
-4.7277 2.2197 -2.0015 0.9779
-4.9067 1.7894 -2.0015 0.9779
-5.0467 1.3450 -2.0015 0.9779
-5.1465 0.8898 -2.0015 0.9779
-5.1985 -0.5036 -2.0015 0.9779
-4.6947 -2.2886 -2.0015 0.9779
-4.2137 -3.0859 -2.0015 0.9779
-3.9219 -3.4492 -2.0015 0.9779
-3.5988 -3.7850 -2.0015 0.9779
-3.2471 -4.0908 -2.0015 0.9779
-2.8696 -4.3639 -2.0015 0.9779
-2.0491 -4.8041 -2.0015 0.9779
-1.9466 -0.1159 -0.7981 0.9916
-1.9578 -0.2934 -0.8102 0.9915
-4.7525 -1.1529 -2.0015 0.9791
-4.2781 -2.3692 -2.0015 0.9791
-3.4988 -3.4167 -2.0015 0.9791
-3.1803 -3.7149 -2.0015 0.9791
-2.4702 -4.2206 -2.0015 0.9791
-2.0841 -4.4240 -2.0015 0.9791
-1.6815 -4.5922 -2.0015 0.9791
-0.8394 -4.8178 -2.0015 0.9791
-0.4066 -4.8734 -2.0015 0.9791
0.8973 -4.8073 -2.0015 0.9791
1.3222 -4.7082 -2.0015 0.9791
1.7366 -4.5716 -2.0015 0.9791
2.1372 -4.3986 -2.0015 0.9791
3.2248 -3.6764 -2.0015 0.9791
4.7660 -1.0956 -2.0015 0.9791
4.8861 0.2044 -2.0015 0.9791
4.7721 1.0687 -2.0015 0.9791
4.6579 1.4898 -2.0015 0.9791
4.5065 1.8991 -2.0015 0.9791
4.3193 2.2932 -2.0015 0.9791
4.0977 2.6691 -2.0015 0.9791
3.8435 3.0237 -2.0015 0.9791
3.5587 3.3543 -2.0015 0.9791
3.2455 3.6581 -2.0015 0.9791
2.5444 4.1763 -2.0015 0.9791
1.7624 4.5617 -2.0015 0.9791
1.3488 4.7007 -2.0015 0.9791
0.4927 4.8655 -2.0015 0.9791
0.0570 4.8900 -2.0015 0.9791
-0.8122 4.8224 -2.0015 0.9791
-1.2388 4.7308 -2.0015 0.9791
-2.4463 4.2345 -2.0015 0.9791
-2.8140 3.9996 -2.0015 0.9791
-4.6219 1.5980 -2.0015 0.9791
-4.7459 1.1797 -2.0015 0.9791
-2.0025 0.3116 -0.8294 0.9913
-1.9213 -0.0464 -0.7866 0.9917
-1.9558 -0.2227 -0.8056 0.9915
-4.7903 -0.9842 -2.0015 0.9791
-4.6835 -1.4073 -2.0015 0.9791
-4.5394 -1.8191 -2.0015 0.9791
-4.3592 -2.2165 -2.0015 0.9791
-3.6174 -3.2909 -2.0015 0.9791
-3.3097 -3.6002 -2.0015 0.9791
-2.6178 -4.1307 -2.0015 0.9791
-2.2392 -4.3476 -2.0015 0.9791
-1.8427 -4.5299 -2.0015 0.9791
-0.5786 -4.8560 -2.0015 0.9791
-0.1435 -4.8882 -2.0015 0.9791
0.7268 -4.8360 -2.0015 0.9791
1.5740 -4.6301 -2.0015 0.9791
1.9804 -4.4714 -2.0015 0.9791
3.0929 -3.7881 -2.0015 0.9791
3.7163 -3.1787 -2.0015 0.9791
3.9849 -2.8348 -2.0015 0.9791
4.2217 -2.4683 -2.0015 0.9791
4.4249 -2.0822 -2.0015 0.9791
4.8181 -0.8373 -2.0015 0.9791
4.8069 0.8994 -2.0015 0.9791
4.7076 1.3243 -2.0015 0.9791
4.3977 2.1391 -2.0015 0.9791
4.1895 2.5226 -2.0015 0.9791
3.9480 2.8860 -2.0015 0.9791
3.6750 3.2264 -2.0015 0.9791
3.3728 3.5411 -2.0015 0.9791
2.6904 4.0837 -2.0015 0.9791
2.3157 4.3073 -2.0015 0.9791
1.9225 4.4966 -2.0015 0.9791
-0.6412 4.8481 -2.0015 0.9791
-1.4919 4.6572 -2.0015 0.9791
-1.9010 4.5057 -2.0015 0.9791
-2.2951 4.3183 -2.0015 0.9791
-1.9577 0.1974 -0.8053 0.9915
-1.9093 0.0214 -0.7815 0.9918
-4.6008 -1.6575 -2.0015 0.9791
-4.4348 -2.0610 -2.0015 0.9791
-4.2334 -2.4481 -2.0015 0.9791
-3.9984 -2.8158 -2.0015 0.9791
-2.3915 -4.2657 -2.0015 0.9791
-0.7499 -4.8325 -2.0015 0.9791
-0.3161 -4.8801 -2.0015 0.9791
0.1201 -4.8889 -2.0015 0.9791
0.5554 -4.8587 -2.0015 0.9791
0.9863 -4.7898 -2.0015 0.9791
1.4093 -4.6829 -2.0015 0.9791
1.8211 -4.5386 -2.0015 0.9791
2.2184 -4.3582 -2.0015 0.9791
3.6016 -3.3081 -2.0015 0.9791
4.1318 -2.6160 -2.0015 0.9791
4.8562 -0.5765 -2.0015 0.9791
4.8357 0.7289 -2.0015 0.9791
4.7515 1.1570 -2.0015 0.9791
3.1771 3.7177 -2.0015 0.9791
2.0803 4.4258 -2.0015 0.9791
1.2614 4.7249 -2.0015 0.9791
0.4024 4.8737 -2.0015 0.9791
-0.0336 4.8902 -2.0015 0.9791
-1.3263 4.7070 -2.0015 0.9791
-2.1410 4.3967 -2.0015 0.9791
-2.5244 4.1884 -2.0015 0.9791
-3.2280 3.6736 -2.0015 0.9791
-3.5426 3.3713 -2.0015 0.9791
-3.8290 3.0421 -2.0015 0.9791
-4.0849 2.6887 -2.0015 0.9791
-4.3083 2.3138 -2.0015 0.9791
-4.6507 1.5121 -2.0015 0.9791
-1.9387 0.0904 -0.7943 0.9916
-1.9500 -0.2588 -0.8051 0.9915
-4.6566 -1.4939 -2.0015 0.9791
-4.5049 -1.9030 -2.0015 0.9791
-4.3173 -2.2970 -2.0015 0.9791
-3.8409 -3.0271 -2.0015 0.9791
-3.5558 -3.3574 -2.0015 0.9791
-2.9031 -3.9354 -2.0015 0.9791
-2.5408 -4.1785 -2.0015 0.9791
-1.3447 -4.7018 -2.0015 0.9791
-0.0528 -4.8900 -2.0015 0.9791
0.3833 -4.8753 -2.0015 0.9791
0.8164 -4.8217 -2.0015 0.9791
1.2429 -4.7298 -2.0015 0.9791
2.4500 -4.2324 -2.0015 0.9791
3.4825 -3.4333 -2.0015 0.9791
4.0367 -2.7604 -2.0015 0.9791
4.2667 -2.3896 -2.0015 0.9791
4.4628 -1.9998 -2.0015 0.9791
4.7469 -1.1756 -2.0015 0.9791
4.8802 -0.3140 -2.0015 0.9791
4.8888 0.1222 -2.0015 0.9791
4.8585 0.5575 -2.0015 0.9791
4.5378 1.8231 -2.0015 0.9791
4.3573 2.2203 -2.0015 0.9791
3.8938 2.9587 -2.0015 0.9791
3.6146 3.2940 -2.0015 0.9791
2.9722 3.8835 -2.0015 0.9791
1.0050 4.7860 -2.0015 0.9791
0.5744 4.8565 -2.0015 0.9791
0.1392 4.8883 -2.0015 0.9791
-0.2971 4.8813 -2.0015 0.9791
-0.7310 4.8354 -2.0015 0.9791
-1.1591 4.7510 -2.0015 0.9791
-1.5779 4.6288 -2.0015 0.9791
-1.9843 4.4697 -2.0015 0.9791
-2.3748 4.2750 -2.0015 0.9791
-3.7191 3.1755 -2.0015 0.9791
-3.9873 2.8314 -2.0015 0.9791
-4.2238 2.4647 -2.0015 0.9791
-4.5943 1.6755 -2.0015 0.9791
-1.9054 -0.0139 -0.7799 0.9918
-1.9579 -0.1897 -0.8051 0.9915
-2.2009 -0.4138 -0.9166 0.9904
-4.5693 -1.7426 -2.0015 0.9791
-4.3958 -2.1429 -2.0015 0.9791
-3.6722 -3.2296 -2.0015 0.9791
-3.3697 -3.5441 -2.0015 0.9791
-1.9187 -4.4982 -2.0015 0.9791
-1.5277 0.0455 -0.6661 0.9934
-1.5130 -0.2267 -0.6667 0.9933
-1.5400 -0.3736 -0.6906 0.9931
-1.5898 -0.5396 -0.7317 0.9927
-4.1999 -1.8580 -2.0015 0.9802
-4.0176 -2.2249 -2.0015 0.9802
-3.8032 -2.5742 -2.0015 0.9802
-3.5586 -2.9029 -2.0015 0.9802
-3.2857 -3.2086 -2.0015 0.9802
-2.9866 -3.4887 -2.0015 0.9802
-2.6638 -3.7410 -2.0015 0.9802
-2.3197 -3.9636 -2.0015 0.9802
-1.5791 -4.3125 -2.0015 0.9802
-1.1884 -4.4361 -2.0015 0.9802
-0.7882 -4.5244 -2.0015 0.9802
1.2417 -4.4215 -2.0015 0.9802
1.6309 -4.2932 -2.0015 0.9802
2.3673 -3.9354 -2.0015 0.9802
3.0284 -3.4525 -2.0015 0.9802
3.8340 -2.5282 -2.0015 0.9802
4.0440 -2.1764 -2.0015 0.9802
4.5497 -0.6259 -2.0015 0.9802
4.5873 -0.2178 -2.0015 0.9802
4.5885 0.1919 -2.0015 0.9802
4.5531 0.6002 -2.0015 0.9802
4.4815 1.0036 -2.0015 0.9802
4.3742 1.3991 -2.0015 0.9802
4.2321 1.7834 -2.0015 0.9802
3.8482 2.5066 -2.0015 0.9802
3.6094 2.8396 -2.0015 0.9802
3.3419 3.1500 -2.0015 0.9802
2.3894 3.9220 -2.0015 0.9802
2.0303 4.1193 -2.0015 0.9802
1.6551 4.2839 -2.0015 0.9802
1.2666 4.4144 -2.0015 0.9802
0.4627 4.5691 -2.0015 0.9802
0.0535 4.5922 -2.0015 0.9802
-0.7627 4.5287 -2.0015 0.9802
-1.5547 4.3213 -2.0015 0.9802
-2.2973 3.9766 -2.0015 0.9802
-3.2676 3.2271 -2.0015 0.9802
-4.0049 2.2476 -2.0015 0.9802
-1.5917 0.5504 -0.7340 0.9927
-1.5441 0.3838 -0.6934 0.9931
-1.5108 0.2351 -0.6664 0.9934
-1.5295 0.0998 -0.6680 0.9933
-1.5740 -0.4730 -0.7163 0.9929
-4.2629 -1.7083 -2.0015 0.9802
-3.6590 -2.7753 -2.0015 0.9802
-3.3971 -3.0904 -2.0015 0.9802
-2.7944 -3.6445 -2.0015 0.9802
-2.4584 -3.8791 -2.0015 0.9802
-1.3445 -4.3913 -2.0015 0.9802
-0.9477 -4.4937 -2.0015 0.9802
-0.5433 -4.5602 -2.0015 0.9802
0.6825 -4.5415 -2.0015 0.9802
2.5758 -3.8021 -2.0015 0.9802
2.9045 -3.5574 -2.0015 0.9802
3.9646 -2.3180 -2.0015 0.9802
4.4366 -1.1865 -2.0015 0.9802
4.5247 -0.7863 -2.0015 0.9802
4.5768 -0.3798 -2.0015 0.9802
4.5924 0.0296 -2.0015 0.9802
4.2925 1.6327 -2.0015 0.9802
3.9344 2.3690 -2.0015 0.9802
3.4512 3.0299 -2.0015 0.9802
3.1674 3.3255 -2.0015 0.9802
2.5266 3.8350 -2.0015 0.9802
1.4219 4.3668 -2.0015 0.9802
1.0270 4.4762 -2.0015 0.9802
0.6239 4.5499 -2.0015 0.9802
0.2158 4.5874 -2.0015 0.9802
-0.1939 4.5884 -2.0015 0.9802
-1.4010 4.3736 -2.0015 0.9802
-1.7853 4.2313 -2.0015 0.9802
-2.5082 3.8471 -2.0015 0.9802
-3.4367 3.0464 -2.0015 0.9802
-3.9230 2.3877 -2.0015 0.9802
-4.2846 1.6532 -2.0015 0.9802
-1.5669 0.4489 -0.7104 0.9929
-1.5001 0.2881 -0.6657 0.9934
-1.5289 -0.1195 -0.6684 0.9933
-1.5054 -0.2542 -0.6654 0.9934
-1.5957 -0.5749 -0.7392 0.9926
-4.1647 -1.9355 -2.0015 0.9802
-3.7549 -2.6443 -2.0015 0.9802
-3.5042 -2.9684 -2.0015 0.9802
-2.9214 -3.5435 -2.0015 0.9802
-1.8798 -4.1901 -2.0015 0.9802
-0.7042 -4.5382 -2.0015 0.9802
-0.2969 -4.5829 -2.0015 0.9802
0.1128 -4.5911 -2.0015 0.9802
0.5216 -4.5628 -2.0015 0.9802
0.9262 -4.4981 -2.0015 0.9802
1.3235 -4.3977 -2.0015 0.9802
2.4398 -3.8908 -2.0015 0.9802
2.7769 -3.6578 -2.0015 0.9802
3.0919 -3.3958 -2.0015 0.9802
3.3823 -3.1066 -2.0015 0.9802
4.2547 -1.7287 -2.0015 0.9802
4.4941 -0.9457 -2.0015 0.9802
4.5605 -0.5414 -2.0015 0.9802
4.5841 0.2770 -2.0015 0.9802
4.5412 0.6845 -2.0015 0.9802
4.4621 1.0866 -2.0015 0.9802
3.8010 2.5775 -2.0015 0.9802
2.9836 3.4913 -2.0015 0.9802
2.6606 3.7433 -2.0015 0.9802
2.3163 3.9656 -2.0015 0.9802
-0.4408 4.5713 -2.0015 0.9802
-1.2455 4.4204 -2.0015 0.9802
-1.6346 4.2918 -2.0015 0.9802
-2.0106 4.1290 -2.0015 0.9802
-2.3707 3.9333 -2.0015 0.9802
-2.7118 3.7064 -2.0015 0.9802
-3.0314 3.4499 -2.0015 0.9802
-3.3269 3.1659 -2.0015 0.9802
-3.5958 2.8568 -2.0015 0.9802
-3.8361 2.5249 -2.0015 0.9802
-1.5290 -0.0653 -0.6670 0.9933
-1.5830 -0.5078 -0.7245 0.9928
-4.2305 -1.7871 -2.0015 0.9802
-3.8460 -2.5099 -2.0015 0.9802
-3.6069 -2.8427 -2.0015 0.9802
-3.3392 -3.1529 -2.0015 0.9802
-2.7263 -3.6957 -2.0015 0.9802
-2.0268 -4.1211 -2.0015 0.9802
-1.6514 -4.2853 -2.0015 0.9802
-0.8642 -4.5105 -2.0015 0.9802
-0.4587 -4.5695 -2.0015 0.9802
1.1672 -4.4417 -2.0015 0.9802
1.9373 -4.1639 -2.0015 0.9802
2.6459 -3.7537 -2.0015 0.9802
2.9700 -3.5029 -2.0015 0.9802
3.2704 -3.2243 -2.0015 0.9802
3.5447 -2.9199 -2.0015 0.9802
4.4578 -1.1040 -2.0015 0.9802
4.5830 -0.2949 -2.0015 0.9802
4.5626 0.5235 -2.0015 0.9802
4.4977 0.9281 -2.0015 0.9802
4.3971 1.3254 -2.0015 0.9802
4.2615 1.7120 -2.0015 0.9802
3.8898 2.4415 -2.0015 0.9802
3.3944 3.0934 -2.0015 0.9802
2.4550 3.8812 -2.0015 0.9802
2.0993 4.0846 -2.0015 0.9802
1.7269 4.2555 -2.0015 0.9802
0.5394 4.5607 -2.0015 0.9802
0.1307 4.5906 -2.0015 0.9802
-0.2790 4.5840 -2.0015 0.9802
-0.6865 4.5409 -2.0015 0.9802
-1.4818 4.3469 -2.0015 0.9802
-1.8634 4.1975 -2.0015 0.9802
-2.2301 4.0147 -2.0015 0.9802
-2.5791 3.7999 -2.0015 0.9802
-3.4926 2.9821 -2.0015 0.9802
-3.7445 2.6589 -2.0015 0.9802
-3.9666 2.3146 -2.0015 0.9802
-1.5555 0.4145 -0.7016 0.9930
-1.5239 -0.0111 -0.6641 0.9934
-1.5267 -0.1479 -0.6685 0.9933
-1.4967 -0.2814 -0.6637 0.9934
-1.5646 -0.4416 -0.7085 0.9929
-3.4486 -3.0329 -2.0015 0.9802
-2.8552 -3.5970 -2.0015 0.9802
-1.3371 0.0398 -0.6192 0.9941
-1.3385 -0.0797 -0.6207 0.9941
-1.3256 -0.1986 -0.6205 0.9941
-1.3334 -0.4526 -0.6518 0.9938
-3.7826 -2.0948 -2.0015 0.9811
-3.3505 -2.7332 -2.0015 0.9811
-2.8120 -3.2847 -2.0015 0.9811
-2.1841 -3.7318 -2.0015 0.9811
-1.8427 -3.9116 -2.0015 0.9811
-0.7421 -4.2598 -2.0015 0.9811
-0.3595 -4.3090 -2.0015 0.9811
0.0260 -4.3239 -2.0015 0.9811
0.4113 -4.3043 -2.0015 0.9811
1.5355 -4.0421 -2.0015 0.9811
1.8897 -3.8892 -2.0015 0.9811
2.2288 -3.7052 -2.0015 0.9811
2.5502 -3.4918 -2.0015 0.9811
2.8513 -3.2506 -2.0015 0.9811
3.3832 -2.6927 -2.0015 0.9811
3.6098 -2.3804 -2.0015 0.9811
3.8076 -2.0491 -2.0015 0.9811
3.9751 -1.7016 -2.0015 0.9811
4.2140 -0.9687 -2.0015 0.9811
4.3202 0.1807 -2.0015 0.9811
4.1184 1.3173 -2.0015 0.9811
3.9846 1.6791 -2.0015 0.9811
3.8191 2.0276 -2.0015 0.9811
3.3983 2.6735 -2.0015 0.9811
3.1465 2.9658 -2.0015 0.9811
0.8173 4.2460 -2.0015 0.9811
0.4356 4.3019 -2.0015 0.9811
0.0504 4.3236 -2.0015 0.9811
-0.7181 4.2639 -2.0015 0.9811
-1.4638 4.0686 -2.0015 0.9811
-2.7934 3.3005 -2.0015 0.9811
-3.3351 2.7520 -2.0015 0.9811
-3.5671 2.4438 -2.0015 0.9811
-3.7707 2.1161 -2.0015 0.9811
-1.3240 0.2060 -0.6202 0.9941
-1.3385 0.0873 -0.6209 0.9941
-1.3366 -0.0323 -0.6189 0.9941
-1.3340 -0.1519 -0.6215 0.9941
-1.3064 -0.2684 -0.6173 0.9941
-1.3258 -0.3984 -0.6408 0.9939
-1.3288 -0.5325 -0.6626 0.9937
-3.6643 -2.2956 -2.0015 0.9811
-3.4451 -2.6130 -2.0015 0.9811
-3.1984 -2.9097 -2.0015 0.9811
-2.9264 -3.1832 -2.0015 0.9811
-2.3146 -3.6523 -2.0015 0.9811
-1.6293 -4.0052 -2.0015 0.9811
-0.1268 -4.3221 -2.0015 0.9811
0.6426 -4.2759 -2.0015 0.9811
1.0212 -4.2016 -2.0015 0.9811
1.3917 -4.0939 -2.0015 0.9811
1.7510 -3.9535 -2.0015 0.9811
3.2859 -2.8106 -2.0015 0.9811
3.5234 -2.5065 -2.0015 0.9811
3.7327 -2.1825 -2.0015 0.9811
4.0610 -1.4850 -2.0015 0.9811
4.3091 -0.3576 -2.0015 0.9811
4.3239 0.0279 -2.0015 0.9811
4.3042 0.4132 -2.0015 0.9811
4.2502 0.7952 -2.0015 0.9811
3.8884 1.8914 -2.0015 0.9811
3.4907 2.5517 -2.0015 0.9811
3.2494 2.8527 -2.0015 0.9811
2.9822 3.1310 -2.0015 0.9811
2.6912 3.3844 -2.0015 0.9811
2.3788 3.6108 -2.0015 0.9811
1.6999 3.9758 -2.0015 0.9811
1.3387 4.1115 -2.0015 0.9811
0.2032 4.3192 -2.0015 0.9811
-0.1826 4.3201 -2.0015 0.9811
-0.9468 4.2190 -2.0015 0.9811
-1.6809 3.9839 -2.0015 0.9811
-2.0293 3.8182 -2.0015 0.9811
-2.3616 3.6221 -2.0015 0.9811
-2.9672 3.1452 -2.0015 0.9811
-3.4785 2.5684 -2.0015 0.9811
-3.6936 2.2481 -2.0015 0.9811
-1.3117 0.2519 -0.6183 0.9941
-1.3361 0.1347 -0.6216 0.9941
-1.3350 0.0150 -0.6180 0.9941
-1.3199 -0.2229 -0.6196 0.9941
-1.3142 -0.3447 -0.6289 0.9940
-3.7431 -2.1646 -2.0015 0.9811
-3.2993 -2.7948 -2.0015 0.9811
-3.0370 -3.0778 -2.0015 0.9811
-2.4423 -3.5682 -2.0015 0.9811
-2.1145 -3.7717 -2.0015 0.9811
-1.7699 -3.9451 -2.0015 0.9811
-1.4112 -4.0872 -2.0015 0.9811
0.4911 -4.2960 -2.0015 0.9811
0.8680 -4.2155 -1.9922 0.9812
1.2461 -4.1405 -2.0015 0.9811
1.6102 -4.0130 -2.0015 0.9811
1.9615 -3.8535 -2.0015 0.9811
2.2972 -3.6633 -2.0015 0.9811
2.6145 -3.4439 -2.0015 0.9811
2.9111 -3.1972 -2.0015 0.9811
3.4326 -2.6295 -2.0015 0.9811
4.2313 -0.8904 -2.0015 0.9811
4.2012 1.0230 -2.0015 0.9811
3.5787 2.4268 -2.0015 0.9811
3.3482 2.7361 -2.0015 0.9811
2.8092 3.2871 -2.0015 0.9811
2.5050 3.5244 -2.0015 0.9811
-0.0297 4.3238 -2.0015 0.9811
-1.1727 4.1619 -2.0015 0.9811
-1.8931 3.8875 -2.0015 0.9811
-2.2320 3.7033 -2.0015 0.9811
-2.5533 3.4896 -2.0015 0.9811
-2.8541 3.2481 -2.0015 0.9811
-3.8093 2.0459 -2.0015 0.9811
-1.3234 0.5652 -0.6661 0.9937
-1.3311 0.4328 -0.6479 0.9938
-1.3380 -0.0571 -0.6199 0.9941
-1.3300 -0.1765 -0.6210 0.9941
-1.2989 -0.2921 -0.6163 0.9941
-1.3303 -0.4268 -0.6467 0.9939
-3.8173 -2.0309 -2.0015 0.9811
-3.6211 -2.3631 -2.0015 0.9811
-3.3960 -2.6765 -2.0015 0.9811
-3.1439 -2.9685 -2.0015 0.9811
-2.5669 -3.4796 -2.0015 0.9811
-2.2465 -3.6946 -2.0015 0.9811
-1.5548 -4.0347 -2.0015 0.9811
-1.1890 -4.1573 -2.0015 0.9811
-0.4319 -4.3023 -2.0015 0.9811
-0.0467 -4.3237 -2.0015 0.9811
0.3389 -4.3106 -2.0015 0.9811
0.7206 -4.2559 -1.9980 0.9812
1.0989 -4.1820 -2.0015 0.9811
1.4673 -4.0674 -2.0015 0.9811
1.8240 -3.9204 -2.0015 0.9811
2.1662 -3.7422 -2.0015 0.9811
2.4912 -3.5342 -2.0015 0.9811
2.7963 -3.2981 -2.0015 0.9811
3.5692 -2.4407 -2.0015 0.9811
3.7726 -2.1129 -2.0015 0.9811
3.9459 -1.7682 -2.0015 0.9811
4.1971 -1.0395 -2.0015 0.9811
4.2731 -0.6612 -2.0015 0.9811
4.3226 0.1081 -2.0015 0.9811
4.2958 0.4929 -2.0015 0.9811
4.1400 1.2479 -2.0015 0.9811
4.0123 1.6119 -2.0015 0.9811
3.8526 1.9631 -2.0015 0.9811
3.6623 2.2987 -2.0015 0.9811
3.1959 2.9125 -2.0015 0.9811
2.6280 3.4337 -2.0015 0.9811
2.3115 3.6543 -2.0015 0.9811
1.6259 4.0066 -2.0015 0.9811
1.2623 4.1356 -2.0015 0.9811
0.8886 4.2317 -2.0015 0.9811
0.5079 4.2940 -2.0015 0.9811
0.1231 4.3222 -2.0015 0.9811
-0.2627 4.3160 -2.0015 0.9811
-1.3952 4.0927 -2.0015 0.9811
-2.4283 3.5777 -2.0015 0.9811
-2.7375 3.3470 -2.0015 0.9811
-3.0250 3.0897 -2.0015 0.9811
-3.5255 2.5034 -2.0015 0.9811
-3.7346 2.1792 -2.0015 0.9811
-1.3330 0.4861 -0.6568 0.9938
-1.3157 0.3506 -0.6303 0.9940
-1.3186 0.2280 -0.6194 0.9941
-1.3380 0.1099 -0.6214 0.9941
-1.3208 -0.3728 -0.6353 0.9940
-3.8867 -1.8947 -2.0015 0.9811
-2.3757 -3.6128 -2.0015 0.9811
-1.6964 -3.9773 -2.0015 0.9811
-1.1964 0.0356 -0.5871 0.9947
-1.1431 -0.5057 -0.6131 0.9944
-1.1078 -0.6135 -0.6212 0.9944
-3.3791 -2.2871 -2.0015 0.9820
-2.9193 -2.8508 -2.0015 0.9820
-1.7389 -3.6912 -2.0015 0.9820
-1.4030 -3.8315 -2.0015 0.9820
-1.0559 -3.9413 -2.0015 0.9820
0.0246 -4.0802 -2.0015 0.9820
0.3882 -4.0618 -2.0015 0.9820
1.4490 -3.8144 -2.0015 0.9820
2.4065 -3.2951 -2.0015 0.9820
2.6907 -3.0675 -2.0015 0.9820
2.9534 -2.8154 -2.0015 0.9820
3.4064 -2.2463 -2.0015 0.9820
3.5930 -1.9337 -2.0015 0.9820
3.7511 -1.6057 -2.0015 0.9820
3.9766 -0.9142 -2.0015 0.9820
4.0422 -0.5561 -2.0015 0.9820
4.0757 -0.1935 -2.0015 0.9820
4.0767 0.1705 -2.0015 0.9820
4.0453 0.5332 -2.0015 0.9820
3.9817 0.8917 -2.0015 0.9820
3.7601 1.5845 -2.0015 0.9820
3.4190 2.2270 -2.0015 0.9820
2.9692 2.7987 -2.0015 0.9820
2.7079 3.0522 -2.0015 0.9820
2.4251 3.2815 -2.0015 0.9820
2.1229 3.4846 -2.0015 0.9820
1.4705 3.8061 -2.0015 0.9820
1.1254 3.9221 -2.0015 0.9820
0.7713 4.0068 -2.0015 0.9820
-0.6777 4.0236 -2.0015 0.9820
-1.7181 3.7010 -2.0015 0.9820
-2.0411 3.5331 -2.0015 0.9820
-2.6360 3.1145 -2.0015 0.9820
-3.3661 2.3061 -2.0015 0.9820
-3.5583 1.9969 -2.0015 0.9820
-1.1417 0.5128 -0.6139 0.9944
-1.1957 0.0780 -0.5878 0.9947
-1.1728 -0.2410 -0.5873 0.9947
-1.1590 -0.3482 -0.5936 0.9946
-1.1506 -0.4611 -0.6080 0.9945
-1.1270 -0.5730 -0.6202 0.9944
-3.4578 -2.1662 -2.0015 0.9820
-3.2510 -2.4658 -2.0015 0.9820
-2.7615 -3.0039 -2.0015 0.9820
-2.1842 -3.4465 -2.0015 0.9820
-1.5375 -3.7795 -2.0015 0.9820
-0.8420 -3.9925 -2.0015 0.9820
0.2443 -4.0730 -2.0015 0.9820
1.6524 -3.7308 -2.0015 0.9820
2.2886 -3.3781 -2.0015 0.9820
3.3248 -2.3653 -2.0015 0.9820
3.6920 -1.7373 -2.0015 0.9820
3.8321 -1.4013 -2.0015 0.9820
4.0201 -0.6986 -2.0015 0.9820
4.0802 0.0263 -2.0015 0.9820
4.0616 0.3899 -2.0015 0.9820
4.0107 0.7504 -2.0015 0.9820
3.9279 1.1049 -2.0015 0.9820
3.4956 2.1048 -2.0015 0.9820
3.2940 2.4080 -2.0015 0.9820
2.8141 2.9546 -2.0015 0.9820
1.9321 3.5939 -2.0015 0.9820
1.6041 3.7518 -2.0015 0.9820
1.2633 3.8798 -2.0015 0.9820
0.9124 3.9770 -2.0015 0.9820
0.5543 4.0425 -2.0015 0.9820
-0.1723 4.0767 -2.0015 0.9820
-0.5350 4.0451 -2.0015 0.9820
-0.8934 3.9813 -2.0015 0.9820
-2.5243 3.2058 -2.0015 0.9820
-3.0534 2.7066 -2.0015 0.9820
-3.2825 2.4237 -2.0015 0.9820
-1.1313 0.5570 -0.6186 0.9944
-1.1589 0.3320 -0.5914 0.9946
-1.1763 0.2259 -0.5875 0.9947
-1.1960 0.0134 -0.5867 0.9947
-1.1817 -0.1995 -0.5879 0.9947
-1.1582 -0.3038 -0.5874 0.9947
-1.1557 -0.4164 -0.6026 0.9945
-1.1382 -0.5290 -0.6157 0.9944
-3.1134 -2.6374 -2.0015 0.9820
-2.5956 -3.1483 -2.0015 0.9820
-1.9954 -3.5591 -2.0015 0.9820
-1.6702 -3.7228 -2.0015 0.9820
-1.3317 -3.8569 -2.0015 0.9820
-0.6257 -4.0321 -2.0015 0.9820
1.1759 -3.9072 -2.0015 0.9820
1.8510 -3.6363 -2.0015 0.9820
3.4474 -2.1827 -2.0015 0.9820
3.6283 -1.8667 -2.0015 0.9820
3.7802 -1.5359 -2.0015 0.9820
3.9929 -0.8403 -2.0015 0.9820
4.0519 -0.4810 -2.0015 0.9820
3.7301 1.6540 -2.0015 0.9820
3.5678 1.9799 -2.0015 0.9820
3.3771 2.2900 -2.0015 0.9820
3.1595 2.5819 -2.0015 0.9820
2.9168 2.8533 -2.0015 0.9820
2.6509 3.1019 -2.0015 0.9820
1.3996 3.8327 -2.0015 0.9820
0.3357 4.0665 -2.0015 0.9820
-0.0281 4.0802 -2.0015 0.9820
-0.7521 4.0104 -2.0015 0.9820
-1.1066 3.9274 -2.0015 0.9820
-1.7864 3.6685 -2.0015 0.9820
-2.6933 3.0650 -2.0015 0.9820
-3.1948 2.5382 -2.0015 0.9820
-3.4083 2.2433 -2.0015 0.9820
-1.1582 0.3766 -0.5974 0.9946
-1.1879 0.1624 -0.5881 0.9947
-1.1673 -0.2625 -0.5869 0.9947
-1.1584 -0.3716 -0.5968 0.9946
-1.1175 -0.5946 -0.6209 0.9944
-3.4170 -2.2300 -2.0015 0.9820
-3.2047 -2.5257 -2.0015 0.9820
-2.9668 -2.8013 -2.0015 0.9820
-2.4222 -3.2836 -2.0015 0.9820
-2.1199 -3.4864 -2.0015 0.9820
-1.8007 -3.6615 -2.0015 0.9820
-0.4075 -4.0599 -2.0015 0.9820
-0.0440 -4.0801 -2.0015 0.9820
0.3198 -4.0678 -2.0015 0.9820
1.0370 -3.9463 -2.0015 0.9820
1.7213 -3.6995 -2.0015 0.9820
2.6387 -3.1123 -2.0015 0.9820
3.3681 -2.3032 -2.0015 0.9820
3.5600 -1.9938 -2.0015 0.9820
3.9607 -0.9809 -2.0015 0.9820
4.0323 -0.6239 -2.0015 0.9820
4.0537 0.4651 -2.0015 0.9820
3.9961 0.8246 -2.0015 0.9820
3.9067 1.1775 -2.0015 0.9820
3.2488 2.4686 -2.0015 0.9820
3.0158 2.7484 -2.0015 0.9820
2.4799 3.2402 -2.0015 0.9820
2.1812 3.4484 -2.0015 0.9820
1.8652 3.6291 -2.0015 0.9820
1.5343 3.7809 -2.0015 0.9820
0.8385 3.9932 -2.0015 0.9820
0.1162 4.0787 -2.0015 0.9820
-0.6099 4.0345 -2.0015 0.9820
-0.9671 3.9641 -2.0015 0.9820
-1.3166 3.8621 -2.0015 0.9820
-1.9814 3.5669 -2.0015 0.9820
-3.5242 2.0564 -2.0015 0.9820
-1.1584 0.3087 -0.5881 0.9947
-1.1946 0.0981 -0.5880 0.9947
-1.1958 -0.0087 -0.5866 0.9947
-1.1773 -0.2213 -0.5876 0.9947
-1.1533 -0.4398 -0.6055 0.9945
-1.1326 -0.5521 -0.6181 0.9944
-3.0640 -2.6946 -2.0015 0.9820
