ply
format ascii 1.0
element vertex 1579
property float32 x
property float32 y
property float32 z
property float32 I
end_header
-16.2677 -4.3897 -2.0015 0.9344
-11.7347 -12.0915 -2.0015 0.9344
-10.6074 -13.0916 -2.0015 0.9344
-7.4914 -13.6473 -1.8493 0.9392
-4.9429 -14.7628 -1.8493 0.9392
-3.6041 -15.1453 -1.8493 0.9392
-2.2365 -15.4068 -1.8493 0.9392
1.9294 -15.4482 -1.8493 0.9392
3.3019 -15.2141 -1.8493 0.9392
5.9570 -14.3835 -1.8493 0.9392
7.2183 -13.7937 -1.8493 0.9392
8.4219 -13.0936 -1.8493 0.9392
9.5581 -12.2887 -1.8493 0.9392
10.6179 -11.3856 -1.8493 0.9392
12.4945 -11.1998 -1.9932 0.9346
14.3481 -8.8339 -2.0015 0.9344
15.6913 -6.1392 -2.0015 0.9344
16.5335 -3.2484 -2.0015 0.9344
16.8030 1.2524 -2.0015 0.9344
16.3118 4.2231 -2.0015 0.9344
15.8692 5.6636 -2.0015 0.9344
15.2997 7.0588 -2.0015 0.9344
13.4970 7.7590 -1.8493 0.9392
12.7498 8.9339 -1.8493 0.9392
9.9241 11.9951 -1.8493 0.9392
7.6307 13.5699 -1.8493 0.9392
6.3877 14.1975 -1.8493 0.9392
1.0100 15.5355 -1.8493 0.9392
-0.3821 15.5636 -1.8493 0.9392
-1.7712 15.4672 -1.8493 0.9392
-3.1461 15.2471 -1.8493 0.9392
-8.2875 13.1791 -1.8493 0.9392
-7.9540 10.4452 -1.5595 0.9485
-11.3651 12.4396 -2.0015 0.9344
-12.4310 11.3744 -2.0015 0.9344
-14.2570 8.9803 -2.0015 0.9344
-15.0023 7.6705 -2.0015 0.9344
-15.6277 6.2994 -2.0015 0.9344
-16.1280 4.8780 -2.0015 0.9344
-16.7387 1.9296 -2.0015 0.9344
-16.3541 -4.0559 -2.0015 0.9344
-15.9263 -5.5009 -2.0015 0.9344
-15.3711 -6.9019 -2.0015 0.9344
-14.6930 -8.2477 -2.0015 0.9344
-13.8973 -9.5275 -2.0015 0.9344
-11.9797 -11.8488 -2.0015 0.9344
-10.8731 -12.8718 -2.0015 0.9344
-9.6796 -13.7918 -2.0015 0.9344
-7.7692 -13.4911 -1.8493 0.9392
-6.5327 -14.1313 -1.8493 0.9392
-5.2439 -14.6585 -1.8493 0.9392
-3.9133 -15.0684 -1.8493 0.9392
-2.5513 -15.3578 -1.8493 0.9392
-1.1689 -15.5243 -1.8493 0.9392
4.3430 -14.9502 -1.8493 0.9392
5.6614 -14.5024 -1.8493 0.9392
6.9345 -13.9385 -1.8493 0.9392
8.1522 -13.2632 -1.8493 0.9392
9.0907 -12.1948 -1.8068 0.9406
10.3826 -11.6005 -1.8493 0.9392
11.9999 -11.2077 -1.9504 0.9360
13.2923 -10.3548 -2.0015 0.9344
14.1644 -9.1257 -2.0015 0.9344
14.9231 -7.8237 -2.0015 0.9344
15.5624 -6.4590 -2.0015 0.9344
16.0773 -5.0427 -2.0015 0.9344
16.4635 -3.5861 -2.0015 0.9344
16.7181 -2.1008 -2.0015 0.9344
15.9818 5.3376 -2.0015 0.9344
15.4410 6.7442 -2.0015 0.9344
14.0809 7.7157 -1.9073 0.9374
12.9299 8.6711 -1.8493 0.9392
12.1035 9.7917 -1.8493 0.9392
11.1802 10.8339 -1.8493 0.9392
7.9068 13.4109 -1.8493 0.9392
-5.5127 14.5596 -1.8493 0.9392
-6.7915 14.0088 -1.8493 0.9392
-8.0161 13.3459 -1.8493 0.9392
-13.1857 10.4903 -2.0015 0.9344
-16.0248 5.2070 -2.0015 0.9344
-16.8319 0.7709 -2.0015 0.9344
-16.8335 -0.7361 -2.0015 0.9344
-16.7004 -2.2372 -2.0015 0.9344
-16.0356 -5.1738 -2.0015 0.9344
-13.2074 -10.4629 -2.0015 0.9344
-8.6747 -14.3750 -1.9944 0.9346
-5.5428 -14.5481 -1.8493 0.9392
-4.2208 -14.9852 -1.8493 0.9392
-2.8650 -15.3024 -1.8493 0.9392
-1.4863 -15.4971 -1.8493 0.9392
1.2956 -15.5143 -1.8493 0.9392
2.6766 -15.3365 -1.8493 0.9392
4.0362 -15.0360 -1.8493 0.9392
6.6478 -14.0775 -1.8493 0.9392
8.7546 -12.2598 -1.7895 0.9411
13.0777 -10.6246 -2.0015 0.9344
13.9746 -9.4137 -2.0015 0.9344
15.4270 -6.7762 -2.0015 0.9344
16.3867 -3.9223 -2.0015 0.9344
16.8231 -0.9431 -2.0015 0.9344
16.8401 0.5638 -2.0015 0.9344
16.4709 3.5520 -2.0015 0.9344
16.0877 5.0094 -2.0015 0.9344
15.5757 6.4268 -2.0015 0.9344
13.1047 8.4047 -1.8493 0.9392
12.3013 9.5419 -1.8493 0.9392
11.3996 10.6029 -1.8493 0.9392
8.1796 13.2463 -1.8493 0.9392
6.9634 13.9242 -1.8493 0.9392
3.0215 15.2722 -1.8493 0.9392
0.2551 15.5662 -1.8493 0.9392
-1.1368 15.5267 -1.8493 0.9392
-7.7412 13.5072 -1.8493 0.9392
-8.9171 12.7615 -1.8493 0.9392
-10.8465 12.8943 -2.0015 0.9344
-11.9552 11.8736 -2.0015 0.9344
-12.9682 10.7579 -2.0015 0.9344
-13.8776 9.5562 -2.0015 0.9344
-16.6457 2.6129 -2.0015 0.9344
-16.5064 -3.3833 -2.0015 0.9344
-16.1381 -4.8446 -2.0015 0.9344
-15.0182 -7.6395 -2.0015 0.9344
-13.4187 -10.1905 -2.0015 0.9344
-12.4545 -11.3487 -2.0015 0.9344
-8.9926 -14.2349 -2.0001 0.9344
-7.1055 -13.8522 -1.8493 0.9392
-3.1776 -15.2405 -1.8493 0.9392
-0.4143 -15.5627 -1.8493 0.9392
2.3622 -15.3880 -1.8493 0.9392
5.0632 -14.7219 -1.8493 0.9392
6.3583 -14.2106 -1.8493 0.9392
8.7861 -12.8521 -1.8493 0.9392
9.8992 -12.0157 -1.8493 0.9392
13.7790 -9.6977 -2.0015 0.9344
16.3030 -4.2568 -2.0015 0.9344
16.6181 -2.7831 -2.0015 0.9344
16.8481 0.2190 -2.0015 0.9344
16.7612 1.7235 -2.0015 0.9344
16.5402 3.2142 -2.0015 0.9344
15.7040 6.1067 -2.0015 0.9344
13.2739 8.1347 -1.8493 0.9392
9.5835 12.2689 -1.8493 0.9392
8.4490 13.0761 -1.8493 0.9392
7.2469 13.7787 -1.8493 0.9392
5.9868 14.3711 -1.8493 0.9392
3.3334 15.2072 -1.8493 0.9392
1.9613 15.4442 -1.8493 0.9392
0.5736 15.5577 -1.8493 0.9392
-0.8188 15.5467 -1.8493 0.9392
-4.9123 14.7729 -1.8493 0.9392
8.1124 10.2243 -1.8493 0.9486
7.1664 10.9083 -1.8493 0.9486
5.1105 12.0096 -1.8493 0.9486
4.0170 12.4182 -1.8493 0.9486
2.8914 12.7274 -1.8493 0.9486
1.7427 12.9349 -1.8493 0.9486
-0.5873 13.0385 -1.8493 0.9486
-1.7499 12.9339 -1.8493 0.9486
-2.8986 12.7258 -1.8493 0.9486
-4.0240 12.4159 -1.8493 0.9486
-5.1172 12.0067 -1.8493 0.9486
-6.1695 11.5015 -1.8493 0.9486
-8.1181 10.2198 -1.8493 0.9486
-9.7394 10.2316 -2.0015 0.9445
-10.6146 9.3205 -2.0015 0.9445
-13.2069 5.0119 -2.0015 0.9445
-13.6019 3.8119 -2.0015 0.9445
-13.8880 2.5813 -2.0015 0.9445
-14.0631 1.3301 -2.0015 0.9445
-14.1257 0.0683 -2.0015 0.9445
-13.9124 -2.4469 -2.0015 0.9445
-13.2547 -4.8840 -2.0015 0.9445
-12.7653 -6.0487 -2.0015 0.9445
-12.1738 -7.1651 -2.0015 0.9445
-11.4850 -8.2242 -2.0015 0.9445
-10.7042 -9.2174 -2.0015 0.9445
-7.8766 -11.7261 -2.0015 0.9445
-6.7847 -12.3597 -1.9977 0.9446
-5.2331 -11.9567 -1.8493 0.9486
-3.0215 -12.6972 -1.8493 0.9486
2.7682 -12.7548 -1.8493 0.9486
3.8967 -12.4564 -1.8493 0.9486
4.9941 -12.0585 -1.8493 0.9486
9.6342 -10.3307 -2.0015 0.9445
10.5186 -9.4286 -2.0015 0.9445
11.3190 -8.4511 -2.0015 0.9445
12.6424 -6.3016 -2.0015 0.9445
13.1549 -5.1468 -2.0015 0.9445
13.8609 -2.7233 -2.0015 0.9445
13.9367 2.3044 -2.0015 0.9445
13.6750 3.5404 -2.0015 0.9445
13.3040 4.7481 -2.0015 0.9445
12.2465 7.0401 -2.0015 0.9445
11.0117 7.7160 -1.9052 0.9471
9.9769 8.4148 -1.8493 0.9486
8.3199 10.0562 -1.8493 0.9486
7.3881 10.7593 -1.8493 0.9486
4.2703 12.3334 -1.8493 0.9486
2.0070 12.8965 -1.8493 0.9486
0.8467 13.0242 -1.8493 0.9486
-0.3204 13.0478 -1.8493 0.9486
-2.6375 12.7824 -1.8493 0.9486
-3.7691 12.4957 -1.8493 0.9486
-6.9479 11.0487 -1.8493 0.9486
-11.9524 7.5287 -2.0015 0.9445
-13.5210 4.0894 -2.0015 0.9445
-13.8323 2.8650 -2.0015 0.9445
-14.1214 0.3574 -2.0015 0.9445
-14.0968 -0.9058 -2.0015 0.9445
-13.9595 -2.1617 -2.0015 0.9445
-13.7105 -3.4003 -2.0015 0.9445
-12.8865 -5.7862 -2.0015 0.9445
-12.3179 -6.9145 -2.0015 0.9445
-11.6509 -7.9874 -2.0015 0.9445
-7.0494 -12.2412 -2.0015 0.9445
-5.5240 -11.9493 -1.8652 0.9482
-3.2807 -12.6327 -1.8493 0.9486
-2.1389 -12.8753 -1.8493 0.9486
-0.9799 -13.0149 -1.8493 0.9486
1.3521 -12.9815 -1.8493 0.9486
3.6410 -12.5336 -1.8493 0.9486
4.7463 -12.1581 -1.8493 0.9486
6.8983 -11.2232 -1.8666 0.9482
8.3508 -11.2022 -1.9797 0.9451
9.4207 -10.5257 -2.0015 0.9445
10.3235 -9.6419 -2.0015 0.9445
11.1437 -8.6810 -2.0015 0.9445
13.0468 -5.4150 -2.0015 0.9445
13.4785 -4.2276 -2.0015 0.9445
13.7446 3.2598 -2.0015 0.9445
12.9450 5.6541 -2.0015 0.9445
12.3880 6.7881 -2.0015 0.9445
11.4906 7.7058 -1.9603 0.9456
9.3730 9.0827 -1.8493 0.9486
8.5240 9.8838 -1.8493 0.9486
5.5976 11.7904 -1.8493 0.9486
3.4098 12.5984 -1.8493 0.9486
1.1131 13.0042 -1.8493 0.9486
-0.0533 13.0516 -1.8493 0.9486
-3.5126 12.5702 -1.8493 0.9486
-6.7203 11.1886 -1.8493 0.9486
-7.6932 10.5434 -1.8493 0.9486
-11.0543 8.7946 -2.0015 0.9445
-11.7958 7.7717 -2.0015 0.9445
-13.7708 3.1475 -2.0015 0.9445
-14.1124 -0.6171 -2.0015 0.9445
-14.0008 -1.8756 -2.0015 0.9445
-13.7773 -3.1190 -2.0015 0.9445
-13.4435 -4.3375 -2.0015 0.9445
-10.2444 -9.7259 -2.0015 0.9445
-8.3498 -11.3939 -2.0015 0.9445
-7.2984 -12.0944 -2.0015 0.9445
-5.9132 -12.1331 -1.9124 0.9469
-3.5385 -12.5629 -1.8493 0.9486
-2.4019 -12.8288 -1.8493 0.9486
-1.2461 -12.9921 -1.8493 0.9486
2.2439 -12.8574 -1.8493 0.9486
3.3837 -12.6055 -1.8493 0.9486
4.4965 -12.2527 -1.8493 0.9486
5.5732 -11.8020 -1.8493 0.9486
6.6055 -11.2568 -1.8493 0.9486
8.0032 -11.2075 -1.9513 0.9459
9.2033 -10.7163 -2.0015 0.9445
10.1240 -9.8512 -2.0015 0.9445
11.7157 -7.8920 -2.0015 0.9445
12.3740 -6.8137 -2.0015 0.9445
13.3891 -4.5025 -2.0015 0.9445
13.7379 -3.2882 -2.0015 0.9445
13.9767 -2.0476 -2.0015 0.9445
14.1038 -0.7906 -2.0015 0.9445
14.1180 0.4727 -2.0015 0.9445
13.8085 2.9779 -2.0015 0.9445
13.4872 4.1997 -2.0015 0.9445
13.0580 5.3879 -2.0015 0.9445
11.8550 7.6032 -1.9955 0.9447
10.3129 7.9995 -1.8493 0.9486
8.7244 9.7073 -1.8493 0.9486
7.8222 10.4480 -1.8493 0.9486
6.8574 11.1051 -1.8493 0.9486
5.8377 11.6734 -1.8493 0.9486
3.6669 12.5260 -1.8493 0.9486
2.5331 12.8036 -1.8493 0.9486
1.3790 12.9787 -1.8493 0.9486
0.2138 13.0500 -1.8493 0.9486
-0.9530 13.0169 -1.8493 0.9486
-4.3709 12.2981 -1.8493 0.9486
-5.4522 11.8584 -1.8493 0.9486
-6.4899 11.3238 -1.8493 0.9486
-9.0666 10.7783 -1.9956 0.9447
-10.0227 9.9543 -2.0015 0.9445
-11.6343 8.0115 -2.0015 0.9445
-13.7035 3.4286 -2.0015 0.9445
-14.0363 -1.5886 -2.0015 0.9445
-13.5294 -4.0615 -2.0015 0.9445
-13.1124 -5.2540 -2.0015 0.9445
-12.5906 -6.4046 -2.0015 0.9445
-11.9680 -7.5039 -2.0015 0.9445
-11.2496 -8.5432 -2.0015 0.9445
-10.4413 -9.5142 -2.0015 0.9445
-9.5495 -10.4091 -2.0015 0.9445
-6.3359 -12.3519 -1.9670 0.9455
-3.7949 -12.4879 -1.8493 0.9486
-2.6640 -12.7770 -1.8493 0.9486
-1.5117 -12.9639 -1.8493 0.9486
0.8198 -13.0260 -1.8493 0.9486
4.2448 -12.3422 -1.8493 0.9486
5.3306 -11.9136 -1.8493 0.9486
8.9715 -10.8896 -1.9991 0.9446
9.9203 -10.0563 -2.0015 0.9445
10.7791 -9.1297 -2.0015 0.9445
11.5517 -8.1301 -2.0015 0.9445
12.2319 -7.0655 -2.0015 0.9445
12.8143 -5.9443 -2.0015 0.9445
14.0846 -1.0791 -2.0015 0.9445
14.1247 0.1836 -2.0015 0.9445
14.0518 1.4449 -2.0015 0.9445
13.5703 3.9228 -2.0015 0.9445
12.6554 6.2754 -2.0015 0.9445
12.0315 7.3734 -1.9994 0.9446
10.4744 7.7868 -1.8493 0.9486
9.7368 8.6915 -1.8493 0.9486
8.9213 9.5267 -1.8493 0.9486
7.0833 10.9624 -1.8493 0.9486
6.0754 11.5515 -1.8493 0.9486
5.0190 12.0481 -1.8493 0.9486
3.9225 12.4484 -1.8493 0.9486
2.7946 12.7490 -1.8493 0.9486
0.4809 13.0429 -1.8493 0.9486
-0.6864 13.0337 -1.8493 0.9486
-1.8482 12.9202 -1.8493 0.9486
-4.1183 12.3850 -1.8493 0.9486
6.1637 9.3820 -1.8493 0.9555
5.3008 9.8952 -1.8493 0.9555
4.3954 10.3292 -1.8493 0.9555
2.4869 10.9466 -1.8493 0.9555
0.4988 11.2145 -1.8493 0.9555
-1.5051 11.1242 -1.8493 0.9555
-3.4610 10.6787 -1.8493 0.9555
-4.4012 10.3268 -1.8493 0.9555
-5.3063 9.8922 -1.8493 0.9555
-6.1689 9.3786 -1.8493 0.9555
-7.3096 9.2020 -1.9360 0.9535
-8.3766 8.8000 -2.0015 0.9519
-10.9284 5.3083 -2.0015 0.9519
-11.6987 3.2785 -2.0015 0.9519
-11.9449 2.2202 -2.0015 0.9519
-12.1493 0.0587 -2.0015 0.9519
-11.9658 -2.1046 -2.0015 0.9519
-11.7299 -3.1652 -2.0015 0.9519
-10.4705 -6.1626 -2.0015 0.9519
-9.2065 -7.9277 -2.0015 0.9519
-7.6485 -9.4398 -2.0015 0.9519
-3.8090 -11.3763 -1.9764 0.9525
-2.6744 -11.2384 -1.9031 0.9542
-1.6292 -11.2236 -1.8683 0.9551
-0.6147 -11.2292 -1.8527 0.9554
0.3908 -11.2306 -1.8512 0.9555
1.4018 -11.2238 -1.8634 0.9552
3.5070 -11.2105 -1.9351 0.9535
5.6325 -10.7634 -2.0013 0.9519
7.4591 -9.5901 -2.0015 0.9519
9.0469 -8.1094 -2.0015 0.9519
9.7353 -7.2687 -2.0015 0.9519
11.3143 -4.4267 -2.0015 0.9519
11.6646 -3.3981 -2.0015 0.9519
12.1481 -0.1831 -2.0015 0.9519
11.9867 1.9820 -2.0015 0.9519
10.5330 6.0551 -2.0015 0.9519
9.1344 7.7043 -1.9686 0.9527
5.5022 9.7847 -1.8493 0.9555
3.6728 10.6077 -1.8493 0.9555
2.7104 10.8934 -1.8493 0.9555
-0.2755 11.2222 -1.8493 0.9555
-2.2685 10.9940 -1.8493 0.9555
-3.2417 10.7473 -1.8493 0.9555
-5.1028 9.9987 -1.8493 0.9555
-6.8009 8.9309 -1.8493 0.9555
-8.9634 8.2016 -2.0015 0.9519
-9.6604 7.3679 -2.0015 0.9519
-10.8175 5.5309 -2.0015 0.9519
-11.2684 4.5422 -2.0015 0.9519
-11.6292 3.5173 -2.0015 0.9519
-12.1456 0.3074 -2.0015 0.9519
-12.1244 -0.7790 -2.0015 0.9519
-12.0064 -1.8592 -2.0015 0.9519
-11.7922 -2.9245 -2.0015 0.9519
-11.4837 -3.9664 -2.0015 0.9519
-10.5944 -5.9470 -2.0015 0.9519
-6.0630 -10.5285 -2.0015 0.9519
-2.9219 -11.2511 -1.9150 0.9540
-0.8453 -11.2271 -1.8548 0.9554
3.2573 -11.2126 -1.9235 0.9538
4.3730 -11.2020 -1.9810 0.9524
5.4063 -10.8669 -1.9995 0.9520
6.3620 -10.3506 -2.0015 0.9519
7.2613 -9.7408 -2.0015 0.9519
8.8791 -8.2929 -2.0015 0.9519
9.5845 -7.4664 -2.0015 0.9519
10.2133 -6.5801 -2.0015 0.9519
10.7604 -5.6413 -2.0015 0.9519
11.8711 -2.5858 -2.0015 0.9519
12.0546 -1.5148 -2.0015 0.9519
12.1418 -0.4316 -2.0015 0.9519
11.8215 2.8037 -2.0015 0.9519
11.5237 3.8487 -2.0015 0.9519
11.1338 4.8629 -2.0015 0.9519
10.0905 6.7669 -2.0015 0.9519
9.4161 7.6176 -1.9953 0.9521
6.5424 9.1219 -1.8493 0.9555
4.8144 10.1407 -1.8493 0.9555
1.9528 11.0544 -1.8493 0.9555
0.9573 11.1847 -1.8493 0.9555
-0.0458 11.2255 -1.8493 0.9555
-2.0430 11.0381 -1.8493 0.9555
-3.0211 10.8114 -1.8493 0.9555
-8.0095 9.1354 -2.0015 0.9519
-9.5076 7.5640 -2.0015 0.9519
-10.1454 6.6843 -2.0015 0.9519
-10.7020 5.7511 -2.0015 0.9519
-11.1731 4.7719 -2.0015 0.9519
-11.5548 3.7545 -2.0015 0.9519
-11.8440 2.7071 -2.0015 0.9519
-12.0385 1.6380 -2.0015 0.9519
-12.1367 0.5559 -2.0015 0.9519
-11.8496 -2.6826 -2.0015 0.9519
-11.5625 -3.7306 -2.0015 0.9519
-10.1592 -6.6633 -2.0015 0.9519
-9.5232 -7.5444 -2.0015 0.9519
-8.8110 -8.3651 -2.0015 0.9519
-8.0284 -9.1189 -2.0015 0.9519
-7.1815 -9.7997 -2.0015 0.9519
-5.3227 -10.9214 -2.0015 0.9519
-4.3149 -11.3251 -1.9965 0.9521
-3.1776 -11.2816 -1.9308 0.9536
-1.0766 -11.2248 -1.8577 0.9553
0.9375 -11.2261 -1.8558 0.9554
5.1785 -10.9660 -1.9978 0.9520
6.1488 -10.4786 -2.0015 0.9519
7.0604 -9.8873 -2.0015 0.9519
10.0765 -6.7878 -2.0015 0.9519
10.6426 -5.8603 -2.0015 0.9519
11.1237 -4.8860 -2.0015 0.9519
11.5158 -3.8726 -2.0015 0.9519
11.8157 -2.8282 -2.0015 0.9519
12.1426 0.4065 -2.0015 0.9519
12.0578 1.4898 -2.0015 0.9519
11.8764 2.5612 -2.0015 0.9519
11.2310 4.6341 -2.0015 0.9519
10.2269 6.5590 -2.0015 0.9519
7.5037 8.3491 -1.8493 0.9555
5.8979 9.5513 -1.8493 0.9555
5.0210 10.0401 -1.8493 0.9555
2.1787 11.0121 -1.8493 0.9555
0.1839 11.2241 -1.8493 0.9555
-1.8167 11.0776 -1.8493 0.9555
-2.7992 10.8710 -1.8493 0.9555
-3.7593 10.5774 -1.8493 0.9555
-4.6893 10.1992 -1.8493 0.9555
-6.4297 9.2017 -1.8493 0.9555
-7.8065 9.2803 -1.9978 0.9520
-9.3508 7.7570 -2.0015 0.9519
-12.1228 0.8041 -2.0015 0.9519
-12.1462 -0.2822 -2.0015 0.9519
-10.2934 -6.4540 -2.0015 0.9519
-8.9804 -8.1830 -2.0015 0.9519
-8.2134 -8.9526 -2.0015 0.9519
-7.3806 -9.6507 -2.0015 0.9519
-5.5451 -10.8102 -2.0015 0.9519
-4.5513 -11.2482 -1.9990 0.9520
-2.3407 -11.2265 -1.8892 0.9546
-0.2990 -11.2310 -1.8508 0.9555
0.7067 -11.2285 -1.8534 0.9554
1.7227 -11.2225 -1.8704 0.9550
3.8545 -11.2073 -1.9524 0.9531
5.9331 -10.6023 -2.0015 0.9519
7.7253 -9.3770 -2.0015 0.9519
8.5323 -8.6492 -2.0015 0.9519
9.2709 -7.8523 -2.0015 0.9519
11.0214 -5.1126 -2.0015 0.9519
11.9826 -2.0068 -2.0015 0.9519
12.1139 -0.9281 -2.0015 0.9519
12.1484 0.1579 -2.0015 0.9519
11.9263 2.3176 -2.0015 0.9519
11.6716 3.3739 -2.0015 0.9519
8.6433 7.7154 -1.9087 0.9541
7.6730 8.1938 -1.8493 0.9555
6.0922 9.4286 -1.8493 0.9555
5.2254 9.9352 -1.8493 0.9555
4.3168 10.3624 -1.8493 0.9555
3.3737 10.7066 -1.8493 0.9555
0.4136 11.2179 -1.8493 0.9555
-3.5421 10.6521 -1.8493 0.9555
5.4022 8.2229 -1.8493 0.9607
4.6459 8.6727 -1.8493 0.9607
2.1796 9.5942 -1.8493 0.9607
-3.0334 9.3594 -1.8493 0.9607
-6.6188 8.3323 -2.0001 0.9576
-7.3418 7.7128 -2.0015 0.9576
-8.0015 7.0260 -2.0015 0.9576
-8.5973 6.2830 -2.0015 0.9576
-9.1243 5.4897 -2.0015 0.9576
-9.5783 4.6525 -2.0015 0.9576
-9.9557 3.7781 -2.0015 0.9576
-10.2534 2.8735 -2.0015 0.9576
-10.4691 1.9459 -2.0015 0.9576
-10.6011 1.0027 -2.0015 0.9576
-10.6103 -0.9001 -2.0015 0.9576
-10.4875 -1.8445 -2.0015 0.9576
-9.9917 -3.6817 -2.0015 0.9576
-8.0691 -6.9483 -2.0015 0.9576
-6.7036 -8.2735 -2.0015 0.9576
-5.1240 -9.3345 -2.0015 0.9576
-3.3808 -10.0975 -2.0015 0.9576
-2.4651 -10.3592 -2.0015 0.9576
0.3703 -10.6420 -2.0015 0.9576
2.2585 -10.4062 -2.0015 0.9576
3.1792 -10.1628 -2.0015 0.9576
7.2625 -7.7876 -2.0015 0.9576
7.9292 -7.1075 -2.0015 0.9576
9.9165 -3.8798 -2.0015 0.9576
10.2235 -2.9783 -2.0015 0.9576
10.6190 0.7915 -2.0015 0.9576
10.5058 1.7371 -2.0015 0.9576
10.3086 2.6688 -2.0015 0.9576
10.0289 3.5792 -2.0015 0.9576
9.2317 5.3070 -2.0015 0.9576
8.7206 6.1106 -2.0015 0.9576
6.3871 7.7201 -1.8833 0.9600
4.8224 8.5758 -1.8493 0.9607
4.0369 8.9724 -1.8493 0.9607
3.2191 9.2972 -1.8493 0.9607
2.3755 9.5476 -1.8493 0.9607
1.5129 9.7217 -1.8493 0.9607
-0.2415 9.8357 -1.8493 0.9607
-5.2375 8.3288 -1.8493 0.9607
-6.4362 8.4520 -1.9968 0.9577
-7.1824 7.8615 -2.0015 0.9576
-8.4669 6.4576 -2.0015 0.9576
-9.0100 5.6753 -2.0015 0.9576
-9.8763 3.9811 -2.0015 0.9576
-10.1925 3.0827 -2.0015 0.9576
-10.4271 2.1597 -2.0015 0.9576
-10.5784 1.2194 -2.0015 0.9576
-10.6450 0.2694 -2.0015 0.9576
-10.5230 -1.6295 -2.0015 0.9576
-10.3353 -2.5632 -2.0015 0.9576
-10.0650 -3.4764 -2.0015 0.9576
-9.7141 -4.3618 -2.0015 0.9576
-8.2096 -6.7817 -2.0015 0.9576
-6.1172 -8.7160 -2.0015 0.9576
-4.4682 -9.6656 -2.0015 0.9576
-3.5868 -10.0262 -2.0015 0.9576
-1.7450 -10.5045 -2.0015 0.9576
-0.7995 -10.6184 -2.0015 0.9576
2.0450 -10.4502 -2.0015 0.9576
2.9706 -10.2257 -2.0015 0.9576
4.7431 -9.5337 -2.0015 0.9576
5.5760 -9.0718 -2.0015 0.9576
6.3642 -8.5373 -2.0015 0.9576
9.4310 -4.9443 -2.0015 0.9576
9.8350 -4.0819 -2.0015 0.9576
10.1604 -3.1869 -2.0015 0.9576
10.4045 -2.2663 -2.0015 0.9576
10.5654 -1.3276 -2.0015 0.9576
10.6330 0.5740 -2.0015 0.9576
10.3610 2.4573 -2.0015 0.9576
10.1000 3.3732 -2.0015 0.9576
9.7582 4.2622 -2.0015 0.9576
9.3384 5.1170 -2.0015 0.9576
8.8439 5.9309 -2.0015 0.9576
8.2786 6.6974 -2.0015 0.9576
7.6373 7.4008 -1.9989 0.9576
6.6529 7.7143 -1.9147 0.9594
5.7342 7.9950 -1.8493 0.9607
3.4086 9.2294 -1.8493 0.9607
0.8391 9.8029 -1.8493 0.9607
-0.9191 9.7957 -1.8493 0.9607
-1.7906 9.6744 -1.8493 0.9607
-5.0659 8.4342 -1.8493 0.9607
-6.2246 8.5309 -1.9849 0.9579
-7.0200 8.0068 -2.0015 0.9576
-8.8920 5.8585 -2.0015 0.9576
-9.3799 5.0406 -2.0015 0.9576
-10.5512 1.4357 -2.0015 0.9576
-10.6373 0.4872 -2.0015 0.9576
-10.6383 -0.4652 -2.0015 0.9576
-10.3856 -2.3512 -2.0015 0.9576
-10.1340 -3.2697 -2.0015 0.9576
-9.8013 -4.1621 -2.0015 0.9576
-8.9041 -5.8401 -2.0015 0.9576
-8.3467 -6.6123 -2.0015 0.9576
-7.7225 -7.3316 -2.0015 0.9576
-7.0365 -7.9923 -2.0015 0.9576
-4.6651 -9.5721 -2.0015 0.9576
-3.7912 -9.9507 -2.0015 0.9576
-2.8870 -10.2496 -2.0015 0.9576
-1.0166 -10.5998 -2.0015 0.9576
-0.0655 -10.6482 -2.0015 0.9576
1.8307 -10.4899 -2.0015 0.9576
4.5470 -9.6288 -2.0015 0.9576
7.6317 -7.4261 -2.0015 0.9576
8.2647 -6.7145 -2.0015 0.9576
9.3278 -5.1363 -2.0015 0.9576
9.7494 -4.2824 -2.0015 0.9576
10.3559 -2.4787 -2.0015 0.9576
10.6317 -0.5960 -2.0015 0.9576
10.1669 3.1658 -2.0015 0.9576
9.8434 4.0616 -2.0015 0.9576
9.4412 4.9248 -2.0015 0.9576
7.7970 7.2521 -2.0015 0.9576
6.9277 7.7081 -1.9480 0.9587
5.1693 8.3713 -1.8493 0.9607
0.1612 9.8374 -1.8493 0.9607
-0.7184 9.8124 -1.8493 0.9607
-2.4534 9.5279 -1.8493 0.9607
-3.2948 9.2706 -1.8493 0.9607
-4.1100 8.9391 -1.8493 0.9607
-4.8922 8.5361 -1.8493 0.9607
-5.8515 8.3742 -1.9202 0.9593
-6.8546 8.1488 -2.0015 0.9576
-8.7702 6.0392 -2.0015 0.9576
-9.7051 4.3819 -2.0015 0.9576
-10.0578 3.4972 -2.0015 0.9576
-10.6456 -0.2474 -2.0015 0.9576
-10.1988 -3.0616 -2.0015 0.9576
-3.0961 -10.1884 -2.0015 0.9576
-2.1734 -10.4243 -2.0015 0.9576
-0.2834 -10.6447 -2.0015 0.9576
1.6157 -10.5252 -2.0015 0.9576
2.5496 -10.3387 -2.0015 0.9576
3.4632 -10.0695 -2.0015 0.9576
4.3490 -9.7198 -2.0015 0.9576
5.2001 -9.2924 -2.0015 0.9576
6.0096 -8.7906 -2.0015 0.9576
6.7709 -8.2185 -2.0015 0.9576
7.4781 -7.5807 -2.0015 0.9576
8.7080 -6.1287 -2.0015 0.9576
10.6173 -0.8135 -2.0015 0.9576
10.6475 0.1384 -2.0015 0.9576
10.5926 1.0892 -2.0015 0.9576
10.2296 2.9571 -2.0015 0.9576
9.5400 4.7306 -2.0015 0.9576
9.0791 5.5640 -2.0015 0.9576
8.5457 6.3530 -2.0015 0.9576
7.9439 7.0911 -2.0015 0.9576
6.0565 7.7536 -1.8493 0.9607
5.3395 8.2637 -1.8493 0.9607
4.5798 8.7078 -1.8493 0.9607
3.7835 9.0821 -1.8493 0.9607
2.9569 9.3839 -1.8493 0.9607
-1.3932 9.7396 -1.8493 0.9607
-3.1044 9.3361 -1.8493 0.9607
5.8774 7.4076 -1.9988 0.9621
5.0638 7.7078 -1.9494 0.9630
4.1401 7.7286 -1.8533 0.9648
3.4256 8.0501 -1.8493 0.9649
2.6926 8.3240 -1.8493 0.9649
0.3888 8.7400 -1.8493 0.9649
-0.3937 8.7398 -1.8493 0.9649
-1.9429 8.5302 -1.8493 0.9649
-2.6973 8.3225 -1.8493 0.9649
-3.4301 8.0482 -1.8493 0.9649
-4.2196 7.8664 -1.8869 0.9642
-5.8895 7.4142 -2.0015 0.9620
-7.1150 6.2476 -2.0015 0.9620
-7.6448 5.5869 -2.0015 0.9620
-8.1134 4.8815 -2.0015 0.9620
-8.5171 4.1371 -2.0015 0.9620
-8.8527 3.3595 -2.0015 0.9620
-9.3092 1.7303 -2.0015 0.9620
-9.4266 0.8916 -2.0015 0.9620
-9.4348 -0.8004 -2.0015 0.9620
-8.8847 -3.2738 -2.0015 0.9620
-8.1602 -4.8028 -2.0015 0.9620
-5.2797 -7.8601 -2.0015 0.9620
-3.0063 -8.9788 -2.0015 0.9620
-2.1920 -9.2115 -2.0015 0.9620
-1.3602 -9.3705 -2.0015 0.9620
-0.5175 -9.4545 -2.0015 0.9620
1.1735 -9.3957 -2.0015 0.9620
2.0082 -9.2533 -2.0015 0.9620
2.8270 -9.0368 -2.0015 0.9620
5.1223 -7.9636 -2.0015 0.9620
5.8133 -7.4741 -2.0015 0.9620
6.4578 -6.9248 -2.0015 0.9620
7.5872 -5.6648 -2.0015 0.9620
9.0908 -2.6483 -2.0015 0.9620
9.3419 1.5447 -2.0015 0.9620
9.1665 2.3732 -2.0015 0.9620
8.9178 3.1827 -2.0015 0.9620
8.2089 4.7191 -2.0015 0.9620
6.6636 6.7270 -2.0015 0.9620
6.0337 7.2929 -2.0008 0.9620
4.3423 7.7221 -1.8727 0.9644
2.1123 8.4898 -1.8493 0.9649
1.3453 8.6446 -1.8493 0.9649
-0.9953 8.6919 -1.8493 0.9649
-2.5264 8.3759 -1.8493 0.9649
-3.2647 8.1167 -1.8493 0.9649
-5.0242 7.9898 -1.9950 0.9621
-6.3866 6.9905 -2.0015 0.9620
-9.0632 2.7412 -2.0015 0.9620
-9.2719 1.9204 -2.0015 0.9620
-9.4657 0.2396 -2.0015 0.9620
-9.4492 -0.6071 -2.0015 0.9620
-9.3571 -1.4490 -2.0015 0.9620
-9.1903 -2.2792 -2.0015 0.9620
-8.9499 -3.0913 -2.0015 0.9620
-8.2568 -4.6348 -2.0015 0.9620
-7.3001 -6.0303 -2.0015 0.9620
-6.7320 -6.6585 -2.0015 0.9620
-6.1102 -7.2334 -2.0015 0.9620
-4.7252 -8.2054 -2.0015 0.9620
-2.3801 -9.1647 -2.0015 0.9620
-0.7109 -9.4420 -2.0015 0.9620
0.1355 -9.4677 -2.0015 0.9620
0.9809 -9.4177 -2.0015 0.9620
3.4433 -8.8204 -2.0015 0.9620
4.2176 -8.4775 -2.0015 0.9620
6.3148 -7.0555 -2.0015 0.9620
7.9597 -5.1282 -2.0015 0.9620
8.3861 -4.3965 -2.0015 0.9620
9.0347 -2.8338 -2.0015 0.9620
9.2517 -2.0152 -2.0015 0.9620
9.3948 -1.1805 -2.0015 0.9620
9.4627 -0.3364 -2.0015 0.9620
9.2131 2.1851 -2.0015 0.9620
8.9810 2.9995 -2.0015 0.9620
8.6771 3.7899 -2.0015 0.9620
7.3614 5.9553 -2.0015 0.9620
6.7998 6.5892 -2.0015 0.9620
6.1839 7.1704 -2.0015 0.9620
0.7461 8.7168 -1.8493 0.9649
-0.0357 8.7486 -1.8493 0.9649
-3.0979 8.1818 -1.8493 0.9649
-3.8165 7.8723 -1.8493 0.9649
-4.7997 7.9910 -1.9704 0.9626
-6.8534 6.5335 -2.0015 0.9620
-8.3407 4.4821 -2.0015 0.9620
-9.2306 2.1098 -2.0015 0.9620
-9.4588 0.4332 -2.0015 0.9620
-9.3849 -1.2572 -2.0015 0.9620
-9.0112 -2.9075 -2.0015 0.9620
-8.7154 -3.7010 -2.0015 0.9620
-7.9176 -5.1931 -2.0015 0.9620
-6.8669 -6.5193 -2.0015 0.9620
-6.2570 -7.1068 -2.0015 0.9620
-5.5969 -7.6374 -2.0015 0.9620
-4.8922 -8.1069 -2.0015 0.9620
-4.1483 -8.5116 -2.0015 0.9620
-1.7425 -9.3070 -2.0015 0.9620
-0.9040 -9.4254 -2.0015 0.9620
-0.0582 -9.4685 -2.0015 0.9620
2.4548 -9.1449 -2.0015 0.9620
4.0432 -8.5620 -2.0015 0.9620
5.5026 -7.7057 -2.0015 0.9620
6.1691 -7.1832 -2.0015 0.9620
8.2944 -4.5672 -2.0015 0.9620
8.6693 -3.8079 -2.0015 0.9620
8.9748 -3.0181 -2.0015 0.9620
9.2086 -2.2041 -2.0015 0.9620
9.3687 -1.3725 -2.0015 0.9620
9.4539 -0.5300 -2.0015 0.9620
9.3972 1.1611 -2.0015 0.9620
9.2559 1.9961 -2.0015 0.9620
8.3952 4.3792 -2.0015 0.9620
7.4817 5.8034 -2.0015 0.9620
6.9333 6.4487 -2.0015 0.9620
6.3294 7.0424 -2.0015 0.9620
4.7634 7.7140 -1.9164 0.9636
3.1983 8.1431 -1.8493 0.9649
2.4580 8.3963 -1.8493 0.9649
1.6979 8.5823 -1.8493 0.9649
0.9243 8.6997 -1.8493 0.9649
0.1433 8.7475 -1.8493 0.9649
-0.6388 8.7253 -1.8493 0.9649
-1.4159 8.6333 -1.8493 0.9649
-2.1816 8.4723 -1.8493 0.9649
-2.9298 8.2435 -1.8493 0.9649
-3.6546 7.9488 -1.8493 0.9649
-6.0952 7.2460 -2.0015 0.9620
-7.2876 6.0455 -2.0015 0.9620
-9.1855 2.2982 -2.0015 0.9620
-9.3541 1.4683 -2.0015 0.9620
-9.4479 0.6267 -2.0015 0.9620
-9.4661 -0.2200 -2.0015 0.9620
-9.4086 -1.0649 -2.0015 0.9620
-9.0689 -2.7224 -2.0015 0.9620
-8.7893 -3.5218 -2.0015 0.9620
-8.4395 -4.2930 -2.0015 0.9620
-8.0222 -5.0299 -2.0015 0.9620
-7.5407 -5.7266 -2.0015 0.9620
-5.0571 -8.0051 -2.0015 0.9620
-4.3216 -8.4250 -2.0015 0.9620
-3.5516 -8.7774 -2.0015 0.9620
-2.7531 -9.0596 -2.0015 0.9620
0.5947 -9.4500 -2.0015 0.9620
1.4367 -9.3591 -2.0015 0.9620
3.0795 -8.9539 -2.0015 0.9620
3.8672 -8.6430 -2.0015 0.9620
6.0208 -7.3080 -2.0015 0.9620
7.2253 -6.1197 -2.0015 0.9620
7.7432 -5.4497 -2.0015 0.9620
8.1991 -4.7360 -2.0015 0.9620
8.9112 -3.2011 -2.0015 0.9620
9.3386 -1.5640 -2.0015 0.9620
9.4410 -0.7233 -2.0015 0.9620
9.4679 0.1231 -2.0015 0.9620
9.4190 0.9685 -2.0015 0.9620
8.0733 4.9476 -2.0015 0.9620
4.9814 7.7096 -1.9402 0.9632
3.3643 8.0759 -1.8493 0.9649
1.8732 8.5458 -1.8493 0.9649
-2.0077 8.5152 -1.8493 0.9649
-2.7605 8.3017 -1.8493 0.9649
5.2932 6.6713 -2.0015 0.9656
4.0131 7.4915 -1.9974 0.9657
2.4959 7.7159 -1.9059 0.9672
0.3497 7.8608 -1.8493 0.9682
-1.0550 7.7975 -1.8493 0.9682
-1.7594 7.7243 -1.8619 0.9680
-2.5007 7.7158 -1.9063 0.9672
-4.6800 7.1149 -2.0015 0.9656
-7.2972 4.3904 -2.0015 0.9656
-7.9621 3.0216 -2.0015 0.9656
-8.4783 0.8019 -2.0015 0.9656
-8.5160 0.0412 -2.0015 0.9656
-8.2221 -2.2187 -2.0015 0.9656
-7.9909 -2.9444 -2.0015 0.9656
-6.4533 -5.5569 -2.0015 0.9656
-5.3612 -6.6168 -2.0015 0.9656
-4.0980 -7.4653 -2.0015 0.9656
-2.7038 -8.0755 -2.0015 0.9656
-1.9715 -8.2848 -2.0015 0.9656
-1.2234 -8.4278 -2.0015 0.9656
-0.4655 -8.5034 -2.0015 0.9656
0.2962 -8.5110 -2.0015 0.9656
3.2586 -7.8681 -2.0015 0.9656
3.9486 -7.5454 -2.0015 0.9656
4.6070 -7.1625 -2.0015 0.9656
5.8082 -6.2281 -2.0015 0.9656
7.2519 -4.4649 -2.0015 0.9656
7.6218 -3.7991 -2.0015 0.9656
8.1763 -2.3819 -2.0015 0.9656
8.3564 -1.6418 -2.0015 0.9656
8.4697 -0.8886 -2.0015 0.9656
8.4926 0.6330 -2.0015 0.9656
8.2443 2.1344 -2.0015 0.9656
8.0207 2.8625 -2.0015 0.9656
6.9744 4.8870 -2.0015 0.9656
4.8207 7.0204 -2.0015 0.9656
3.4650 7.7013 -1.9847 0.9659
0.5105 7.8520 -1.8493 0.9682
-0.8952 7.8175 -1.8493 0.9682
-3.1072 7.7253 -1.9570 0.9664
-3.8640 7.5714 -1.9978 0.9657
-5.1594 6.7753 -2.0015 0.9656
-5.7442 6.2872 -2.0015 0.9656
-6.2829 5.7489 -2.0015 0.9656
-6.7715 5.1645 -2.0015 0.9656
-7.5825 3.8769 -2.0015 0.9656
-8.4601 0.9752 -2.0015 0.9656
-8.4158 -1.3032 -2.0015 0.9656
-8.0495 -2.7803 -2.0015 0.9656
-7.7689 -3.4884 -2.0015 0.9656
-7.4262 -4.1685 -2.0015 0.9656
-7.0240 -4.8154 -2.0015 0.9656
-6.0548 -5.9886 -2.0015 0.9656
-5.4955 -6.5057 -2.0015 0.9656
-4.2499 -7.3799 -2.0015 0.9656
-3.5735 -7.7301 -2.0015 0.9656
-2.1406 -8.2427 -2.0015 0.9656
-1.3956 -8.4010 -2.0015 0.9656
0.1219 -8.5153 -2.0015 0.9656
2.3757 -8.1781 -2.0015 0.9656
5.0898 -6.8278 -2.0015 0.9656
5.6795 -6.3457 -2.0015 0.9656
7.1590 -4.6123 -2.0015 0.9656
7.8656 -3.2645 -2.0015 0.9656
8.5038 0.4591 -2.0015 0.9656
8.2863 1.9653 -2.0015 0.9656
8.0776 2.6978 -2.0015 0.9656
7.8042 3.4087 -2.0015 0.9656
7.4684 4.0923 -2.0015 0.9656
7.0729 4.7433 -2.0015 0.9656
4.3222 7.3310 -2.0001 0.9656
3.6395 7.6660 -1.9944 0.9657
2.0896 7.7207 -1.8798 0.9677
1.3689 7.7486 -1.8493 0.9682
-0.7350 7.8341 -1.8493 0.9682
-1.4321 7.7372 -1.8493 0.9682
-2.9229 7.7196 -1.9400 0.9667
-5.6143 6.4035 -2.0015 0.9656
-6.1640 5.8762 -2.0015 0.9656
-7.1114 4.6854 -2.0015 0.9656
-7.5016 4.0312 -2.0015 0.9656
-8.0993 2.6317 -2.0015 0.9656
-8.4384 1.1482 -2.0015 0.9656
-8.5072 0.3896 -2.0015 0.9656
-8.4407 -1.1307 -2.0015 0.9656
-8.1047 -2.6150 -2.0015 0.9656
-7.8387 -3.3287 -2.0015 0.9656
-6.1761 -5.8635 -2.0015 0.9656
-5.6275 -6.3919 -2.0015 0.9656
-5.0339 -6.8691 -2.0015 0.9656
-3.7309 -7.6554 -2.0015 0.9656
-2.3089 -8.1972 -2.0015 0.9656
-0.0524 -8.5160 -2.0015 0.9656
2.2079 -8.2250 -2.0015 0.9656
2.9339 -7.9948 -2.0015 0.9656
4.3100 -7.3450 -2.0015 0.9656
4.9490 -6.9305 -2.0015 0.9656
5.5485 -6.4606 -2.0015 0.9656
6.1035 -5.9390 -2.0015 0.9656
6.6097 -5.3699 -2.0015 0.9656
7.0631 -4.7579 -2.0015 0.9656
7.4600 -4.1078 -2.0015 0.9656
7.7971 -3.4248 -2.0015 0.9656
8.0720 -2.7145 -2.0015 0.9656
8.2822 -1.9824 -2.0015 0.9656
8.4262 -1.2345 -2.0015 0.9656
8.5028 -0.4767 -2.0015 0.9656
8.4519 1.0443 -2.0015 0.9656
8.3248 1.7953 -2.0015 0.9656
7.8723 3.2482 -2.0015 0.9656
6.7291 5.2196 -2.0015 0.9656
6.2358 5.8000 -2.0015 0.9656
5.6926 6.3339 -2.0015 0.9656
5.1039 6.8172 -2.0015 0.9656
3.7980 7.5946 -1.9956 0.9657
3.0276 7.7084 -1.9464 0.9665
2.2596 7.7188 -1.8902 0.9675
1.5293 7.7300 -1.8519 0.9681
0.8314 7.8245 -1.8493 0.9682
-0.5746 7.8475 -1.8493 0.9682
-2.7416 7.7139 -1.9240 0.9669
-5.4820 6.5170 -2.0015 0.9656
-6.5544 5.4373 -2.0015 0.9656
-7.0140 4.8299 -2.0015 0.9656
-8.0438 2.7969 -2.0015 0.9656
-8.4131 1.3206 -2.0015 0.9656
-8.5138 -0.1978 -2.0015 0.9656
-8.4621 -0.9577 -2.0015 0.9656
-8.3427 -1.7100 -2.0015 0.9656
-7.9052 -3.1675 -2.0015 0.9656
-7.2152 -4.5239 -2.0015 0.9656
-5.7571 -6.2753 -2.0015 0.9656
-5.1734 -6.7646 -2.0015 0.9656
-4.5483 -7.1998 -2.0015 0.9656
-3.8868 -7.5774 -2.0015 0.9656
-0.9864 -8.4588 -2.0015 0.9656
-0.2266 -8.5131 -2.0015 0.9656
1.2922 -8.4176 -2.0015 0.9656
2.0391 -8.2684 -2.0015 0.9656
3.4781 -7.7735 -2.0015 0.9656
4.8062 -7.0303 -2.0015 0.9656
5.9807 -6.0627 -2.0015 0.9656
7.3743 -4.2596 -2.0015 0.9656
7.7254 -3.5837 -2.0015 0.9656
8.2399 -2.1515 -2.0015 0.9656
8.4913 -0.6506 -2.0015 0.9656
8.5154 0.1107 -2.0015 0.9656
8.1812 2.3650 -2.0015 0.9656
7.6296 3.7833 -2.0015 0.9656
6.8345 5.0808 -2.0015 0.9656
5.8211 6.2161 -2.0015 0.9656
5.2424 6.7114 -2.0015 0.9656
4.6218 7.1529 -2.0015 0.9656
3.9551 7.5200 -1.9969 0.9657
3.2100 7.7055 -1.9618 0.9663
2.4315 7.7167 -1.9015 0.9673
0.9913 7.8058 -1.8493 0.9682
4.8048 6.0556 -2.0015 0.9686
4.2445 6.4607 -2.0015 0.9686
2.3772 7.3488 -1.9998 0.9686
1.7086 7.5208 -1.9969 0.9686
0.3422 7.6936 -1.9940 0.9687
-0.3465 7.6934 -1.9940 0.9687
-1.7130 7.5207 -1.9971 0.9686
-2.3816 7.3483 -2.0000 0.9686
-3.0308 7.1113 -2.0015 0.9686
-3.6541 6.8120 -2.0015 0.9686
-4.2481 6.4583 -2.0015 0.9686
-4.8081 6.0529 -2.0015 0.9686
-5.3297 5.5991 -2.0015 0.9686
-6.2412 4.5611 -2.0015 0.9686
-7.2273 2.7427 -2.0015 0.9686
-7.4434 2.0860 -2.0015 0.9686
-7.6959 0.7279 -2.0015 0.9686
-6.9857 -3.3101 -2.0015 0.9686
-6.6620 -3.9210 -2.0015 0.9686
-4.8665 -6.0061 -2.0015 0.9686
-4.3104 -6.4169 -2.0015 0.9686
-3.7198 -6.7764 -2.0015 0.9686
-2.4543 -7.3302 -2.0015 0.9686
-1.7896 -7.5202 -2.0015 0.9686
-1.1105 -7.6500 -2.0015 0.9686
-0.4225 -7.7187 -2.0015 0.9686
0.2688 -7.7255 -2.0015 0.9686
0.9580 -7.6706 -2.0015 0.9686
1.6395 -7.5543 -2.0015 0.9686
4.7460 -6.1018 -2.0015 0.9686
5.2722 -5.6534 -2.0015 0.9686
5.7562 -5.1597 -2.0015 0.9686
6.5826 -4.0528 -2.0015 0.9686
7.4217 -2.1621 -2.0015 0.9686
7.5852 -1.4903 -2.0015 0.9686
7.6880 -0.8066 -2.0015 0.9686
7.7293 -0.1165 -2.0015 0.9686
7.6267 1.2611 -2.0015 0.9686
7.4835 1.9374 -2.0015 0.9686
7.2804 2.5983 -2.0015 0.9686
5.9091 4.9839 -2.0015 0.9686
4.9277 5.9560 -2.0015 0.9686
3.7889 6.7380 -2.0015 0.9686
3.1717 7.0496 -2.0015 0.9686
0.4996 7.6855 -1.9941 0.9687
-0.1890 7.6985 -1.9939 0.9687
-2.2298 7.3927 -1.9993 0.9686
-2.8846 7.1718 -2.0015 0.9686
-3.5139 6.8854 -2.0015 0.9686
-4.1150 6.5439 -2.0015 0.9686
-5.2140 5.7070 -2.0015 0.9686
-6.8827 3.5191 -2.0015 0.9686
-7.1696 2.8900 -2.0015 0.9686
-7.5695 1.5678 -2.0015 0.9686
-7.7143 -0.4957 -2.0015 0.9686
-7.6392 -1.1829 -2.0015 0.9686
-7.5029 -1.8608 -2.0015 0.9686
-7.0519 -3.1664 -2.0015 0.9686
-6.3758 -4.3710 -2.0015 0.9686
-5.9598 -4.9232 -2.0015 0.9686
-5.4960 -5.4360 -2.0015 0.9686
-3.8577 -6.6988 -2.0015 0.9686
-1.9431 -7.4820 -2.0015 0.9686
-0.5804 -7.7084 -2.0015 0.9686
0.1107 -7.7294 -2.0015 0.9686
2.8111 -7.2010 -2.0015 0.9686
4.0479 -6.5857 -2.0015 0.9686
5.6494 -5.2764 -2.0015 0.9686
6.4983 -4.1867 -2.0015 0.9686
6.8464 -3.5893 -2.0015 0.9686
7.1397 -2.9633 -2.0015 0.9686
7.6699 -0.9638 -2.0015 0.9686
7.6509 1.1047 -2.0015 0.9686
7.5216 1.7839 -2.0015 0.9686
6.0098 4.8619 -2.0015 0.9686
5.5514 5.3794 -2.0015 0.9686
5.0485 5.8539 -2.0015 0.9686
4.5053 6.2816 -2.0015 0.9686
3.9260 6.6590 -2.0015 0.9686
3.3154 6.9832 -2.0015 0.9686
2.0161 7.4492 -1.9981 0.9686
-0.0314 7.6997 -1.9936 0.9687
-0.7195 7.6691 -1.9944 0.9687
-1.4029 7.5799 -1.9959 0.9687
-2.0774 7.4341 -1.9986 0.9686
-2.7373 7.2294 -2.0015 0.9686
-3.9803 6.6267 -2.0015 0.9686
-5.0961 5.8125 -2.0015 0.9686
-6.0493 4.8127 -2.0015 0.9686
-6.4551 4.2530 -2.0015 0.9686
-6.8093 3.6592 -2.0015 0.9686
-7.1090 3.0362 -2.0015 0.9686
-7.7228 -0.3377 -2.0015 0.9686
-7.6618 -1.0264 -2.0015 0.9686
-7.5394 -1.7068 -2.0015 0.9686
-6.8169 -3.6451 -2.0015 0.9686
-6.4639 -4.2396 -2.0015 0.9686
-6.0592 -4.8002 -2.0015 0.9686
-5.1082 -5.8020 -2.0015 0.9686
-4.5693 -6.2352 -2.0015 0.9686
-3.9940 -6.6185 -2.0015 0.9686
-2.0958 -7.4407 -2.0015 0.9686
-1.4226 -7.5982 -2.0015 0.9686
-0.0475 -7.7301 -2.0015 0.9686
0.6433 -7.7034 -2.0015 0.9686
1.3290 -7.6151 -2.0015 0.9686
2.6631 -7.2570 -2.0015 0.9686
3.3009 -6.9900 -2.0015 0.9686
3.9123 -6.6671 -2.0015 0.9686
5.0364 -5.8644 -2.0015 0.9686
5.5402 -5.3909 -2.0015 0.9686
6.4113 -4.3188 -2.0015 0.9686
7.3270 -2.4639 -2.0015 0.9686
7.5179 -1.7994 -2.0015 0.9686
7.5565 1.6296 -2.0015 0.9686
7.3807 2.2982 -2.0015 0.9686
6.5070 4.1732 -2.0015 0.9686
6.1081 4.7379 -2.0015 0.9686
5.1673 5.7494 -2.0015 0.9686
4.0615 6.5773 -2.0015 0.9686
3.4576 6.9139 -2.0015 0.9686
2.1689 7.4089 -1.9988 0.9686
0.8139 7.6602 -1.9945 0.9687
0.1262 7.6996 -1.9938 0.9687
-2.5883 7.2826 -2.0011 0.9686
-3.2292 7.0234 -2.0015 0.9686
-4.4277 6.3366 -2.0015 0.9686
-4.9761 5.9156 -2.0015 0.9686
-5.4848 5.4473 -2.0015 0.9686
-5.9496 4.9355 -2.0015 0.9686
-6.7330 3.7978 -2.0015 0.9686
-7.3014 2.5388 -2.0015 0.9686
-7.6367 1.1987 -2.0015 0.9686
-7.6812 -0.8694 -2.0015 0.9686
-7.5728 -1.5522 -2.0015 0.9686
-6.8900 -3.5048 -2.0015 0.9686
-6.1562 -4.6752 -2.0015 0.9686
-5.7139 -5.2065 -2.0015 0.9686
-5.2258 -5.6962 -2.0015 0.9686
-4.6960 -6.1404 -2.0015 0.9686
-4.1286 -6.5354 -2.0015 0.9686
-2.2476 -7.3962 -2.0015 0.9686
-0.8953 -7.6782 -2.0015 0.9686
-0.2057 -7.7275 -2.0015 0.9686
0.4855 -7.7149 -2.0015 0.9686
3.1572 -7.0561 -2.0015 0.9686
5.4287 -5.5032 -2.0015 0.9686
6.6938 -3.8665 -2.0015 0.9686
7.2751 -2.6134 -2.0015 0.9686
7.6240 -1.2768 -2.0015 0.9686
7.7296 0.1005 -2.0015 0.9686
7.6897 0.7907 -2.0015 0.9686
7.4262 2.1467 -2.0015 0.9686
7.2047 2.8016 -2.0015 0.9686
6.9255 3.4341 -2.0015 0.9686
6.5910 4.0392 -2.0015 0.9686
5.7669 5.1478 -2.0015 0.9686
4.1952 6.4928 -2.0015 0.9686
3.5983 6.8417 -2.0015 0.9686
2.9727 7.1358 -2.0015 0.9686
0.9706 7.6431 -1.9948 0.9687
0.2837 7.6958 -1.9939 0.9687
-1.0912 7.6278 -1.9951 0.9687
-1.7703 7.5082 -1.9973 0.9686
3.8820 5.9090 -2.0015 0.9710
2.7683 6.5056 -2.0015 0.9710
-0.3181 7.0629 -2.0015 0.9710
-1.5701 6.8935 -2.0015 0.9710
-4.3975 5.5360 -2.0015 0.9710
-4.8746 5.1210 -2.0015 0.9710
-5.3126 4.6650 -2.0015 0.9710
-6.6101 2.5085 -2.0015 0.9710
-6.8078 1.9079 -2.0015 0.9710
-6.9510 1.2920 -2.0015 0.9710
-7.0387 0.6657 -2.0015 0.9710
-7.0700 0.0342 -2.0015 0.9710
-7.0448 -0.5976 -2.0015 0.9710
-6.6340 -2.4445 -2.0015 0.9710
-6.0931 -3.5862 -2.0015 0.9710
-5.7483 -4.1162 -2.0015 0.9710
-4.9239 -5.0736 -2.0015 0.9710
-4.4509 -5.4932 -2.0015 0.9710
-3.9423 -5.8689 -2.0015 0.9710
-2.8348 -6.4769 -2.0015 0.9710
-1.0156 -6.9967 -2.0015 0.9710
0.8762 -7.0156 -2.0015 0.9710
1.4995 -6.9092 -2.0015 0.9710
3.2781 -6.2642 -2.0015 0.9710
4.3407 -5.5807 -2.0015 0.9710
5.2646 -4.7191 -2.0015 0.9710
6.0205 -3.7067 -2.0015 0.9710
7.0315 -0.7377 -2.0015 0.9710
7.0693 -0.1065 -2.0015 0.9710
7.0505 0.5255 -2.0015 0.9710
6.8444 1.7720 -2.0015 0.9710
6.6587 2.3764 -2.0015 0.9710
6.4198 2.9619 -2.0015 0.9710
4.5069 5.4474 -2.0015 0.9710
4.0021 5.8283 -2.0015 0.9710
3.4654 6.1626 -2.0015 0.9710
2.3132 6.6809 -2.0015 0.9710
0.4587 7.0552 -2.0015 0.9710
-0.1735 7.0680 -2.0015 0.9710
-4.2833 5.6249 -2.0015 0.9710
-5.2161 4.7727 -2.0015 0.9710
-5.6216 4.2876 -2.0015 0.9710
-6.2950 3.2186 -2.0015 0.9710
-7.0678 0.1789 -2.0015 0.9710
-7.0555 -0.4533 -2.0015 0.9710
-6.9868 -1.0819 -2.0015 0.9710
-6.8622 -1.7019 -2.0015 0.9710
-6.6827 -2.3082 -2.0015 0.9710
-6.4497 -2.8960 -2.0015 0.9710
-5.8313 -3.9977 -2.0015 0.9710
-5.0267 -4.9718 -2.0015 0.9710
-4.5624 -5.4010 -2.0015 0.9710
-3.5282 -6.1268 -2.0015 0.9710
-1.1586 -6.9745 -2.0015 0.9710
0.1012 -7.0694 -2.0015 0.9710
0.7324 -7.0320 -2.0015 0.9710
1.3578 -6.9385 -2.0015 0.9710
1.9723 -6.7894 -2.0015 0.9710
2.5711 -6.5860 -2.0015 0.9710
3.1492 -6.3300 -2.0015 0.9710
4.7151 -5.2682 -2.0015 0.9710
5.5775 -4.3449 -2.0015 0.9710
5.9434 -3.8292 -2.0015 0.9710
6.5300 -2.7102 -2.0015 0.9710
6.9081 -1.5047 -2.0015 0.9710
7.0656 -0.2512 -2.0015 0.9710
6.9975 1.0104 -2.0015 0.9710
6.8793 1.6316 -2.0015 0.9710
6.7060 2.2397 -2.0015 0.9710
6.2003 3.3975 -2.0015 0.9710
5.4966 4.4467 -2.0015 0.9710
5.0773 4.9201 -2.0015 0.9710
4.6174 5.3540 -2.0015 0.9710
4.1206 5.7452 -2.0015 0.9710
2.4495 6.6322 -2.0015 0.9710
1.8471 6.8245 -2.0015 0.9710
1.2299 6.9623 -2.0015 0.9710
0.6029 7.0443 -2.0015 0.9710
-0.0289 7.0700 -2.0015 0.9710
-1.2867 6.9520 -2.0015 0.9710
-1.9027 6.8092 -2.0015 0.9710
-2.5035 6.6120 -2.0015 0.9710
-3.0843 6.3619 -2.0015 0.9710
-4.1673 5.7113 -2.0015 0.9710
-4.6609 5.3162 -2.0015 0.9710
-5.1173 4.8784 -2.0015 0.9710
-5.5327 4.4017 -2.0015 0.9710
-6.2278 3.3467 -2.0015 0.9710
-6.5019 2.7769 -2.0015 0.9710
-6.7240 2.1848 -2.0015 0.9710
-6.8923 1.5753 -2.0015 0.9710
-7.0627 0.3235 -2.0015 0.9710
-7.0633 -0.3089 -2.0015 0.9710
-6.7285 -2.1709 -2.0015 0.9710
-6.5076 -2.7634 -2.0015 0.9710
-6.2347 -3.3338 -2.0015 0.9710
-5.1274 -4.8679 -2.0015 0.9710
-4.6719 -5.3065 -2.0015 0.9710
-4.1791 -5.7027 -2.0015 0.9710
-1.3011 -6.9493 -2.0015 0.9710
-0.0435 -7.0699 -2.0015 0.9710
1.2155 -6.9648 -2.0015 0.9710
3.5782 -6.0978 -2.0015 0.9710
4.1087 -5.7537 -2.0015 0.9710
5.0671 -4.9306 -2.0015 0.9710
5.8638 -3.9500 -2.0015 0.9710
6.7013 -2.2535 -2.0015 0.9710
6.9954 -1.0249 -2.0015 0.9710
7.0590 -0.3957 -2.0015 0.9710
7.0661 0.2366 -2.0015 0.9710
7.0167 0.8670 -2.0015 0.9710
6.9112 1.4904 -2.0015 0.9710
6.7504 2.1020 -2.0015 0.9710
5.5865 4.3333 -2.0015 0.9710
4.2373 5.6596 -2.0015 0.9710
3.1623 6.3234 -2.0015 0.9710
2.5847 6.5807 -2.0015 0.9710
1.9863 6.7853 -2.0015 0.9710
1.3722 6.9357 -2.0015 0.9710
-2.9534 6.4237 -2.0015 0.9710
-4.5512 5.4104 -2.0015 0.9710
-5.0164 4.9822 -2.0015 0.9710
-5.4415 4.5140 -2.0015 0.9710
-6.4437 2.9094 -2.0015 0.9710
-6.6779 2.3220 -2.0015 0.9710
-6.8587 1.7160 -2.0015 0.9710
-6.9846 1.0964 -2.0015 0.9710
-7.0252 -0.7951 -2.0015 0.9710
-6.5628 -2.6297 -2.0015 0.9710
-5.9900 -3.7558 -2.0015 0.9710
-4.7796 -5.2098 -2.0015 0.9710
-2.0557 -6.7646 -2.0015 0.9710
-0.8189 -7.0225 -2.0015 0.9710
-0.1881 -7.0676 -2.0015 0.9710
1.0728 -6.9882 -2.0015 0.9710
1.6928 -6.8644 -2.0015 0.9710
2.2994 -6.6857 -2.0015 0.9710
2.8875 -6.4535 -2.0015 0.9710
3.4526 -6.1697 -2.0015 0.9710
4.9651 -5.0332 -2.0015 0.9710
5.3950 -4.5695 -2.0015 0.9710
5.7817 -4.0692 -2.0015 0.9710
6.6538 -2.3902 -2.0015 0.9710
6.9730 -1.1678 -2.0015 0.9710
7.0494 -0.5401 -2.0015 0.9710
7.0695 0.0919 -2.0015 0.9710
7.0330 0.7232 -2.0015 0.9710
6.5894 2.5624 -2.0015 0.9710
5.2744 4.7082 -2.0015 0.9710
4.3522 5.5717 -2.0015 0.9710
3.2911 6.2574 -2.0015 0.9710
2.1248 6.7432 -2.0015 0.9710
1.5138 6.9061 -2.0015 0.9710
-0.3718 7.0603 -2.0015 0.9710
-1.0012 6.9988 -2.0015 0.9710
-1.6225 6.8814 -2.0015 0.9710
3.5730 5.4386 -2.0015 0.9731
3.0727 5.7361 -2.0015 0.9731
2.0028 6.1914 -2.0015 0.9731
1.4416 6.3456 -2.0015 0.9731
0.8689 6.4490 -2.0015 0.9731
0.2892 6.5008 -2.0015 0.9731
-4.0475 5.0953 -2.0015 0.9731
-4.4865 4.7133 -2.0015 0.9731
-5.8533 2.8432 -2.0015 0.9731
-6.0839 2.3088 -2.0015 0.9731
-6.5072 0.0315 -2.0015 0.9731
-6.2825 -1.6953 -2.0015 0.9731
-5.8805 -2.7864 -2.0015 0.9731
-5.6080 -3.3007 -2.0015 0.9731
-5.2907 -3.7885 -2.0015 0.9731
-4.9310 -4.2461 -2.0015 0.9731
-3.1313 -5.7043 -2.0015 0.9731
-2.0660 -6.1706 -2.0015 0.9731
-1.5064 -6.3305 -2.0015 0.9731
-0.3557 -6.4975 -2.0015 0.9731
2.4899 -6.0120 -2.0015 0.9731
4.4381 -4.7590 -2.0015 0.9731
4.8455 -4.3434 -2.0015 0.9731
5.2142 -3.8931 -2.0015 0.9731
5.5412 -3.4117 -2.0015 0.9731
6.0599 -2.3709 -2.0015 0.9731
6.3852 -1.2545 -2.0015 0.9731
6.4717 -0.6790 -2.0015 0.9731
6.4893 0.4837 -2.0015 0.9731
6.2996 1.6309 -2.0015 0.9731
5.3292 3.7342 -2.0015 0.9731
4.9742 4.1954 -2.0015 0.9731
4.1481 5.0138 -2.0015 0.9731
3.6835 5.3643 -2.0015 0.9731
3.1895 5.6720 -2.0015 0.9731
2.6700 5.9343 -2.0015 0.9731
2.1291 6.1491 -2.0015 0.9731
1.5711 6.3147 -2.0015 0.9731
-0.1597 6.5053 -2.0015 0.9731
-1.3150 6.3730 -2.0015 0.9731
-1.8792 6.2300 -2.0015 0.9731
-2.9580 5.7961 -2.0015 0.9731
-4.8008 4.3928 -2.0015 0.9731
-5.5060 3.4682 -2.0015 0.9731
-5.7939 2.9623 -2.0015 0.9731
-6.0354 2.4328 -2.0015 0.9731
-6.2286 1.8838 -2.0015 0.9731
-6.3720 1.3198 -2.0015 0.9731
-6.4644 0.7452 -2.0015 0.9731
-6.3159 -1.5664 -2.0015 0.9731
-6.1507 -2.1244 -2.0015 0.9731
-5.9363 -2.6655 -2.0015 0.9731
-5.6744 -3.1852 -2.0015 0.9731
-5.3671 -3.6795 -2.0015 0.9731
-5.0169 -4.1443 -2.0015 0.9731
-4.6265 -4.5760 -2.0015 0.9731
-4.1992 -4.9710 -2.0015 0.9731
-3.7382 -5.3263 -2.0015 0.9731
-3.2474 -5.6391 -2.0015 0.9731
-2.7305 -5.9066 -2.0015 0.9731
-2.1919 -6.1270 -2.0015 0.9731
-1.0664 -6.4193 -2.0015 0.9731
0.0931 -6.5066 -2.0015 0.9731
0.6741 -6.4722 -2.0015 0.9731
1.8153 -6.2489 -2.0015 0.9731
2.8985 -5.8261 -2.0015 0.9731
4.3398 -4.8488 -2.0015 0.9731
5.7633 -3.0215 -2.0015 0.9731
6.0102 -2.4945 -2.0015 0.9731
6.2090 -1.9475 -2.0015 0.9731
6.3582 -1.3849 -2.0015 0.9731
6.4565 -0.8113 -2.0015 0.9731
6.5031 -0.2312 -2.0015 0.9731
6.1721 2.0614 -2.0015 0.9731
5.9633 2.6046 -2.0015 0.9731
5.7067 3.1270 -2.0015 0.9731
5.0590 4.0927 -2.0015 0.9731
4.6731 4.5284 -2.0015 0.9731
4.2498 4.9278 -2.0015 0.9731
3.7925 5.2878 -2.0015 0.9731
3.3049 5.6055 -2.0015 0.9731
2.2545 6.1042 -2.0015 0.9731
1.7000 6.2813 -2.0015 0.9731
1.1320 6.4080 -2.0015 0.9731
-1.1843 6.3986 -2.0015 0.9731
-1.7513 6.2672 -2.0015 0.9731
-2.3042 6.0856 -2.0015 0.9731
-2.8387 5.8554 -2.0015 0.9731
-3.3506 5.5784 -2.0015 0.9731
-4.2899 4.8929 -2.0015 0.9731
-4.7099 4.4901 -2.0015 0.9731
-5.0923 4.0513 -2.0015 0.9731
-5.4339 3.5801 -2.0015 0.9731
-5.7320 3.0803 -2.0015 0.9731
-6.1887 2.0109 -2.0015 0.9731
-6.5010 -0.2843 -2.0015 0.9731
-6.1929 -1.9981 -2.0015 0.9731
-5.9896 -2.5434 -2.0015 0.9731
-5.7384 -3.0684 -2.0015 0.9731
-5.4413 -3.5689 -2.0015 0.9731
-4.3000 -4.8841 -2.0015 0.9731
-3.8464 -5.2487 -2.0015 0.9731
-3.3621 -5.5714 -2.0015 0.9731
-2.8508 -5.8495 -2.0015 0.9731
-2.3168 -6.0808 -2.0015 0.9731
-0.0400 -6.5071 -2.0015 0.9731
2.2418 -6.1089 -2.0015 0.9731
2.7787 -5.8842 -2.0015 0.9731
3.2933 -5.6123 -2.0015 0.9731
3.7816 -5.2957 -2.0015 0.9731
4.2396 -4.9366 -2.0015 0.9731
5.9578 -2.6169 -2.0015 0.9731
6.3285 -1.5148 -2.0015 0.9731
6.4385 -0.9433 -2.0015 0.9731
6.4971 -0.3642 -2.0015 0.9731
6.0153 2.4820 -2.0015 0.9731
4.7648 4.4318 -2.0015 0.9731
4.3498 4.8398 -2.0015 0.9731
3.8999 5.2091 -2.0015 0.9731
3.4189 5.5367 -2.0015 0.9731
1.8282 6.2451 -2.0015 0.9731
1.2629 6.3835 -2.0015 0.9731
0.1066 6.5064 -2.0015 0.9731
-0.4752 6.4899 -2.0015 0.9731
-1.6226 6.3017 -2.0015 0.9731
-4.1889 4.9797 -2.0015 0.9731
-4.6170 4.5855 -2.0015 0.9731
-5.0083 4.1547 -2.0015 0.9731
-5.3595 3.6906 -2.0015 0.9731
-5.6678 3.1969 -2.0015 0.9731
-6.1463 2.1371 -2.0015 0.9731
-6.4285 1.0091 -2.0015 0.9731
-6.5055 -0.1512 -2.0015 0.9731
-6.4660 -0.7318 -2.0015 0.9731
-5.8000 -2.9503 -2.0015 0.9731
-3.9531 -5.1689 -2.0015 0.9731
-3.4754 -5.5014 -2.0015 0.9731
-1.8920 -6.2261 -2.0015 0.9731
-1.3282 -6.3703 -2.0015 0.9731
-0.1732 -6.5049 -2.0015 0.9731
0.4087 -6.4944 -2.0015 0.9731
2.6577 -5.9398 -2.0015 0.9731
3.6724 -5.3719 -2.0015 0.9731
4.1377 -5.0223 -2.0015 0.9731
5.6348 -3.2548 -2.0015 0.9731
5.9031 -2.7383 -2.0015 0.9731
6.4179 -1.0748 -2.0015 0.9731
6.5067 0.0846 -2.0015 0.9731
6.2513 1.8071 -2.0015 0.9731
6.0648 2.3584 -2.0015 0.9731
5.5483 3.4002 -2.0015 0.9731
3.5315 5.4656 -2.0015 0.9731
3.0291 5.7593 -2.0015 0.9731
2.5024 6.0069 -2.0015 0.9731
1.9556 6.2064 -2.0015 0.9731
1.3933 6.3563 -2.0015 0.9731
0.8198 6.4554 -2.0015 0.9731
0.2397 6.5028 -2.0015 0.9731
-0.3422 6.4982 -2.0015 0.9731
-0.9215 6.4417 -2.0015 0.9731
-2.0533 6.1748 -2.0015 0.9731
0.8040 5.9673 -2.0015 0.9749
0.2676 6.0153 -2.0015 0.9749
-0.8073 5.9669 -2.0015 0.9749
-1.3372 5.8709 -2.0015 0.9749
-2.3608 5.5391 -2.0015 0.9749
-4.1514 4.3613 -2.0015 0.9749
-4.8614 3.5528 -2.0015 0.9749
-5.4161 2.6308 -2.0015 0.9749
-5.6295 2.1364 -2.0015 0.9749
-5.7978 1.6248 -2.0015 0.9749
-5.9198 1.1003 -2.0015 0.9749
-5.9945 0.5670 -2.0015 0.9749
-5.9997 -0.5090 -2.0015 0.9749
-5.9302 -1.0430 -2.0015 0.9749
-5.8133 -1.5687 -2.0015 0.9749
-5.6499 -2.0818 -2.0015 0.9749
-5.4413 -2.5783 -2.0015 0.9749
-4.8955 -3.5056 -2.0015 0.9749
-3.7906 -4.6783 -2.0015 0.9749
-3.3574 -4.9983 -2.0015 0.9749
0.7462 -5.9748 -2.0015 0.9749
1.2771 -5.8842 -2.0015 0.9749
1.7977 -5.7466 -2.0015 0.9749
2.7918 -5.3349 -2.0015 0.9749
3.2573 -5.0641 -2.0015 0.9749
5.3889 -2.6861 -2.0015 0.9749
5.9083 -1.1608 -2.0015 0.9749
5.9884 -0.6283 -2.0015 0.9749
6.0205 -0.0907 -2.0015 0.9749
5.6709 2.0239 -2.0015 0.9749
5.4674 2.5225 -2.0015 0.9749
5.2201 3.0009 -2.0015 0.9749
3.4084 4.9637 -2.0015 0.9749
2.9513 5.2483 -2.0015 0.9749
0.3906 6.0085 -2.0015 0.9749
-1.7388 5.7647 -2.0015 0.9749
-2.2469 5.5863 -2.0015 0.9749
-2.7371 5.3632 -2.0015 0.9749
-3.6479 4.7904 -2.0015 0.9749
-4.4423 4.0647 -2.0015 0.9749
-4.7877 3.6515 -2.0015 0.9749
-5.0948 3.2091 -2.0015 0.9749
-5.3611 2.7411 -2.0015 0.9749
-5.7634 1.7431 -2.0015 0.9749
-6.0193 0.1523 -2.0015 0.9749
-6.0088 -0.3861 -2.0015 0.9749
-5.8442 -1.4494 -2.0015 0.9749
-4.2810 -4.2342 -2.0015 0.9749
-3.0048 -5.2179 -2.0015 0.9749
-2.0282 -5.6694 -2.0015 0.9749
-0.4521 -6.0042 -2.0015 0.9749
0.6238 -5.9888 -2.0015 0.9749
2.6820 -5.3909 -2.0015 0.9749
3.5987 -4.8275 -2.0015 0.9749
4.0156 -4.4866 -2.0015 0.9749
5.0617 -3.2611 -2.0015 0.9749
5.3328 -2.7958 -2.0015 0.9749
5.5613 -2.3081 -2.0015 0.9749
5.8833 -1.2815 -2.0015 0.9749
6.0125 0.3246 -2.0015 0.9749
5.8587 1.3895 -2.0015 0.9749
5.7111 1.9074 -2.0015 0.9749
5.5179 2.4101 -2.0015 0.9749
5.2805 2.8934 -2.0015 0.9749
5.0008 3.3537 -2.0015 0.9749
4.3241 4.1902 -2.0015 0.9749
3.9324 4.5598 -2.0015 0.9749
3.5093 4.8929 -2.0015 0.9749
2.0861 5.6483 -2.0015 0.9749
-1.6205 5.7991 -2.0015 0.9749
-2.1321 5.6311 -2.0015 0.9749
-2.6267 5.4181 -2.0015 0.9749
-3.1003 5.1617 -2.0015 0.9749
-3.9695 4.5275 -2.0015 0.9749
-5.3039 2.8502 -2.0015 0.9749
-5.5373 2.3649 -2.0015 0.9749
-5.8699 1.3416 -2.0015 0.9749
-5.9662 0.8118 -2.0015 0.9749
-5.9679 -0.7995 -2.0015 0.9749
-5.8726 -1.3295 -2.0015 0.9749
-5.3098 -2.8392 -2.0015 0.9749
-4.7197 -3.7390 -2.0015 0.9749
-3.5591 -4.8567 -2.0015 0.9749
-3.1110 -5.1553 -2.0015 0.9749
-2.1437 -5.6267 -2.0015 0.9749
-1.6325 -5.7957 -2.0015 0.9749
-1.1081 -5.9184 -2.0015 0.9749
-0.0370 -6.0211 -2.0015 0.9749
0.5011 -6.0003 -2.0015 0.9749
2.0744 -5.6526 -2.0015 0.9749
2.5711 -5.4447 -2.0015 0.9749
3.0473 -5.1932 -2.0015 0.9749
3.4991 -4.9001 -2.0015 0.9749
3.9230 -4.5679 -2.0015 0.9749
4.3154 -4.1991 -2.0015 0.9749
4.6733 -3.7967 -2.0015 0.9749
5.2745 -2.9044 -2.0015 0.9749
5.5129 -2.4215 -2.0015 0.9749
5.7072 -1.9192 -2.0015 0.9749
5.8558 -1.4016 -2.0015 0.9749
6.0118 -0.3370 -2.0015 0.9749
6.0179 0.2015 -2.0015 0.9749
5.5660 2.2966 -2.0015 0.9749
5.3386 2.7848 -2.0015 0.9749
5.0684 3.2506 -2.0015 0.9749
4.7577 3.6905 -2.0015 0.9749
4.4089 4.1008 -2.0015 0.9749
4.0249 4.4783 -2.0015 0.9749
3.6087 4.8200 -2.0015 0.9749
2.6932 5.3854 -2.0015 0.9749
2.2012 5.6044 -2.0015 0.9749
-0.4397 6.0052 -2.0015 0.9749
-0.9745 5.9419 -2.0015 0.9749
-1.5015 5.8310 -2.0015 0.9749
-2.0164 5.6736 -2.0015 0.9749
-2.9940 5.2241 -2.0015 0.9749
-4.2722 4.2431 -2.0015 0.9749
-4.6342 3.8444 -2.0015 0.9749
-4.9592 3.4149 -2.0015 0.9749
-5.6872 1.9775 -2.0015 0.9749
-5.8412 1.4615 -2.0015 0.9749
-5.9484 0.9337 -2.0015 0.9749
-6.0080 0.3985 -2.0015 0.9749
-6.0196 -0.1399 -2.0015 0.9749
-5.8986 -1.2090 -2.0015 0.9749
-5.7670 -1.7312 -2.0015 0.9749
