ply
format ascii 1.0
element vertex 1599
property float32 x
property float32 y
property float32 z
property float32 I
end_header
-8.5093 -0.3422 -2.0015 0.9656
-8.1143 -2.5852 -2.0015 0.9656
-7.1389 -4.6434 -2.0015 0.9656
-4.4297 -7.2734 -2.0015 0.9656
-3.7625 -7.6399 -2.0015 0.9656
-2.3435 -8.1874 -2.0015 0.9656
-0.8497 -8.4736 -2.0015 0.9656
0.6711 -8.4897 -2.0015 0.9656
2.1706 -8.2349 -2.0015 0.9656
2.8972 -8.0082 -2.0015 0.9656
3.6008 -7.7175 -2.0015 0.9656
4.2755 -7.3651 -2.0015 0.9656
4.9161 -6.9539 -2.0015 0.9656
6.0747 -5.9685 -2.0015 0.9656
6.5834 -5.4022 -2.0015 0.9656
7.7798 -3.4641 -2.0015 0.9656
8.5002 -0.5213 -2.0015 0.9656
8.5128 0.2398 -2.0015 0.9656
7.1942 4.5573 -2.0015 0.9656
6.7585 5.1815 -2.0015 0.9656
6.2688 5.7643 -2.0015 0.9656
5.7290 6.3010 -2.0015 0.9656
5.1434 6.7875 -2.0015 0.9656
3.8435 7.5733 -1.9960 0.9657
3.0805 7.7076 -1.9508 0.9665
2.3100 7.7182 -1.8935 0.9674
1.5777 7.7281 -1.8538 0.9681
0.1774 7.8665 -1.8493 0.9682
-6.0025 6.0411 -2.0015 0.9656
-6.5180 5.4809 -2.0015 0.9656
-6.9814 4.8770 -2.0015 0.9656
-8.0243 2.8522 -2.0015 0.9656
-8.2469 2.1243 -2.0015 0.9656
-8.4037 1.3793 -2.0015 0.9656
-8.5150 -0.1375 -2.0015 0.9656
-8.3548 -1.6500 -2.0015 0.9656
-8.1741 -2.3894 -2.0015 0.9656
-7.9280 -3.1098 -2.0015 0.9656
-7.2484 -4.4705 -2.0015 0.9656
-6.8203 -5.0999 -2.0015 0.9656
-6.3376 -5.6885 -2.0015 0.9656
-5.8043 -6.2317 -2.0015 0.9656
-5.2247 -6.7251 -2.0015 0.9656
-3.9451 -7.5473 -2.0015 0.9656
-3.2553 -7.8694 -2.0015 0.9656
-2.5396 -8.1286 -2.0015 0.9656
-1.8036 -8.3230 -2.0015 0.9656
-1.0532 -8.4508 -2.0015 0.9656
-0.2944 -8.5111 -2.0015 0.9656
1.9720 -8.2847 -2.0015 0.9656
3.4142 -7.8018 -2.0015 0.9656
4.7476 -7.0700 -2.0015 0.9656
5.3599 -6.6179 -2.0015 0.9656
7.6943 -3.6501 -2.0015 0.9656
8.3865 -1.4803 -2.0015 0.9656
8.4852 -0.7255 -2.0015 0.9656
8.5161 0.0351 -2.0015 0.9656
8.4789 0.7955 -2.0015 0.9656
8.2022 2.2910 -2.0015 0.9656
7.9648 3.0143 -2.0015 0.9656
7.6639 3.7135 -2.0015 0.9656
7.3016 4.3830 -2.0015 0.9656
6.8811 5.0175 -2.0015 0.9656
6.4055 5.6119 -2.0015 0.9656
4.0275 7.4844 -1.9975 0.9657
3.2960 7.7042 -1.9694 0.9662
2.5128 7.7157 -1.9071 0.9672
1.7713 7.7240 -1.8624 0.9680
1.0669 7.7959 -1.8493 0.9682
0.3665 7.8600 -1.8493 0.9682
-1.0375 7.7998 -1.8493 0.9682
-1.7408 7.7245 -1.8610 0.9680
-2.4808 7.7161 -1.9049 0.9672
-3.2727 7.7302 -1.9729 0.9661
-4.0027 7.5060 -1.9992 0.9657
-4.6622 7.1266 -2.0015 0.9656
-7.2851 4.4105 -2.0015 0.9656
-7.6498 3.7423 -2.0015 0.9656
-8.1935 2.3219 -2.0015 0.9656
-8.4758 0.8274 -2.0015 0.9656
-8.5159 0.0672 -2.0015 0.9656
-8.4879 -0.6935 -2.0015 0.9656
-8.3920 -1.4487 -2.0015 0.9656
-8.2291 -2.1923 -2.0015 0.9656
-7.3538 -4.2949 -2.0015 0.9656
-6.9409 -4.9344 -2.0015 0.9656
-3.4436 -7.7889 -2.0015 0.9656
-2.7343 -8.0653 -2.0015 0.9656
-0.4989 -8.5015 -2.0015 0.9656
0.2623 -8.5121 -2.0015 0.9656
1.0213 -8.4547 -2.0015 0.9656
1.7723 -8.3297 -2.0015 0.9656
5.7808 -6.2536 -2.0015 0.9656
6.3161 -5.7124 -2.0015 0.9656
8.1650 -2.4202 -2.0015 0.9656
8.4653 -0.9292 -2.0015 0.9656
8.5145 -0.1696 -2.0015 0.9656
8.4956 0.5914 -2.0015 0.9656
8.2549 2.0932 -2.0015 0.9656
8.0350 2.8220 -2.0015 0.9656
6.9997 4.8507 -2.0015 0.9656
6.5386 5.4563 -2.0015 0.9656
6.0252 6.0184 -2.0015 0.9656
5.4637 6.5324 -2.0015 0.9656
4.8586 6.9942 -2.0015 0.9656
3.5157 7.7004 -1.9895 0.9658
1.9674 7.7220 -1.8728 0.9678
0.5553 7.8489 -1.8493 0.9682
-0.1478 7.8672 -1.8493 0.9682
-0.8497 7.8225 -1.8493 0.9682
-3.0531 7.7236 -1.9519 0.9664
-5.1178 6.8068 -2.0015 0.9656
-5.7052 6.3226 -2.0015 0.9656
-6.7389 5.2069 -2.0015 0.9656
-7.1769 4.5844 -2.0015 0.9656
-7.8780 3.2346 -2.0015 0.9656
-8.3277 1.7817 -2.0015 0.9656
-8.4535 1.0309 -2.0015 0.9656
-8.4244 -1.2465 -2.0015 0.9656
-8.2795 -1.9938 -2.0015 0.9656
-7.7928 -3.4348 -2.0015 0.9656
-7.4549 -4.1169 -2.0015 0.9656
-7.0575 -4.7662 -2.0015 0.9656
-6.0971 -5.9455 -2.0015 0.9656
-5.5419 -6.4663 -2.0015 0.9656
-3.6298 -7.7038 -2.0015 0.9656
-2.2016 -8.2267 -2.0015 0.9656
-1.4582 -8.3904 -2.0015 0.9656
-0.7031 -8.4871 -2.0015 0.9656
1.5715 -8.3699 -2.0015 0.9656
2.3126 -8.1961 -2.0015 0.9656
4.4022 -7.2901 -2.0015 0.9656
5.0356 -6.8678 -2.0015 0.9656
6.6758 -5.2875 -2.0015 0.9656
7.5099 -4.0157 -2.0015 0.9656
7.8385 -3.3291 -2.0015 0.9656
8.4405 -1.1325 -2.0015 0.9656
8.5079 -0.3742 -2.0015 0.9656
8.5073 0.3870 -2.0015 0.9656
8.4388 1.1451 -2.0015 0.9656
7.5039 4.0270 -2.0015 0.9656
6.6679 5.2976 -2.0015 0.9656
6.1682 5.8718 -2.0015 0.9656
2.9278 7.7099 -1.9383 0.9667
0.7438 7.8333 -1.8493 0.9682
0.0414 7.8684 -1.8493 0.9682
-0.6614 7.8407 -1.8493 0.9682
-1.3589 7.7503 -1.8493 0.9682
-2.0787 7.7209 -1.8792 0.9677
-2.8380 7.7169 -1.9324 0.9668
-3.6305 7.6753 -1.9955 0.9657
-4.3143 7.3425 -2.0015 0.9656
-4.9527 6.9279 -2.0015 0.9656
-5.5516 6.4579 -2.0015 0.9656
2.8038 -7.2038 -2.0015 0.9686
4.0406 -6.5902 -2.0015 0.9686
5.6427 -5.2836 -2.0015 0.9686
6.8413 -3.5990 -2.0015 0.9686
7.1353 -2.9737 -2.0015 0.9686
7.5505 -1.6571 -2.0015 0.9686
7.3367 2.4350 -2.0015 0.9686
6.4289 4.2925 -2.0015 0.9686
5.5628 5.3676 -2.0015 0.9686
5.0613 5.8429 -2.0015 0.9686
3.9412 6.6500 -2.0015 0.9686
2.0344 7.4445 -1.9982 0.9686
0.6764 7.6728 -1.9943 0.9687
-1.3825 7.5834 -1.9958 0.9687
-2.7170 7.2370 -2.0015 0.9686
-5.0787 5.8278 -2.0015 0.9686
-6.0344 4.8314 -2.0015 0.9686
-6.7975 3.6810 -2.0015 0.9686
-7.3439 2.4131 -2.0015 0.9686
-7.6560 1.0683 -2.0015 0.9686
-7.6654 -0.9991 -2.0015 0.9686
-7.1264 -2.9950 -2.0015 0.9686
-6.4800 -4.2149 -2.0015 0.9686
-4.5944 -6.2167 -2.0015 0.9686
-2.7823 -7.2121 -2.0015 0.9686
-0.0814 -7.7298 -2.0015 0.9686
0.6092 -7.7062 -2.0015 0.9686
1.2949 -7.6210 -2.0015 0.9686
1.9702 -7.4749 -2.0015 0.9686
3.8810 -6.6854 -2.0015 0.9686
5.5141 -5.4177 -2.0015 0.9686
5.9758 -4.9036 -2.0015 0.9686
6.3898 -4.3504 -2.0015 0.9686
6.7528 -3.7624 -2.0015 0.9686
7.3144 -2.5013 -2.0015 0.9686
7.6426 -1.1603 -2.0015 0.9686
7.7157 -0.4732 -2.0015 0.9686
7.7271 0.2177 -2.0015 0.9686
7.5652 1.5888 -2.0015 0.9686
7.3931 2.2579 -2.0015 0.9686
7.1619 2.9091 -2.0015 0.9686
6.5302 4.1367 -2.0015 0.9686
5.6903 5.2323 -2.0015 0.9686
5.2003 5.7195 -2.0015 0.9686
4.6688 6.1611 -2.0015 0.9686
4.1000 6.5534 -2.0015 0.9686
3.4984 6.8933 -2.0015 0.9686
2.8689 7.1782 -2.0015 0.9686
1.5423 7.5545 -1.9963 0.9686
0.1736 7.6989 -1.9939 0.9687
-1.8767 7.4840 -1.9977 0.9686
-2.5415 7.2980 -2.0009 0.9686
-3.1840 7.0440 -2.0015 0.9686
-6.3371 4.4269 -2.0015 0.9686
-6.7071 3.8433 -2.0015 0.9686
-7.7095 0.5659 -2.0015 0.9686
-7.6872 -0.8145 -2.0015 0.9686
-7.4197 -2.1689 -2.0015 0.9686
-7.1964 -2.8228 -2.0015 0.9686
-6.5795 -4.0579 -2.0015 0.9686
-6.1908 -4.6292 -2.0015 0.9686
-5.2687 -5.6566 -2.0015 0.9686
-4.7425 -6.1045 -2.0015 0.9686
-1.6372 -7.5549 -2.0015 0.9686
-0.2672 -7.7256 -2.0015 0.9686
0.4238 -7.7186 -2.0015 0.9686
1.7900 -7.5201 -2.0015 0.9686
2.4544 -7.3302 -2.0015 0.9686
3.7191 -6.7767 -2.0015 0.9686
4.3094 -6.4176 -2.0015 0.9686
4.8653 -6.0071 -2.0015 0.9686
5.3823 -5.5487 -2.0015 0.9686
5.8562 -5.0459 -2.0015 0.9686
6.2834 -4.5028 -2.0015 0.9686
7.4621 -2.0181 -2.0015 0.9686
7.7021 -0.6585 -2.0015 0.9686
7.7302 0.0319 -2.0015 0.9686
7.6964 0.7221 -2.0015 0.9686
7.2298 2.7361 -2.0015 0.9686
5.8144 5.0940 -2.0015 0.9686
4.2563 6.4529 -2.0015 0.9686
3.6631 6.8072 -2.0015 0.9686
3.0406 7.1071 -2.0015 0.9686
0.3587 7.6929 -1.9940 0.9687
-0.3297 7.6941 -1.9940 0.9687
-1.0159 7.6376 -1.9949 0.9687
-1.6957 7.5243 -1.9970 0.9686
-2.3642 7.3535 -1.9999 0.9686
-3.0138 7.1185 -2.0015 0.9686
-3.6374 6.8210 -2.0015 0.9686
-5.7952 5.1159 -2.0015 0.9686
-6.2288 4.5780 -2.0015 0.9686
-7.2194 2.7633 -2.0015 0.9686
-7.4373 2.1076 -2.0015 0.9686
-7.6936 0.7511 -2.0015 0.9686
-7.6175 -1.3150 -2.0015 0.9686
-7.4697 -1.9899 -2.0015 0.9686
-6.6751 -3.8986 -2.0015 0.9686
-4.8879 -5.9887 -2.0015 0.9686
-1.8183 -7.5133 -2.0015 0.9686
-1.1401 -7.6457 -2.0015 0.9686
0.2381 -7.7265 -2.0015 0.9686
1.6087 -7.5610 -2.0015 0.9686
2.2774 -7.3871 -2.0015 0.9686
2.9280 -7.1542 -2.0015 0.9686
4.1539 -6.5193 -2.0015 0.9686
4.7195 -6.1223 -2.0015 0.9686
5.2473 -5.6764 -2.0015 0.9686
5.7332 -5.1852 -2.0015 0.9686
6.5642 -4.0827 -2.0015 0.9686
6.9025 -3.4802 -2.0015 0.9686
7.1857 -2.8499 -2.0015 0.9686
7.4115 -2.1969 -2.0015 0.9686
7.7116 0.5368 -2.0015 0.9686
7.4931 1.9000 -2.0015 0.9686
7.2935 2.5615 -2.0015 0.9686
6.7215 3.8180 -2.0015 0.9686
6.3537 4.4030 -2.0015 0.9686
4.9595 5.9295 -2.0015 0.9686
4.4102 6.3487 -2.0015 0.9686
3.2105 7.0320 -2.0015 0.9686
1.2282 7.6083 -1.9954 0.9687
0.5436 7.6827 -1.9942 0.9687
-0.1446 7.6994 -1.9939 0.9687
-0.8319 7.6584 -1.9946 0.9687
-2.1858 7.4050 -1.9991 0.9686
-2.8418 7.1889 -2.0015 0.9686
-3.4724 6.9064 -2.0015 0.9686
-4.0752 6.5688 -2.0015 0.9686
-5.1787 5.7391 -2.0015 0.9686
-5.6705 5.2537 -2.0015 0.9686
-6.1170 4.7264 -2.0015 0.9686
-6.5146 4.1613 -2.0015 0.9686
-6.8602 3.5629 -2.0015 0.9686
-7.1509 2.9361 -2.0015 0.9686
-7.5592 1.6173 -2.0015 0.9686
-7.6734 0.9358 -2.0015 0.9686
-7.7263 0.2468 -2.0015 0.9686
-6.4062 -4.3263 -2.0015 0.9686
-5.9943 -4.8811 -2.0015 0.9686
-3.9061 -6.6707 -2.0015 0.9686
-2.6572 -7.2592 -2.0015 0.9686
-1.3236 -7.6161 -2.0015 0.9686
0.0523 -7.7300 -2.0015 0.9686
0.7423 -7.6945 -2.0015 0.9686
1.4265 -7.5975 -2.0015 0.9686
2.7552 -7.2226 -2.0015 0.9686
3.9960 -6.6173 -2.0015 0.9686
5.1093 -5.8009 -2.0015 0.9686
6.0597 -4.7996 -2.0015 0.9686
6.4641 -4.2393 -2.0015 0.9686
7.3530 2.3855 -2.0015 0.9686
6.4577 4.2490 -2.0015 0.9686
6.0525 4.8087 -2.0015 0.9686
5.5989 5.3299 -2.0015 0.9686
5.1006 5.8086 -2.0015 0.9686
2.7443 7.2267 -2.0015 0.9686
2.0848 7.4314 -1.9984 0.9686
0.7282 7.6683 -1.9944 0.9687
-0.6475 7.6751 -1.9943 0.9687
-3.9161 6.6648 -2.0015 0.9686
-4.4956 6.2885 -2.0015 0.9686
1.9658 -6.7913 -2.0015 0.9710
2.5644 -6.5886 -2.0015 0.9710
3.1425 -6.3333 -2.0015 0.9710
3.6955 -6.0274 -2.0015 0.9710
4.2190 -5.6733 -2.0015 0.9710
4.7087 -5.2739 -2.0015 0.9710
5.1609 -4.8324 -2.0015 0.9710
5.5717 -4.3522 -2.0015 0.9710
5.9381 -3.8373 -2.0015 0.9710
6.2571 -3.2917 -2.0015 0.9710
7.0135 -0.8929 -2.0015 0.9710
7.0652 -0.2630 -2.0015 0.9710
7.0604 0.3689 -2.0015 0.9710
6.9993 0.9979 -2.0015 0.9710
6.7102 2.2271 -2.0015 0.9710
6.4845 2.8174 -2.0015 0.9710
6.2070 3.3852 -2.0015 0.9710
5.8799 3.9259 -2.0015 0.9710
5.0878 4.9092 -2.0015 0.9710
2.4653 6.6263 -2.0015 0.9710
1.2473 6.9592 -2.0015 0.9710
-0.6418 7.0409 -2.0015 0.9710
-1.8840 6.8144 -2.0015 0.9710
-3.0662 6.3706 -2.0015 0.9710
-4.1505 5.7236 -2.0015 0.9710
-4.6450 5.3301 -2.0015 0.9710
-5.5190 4.4189 -2.0015 0.9710
-6.2170 3.3667 -2.0015 0.9710
-6.7168 2.2071 -2.0015 0.9710
-6.8870 1.5985 -2.0015 0.9710
-7.0615 0.3479 -2.0015 0.9710
-7.0108 -0.9138 -2.0015 0.9710
-6.7364 -2.1463 -2.0015 0.9710
-6.5179 -2.7392 -2.0015 0.9710
-6.2472 -3.3103 -2.0015 0.9710
-5.1464 -4.8477 -2.0015 0.9710
-3.1236 -6.3426 -2.0015 0.9710
-2.5447 -6.5962 -2.0015 0.9710
-1.9456 -6.7971 -2.0015 0.9710
-1.3308 -6.9437 -2.0015 0.9710
0.5572 -7.0481 -2.0015 0.9710
1.8020 -6.8366 -2.0015 0.9710
2.4053 -6.6484 -2.0015 0.9710
3.5495 -6.1145 -2.0015 0.9710
4.5806 -5.3856 -2.0015 0.9710
5.4655 -4.4849 -2.0015 0.9710
5.8442 -3.9789 -2.0015 0.9710
6.4587 -2.8759 -2.0015 0.9710
6.6898 -2.2877 -2.0015 0.9710
6.8673 -1.6811 -2.0015 0.9710
6.9900 -1.0612 -2.0015 0.9710
7.0568 -0.4328 -2.0015 0.9710
6.9191 1.4531 -2.0015 0.9710
6.5503 2.6607 -2.0015 0.9710
6.2866 3.2350 -2.0015 0.9710
4.7562 5.2311 -2.0015 0.9710
4.2701 5.6349 -2.0015 0.9710
3.7498 5.9937 -2.0015 0.9710
3.1996 6.3046 -2.0015 0.9710
2.6239 6.5652 -2.0015 0.9710
2.0271 6.7732 -2.0015 0.9710
1.4142 6.9272 -2.0015 0.9710
0.1594 7.0683 -2.0015 0.9710
-0.4724 7.0543 -2.0015 0.9710
-1.7197 6.8578 -2.0015 0.9710
-2.3252 6.6768 -2.0015 0.9710
-3.4758 6.1567 -2.0015 0.9710
-4.0117 5.8217 -2.0015 0.9710
-4.5155 5.4402 -2.0015 0.9710
-4.9833 5.0153 -2.0015 0.9710
-6.4237 2.9533 -2.0015 0.9710
-6.8466 1.7636 -2.0015 0.9710
-6.9767 1.1451 -2.0015 0.9710
-7.0692 -0.1142 -2.0015 0.9710
-7.0307 -0.7450 -2.0015 0.9710
-6.7861 -1.9837 -2.0015 0.9710
-6.5818 -2.5818 -2.0015 0.9710
-6.3250 -3.1592 -2.0015 0.9710
-5.6622 -4.2339 -2.0015 0.9710
-5.2615 -4.7226 -2.0015 0.9710
-4.8187 -5.1736 -2.0015 0.9710
-4.3375 -5.5832 -2.0015 0.9710
-3.8216 -5.9482 -2.0015 0.9710
-3.2752 -6.2657 -2.0015 0.9710
-2.7026 -6.5332 -2.0015 0.9710
-2.1084 -6.7484 -2.0015 0.9710
-1.4974 -6.9097 -2.0015 0.9710
-0.8744 -7.0158 -2.0015 0.9710
-0.2444 -7.0658 -2.0015 0.9710
0.3876 -7.0595 -2.0015 0.9710
1.6371 -6.8779 -2.0015 0.9710
2.2448 -6.7043 -2.0015 0.9710
2.8345 -6.4770 -2.0015 0.9710
4.4498 -5.4941 -2.0015 0.9710
4.9226 -5.0748 -2.0015 0.9710
5.3561 -4.6150 -2.0015 0.9710
5.7468 -4.1182 -2.0015 0.9710
6.0916 -3.5886 -2.0015 0.9710
6.6328 -2.4478 -2.0015 0.9710
6.8249 -1.8457 -2.0015 0.9710
6.9625 -1.2289 -2.0015 0.9710
7.0444 -0.6023 -2.0015 0.9710
7.0700 0.0292 -2.0015 0.9710
7.0392 0.6604 -2.0015 0.9710
6.9521 1.2863 -2.0015 0.9710
6.8094 1.9020 -2.0015 0.9710
6.6124 2.5025 -2.0015 0.9710
5.3179 4.6590 -2.0015 0.9710
4.4043 5.5307 -2.0015 0.9710
2.7809 6.5002 -2.0015 0.9710
1.5803 6.8912 -2.0015 0.9710
0.9586 7.0048 -2.0015 0.9710
0.3293 7.0624 -2.0015 0.9710
-0.9322 7.0083 -2.0015 0.9710
-1.5543 6.8971 -2.0015 0.9710
-2.1640 6.7308 -2.0015 0.9710
-3.3268 6.2385 -2.0015 0.9710
-3.8706 5.9165 -2.0015 0.9710
-4.3834 5.5472 -2.0015 0.9710
-5.3003 4.6790 -2.0015 0.9710
-5.6969 4.1870 -2.0015 0.9710
-6.0480 3.6616 -2.0015 0.9710
-6.3508 3.1069 -2.0015 0.9710
-6.6029 2.5274 -2.0015 0.9710
-6.9472 1.3125 -2.0015 0.9710
-7.0466 -0.5757 -2.0015 0.9710
-6.9670 -1.2027 -2.0015 0.9710
-6.8318 -1.8200 -2.0015 0.9710
-6.6420 -2.4228 -2.0015 0.9710
-6.1051 -3.5656 -2.0015 0.9710
-4.9417 -5.0562 -2.0015 0.9710
-3.4248 -6.1852 -2.0015 0.9710
-2.2700 -6.6958 -2.0015 0.9710
-1.6630 -6.8717 -2.0015 0.9710
-0.4142 -7.0579 -2.0015 0.9710
0.2178 -7.0667 -2.0015 0.9710
1.4713 -6.9153 -2.0015 0.9710
2.6779 -6.5433 -2.0015 0.9710
4.3164 -5.5995 -2.0015 0.9710
5.6462 -4.2552 -2.0015 0.9710
6.3131 -3.1830 -2.0015 0.9710
6.5721 -2.6065 -2.0015 0.9710
6.7786 -2.0093 -2.0015 0.9710
7.0279 -0.7715 -2.0015 0.9710
7.0687 -0.1408 -2.0015 0.9710
6.9810 1.1188 -2.0015 0.9710
6.8532 1.7378 -2.0015 0.9710
6.6706 2.3428 -2.0015 0.9710
5.8111 4.0270 -2.0015 0.9710
4.5360 5.4232 -2.0015 0.9710
4.0336 5.8066 -2.0015 0.9710
2.9364 6.4315 -2.0015 0.9710
1.1267 6.9797 -2.0015 0.9710
0.4990 7.0525 -2.0015 0.9710
-1.3881 6.9325 -2.0015 0.9710
-2.0016 6.7808 -2.0015 0.9710
-3.1758 6.3167 -2.0015 0.9710
-3.7272 6.0078 -2.0015 0.9710
-4.2488 5.6510 -2.0015 0.9710
-4.7365 5.2490 -2.0015 0.9710
-5.5946 4.3228 -2.0015 0.9710
-6.9136 1.4792 -2.0015 0.9710
-6.8736 -1.6552 -2.0015 0.9710
-6.6983 -2.2624 -2.0015 0.9710
-6.1891 -3.4179 -2.0015 0.9710
-5.4824 -4.4642 -2.0015 0.9710
-5.0618 -4.9360 -2.0015 0.9710
-4.6008 -5.3683 -2.0015 0.9710
-4.1031 -5.7577 -2.0015 0.9710
-3.5726 -6.1011 -2.0015 0.9710
-3.0135 -6.3957 -2.0015 0.9710
-1.8277 -6.8297 -2.0015 0.9710
0.0478 -7.0699 -2.0015 0.9710
0.6789 -7.0374 -2.0015 0.9710
1.3047 -6.9487 -2.0015 0.9710
1.9199 -6.8044 -2.0015 0.9710
3.0997 -6.3544 -2.0015 0.9710
6.2347 -3.3338 -2.0015 0.9710
6.5075 -2.7638 -2.0015 0.9710
6.7283 -2.1716 -2.0015 0.9710
6.8953 -1.5621 -2.0015 0.9710
7.0073 -0.9402 -2.0015 0.9710
7.0633 -0.3107 -2.0015 0.9710
7.0628 0.3213 -2.0015 0.9710
7.0059 0.9507 -2.0015 0.9710
6.8930 1.5725 -2.0015 0.9710
6.7250 2.1817 -2.0015 0.9710
6.5033 2.7736 -2.0015 0.9710
6.2297 3.3432 -2.0015 0.9710
5.5356 4.3980 -2.0015 0.9710
5.1208 4.8748 -2.0015 0.9710
4.6650 5.3126 -2.0015 0.9710
4.1720 5.7079 -2.0015 0.9710
3.0901 6.3590 -2.0015 0.9710
2.5100 6.6096 -2.0015 0.9710
1.9097 6.8073 -2.0015 0.9710
0.6683 7.0384 -2.0015 0.9710
0.0372 7.0700 -2.0015 0.9710
-1.2210 6.9638 -2.0015 0.9710
-1.8380 6.8270 -2.0015 0.9710
-3.0231 6.3912 -2.0015 0.9710
-4.6089 5.3613 -2.0015 0.9710
-6.4738 2.8418 -2.0015 0.9710
1.8093 -6.2507 -2.0015 0.9731
2.3603 -6.0641 -2.0015 0.9731
2.8923 -5.8291 -2.0015 0.9731
4.3339 -4.8541 -2.0015 0.9731
4.7500 -4.4477 -2.0015 0.9731
5.1282 -4.0057 -2.0015 0.9731
5.7590 -3.0296 -2.0015 0.9731
6.0065 -2.5033 -2.0015 0.9731
6.2060 -1.9569 -2.0015 0.9731
6.4552 -0.8218 -2.0015 0.9731
6.5027 -0.2421 -2.0015 0.9731
6.4984 0.3396 -2.0015 0.9731
6.4421 0.9185 -2.0015 0.9731
5.9683 2.5931 -2.0015 0.9731
5.7129 3.1157 -2.0015 0.9731
5.0675 4.0822 -2.0015 0.9731
4.6828 4.5184 -2.0015 0.9731
3.8043 5.2793 -2.0015 0.9731
3.3177 5.5980 -2.0015 0.9731
2.2690 6.0988 -2.0015 0.9731
1.7154 6.2771 -2.0015 0.9731
1.1480 6.4052 -2.0015 0.9731
0.5714 6.4821 -2.0015 0.9731
-0.0097 6.5072 -2.0015 0.9731
-1.1671 6.4017 -2.0015 0.9731
-2.8221 5.8635 -2.0015 0.9731
-3.3344 5.5880 -2.0015 0.9731
-4.6962 4.5044 -2.0015 0.9731
-5.7221 3.0986 -2.0015 0.9731
-5.9760 2.5753 -2.0015 0.9731
-6.1820 2.0314 -2.0015 0.9731
-6.4994 0.3202 -2.0015 0.9731
-6.3518 -1.4139 -2.0015 0.9731
-5.7499 -3.0468 -2.0015 0.9731
-5.4548 -3.5481 -2.0015 0.9731
-4.7367 -4.4618 -2.0015 0.9731
-4.3194 -4.8670 -2.0015 0.9731
-3.3848 -5.5577 -2.0015 0.9731
-2.8749 -5.8377 -2.0015 0.9731
-0.6493 -6.4748 -2.0015 0.9731
0.5128 -6.4870 -2.0015 0.9731
2.7514 -5.8970 -2.0015 0.9731
4.2159 -4.9568 -2.0015 0.9731
4.6417 -4.5606 -2.0015 0.9731
5.0304 -4.1278 -2.0015 0.9731
5.3789 -3.6622 -2.0015 0.9731
5.9446 -2.6469 -2.0015 0.9731
6.4335 -0.9767 -2.0015 0.9731
6.2235 1.9007 -2.0015 0.9731
6.0289 2.4489 -2.0015 0.9731
5.1642 3.9592 -2.0015 0.9731
3.4513 5.5166 -2.0015 0.9731
2.9449 5.8027 -2.0015 0.9731
2.4150 6.0425 -2.0015 0.9731
1.8658 6.2340 -2.0015 0.9731
1.3016 6.3757 -2.0015 0.9731
0.7271 6.4665 -2.0015 0.9731
-0.4348 6.4927 -2.0015 0.9731
-1.5828 6.3118 -2.0015 0.9731
-3.1991 5.6666 -2.0015 0.9731
-4.1560 5.0072 -2.0015 0.9731
-4.5866 4.6160 -2.0015 0.9731
-6.3016 1.6232 -2.0015 0.9731
-6.4898 0.4763 -2.0015 0.9731
-6.5064 -0.1051 -2.0015 0.9731
-6.4710 -0.6857 -2.0015 0.9731
-6.3839 -1.2608 -2.0015 0.9731
-6.2459 -1.8258 -2.0015 0.9731
-6.0579 -2.3762 -2.0015 0.9731
-5.8215 -2.9077 -2.0015 0.9731
-5.5386 -3.4159 -2.0015 0.9731
-5.2114 -3.8968 -2.0015 0.9731
-4.4351 -4.7617 -2.0015 0.9731
-3.5174 -5.4747 -2.0015 0.9731
-3.0144 -5.7669 -2.0015 0.9731
-1.9405 -6.2112 -2.0015 0.9731
-1.3782 -6.3596 -2.0015 0.9731
-0.8047 -6.4573 -2.0015 0.9731
-0.2249 -6.5034 -2.0015 0.9731
0.9355 -6.4397 -2.0015 0.9731
1.5068 -6.3304 -2.0015 0.9731
2.6088 -5.9614 -2.0015 0.9731
3.6276 -5.4023 -2.0015 0.9731
4.0956 -5.0568 -2.0015 0.9731
4.5308 -4.6708 -2.0015 0.9731
4.9297 -4.2476 -2.0015 0.9731
6.4836 -0.5543 -2.0015 0.9731
6.5072 0.0268 -2.0015 0.9731
6.3986 1.1839 -2.0015 0.9731
6.0860 2.3032 -2.0015 0.9731
5.8560 2.8375 -2.0015 0.9731
5.2579 3.8339 -2.0015 0.9731
4.8945 4.2881 -2.0015 0.9731
3.0836 5.7303 -2.0015 0.9731
2.5595 5.9827 -2.0015 0.9731
2.0151 6.1874 -2.0015 0.9731
1.4545 6.3426 -2.0015 0.9731
0.8823 6.4472 -2.0015 0.9731
0.3031 6.5002 -2.0015 0.9731
-0.8580 6.4504 -2.0015 0.9731
-3.0619 5.7419 -2.0015 0.9731
-4.8783 4.3065 -2.0015 0.9731
-5.2434 3.8537 -2.0015 0.9731
-6.2607 1.7742 -2.0015 0.9731
-6.4765 0.6322 -2.0015 0.9731
-6.4856 -0.5299 -2.0015 0.9731
-6.4124 -1.1069 -2.0015 0.9731
-6.2879 -1.6751 -2.0015 0.9731
-6.1132 -2.2299 -2.0015 0.9731
-4.9457 -4.2290 -2.0015 0.9731
-4.5483 -4.6537 -2.0015 0.9731
-4.1146 -5.0413 -2.0015 0.9731
-3.6480 -5.3886 -2.0015 0.9731
-3.1522 -5.6928 -2.0015 0.9731
-2.6313 -5.9515 -2.0015 0.9731
-2.0893 -6.1627 -2.0015 0.9731
-0.9598 -6.4361 -2.0015 0.9731
-0.3812 -6.4961 -2.0015 0.9731
2.4648 -6.0224 -2.0015 0.9731
2.9927 -5.7782 -2.0015 0.9731
3.4967 -5.4879 -2.0015 0.9731
3.9728 -5.1537 -2.0015 0.9731
5.8105 -2.9296 -2.0015 0.9731
6.0489 -2.3990 -2.0015 0.9731
6.2389 -1.8493 -2.0015 0.9731
6.3791 -1.2848 -2.0015 0.9731
6.4684 -0.7100 -2.0015 0.9731
6.5060 -0.1296 -2.0015 0.9731
6.4915 0.4519 -2.0015 0.9731
6.4253 1.0298 -2.0015 0.9731
6.3076 1.5994 -2.0015 0.9731
6.1396 2.1563 -2.0015 0.9731
5.9225 2.6959 -2.0015 0.9731
5.6581 3.2140 -2.0015 0.9731
4.9962 4.1692 -2.0015 0.9731
4.1749 4.9915 -2.0015 0.9731
1.6065 6.3058 -2.0015 0.9731
-0.1222 6.5061 -2.0015 0.9731
-0.7027 6.4692 -2.0015 0.9731
-1.8423 6.2410 -2.0015 0.9731
-3.4305 5.5295 -2.0015 0.9731
-3.9106 5.2011 -2.0015 0.9731
-4.7734 4.4226 -2.0015 0.9731
-6.2162 1.9242 -2.0015 0.9731
-6.3632 1.3614 -2.0015 0.9731
-6.4594 0.7877 -2.0015 0.9731
-6.3264 -1.5235 -2.0015 0.9731
-5.9545 -2.6245 -2.0015 0.9731
-5.6964 -3.1458 -2.0015 0.9731
-5.0459 -4.1089 -2.0015 0.9731
-4.6589 -4.5430 -2.0015 0.9731
-3.7765 -5.2993 -2.0015 0.9731
-2.7736 -5.8866 -2.0015 0.9731
-1.1142 -6.4112 -2.0015 0.9731
1.2008 -6.3955 -2.0015 0.9731
1.7671 -6.2627 -2.0015 0.9731
3.8478 -5.2478 -2.0015 0.9731
4.3010 -4.8832 -2.0015 0.9731
4.7199 -4.4796 -2.0015 0.9731
6.3464 -1.4378 -2.0015 0.9731
6.4495 -0.8653 -2.0015 0.9731
6.5010 -0.2860 -2.0015 0.9731
6.5005 0.2957 -2.0015 0.9731
6.4482 0.8750 -2.0015 0.9731
6.3443 1.4473 -2.0015 0.9731
6.1897 2.0081 -2.0015 0.9731
5.9856 2.5528 -2.0015 0.9731
5.0950 4.0479 -2.0015 0.9731
4.7131 4.4867 -2.0015 0.9731
3.3554 5.5754 -2.0015 0.9731
2.8441 5.8528 -2.0015 0.9731
1.7577 6.2654 -2.0015 0.9731
1.1912 6.3973 -2.0015 0.9731
0.0342 6.5072 -2.0015 0.9731
-1.6917 6.2835 -2.0015 0.9731
-2.2460 6.1073 -2.0015 0.9731
-3.2966 5.6104 -2.0015 0.9731
-4.6657 4.5360 -2.0015 0.9731
-5.0521 4.1013 -2.0015 0.9731
-5.3982 3.6338 -2.0015 0.9731
-5.9585 2.6156 -2.0015 0.9731
1.1510 -5.9102 -2.0015 0.9749
2.1840 -5.6112 -2.0015 0.9749
2.6763 -5.3938 -2.0015 0.9749
3.1473 -5.1332 -2.0015 0.9749
3.5931 -4.8317 -2.0015 0.9749
4.0102 -4.4915 -2.0015 0.9749
4.3952 -4.1155 -2.0015 0.9749
5.3288 -2.8034 -2.0015 0.9749
5.7425 -1.8108 -2.0015 0.9749
5.8813 -1.2907 -2.0015 0.9749
6.0130 0.3142 -2.0015 0.9749
5.8612 1.3788 -2.0015 0.9749
5.7147 1.8967 -2.0015 0.9749
5.5225 2.3994 -2.0015 0.9749
5.2862 2.8830 -2.0015 0.9749
4.3330 4.1809 -2.0015 0.9749
3.5202 4.8850 -2.0015 0.9749
3.0699 5.1799 -2.0015 0.9749
2.5951 5.4333 -2.0015 0.9749
2.0996 5.6433 -2.0015 0.9749
1.0622 5.9268 -2.0015 0.9749
0.5288 5.9980 -2.0015 0.9749
-0.5466 5.9964 -2.0015 0.9749
-1.0799 5.9236 -2.0015 0.9749
-1.6045 5.8035 -2.0015 0.9749
-2.1164 5.6370 -2.0015 0.9749
-3.9559 4.5394 -2.0015 0.9749
-4.3454 4.1680 -2.0015 0.9749
-4.7003 3.7633 -2.0015 0.9749
-5.0176 3.3286 -2.0015 0.9749
-5.5296 2.3829 -2.0015 0.9749
-5.9635 0.8321 -2.0015 0.9749
-6.0164 -0.2419 -2.0015 0.9749
-5.9707 -0.7782 -2.0015 0.9749
-5.8774 -1.3083 -2.0015 0.9749
-5.0474 -3.2831 -2.0015 0.9749
-3.9968 -4.5035 -2.0015 0.9749
-3.1319 -5.1426 -2.0015 0.9749
-2.6602 -5.4017 -2.0015 0.9749
-1.1334 -5.9136 -2.0015 0.9749
-0.6008 -5.9912 -2.0015 0.9749
1.0086 -5.9362 -2.0015 0.9749
1.5347 -5.8224 -2.0015 0.9749
2.5459 -5.4565 -2.0015 0.9749
3.0230 -5.2074 -2.0015 0.9749
4.6547 -3.8195 -2.0015 0.9749
4.9772 -3.3886 -2.0015 0.9749
5.5006 -2.4492 -2.0015 0.9749
5.6973 -1.9483 -2.0015 0.9749
5.9530 -0.9038 -2.0015 0.9749
5.7586 1.7588 -2.0015 0.9749
5.5786 2.2660 -2.0015 0.9749
4.4323 4.0756 -2.0015 0.9749
3.6366 4.7990 -2.0015 0.9749
2.7250 5.3693 -2.0015 0.9749
2.2346 5.5912 -2.0015 0.9749
1.7264 5.7684 -2.0015 0.9749
1.2044 5.8995 -2.0015 0.9749
0.1358 6.0197 -2.0015 0.9749
-0.4023 6.0078 -2.0015 0.9749
-0.9372 5.9478 -2.0015 0.9749
-2.4801 5.4867 -2.0015 0.9749
-3.4165 4.9581 -2.0015 0.9749
-4.2440 4.2713 -2.0015 0.9749
-4.6085 3.8752 -2.0015 0.9749
-5.2243 2.9937 -2.0015 0.9749
-5.6735 2.0166 -2.0015 0.9749
-5.8309 1.5019 -2.0015 0.9749
-6.0051 0.4408 -2.0015 0.9749
-6.0204 -0.0972 -2.0015 0.9749
-5.9877 -0.6344 -2.0015 0.9749
-5.6054 -2.1988 -2.0015 0.9749
-4.4809 -4.0220 -2.0015 0.9749
-4.1039 -4.4061 -2.0015 0.9749
-3.2547 -5.0658 -2.0015 0.9749
-2.7893 -5.3362 -2.0015 0.9749
-2.3016 -5.5640 -2.0015 0.9749
-1.2752 -5.8846 -2.0015 0.9749
-0.7446 -5.9750 -2.0015 0.9749
-0.2081 -6.0176 -2.0015 0.9749
2.4140 -5.5162 -2.0015 0.9749
2.8969 -5.2786 -2.0015 0.9749
3.7897 -4.6791 -2.0015 0.9749
4.1924 -4.3220 -2.0015 0.9749
4.5615 -3.9303 -2.0015 0.9749
4.8943 -3.5073 -2.0015 0.9749
5.8124 -1.5719 -2.0015 0.9749
5.9296 -1.0466 -2.0015 0.9749
5.9949 0.5624 -2.0015 0.9749
5.9207 1.0955 -2.0015 0.9749
5.6314 2.1312 -2.0015 0.9749
5.1625 3.0990 -2.0015 0.9749
4.8652 3.5476 -2.0015 0.9749
4.5289 3.9678 -2.0015 0.9749
4.1565 4.3564 -2.0015 0.9749
1.8646 5.7253 -2.0015 0.9749
0.8164 5.9656 -2.0015 0.9749
-0.7939 5.9687 -2.0015 0.9749
-1.3237 5.8739 -2.0015 0.9749
-2.3475 5.5448 -2.0015 0.9749
-3.2964 5.0388 -2.0015 0.9749
-3.7331 4.7243 -2.0015 0.9749
-4.5140 3.9849 -2.0015 0.9749
-4.8518 3.5659 -2.0015 0.9749
-5.6234 2.1524 -2.0015 0.9749
-5.9166 1.1178 -2.0015 0.9749
-5.9927 0.5850 -2.0015 0.9749
-6.0210 0.0475 -2.0015 0.9749
-6.0012 -0.4903 -2.0015 0.9749
-5.9335 -1.0242 -2.0015 0.9749
-5.1994 -3.0367 -2.0015 0.9749
-4.9075 -3.4888 -2.0015 0.9749
-4.5763 -3.9131 -2.0015 0.9749
-3.8073 -4.6648 -2.0015 0.9749
-3.3755 -4.9861 -2.0015 0.9749
-2.4347 -5.5070 -2.0015 0.9749
-0.3527 -6.0109 -2.0015 0.9749
0.1854 -6.0184 -2.0015 0.9749
0.7221 -5.9778 -2.0015 0.9749
1.7739 -5.7540 -2.0015 0.9749
2.2807 -5.5726 -2.0015 0.9749
3.2356 -5.0780 -2.0015 0.9749
3.6761 -4.7688 -2.0015 0.9749
4.0873 -4.4215 -2.0015 0.9749
4.8086 -3.6240 -2.0015 0.9749
5.1130 -3.1801 -2.0015 0.9749
5.3765 -2.7108 -2.0015 0.9749
5.7730 -1.7112 -2.0015 0.9749
5.9027 -1.1889 -2.0015 0.9749
5.9853 -0.6570 -2.0015 0.9749
6.0200 -0.1199 -2.0015 0.9749
6.0067 0.4182 -2.0015 0.9749
5.9454 0.9529 -2.0015 0.9749
5.4802 2.4946 -2.0015 0.9749
5.2355 2.9740 -2.0015 0.9749
4.6230 3.8578 -2.0015 0.9749
3.8631 4.6186 -2.0015 0.9749
3.4352 4.9452 -2.0015 0.9749
2.0017 5.6788 -2.0015 0.9749
0.4250 6.0062 -2.0015 0.9749
-0.1131 6.0202 -2.0015 0.9749
-1.1822 5.9040 -2.0015 0.9749
-1.7047 5.7749 -2.0015 0.9749
-2.2135 5.5996 -2.0015 0.9749
-3.1743 5.1166 -2.0015 0.9749
-3.6185 4.8127 -2.0015 0.9749
-4.7647 3.6815 -2.0015 0.9749
-5.0744 3.2413 -2.0015 0.9749
-5.7520 1.7805 -2.0015 0.9749
-5.8880 1.2597 -2.0015 0.9749
-5.9769 0.7289 -2.0015 0.9749
-6.0181 0.1923 -2.0015 0.9749
-6.0113 -0.3459 -2.0015 0.9749
-5.8539 -1.4097 -2.0015 0.9749
-2.5664 -5.4469 -2.0015 0.9749
-0.4971 -6.0007 -2.0015 0.9749
0.5782 -5.9934 -2.0015 0.9749
1.6351 -5.7950 -2.0015 0.9749
2.1460 -5.6258 -2.0015 0.9749
3.1125 -5.1543 -2.0015 0.9749
3.5604 -4.8558 -2.0015 0.9749
3.9798 -4.5185 -2.0015 0.9749
4.3674 -4.1450 -2.0015 0.9749
4.7201 -3.7385 -2.0015 0.9749
5.3098 -2.8393 -2.0015 0.9749
5.7302 -1.8495 -2.0015 0.9749
5.9678 -0.8007 -2.0015 0.9749
5.9665 0.8096 -2.0015 0.9749
5.7274 1.8581 -2.0015 0.9749
5.5386 2.3621 -2.0015 0.9749
5.0301 3.3096 -2.0015 0.9749
4.3611 4.1516 -2.0015 0.9749
3.1048 5.1590 -2.0015 0.9749
2.6317 5.4157 -2.0015 0.9749
2.1376 5.6290 -2.0015 0.9749
0.5692 5.9943 -2.0015 0.9749
-1.5653 5.8142 -2.0015 0.9749
-2.0783 5.6512 -2.0015 0.9749
-3.5017 4.8983 -2.0015 0.9749
-3.9252 4.5660 -2.0015 0.9749
-4.3172 4.1972 -2.0015 0.9749
-4.9950 3.3623 -2.0015 0.9749
-5.5134 2.4202 -2.0015 0.9749
1.0699 -5.4937 -2.0015 0.9765
1.5562 -5.3762 -2.0015 0.9765
2.0301 -5.2158 -2.0015 0.9765
3.7276 -4.1750 -2.0015 0.9765
4.0855 -3.8254 -2.0015 0.9765
4.4108 -3.4453 -2.0015 0.9765
4.7008 -3.0377 -2.0015 0.9765
5.4668 -1.1998 -2.0015 0.9765
5.5930 -0.2082 -2.0015 0.9765
5.5893 0.2921 -2.0015 0.9765
5.5409 0.7900 -2.0015 0.9765
5.4482 1.2816 -2.0015 0.9765
4.3586 3.5111 -2.0015 0.9765
3.2721 4.5408 -2.0015 0.9765
1.9516 5.2456 -2.0015 0.9765
1.4754 5.3989 -2.0015 0.9765
0.4915 5.5753 -2.0015 0.9765
-0.0083 5.5969 -2.0015 0.9765
-0.5081 5.5738 -2.0015 0.9765
-1.4915 5.3945 -2.0015 0.9765
-2.4273 5.0432 -2.0015 0.9765
-2.8679 4.8063 -2.0015 0.9765
-3.2856 4.5310 -2.0015 0.9765
-3.6771 4.2195 -2.0015 0.9765
-4.0392 3.8743 -2.0015 0.9765
-4.3690 3.4981 -2.0015 0.9765
-4.6640 3.0940 -2.0015 0.9765
-5.1399 2.2150 -2.0015 0.9765
-5.3172 1.7472 -2.0015 0.9765
-5.5432 0.7735 -2.0015 0.9765
-5.5901 0.2754 -2.0015 0.9765
-5.5924 -0.2249 -2.0015 0.9765
-5.5500 -0.7234 -2.0015 0.9765
-5.4632 -1.2161 -2.0015 0.9765
-5.1597 -2.1685 -2.0015 0.9765
-4.4005 -3.4585 -2.0015 0.9765
-4.0741 -3.8376 -2.0015 0.9765
-2.4727 -5.0210 -2.0015 0.9765
0.4411 -5.5795 -2.0015 0.9765
1.9041 -5.2630 -2.0015 0.9765
2.8099 -4.8404 -2.0015 0.9765
3.2309 -4.5701 -2.0015 0.9765
3.6261 -4.2634 -2.0015 0.9765
3.9924 -3.9225 -2.0015 0.9765
4.6264 -3.1498 -2.0015 0.9765
4.8892 -2.7241 -2.0015 0.9765
5.1129 -2.2766 -2.0015 0.9765
5.4364 -1.3308 -2.0015 0.9765
5.5335 -0.8401 -2.0015 0.9765
5.5947 0.1576 -2.0015 0.9765
5.5583 0.6566 -2.0015 0.9765
5.1855 2.1063 -2.0015 0.9765
4.9766 2.5609 -2.0015 0.9765
4.7281 2.9951 -2.0015 0.9765
4.4417 3.4053 -2.0015 0.9765
3.7652 4.1411 -2.0015 0.9765
2.0771 5.1972 -2.0015 0.9765
1.6047 5.3619 -2.0015 0.9765
1.1195 5.4838 -2.0015 0.9765
-0.8711 5.5287 -2.0015 0.9765
-1.3613 5.4288 -2.0015 0.9765
-1.8407 5.2856 -2.0015 0.9765
-2.7515 4.8738 -2.0015 0.9765
-3.5746 4.3067 -2.0015 0.9765
-3.9449 3.9703 -2.0015 0.9765
-4.5882 3.2052 -2.0015 0.9765
-5.4200 1.3961 -2.0015 0.9765
-5.4908 -1.0844 -2.0015 0.9765
-5.0071 -2.5009 -2.0015 0.9765
-4.7637 -2.9380 -2.0015 0.9765
-4.4823 -3.3517 -2.0015 0.9765
-3.8147 -4.0956 -2.0015 0.9765
-2.1395 -5.1718 -2.0015 0.9765
-1.6691 -5.3422 -2.0015 0.9765
-0.1935 -5.5935 -2.0015 0.9765
2.2439 -5.1274 -2.0015 0.9765
2.6927 -4.9066 -2.0015 0.9765
3.8969 -4.0174 -2.0015 0.9765
4.5494 -3.2601 -2.0015 0.9765
5.0567 -2.3989 -2.0015 0.9765
5.2508 -1.9378 -2.0015 0.9765
5.4028 -1.4611 -2.0015 0.9765
5.5117 -0.9729 -2.0015 0.9765
5.5766 -0.4768 -2.0015 0.9765
5.5968 0.0231 -2.0015 0.9765
5.5724 0.5228 -2.0015 0.9765
5.5035 1.0183 -2.0015 0.9765
5.3906 1.5057 -2.0015 0.9765
5.2346 1.9810 -2.0015 0.9765
3.0817 4.6721 -2.0015 0.9765
2.2015 5.1458 -2.0015 0.9765
1.7332 5.3218 -2.0015 0.9765
-0.7380 5.5480 -2.0015 0.9765
-1.2305 5.4600 -2.0015 0.9765
-1.7131 5.3283 -2.0015 0.9765
-2.1821 5.1540 -2.0015 0.9765
-3.0641 4.6837 -2.0015 0.9765
-3.4701 4.3914 -2.0015 0.9765
-3.8483 4.0639 -2.0015 0.9765
-4.1958 3.7040 -2.0015 0.9765
-4.5098 3.3146 -2.0015 0.9765
-5.0275 2.4595 -2.0015 0.9765
-5.3848 1.5260 -2.0015 0.9765
-5.5967 0.0442 -2.0015 0.9765
-5.5783 -0.4558 -2.0015 0.9765
-5.5153 -0.9521 -2.0015 0.9765
-5.0657 -2.3798 -2.0015 0.9765
-4.8330 -2.8227 -2.0015 0.9765
-3.9120 -4.0027 -2.0015 0.9765
-2.7112 -4.8964 -2.0015 0.9765
-2.2632 -5.1189 -2.0015 0.9765
-1.3165 -5.4399 -2.0015 0.9765
-0.3279 -5.5873 -2.0015 0.9765
0.6712 -5.5565 -2.0015 0.9765
3.4170 -4.4327 -2.0015 0.9765
5.5635 -0.6107 -2.0015 0.9765
5.5958 -0.1115 -2.0015 0.9765
5.5834 0.3887 -2.0015 0.9765
5.5264 0.8857 -2.0015 0.9765
5.4252 1.3757 -2.0015 0.9765
5.2807 1.8546 -2.0015 0.9765
4.6003 3.1879 -2.0015 0.9765
4.2972 3.5860 -2.0015 0.9765
3.5908 4.2932 -2.0015 0.9765
2.7699 4.8634 -2.0015 0.9765
1.8606 5.2786 -2.0015 0.9765
0.8920 5.5254 -2.0015 0.9765
0.3950 5.5829 -2.0015 0.9765
-0.1051 5.5959 -2.0015 0.9765
-1.0989 5.4880 -2.0015 0.9765
-2.5141 5.0005 -2.0015 0.9765
-3.7495 4.1553 -2.0015 0.9765
-4.1056 3.8039 -2.0015 0.9765
-4.4289 3.4220 -2.0015 0.9765
-4.7168 3.0129 -2.0015 0.9765
-4.9669 2.5796 -2.0015 0.9765
-5.5557 0.6775 -2.0015 0.9765
-5.5940 0.1787 -2.0015 0.9765
-5.3026 -1.7910 -2.0015 0.9765
-4.8994 -2.7057 -2.0015 0.9765
-4.3400 -3.5340 -2.0015 0.9765
-4.0071 -3.9075 -2.0015 0.9765
-3.6422 -4.2497 -2.0015 0.9765
-2.8281 -4.8298 -2.0015 0.9765
-1.4469 -5.4066 -2.0015 0.9765
-0.9583 -5.5142 -2.0015 0.9765
1.0328 -5.5008 -2.0015 0.9765
1.5199 -5.3866 -2.0015 0.9765
2.4538 -5.0303 -2.0015 0.9765
3.3095 -4.5136 -2.0015 0.9765
3.6993 -4.2000 -2.0015 0.9765
4.0596 -3.8529 -2.0015 0.9765
4.3874 -3.4750 -2.0015 0.9765
4.6802 -3.0694 -2.0015 0.9765
5.4586 -1.2366 -2.0015 0.9765
5.5911 0.2543 -2.0015 0.9765
5.3238 1.7271 -2.0015 0.9765
4.9316 2.6466 -2.0015 0.9765
4.6756 3.0764 -2.0015 0.9765
4.0538 3.8590 -2.0015 0.9765
3.6930 4.2056 -2.0015 0.9765
3.3027 4.5186 -2.0015 0.9765
2.8860 4.7954 -2.0015 0.9765
2.4462 5.0340 -2.0015 0.9765
1.5118 5.3889 -2.0015 0.9765
0.5291 5.5718 -2.0015 0.9765
-0.9666 5.5128 -2.0015 0.9765
-3.2550 4.5531 -2.0015 0.9765
-4.0130 3.9014 -2.0015 0.9765
-4.3453 3.5275 -2.0015 0.9765
-4.6430 3.1254 -2.0015 0.9765
-4.9035 2.6983 -2.0015 0.9765
-5.1249 2.2497 -2.0015 0.9765
2.3215 -4.6786 -2.0015 0.9779
2.7300 -4.4526 -2.0015 0.9779
3.4785 -3.8960 -2.0015 0.9779
3.8125 -3.5698 -2.0015 0.9779
4.1160 -3.2151 -2.0015 0.9779
4.8209 -2.0092 -2.0015 0.9779
4.9811 -1.5707 -2.0015 0.9779
5.1014 -1.1196 -2.0015 0.9779
5.1810 -0.6596 -2.0015 0.9779
5.2192 -0.1943 -2.0015 0.9779
5.2157 0.2726 -2.0015 0.9779
4.0673 3.2765 -2.0015 0.9779
3.7585 3.6266 -2.0015 0.9779
1.3768 5.0381 -2.0015 0.9779
0.9214 5.1409 -2.0015 0.9779
0.4586 5.2027 -2.0015 0.9779
-1.3918 5.0340 -2.0015 0.9779
-3.0661 4.2282 -2.0015 0.9779
-3.7693 3.6154 -2.0015 0.9779
-4.0771 3.2643 -2.0015 0.9779
-4.5927 2.4870 -2.0015 0.9779
-4.9618 1.6304 -2.0015 0.9779
-5.0876 1.1808 -2.0015 0.9779
-5.1727 0.7218 -2.0015 0.9779
-5.2186 -0.2098 -2.0015 0.9779
-5.1790 -0.6750 -2.0015 0.9779
-4.9764 -1.5855 -2.0015 0.9779
-4.8149 -2.0235 -2.0015 0.9779
-4.6150 -2.4454 -2.0015 0.9779
-4.3782 -2.8478 -2.0015 0.9779
-4.1064 -3.2273 -2.0015 0.9779
-3.8018 -3.5811 -2.0015 0.9779
-1.8799 -4.8728 -2.0015 0.9779
-1.4372 -5.0212 -2.0015 0.9779
-0.9831 -5.1295 -2.0015 0.9779
0.4116 -5.2066 -2.0015 0.9779
2.6221 -4.5169 -2.0015 0.9779
3.0150 -4.2647 -2.0015 0.9779
3.3838 -3.9785 -2.0015 0.9779
3.7255 -3.6604 -2.0015 0.9779
4.0375 -3.3131 -2.0015 0.9779
4.9419 -1.6900 -2.0015 0.9779
5.1637 -0.7839 -2.0015 0.9779
5.2131 -0.3197 -2.0015 0.9779
5.2208 0.1471 -2.0015 0.9779
5.1868 0.6127 -2.0015 0.9779
5.1114 1.0734 -2.0015 0.9779
4.6440 2.3898 -2.0015 0.9779
4.1449 3.1777 -2.0015 0.9779
3.1544 4.1627 -2.0015 0.9779
2.7701 4.4277 -2.0015 0.9779
2.3637 4.6574 -2.0015 0.9779
1.9383 4.8498 -2.0015 0.9779
1.4975 5.0036 -2.0015 0.9779
0.1178 5.2215 -2.0015 0.9779
-0.3490 5.2112 -2.0015 0.9779
-1.2704 5.0660 -2.0015 0.9779
-1.7177 4.9323 -2.0015 0.9779
-2.5677 4.5481 -2.0015 0.9779
-2.9635 4.3007 -2.0015 0.9779
-3.3357 4.0189 -2.0015 0.9779
-3.6813 3.7049 -2.0015 0.9779
-3.9974 3.3614 -2.0015 0.9779
-4.2816 2.9910 -2.0015 0.9779
-4.7454 2.1817 -2.0015 0.9779
-5.1938 -0.5503 -2.0015 0.9779
-4.8622 -1.9072 -2.0015 0.9779
-4.4454 -2.7417 -2.0015 0.9779
-4.1828 -3.1277 -2.0015 0.9779
-3.5597 -3.8218 -2.0015 0.9779
-3.2042 -4.1245 -2.0015 0.9779
-2.4195 -4.6286 -2.0015 0.9779
-1.9965 -4.8262 -2.0015 0.9779
-0.1805 -5.2197 -2.0015 0.9779
1.2094 -5.0809 -2.0015 0.9779
2.0939 -4.7847 -2.0015 0.9779
2.5128 -4.5787 -2.0015 0.9779
3.9567 -3.4092 -2.0015 0.9779
4.5000 -2.6510 -2.0015 0.9779
4.7188 -2.2386 -2.0015 0.9779
5.1433 -0.9078 -2.0015 0.9779
5.2039 -0.4449 -2.0015 0.9779
5.2228 0.0216 -2.0015 0.9779
4.7002 2.2774 -2.0015 0.9779
4.4780 2.6881 -2.0015 0.9779
3.9284 3.4417 -2.0015 0.9779
3.2536 4.0856 -2.0015 0.9779
-0.2236 5.2181 -2.0015 0.9779
-1.5986 4.9722 -2.0015 0.9779
-2.0362 4.8096 -2.0015 0.9779
-2.4576 4.6085 -2.0015 0.9779
-3.5911 3.7923 -2.0015 0.9779
-4.2085 3.0931 -2.0015 0.9779
-4.6915 2.2951 -2.0015 0.9779
-5.1321 0.9696 -2.0015 0.9779
-5.2055 -0.4253 -2.0015 0.9779
-5.1467 -0.8884 -2.0015 0.9779
-4.9066 -1.7898 -2.0015 0.9779
-4.5100 -2.6340 -2.0015 0.9779
-4.2568 -3.0262 -2.0015 0.9779
-3.9695 -3.3943 -2.0015 0.9779
-3.6506 -3.7352 -2.0015 0.9779
-3.3025 -4.0462 -2.0015 0.9779
-2.5300 -4.5692 -2.0015 0.9779
-1.6769 -4.9463 -2.0015 0.9779
-1.2285 -5.0763 -2.0015 0.9779
-0.7703 -5.1657 -2.0015 0.9779
1.0869 -5.1085 -2.0015 0.9779
2.4020 -4.6377 -2.0015 0.9779
3.1887 -4.1365 -2.0015 0.9779
3.5453 -3.8352 -2.0015 0.9779
3.8736 -3.5033 -2.0015 0.9779
4.1710 -3.1434 -2.0015 0.9779
4.4350 -2.7584 -2.0015 0.9779
4.8549 -1.9255 -2.0015 0.9779
5.1200 -1.0312 -2.0015 0.9779
5.2218 -0.1040 -2.0015 0.9779
5.0626 1.2837 -2.0015 0.9779
4.5413 2.5796 -2.0015 0.9779
4.2928 2.9749 -2.0015 0.9779
3.6952 3.6910 -2.0015 0.9779
2.9797 4.2895 -2.0015 0.9779
1.2895 5.0612 -2.0015 0.9779
0.3686 5.2098 -2.0015 0.9779
-0.0981 5.2219 -2.0015 0.9779
-0.5640 5.1923 -2.0015 0.9779
-1.0254 5.1212 -2.0015 0.9779
-1.9200 4.8571 -2.0015 0.9779
-3.1387 4.1745 -2.0015 0.9779
-3.4989 3.8776 -2.0015 0.9779
-3.8312 3.5496 -2.0015 0.9779
-4.4015 2.8115 -2.0015 0.9779
-4.6350 2.4073 -2.0015 0.9779
-4.8314 1.9837 -2.0015 0.9779
-5.2142 -0.3000 -2.0015 0.9779
-5.1666 -0.7645 -2.0015 0.9779
-5.0777 -1.2228 -2.0015 0.9779
-4.9482 -1.6713 -2.0015 0.9779
-4.7792 -2.1065 -2.0015 0.9779
-4.5720 -2.5249 -2.0015 0.9779
-4.3283 -2.9230 -2.0015 0.9779
-3.7393 -3.6463 -2.0015 0.9779
-3.3987 -3.9657 -2.0015 0.9779
-3.0311 -4.2533 -2.0015 0.9779
-2.2261 -4.7247 -2.0015 0.9779
-1.7953 -4.9046 -2.0015 0.9779
-1.3502 -5.0453 -2.0015 0.9779
-0.4312 -5.2050 -2.0015 0.9779
0.0353 -5.2227 -2.0015 0.9779
1.8615 -4.8799 -2.0015 0.9779
2.6998 -4.4709 -2.0015 0.9779
4.0942 -3.2428 -2.0015 0.9779
4.3674 -2.8642 -2.0015 0.9779
4.8073 -2.0417 -2.0015 0.9779
4.9704 -1.6042 -2.0015 0.9779
5.0938 -1.1540 -2.0015 0.9779
5.2178 -0.2295 -2.0015 0.9779
5.1754 0.7023 -2.0015 0.9779
5.0920 1.1617 -2.0015 0.9779
4.8042 2.0489 -2.0015 0.9779
4.6020 2.4697 -2.0015 0.9779
4.0893 3.2489 -2.0015 0.9779
3.7829 3.6011 -2.0015 0.9779
2.6931 4.4750 -2.0015 0.9779
2.2828 4.6976 -2.0015 0.9779
1.8542 4.8826 -2.0015 0.9779
1.4107 5.0287 -2.0015 0.9779
0.9561 5.1346 -2.0015 0.9779
-0.4390 5.2044 -2.0015 0.9779
-0.9020 5.1444 -2.0015 0.9779
-1.3578 5.0433 -2.0015 0.9779
-2.6459 4.5030 -2.0015 0.9779
-3.7448 3.6407 -2.0015 0.9779
-4.7824 2.0993 -2.0015 0.9779
0.9349 -4.8002 -2.0015 0.9791
1.3598 -4.6975 -2.0015 0.9791
1.7738 -4.5573 -2.0015 0.9791
2.1736 -4.3807 -2.0015 0.9791
2.5562 -4.1691 -2.0015 0.9791
2.9182 -3.9242 -2.0015 0.9791
3.5697 -3.3425 -2.0015 0.9791
3.8540 -3.0104 -2.0015 0.9791
4.1074 -2.6542 -2.0015 0.9791
4.6640 -1.4707 -2.0015 0.9791
4.7766 -1.0483 -2.0015 0.9791
4.8870 -0.1819 -2.0015 0.9791
4.8837 0.2552 -2.0015 0.9791
4.8414 0.6903 -2.0015 0.9791
4.6414 1.5405 -2.0015 0.9791
4.2933 2.3415 -2.0015 0.9791
4.0671 2.7155 -2.0015 0.9791
3.5192 3.3957 -2.0015 0.9791
2.8590 3.9675 -2.0015 0.9791
2.1077 4.4128 -2.0015 0.9791
1.7052 4.5834 -2.0015 0.9791
1.2891 4.7174 -2.0015 0.9791
0.4294 4.8714 -2.0015 0.9791
-1.3032 4.7135 -2.0015 0.9791
-1.7189 4.5783 -2.0015 0.9791
-2.1208 4.4065 -2.0015 0.9791
-2.5058 4.1995 -2.0015 0.9791
-2.8708 3.9590 -2.0015 0.9791
-3.2129 3.6868 -2.0015 0.9791
-4.0752 2.7034 -2.0015 0.9791
-4.3003 2.3287 -2.0015 0.9791
-4.4911 1.9354 -2.0015 0.9791
-4.7637 1.1056 -2.0015 0.9791
-1.9470 0.2717 -0.8046 0.9915
-4.3212 -2.2897 -2.0015 0.9791
-4.0994 -2.6665 -2.0015 0.9791
-3.8449 -3.0219 -2.0015 0.9791
-3.2461 -3.6576 -2.0015 0.9791
-2.9065 -3.9329 -2.0015 0.9791
-2.5437 -4.1767 -2.0015 0.9791
-1.7602 -4.5626 -2.0015 0.9791
-0.4880 -4.8659 -2.0015 0.9791
-0.0515 -4.8901 -2.0015 0.9791
1.2464 -4.7288 -2.0015 0.9791
1.6637 -4.5986 -2.0015 0.9791
2.8231 -3.9932 -2.0015 0.9791
3.1684 -3.7252 -2.0015 0.9791
3.7805 -3.1022 -2.0015 0.9791
4.0424 -2.7522 -2.0015 0.9791
4.4675 -1.9892 -2.0015 0.9791
4.6273 -1.5824 -2.0015 0.9791
4.8349 -0.7340 -2.0015 0.9791
4.6771 1.4284 -2.0015 0.9791
4.1312 2.6170 -2.0015 0.9791
3.8810 2.9754 -2.0015 0.9791
3.5998 3.3101 -2.0015 0.9791
2.9536 3.8976 -2.0015 0.9791
2.5937 4.1458 -2.0015 0.9791
1.8149 4.5411 -2.0015 0.9791
1.4021 4.6850 -2.0015 0.9791
0.9782 4.7915 -2.0015 0.9791
-0.3268 4.8794 -2.0015 0.9791
-0.7612 4.8307 -2.0015 0.9791
-1.1895 4.7435 -2.0015 0.9791
-1.6083 4.6183 -2.0015 0.9791
-2.0143 4.4562 -2.0015 0.9791
-2.7748 4.0269 -2.0015 0.9791
-3.7429 3.1474 -2.0015 0.9791
-4.0090 2.8006 -2.0015 0.9791
-4.4432 2.0428 -2.0015 0.9791
-4.6079 1.6379 -2.0015 0.9791
-4.7357 1.2198 -2.0015 0.9791
-1.9571 -0.2074 -0.8055 0.9915
-4.7977 -0.9475 -2.0015 0.9791
-4.3750 -2.1852 -2.0015 0.9791
-3.0002 -3.8619 -2.0015 0.9791
-2.6434 -4.1144 -2.0015 0.9791
-2.2654 -4.3340 -2.0015 0.9791
-1.4584 -4.6678 -2.0015 0.9791
0.2681 -4.8830 -2.0015 0.9791
0.7030 -4.8395 -2.0015 0.9791
1.1324 -4.7574 -2.0015 0.9791
2.3528 -4.2871 -2.0015 0.9791
3.0779 -3.8003 -2.0015 0.9791
3.4049 -3.5102 -2.0015 0.9791
4.2135 -2.4822 -2.0015 0.9791
4.4184 -2.0960 -2.0015 0.9791
4.7208 -1.2767 -2.0015 0.9791
4.8726 -0.4166 -2.0015 0.9791
4.8087 0.8897 -2.0015 0.9791
4.7100 1.3156 -2.0015 0.9791
4.5738 1.7309 -2.0015 0.9791
4.4009 2.1324 -2.0015 0.9791
3.6783 3.2226 -2.0015 0.9791
3.3759 3.5382 -2.0015 0.9791
2.3173 4.3064 -2.0015 0.9791
1.9235 4.4961 -2.0015 0.9791
1.5144 4.6500 -2.0015 0.9791
1.0931 4.7666 -2.0015 0.9791
0.2278 4.8850 -2.0015 0.9791
-0.2094 4.8858 -2.0015 0.9791
-1.0751 4.7707 -2.0015 0.9791
-1.9066 4.5034 -2.0015 0.9791
-2.3011 4.3151 -2.0015 0.9791
-3.6662 3.2365 -2.0015 0.9791
-4.7050 1.3333 -2.0015 0.9791
-2.2047 0.4165 -0.9183 0.9903
-4.5942 -1.6758 -2.0015 0.9791
-3.0922 -3.7886 -2.0015 0.9791
-2.7415 -4.0496 -2.0015 0.9791
-1.1503 -4.7531 -2.0015 0.9791
-0.2865 -4.8819 -2.0015 0.9791
0.1506 -4.8880 -2.0015 0.9791
1.8523 -4.5260 -2.0015 0.9791
2.2491 -4.3425 -2.0015 0.9791
2.6279 -4.1243 -2.0015 0.9791
2.9857 -3.8731 -2.0015 0.9791
3.3196 -3.5911 -2.0015 0.9791
3.9054 -2.9433 -2.0015 0.9791
4.5459 -1.8029 -2.0015 0.9791
4.7941 -0.9656 -2.0015 0.9791
4.8785 0.3396 -2.0015 0.9791
4.8287 0.7739 -2.0015 0.9791
4.6140 1.6205 -2.0015 0.9791
4.4509 2.0260 -2.0015 0.9791
4.0195 2.7854 -2.0015 0.9791
3.4599 3.4560 -2.0015 0.9791
2.7900 4.0164 -2.0015 0.9791
2.4202 4.2495 -2.0015 0.9791
2.0311 4.4486 -2.0015 0.9791
0.7794 4.8278 -2.0015 0.9791
-0.5281 4.8617 -2.0015 0.9791
-0.9601 4.7952 -2.0015 0.9791
-1.3845 4.6903 -2.0015 0.9791
-2.1967 4.3692 -2.0015 0.9791
-2.5781 4.1556 -2.0015 0.9791
-2.9389 3.9087 -2.0015 0.9791
-3.5873 3.3236 -2.0015 0.9791
-4.6716 1.4461 -2.0015 0.9791
-4.7821 1.0231 -2.0015 0.9791
-1.9279 0.0616 -0.7894 0.9917
-1.9454 -0.1119 -0.7975 0.9916
-1.9435 -0.2876 -0.8041 0.9915
-4.6332 -1.5649 -2.0015 0.9791
-4.4749 -1.9724 -2.0015 0.9791
-4.2809 -2.3641 -2.0015 0.9791
-4.0527 -2.7369 -2.0015 0.9791
-3.5012 -3.4142 -2.0015 0.9791
-3.1824 -3.7132 -2.0015 0.9791
-2.8381 -3.9825 -2.0015 0.9791
-2.0844 -4.4239 -2.0015 0.9791
-1.2642 -4.7241 -2.0015 0.9791
-0.8373 -4.8181 -2.0015 0.9791
-0.4037 -4.8736 -2.0015 0.9791
0.0331 -4.8902 -2.0015 0.9791
0.9024 -4.8063 -2.0015 0.9791
2.1440 -4.3953 -2.0015 0.9791
2.5280 -4.1863 -2.0015 0.9791
3.2323 -3.6698 -2.0015 0.9791
3.8335 -3.0363 -2.0015 0.9791
4.0894 -2.6819 -2.0015 0.9791
4.3125 -2.3060 -2.0015 0.9791
4.8856 -0.2149 -2.0015 0.9791
4.7678 1.0877 -2.0015 0.9791
4.6517 1.5091 -2.0015 0.9791
4.4983 1.9185 -2.0015 0.9791
4.3090 2.3125 -2.0015 0.9791
4.0853 2.6880 -2.0015 0.9791
3.8290 3.0421 -2.0015 0.9791
3.5420 3.3719 -2.0015 0.9791
3.2268 3.6747 -2.0015 0.9791
2.8858 3.9481 -2.0015 0.9791
2.5217 4.1901 -2.0015 0.9791
1.7361 4.5718 -2.0015 0.9791
1.3209 4.7086 -2.0015 0.9791
0.8952 4.8077 -2.0015 0.9791
0.4623 4.8684 -2.0015 0.9791
-0.4111 4.8730 -2.0015 0.9791
-1.6879 4.5898 -2.0015 0.9791
-2.0910 4.4207 -2.0015 0.9791
-2.4775 4.2163 -2.0015 0.9791
-2.8441 3.9783 -2.0015 0.9791
-3.5064 3.4089 -2.0015 0.9791
-4.2845 2.3577 -2.0015 0.9791
-4.4779 1.9657 -2.0015 0.9791
1.6658 -4.2798 -2.0015 0.9802
2.0413 -4.1139 -2.0015 0.9802
2.4005 -3.9152 -2.0015 0.9802
3.0586 -3.4258 -2.0015 0.9802
3.3523 -3.1389 -2.0015 0.9802
4.3799 -1.3811 -2.0015 0.9802
4.4857 -0.9845 -2.0015 0.9802
4.5893 -0.1708 -2.0015 0.9802
4.4705 1.0516 -2.0015 0.9802
4.3587 1.4466 -2.0015 0.9802
3.8194 2.5501 -2.0015 0.9802
3.5764 2.8810 -2.0015 0.9802
3.3049 3.1889 -2.0015 0.9802
3.0069 3.4713 -2.0015 0.9802
2.6849 3.7259 -2.0015 0.9802
0.8102 4.5205 -2.0015 0.9802
-0.0069 4.5925 -2.0015 0.9802
-0.4169 4.5735 -2.0015 0.9802
-1.9917 4.1382 -2.0015 0.9802
-3.0172 3.4623 -2.0015 0.9802
-3.5850 2.8704 -2.0015 0.9802
-4.0384 2.1869 -2.0015 0.9802
-4.2175 1.8175 -2.0015 0.9802
-1.5165 0.2116 -0.6673 0.9933
-1.5288 -0.0615 -0.6668 0.9933
-1.5194 -0.1980 -0.6678 0.9933
-1.5253 -0.3395 -0.6810 0.9932
-1.5821 -0.5041 -0.7237 0.9928
-4.2338 -1.7793 -2.0015 0.9802
-3.8498 -2.5041 -2.0015 0.9802
-3.3430 -3.1489 -2.0015 0.9802
-3.0484 -3.4349 -2.0015 0.9802
-2.0290 -4.1200 -2.0015 0.9802
-1.6530 -4.2847 -2.0015 0.9802
-1.2638 -4.4152 -2.0015 0.9802
-0.0484 -4.5923 -2.0015 0.9802
0.3619 -4.5782 -2.0015 0.9802
1.1705 -4.4408 -2.0015 0.9802
4.0118 -2.2353 -2.0015 0.9802
4.1954 -1.8681 -2.0015 0.9802
4.5405 -0.6893 -2.0015 0.9802
4.5839 -0.2811 -2.0015 0.9802
4.4945 0.9439 -2.0015 0.9802
4.3922 1.3414 -2.0015 0.9802
3.8796 2.4576 -2.0015 0.9802
3.6446 2.7942 -2.0015 0.9802
3.3806 3.1085 -2.0015 0.9802
2.7737 3.6603 -2.0015 0.9802
2.0784 4.0953 -2.0015 0.9802
0.9186 4.4997 -2.0015 0.9802
0.5131 4.5637 -2.0015 0.9802
-0.7148 4.5365 -2.0015 0.9802
-1.8916 4.1848 -2.0015 0.9802
-3.5150 2.9557 -2.0015 0.9802
-3.7649 2.6300 -2.0015 0.9802
-1.5945 0.5667 -0.7375 0.9926
-4.1085 -2.0521 -2.0015 0.9802
-3.9088 -2.4108 -2.0015 0.9802
-3.6780 -2.7502 -2.0015 0.9802
-2.8175 -3.6267 -2.0015 0.9802
-2.1274 -4.0700 -2.0015 0.9802
-1.7555 -4.2437 -2.0015 0.9802
-0.9726 -4.4883 -2.0015 0.9802
-0.1587 -4.5898 -2.0015 0.9802
0.2518 -4.5856 -2.0015 0.9802
1.0634 -4.4677 -2.0015 0.9802
2.2095 -4.0260 -2.0015 0.9802
3.7330 -2.6751 -2.0015 0.9802
4.4333 -1.1989 -2.0015 0.9802
4.5226 -0.7983 -2.0015 0.9802
4.5758 -0.3912 -2.0015 0.9802
4.5925 0.0190 -2.0015 0.9802
4.2952 1.6255 -2.0015 0.9802
3.7108 2.7058 -2.0015 0.9802
2.8609 3.5925 -2.0015 0.9802
2.1762 4.0441 -2.0015 0.9802
1.4221 4.3668 -2.0015 0.9802
0.2139 4.5875 -2.0015 0.9802
-0.6055 4.5524 -2.0015 0.9802
-1.0096 4.4801 -2.0015 0.9802
-2.1610 4.0523 -2.0015 0.9802
-3.1577 3.3346 -2.0015 0.9802
-3.4429 3.0394 -2.0015 0.9802
-3.7005 2.7198 -2.0015 0.9802
-3.9286 2.3785 -2.0015 0.9802
-4.2890 1.6417 -2.0015 0.9802
-1.5653 0.4436 -0.7090 0.9929
-1.4974 0.2829 -0.6642 0.9934
-1.5266 0.1490 -0.6685 0.9933
-1.5037 -0.2596 -0.6651 0.9934
-1.5554 -0.4144 -0.7015 0.9930
-1.5967 -0.5824 -0.7407 0.9926
-3.9657 -2.3161 -2.0015 0.9802
-2.5746 -3.8030 -2.0015 0.9802
-1.4745 -4.3494 -2.0015 0.9802
-0.2690 -4.5846 -2.0015 0.9802
0.5508 -4.5594 -2.0015 0.9802
0.9557 -4.4920 -2.0015 0.9802
1.3530 -4.3887 -2.0015 0.9802
1.7395 -4.2503 -2.0015 0.9802
2.8038 -3.6373 -2.0015 0.9802
3.1174 -3.3724 -2.0015 0.9802
3.4061 -3.0805 -2.0015 0.9802
4.2690 -1.6931 -2.0015 0.9802
4.5021 -0.9068 -2.0015 0.9802
4.5651 -0.5011 -2.0015 0.9802
4.5916 -0.0915 -2.0015 0.9802
4.5814 0.3189 -2.0015 0.9802
4.5346 0.7268 -2.0015 0.9802
3.9932 2.2683 -2.0015 0.9802
3.7747 2.6158 -2.0015 0.9802
3.5261 2.9424 -2.0015 0.9802
3.2492 3.2455 -2.0015 0.9802
2.9464 3.5227 -2.0015 0.9802
1.9074 4.1777 -2.0015 0.9802
1.5267 4.3313 -2.0015 0.9802
1.1338 4.4503 -2.0015 0.9802
0.7319 4.5338 -2.0015 0.9802
0.3241 4.5810 -2.0015 0.9802
-0.0862 4.5917 -2.0015 0.9802
-1.3002 4.4046 -2.0015 0.9802
-2.0629 4.1031 -2.0015 0.9802
-2.4211 3.9025 -2.0015 0.9802
-2.7599 3.6707 -2.0015 0.9802
-3.0767 3.4096 -2.0015 0.9802
-3.3688 3.1212 -2.0015 0.9802
-4.0756 2.1167 -2.0015 0.9802
-4.2483 1.7443 -2.0015 0.9802
-1.5782 0.4885 -0.7200 0.9928
-1.5185 0.3249 -0.6768 0.9932
-1.5216 0.1856 -0.6681 0.9933
-1.5280 0.0488 -0.6663 0.9934
-1.5296 -0.0880 -0.6677 0.9933
-1.5137 -0.2240 -0.6669 0.9933
-1.5388 -0.3706 -0.6898 0.9931
-4.2024 -1.8523 -2.0015 0.9802
-3.8059 -2.5703 -2.0015 0.9802
-3.2880 -3.2063 -2.0015 0.9802
-1.9575 -4.1544 -2.0015 0.9802
-1.1872 -4.4364 -2.0015 0.9802
-0.7863 -4.5247 -2.0015 0.9802
-0.3792 -4.5768 -2.0015 0.9802
0.0311 -4.5924 -2.0015 0.9802
0.4410 -4.5713 -2.0015 0.9802
1.6368 -4.2909 -2.0015 0.9802
2.0135 -4.1276 -2.0015 0.9802
3.0355 -3.4463 -2.0015 0.9802
3.3311 -3.1615 -2.0015 0.9802
4.0499 -2.1656 -2.0015 0.9802
4.2271 -1.7953 -2.0015 0.9802
4.4790 -1.0147 -2.0015 0.9802
4.4775 1.0215 -2.0015 0.9802
4.3684 1.4172 -2.0015 0.9802
4.0466 2.1716 -2.0015 0.9802
3.5958 2.8568 -2.0015 0.9802
3.3263 3.1665 -2.0015 0.9802
2.0073 4.1306 -2.0015 0.9802
1.2405 4.4218 -2.0015 0.9802
0.8407 4.5149 -2.0015 0.9802
0.0242 4.5924 -2.0015 0.9802
-0.7931 4.5235 -2.0015 0.9802
-1.5851 4.3103 -2.0015 0.9802
-1.9637 4.1515 -2.0015 0.9802
-3.2928 3.2013 -2.0015 0.9802
-3.5655 2.8945 -2.0015 0.9802
-4.0235 2.2141 -2.0015 0.9802
-4.2052 1.8459 -2.0015 0.9802
0.8207 -4.2140 -1.9872 0.9813
1.2023 -4.1534 -2.0015 0.9811
2.8798 -3.2254 -2.0015 0.9811
3.4076 -2.6617 -2.0015 0.9811
4.1238 -1.3003 -2.0015 0.9811
4.2893 -0.5461 -2.0015 0.9811
4.3210 -0.1608 -2.0015 0.9811
4.3181 0.2256 -2.0015 0.9811
4.2091 0.9901 -2.0015 0.9811
3.7961 2.0703 -2.0015 0.9811
3.1116 3.0024 -2.0015 0.9811
2.8311 3.2683 -2.0015 0.9811
2.2046 3.7197 -2.0015 0.9811
1.8636 3.9017 -2.0015 0.9811
1.5077 4.0526 -2.0015 0.9811
1.1398 4.1710 -2.0015 0.9811
0.3797 4.3072 -2.0015 0.9811
