ply
format ascii 1.0
element vertex 1592
property float32 x
property float32 y
property float32 z
property float32 I
end_header
-5.2569 9.9186 -1.8493 0.9555
-6.1204 9.4103 -1.8493 0.9555
-9.0835 8.0684 -2.0015 0.9519
-10.3722 6.3266 -2.0015 0.9519
-10.8950 5.3765 -2.0015 0.9519
-11.6768 3.3558 -2.0015 0.9519
-11.9295 2.3012 -2.0015 0.9519
-12.0872 1.2283 -2.0015 0.9519
-12.1486 0.1456 -2.0015 0.9519
-11.7539 -3.0750 -2.0015 0.9519
-11.4329 -4.1108 -2.0015 0.9519
-9.9372 -6.9901 -2.0015 0.9519
-8.5375 -8.6441 -2.0015 0.9519
-6.8663 -10.0231 -2.0015 0.9519
-5.9452 -10.5954 -2.0015 0.9519
-4.9768 -11.0834 -2.0015 0.9519
1.2814 -11.2242 -1.8611 0.9552
2.3089 -11.2194 -1.8870 0.9546
5.5079 -10.8210 -2.0003 0.9520
7.3469 -9.6764 -2.0015 0.9519
8.1804 -8.9827 -2.0015 0.9519
8.9488 -8.2175 -2.0015 0.9519
10.8046 -5.5560 -2.0015 0.9519
11.6197 -3.5485 -2.0015 0.9519
12.1445 -0.3465 -2.0015 0.9519
12.1270 0.7377 -2.0015 0.9519
11.8031 2.8801 -2.0015 0.9519
11.4993 3.9211 -2.0015 0.9519
11.1039 4.9309 -2.0015 0.9519
10.6200 5.9013 -2.0015 0.9519
10.0514 6.8248 -2.0015 0.9519
9.3697 7.6667 -1.9944 0.9521
7.2869 8.5390 -1.8493 0.9555
4.7671 10.1631 -1.8493 0.9555
3.8419 10.5477 -1.8493 0.9555
2.8860 10.8482 -1.8493 0.9555
-2.0806 11.0311 -1.8493 0.9555
-4.0069 10.4861 -1.8493 0.9555
-4.9260 10.0870 -1.8493 0.9555
-8.0307 9.1168 -2.0015 0.9519
-8.8117 8.3644 -2.0015 0.9519
-10.7112 5.7339 -2.0015 0.9519
-11.5594 3.7402 -2.0015 0.9519
-11.8469 2.6945 -2.0015 0.9519
-12.0399 1.6274 -2.0015 0.9519
-12.1376 -0.5371 -2.0015 0.9519
-12.0413 -1.6173 -2.0015 0.9519
-11.8491 -2.6845 -2.0015 0.9519
-10.1629 -6.6576 -2.0015 0.9519
-8.8187 -8.3570 -2.0015 0.9519
-8.0384 -9.1100 -2.0015 0.9519
-7.1941 -9.7905 -2.0015 0.9519
-6.2924 -10.3930 -2.0015 0.9519
-5.3406 -10.9127 -2.0015 0.9519
1.9249 -11.2215 -1.8756 0.9549
6.1108 -10.5008 -2.0015 0.9519
7.0228 -9.9141 -2.0015 0.9519
7.8788 -9.2484 -2.0015 0.9519
9.3963 -7.7018 -2.0015 0.9519
10.6150 -5.9103 -2.0015 0.9519
11.0997 -4.9403 -2.0015 0.9519
12.0114 -1.8263 -2.0015 0.9519
12.1264 -0.7480 -2.0015 0.9519
12.1448 0.3363 -2.0015 0.9519
11.6227 3.5386 -2.0015 0.9519
11.2609 4.5609 -2.0015 0.9519
10.2717 6.4886 -2.0015 0.9519
9.6423 7.3711 -1.9994 0.9520
7.5654 8.2933 -1.8493 0.9555
5.9720 9.5052 -1.8493 0.9555
5.1006 9.9998 -1.8493 0.9555
2.2721 10.9932 -1.8493 0.9555
1.2827 11.1520 -1.8493 0.9555
0.2832 11.2220 -1.8493 0.9555
-0.7186 11.2025 -1.8493 0.9555
-1.7146 11.0938 -1.8493 0.9555
-2.6970 10.8968 -1.8493 0.9555
-5.4849 9.7944 -1.8493 0.9555
-6.3364 9.2663 -1.8493 0.9555
-7.7027 9.3506 -1.9958 0.9521
-8.5302 8.6513 -2.0015 0.9519
-9.2676 7.8562 -2.0015 0.9519
-11.7513 3.0849 -2.0015 0.9519
-11.9795 2.0247 -2.0015 0.9519
-12.1124 0.9485 -2.0015 0.9519
-12.1487 -0.1354 -2.0015 0.9519
-11.6796 -3.3459 -2.0015 0.9519
-11.3348 -4.3740 -2.0015 0.9519
-10.8996 -5.3673 -2.0015 0.9519
-10.3776 -6.3179 -2.0015 0.9519
-9.7729 -7.2180 -2.0015 0.9519
-9.0903 -8.0607 -2.0015 0.9519
-8.3354 -8.8392 -2.0015 0.9519
-7.5140 -9.5472 -2.0015 0.9519
-6.6327 -10.1792 -2.0015 0.9519
-5.6986 -10.7301 -2.0015 0.9519
-4.7173 -11.1912 -2.0007 0.9520
-3.6277 -11.3392 -1.9613 0.9529
2.5803 -11.2177 -1.8963 0.9544
4.7679 -11.1321 -1.9950 0.9521
6.6910 -10.1410 -2.0015 0.9519
7.5687 -9.5039 -2.0015 0.9519
9.1364 -8.0084 -2.0015 0.9519
9.8141 -7.1618 -2.0015 0.9519
10.4137 -6.2582 -2.0015 0.9519
10.9302 -5.3047 -2.0015 0.9519
11.3597 -4.3089 -2.0015 0.9519
11.6987 -3.2788 -2.0015 0.9519
11.9444 -2.2226 -2.0015 0.9519
12.1493 -0.0656 -2.0015 0.9519
12.1067 1.0180 -2.0015 0.9519
11.9677 2.0935 -2.0015 0.9519
11.7334 3.1523 -2.0015 0.9519
11.4056 4.1860 -2.0015 0.9519
10.9869 5.1863 -2.0015 0.9519
10.4806 6.1453 -2.0015 0.9519
8.9873 7.7077 -1.9505 0.9531
7.0875 8.7052 -1.8493 0.9555
5.4285 9.8257 -1.8493 0.9555
3.5969 10.6337 -1.8493 0.9555
2.6344 10.9121 -1.8493 0.9555
1.6509 11.1035 -1.8493 0.9555
-0.3476 11.2202 -1.8493 0.9555
-2.3351 10.9800 -1.8493 0.9555
-10.8410 5.4847 -2.0015 0.9519
-11.2869 4.4962 -2.0015 0.9519
-11.6428 3.4718 -2.0015 0.9519
-12.0744 1.3486 -2.0015 0.9519
-12.1465 0.2665 -2.0015 0.9519
-12.1219 -0.8176 -2.0015 0.9519
-12.0007 -1.8953 -2.0015 0.9519
-11.7839 -2.9578 -2.0015 0.9519
-11.4732 -3.9968 -2.0015 0.9519
-11.0711 -5.0039 -2.0015 0.9519
-9.3519 -7.7556 -2.0015 0.9519
-7.8256 -9.2935 -2.0015 0.9519
-6.9658 -9.9543 -2.0015 0.9519
-6.0504 -10.5357 -2.0015 0.9519
0.1621 -11.2314 -1.8505 0.9555
2.1929 -11.2201 -1.8834 0.9547
4.3653 -11.2021 -1.9806 0.9524
7.2502 -9.7491 -2.0015 0.9519
10.2010 -6.5992 -2.0015 0.9519
11.2110 -4.6823 -2.0015 0.9519
11.5838 -3.6640 -2.0015 0.9519
12.0504 -1.5481 -2.0015 0.9519
12.1405 -0.4674 -2.0015 0.9519
12.1338 0.6170 -2.0015 0.9519
12.0304 1.6965 -2.0015 0.9519
11.8312 2.7625 -2.0015 0.9519
11.5378 3.8064 -2.0015 0.9519
10.1189 6.7244 -2.0015 0.9519
7.3716 8.4660 -1.8493 0.9555
5.7506 9.6408 -1.8493 0.9555
3.9467 10.5089 -1.8493 0.9555
2.9939 10.8190 -1.8493 0.9555
2.0172 11.0428 -1.8493 0.9555
1.0245 11.1787 -1.8493 0.9555
8.6637 -6.1911 -2.0015 0.9576
9.9933 -3.6773 -2.0015 0.9576
10.6016 0.9978 -2.0015 0.9576
10.2558 2.8651 -2.0015 0.9576
8.6070 6.2697 -2.0015 0.9576
8.0136 7.0122 -2.0015 0.9576
7.3302 7.6714 -1.9943 0.9577
4.6719 8.6587 -1.8493 0.9607
2.2136 9.5864 -1.8493 0.9607
-0.4026 9.8305 -1.8493 0.9607
-4.6074 8.6932 -1.8493 0.9607
-5.3643 8.2477 -1.8493 0.9607
-7.2990 7.7533 -2.0015 0.9576
-7.9613 7.0716 -2.0015 0.9576
-9.0908 5.5450 -2.0015 0.9576
-9.5490 4.7123 -2.0015 0.9576
-9.9312 3.8420 -2.0015 0.9576
-10.2342 2.9412 -2.0015 0.9576
-10.5939 1.0766 -2.0015 0.9576
-10.6477 0.1276 -2.0015 0.9576
-10.5010 -1.7657 -2.0015 0.9576
-10.3017 -2.6950 -2.0015 0.9576
-9.6592 -4.4821 -2.0015 0.9576
-9.2211 -5.3255 -2.0015 0.9576
-6.7774 -8.2132 -2.0015 0.9576
-5.2107 -9.2864 -2.0015 0.9576
-1.6354 -10.5221 -2.0015 0.9576
-0.6906 -10.6260 -2.0015 0.9576
2.1464 -10.4299 -2.0015 0.9576
3.0679 -10.1969 -2.0015 0.9576
3.9649 -9.8828 -2.0015 0.9576
4.8303 -9.4898 -2.0015 0.9576
8.4542 -6.4742 -2.0015 0.9576
9.8663 -4.0058 -2.0015 0.9576
10.4209 -2.1896 -2.0015 0.9576
10.6441 -0.3037 -2.0015 0.9576
10.3449 2.5243 -2.0015 0.9576
10.0786 3.4367 -2.0015 0.9576
9.3079 5.1723 -2.0015 0.9576
7.5948 7.4394 -1.9983 0.9577
5.6939 8.0237 -1.8493 0.9607
4.9557 8.4994 -1.8493 0.9607
0.8004 9.8061 -1.8493 0.9607
-0.9542 9.7923 -1.8493 0.9607
-1.8235 9.6682 -1.8493 0.9607
-2.6784 9.4671 -1.8493 0.9607
-4.3174 8.8408 -1.8493 0.9607
-5.0885 8.4206 -1.8493 0.9607
-7.0386 7.9905 -2.0015 0.9576
-7.7230 7.3310 -2.0015 0.9576
-8.9024 5.8426 -2.0015 0.9576
-9.3879 5.0255 -2.0015 0.9576
-9.7987 4.1684 -2.0015 0.9576
-10.3833 2.3616 -2.0015 0.9576
-10.6380 -0.4707 -2.0015 0.9576
-10.5537 -1.4174 -2.0015 0.9576
-10.3852 -2.3529 -2.0015 0.9576
-9.3922 -5.0176 -2.0015 0.9576
-8.3516 -6.6061 -2.0015 0.9576
-7.7292 -7.3245 -2.0015 0.9576
-7.0453 -7.9845 -2.0015 0.9576
-6.3053 -8.5809 -2.0015 0.9576
-5.5150 -9.1090 -2.0015 0.9576
-4.6808 -9.5645 -2.0015 0.9576
-3.8093 -9.9438 -2.0015 0.9576
-2.9075 -10.2438 -2.0015 0.9576
-1.0417 -10.5974 -2.0015 0.9576
0.8573 -10.6139 -2.0015 0.9576
1.8003 -10.4952 -2.0015 0.9576
6.9055 -8.1058 -2.0015 0.9576
8.2355 -6.7503 -2.0015 0.9576
8.8046 -5.9891 -2.0015 0.9576
10.3428 -2.5330 -2.0015 0.9576
10.6282 -0.6556 -2.0015 0.9576
10.5757 1.2427 -2.0015 0.9576
10.4227 2.1808 -2.0015 0.9576
8.4597 6.4671 -2.0015 0.9576
7.8493 7.1957 -2.0015 0.9576
4.4704 8.7644 -1.8493 0.9607
2.8426 9.4191 -1.8493 0.9607
1.1243 9.7743 -1.8493 0.9607
-0.6298 9.8185 -1.8493 0.9607
-1.5028 9.7233 -1.8493 0.9607
-2.3638 9.5505 -1.8493 0.9607
-3.2060 9.3017 -1.8493 0.9607
-4.8072 8.5843 -1.8493 0.9607
-5.6759 8.3005 -1.8900 0.9599
-6.7704 8.2189 -2.0015 0.9576
-7.4763 7.5825 -2.0015 0.9576
-8.7043 6.1339 -2.0015 0.9576
-9.6554 4.4902 -2.0015 0.9576
-10.0174 3.6114 -2.0015 0.9576
-10.2995 2.7038 -2.0015 0.9576
-10.6159 0.8313 -2.0015 0.9576
-10.6478 -0.1186 -2.0015 0.9576
-10.4574 -2.0081 -2.0015 0.9576
-9.5530 -4.7042 -2.0015 0.9576
-9.0955 -5.5373 -2.0015 0.9576
-8.5655 -6.3263 -2.0015 0.9576
-7.9673 -7.0648 -2.0015 0.9576
-7.3056 -7.7471 -2.0015 0.9576
-6.5857 -8.3677 -2.0015 0.9576
-4.9946 -9.4044 -2.0015 0.9576
-3.2447 -10.1420 -2.0015 0.9576
-2.3274 -10.3910 -2.0015 0.9576
-1.3916 -10.5571 -2.0015 0.9576
-0.4447 -10.6391 -2.0015 0.9576
2.3870 -10.3775 -2.0015 0.9576
3.3029 -10.1233 -2.0015 0.9576
5.0485 -9.3756 -2.0015 0.9576
6.6336 -8.3298 -2.0015 0.9576
7.3499 -7.7051 -2.0015 0.9576
8.0077 -7.0190 -2.0015 0.9576
8.6017 -6.2770 -2.0015 0.9576
9.1271 -5.4850 -2.0015 0.9576
9.5798 -4.6493 -2.0015 0.9576
10.2533 -2.8737 -2.0015 0.9576
10.6007 -1.0068 -2.0015 0.9576
10.6110 0.8922 -2.0015 0.9576
10.4892 1.8348 -2.0015 0.9576
10.2838 2.7628 -2.0015 0.9576
9.9965 3.6688 -2.0015 0.9576
9.1858 5.3861 -2.0015 0.9576
8.6689 6.1837 -2.0015 0.9576
6.2873 7.7222 -1.8717 0.9603
5.5068 8.1532 -1.8493 0.9607
2.3089 9.5639 -1.8493 0.9607
1.4469 9.7317 -1.8493 0.9607
-1.1804 9.7676 -1.8493 0.9607
-2.8966 9.4027 -1.8493 0.9607
-4.5207 8.7386 -1.8493 0.9607
-6.4825 8.4222 -1.9977 0.9577
-8.4967 6.4184 -2.0015 0.9576
-9.0351 5.6352 -2.0015 0.9576
-9.5016 4.8071 -2.0015 0.9576
-10.2044 3.0429 -2.0015 0.9576
-10.6243 -0.7166 -2.0015 0.9576
-10.5181 -1.6611 -2.0015 0.9576
-10.3281 -2.5924 -2.0015 0.9576
-8.7700 -6.0395 -2.0015 0.9576
-8.1966 -6.7975 -2.0015 0.9576
-7.5578 -7.5013 -2.0015 0.9576
-6.8588 -8.1453 -2.0015 0.9576
-6.1052 -8.7245 -2.0015 0.9576
-5.3029 -9.2341 -2.0015 0.9576
1.1025 -10.5912 -2.0015 0.9576
2.0425 -10.4507 -2.0015 0.9576
2.9662 -10.2270 -2.0015 0.9576
4.7356 -9.5374 -2.0015 0.9576
7.0910 -7.9440 -2.0015 0.9576
8.3893 -6.5581 -2.0015 0.9576
9.4208 -4.9636 -2.0015 0.9576
9.8259 -4.1038 -2.0015 0.9576
10.3986 -2.2932 -2.0015 0.9576
10.5616 -1.3568 -2.0015 0.9576
10.6406 -0.4096 -2.0015 0.9576
10.6347 0.5408 -2.0015 0.9576
10.1123 3.3362 -2.0015 0.9576
9.3589 5.0793 -2.0015 0.9576
8.8687 5.8936 -2.0015 0.9576
7.6732 7.3679 -1.9995 0.9576
6.7158 7.7129 -1.9223 0.9592
2.6240 9.4823 -1.8493 0.9607
1.7680 9.6785 -1.8493 0.9607
0.8979 9.7976 -1.8493 0.9607
0.0207 9.8387 -1.8493 0.9607
-1.7272 9.6859 -1.8493 0.9607
5.9721 -7.3478 -2.0015 0.9620
7.7039 -5.5052 -2.0015 0.9620
8.1641 -4.7963 -2.0015 0.9620
8.5592 -4.0492 -2.0015 0.9620
8.8862 -3.2699 -2.0015 0.9620
9.1423 -2.4645 -2.0015 0.9620
9.3257 -1.6394 -2.0015 0.9620
9.4347 -0.8013 -2.0015 0.9620
9.4686 0.0431 -2.0015 0.9620
9.4270 0.8872 -2.0015 0.9620
9.1195 2.5476 -2.0015 0.9620
8.8560 3.3507 -2.0015 0.9620
8.1200 4.8704 -2.0015 0.9620
7.1258 6.2353 -2.0015 0.9620
6.5414 6.8459 -2.0015 0.9620
5.8978 7.3929 -1.9991 0.9621
5.0946 7.7072 -1.9529 0.9629
3.4512 8.0392 -1.8493 0.9649
2.7206 8.3149 -1.8493 0.9649
0.4229 8.7384 -1.8493 0.9649
-3.3914 8.0646 -1.8493 0.9649
-4.1647 7.8578 -1.8799 0.9643
-5.1506 7.9192 -1.9969 0.9621
-5.8497 7.4456 -2.0015 0.9620
-7.0792 6.2881 -2.0015 0.9620
-8.0836 4.9306 -2.0015 0.9620
-8.8309 3.4164 -2.0015 0.9620
-9.2973 1.7935 -2.0015 0.9620
-9.4680 0.1135 -2.0015 0.9620
-9.1604 -2.3965 -2.0015 0.9620
-7.7446 -5.4477 -2.0015 0.9620
-6.0265 -7.3032 -2.0015 0.9620
-5.3513 -7.8115 -2.0015 0.9620
-4.6334 -8.2576 -2.0015 0.9620
-3.0930 -8.9493 -2.0015 0.9620
-2.2827 -9.1894 -2.0015 0.9620
1.0740 -9.4076 -2.0015 0.9620
6.3754 -7.0007 -2.0015 0.9620
6.9743 -6.4043 -2.0015 0.9620
7.5176 -5.7569 -2.0015 0.9620
8.0009 -5.0637 -2.0015 0.9620
8.7732 -3.5620 -2.0015 0.9620
9.4030 -1.1130 -2.0015 0.9620
9.4512 0.5750 -2.0015 0.9620
9.1988 2.2446 -2.0015 0.9620
8.9620 3.0559 -2.0015 0.9620
8.6538 3.8429 -2.0015 0.9620
8.2767 4.5992 -2.0015 0.9620
7.8336 5.3189 -2.0015 0.9620
6.1465 7.2025 -2.0015 0.9620
3.7152 7.9206 -1.8493 0.9649
2.9942 8.2203 -1.8493 0.9649
2.2492 8.4546 -1.8493 0.9649
1.4864 8.6215 -1.8493 0.9649
0.7117 8.7197 -1.8493 0.9649
-0.0686 8.7484 -1.8493 0.9649
-0.8485 8.7074 -1.8493 0.9649
-3.8391 7.8613 -1.8493 0.9649
-5.6003 7.6350 -2.0015 0.9620
-6.2588 7.1052 -2.0015 0.9620
-6.8674 6.5188 -2.0015 0.9620
-7.4213 5.8805 -2.0015 0.9620
-8.7130 3.7066 -2.0015 0.9620
-9.0088 2.9149 -2.0015 0.9620
-9.2329 2.1000 -2.0015 0.9620
-9.3834 1.2683 -2.0015 0.9620
-9.4591 0.4266 -2.0015 0.9620
-9.4594 -0.4186 -2.0015 0.9620
-9.2347 -2.0922 -2.0015 0.9620
-9.0113 -2.9073 -2.0015 0.9620
-8.3516 -4.4617 -2.0015 0.9620
-7.4263 -5.8742 -2.0015 0.9620
-6.2648 -7.0999 -2.0015 0.9620
-5.6067 -7.6302 -2.0015 0.9620
-4.1622 -8.5048 -2.0015 0.9620
-3.3873 -8.8421 -2.0015 0.9620
-2.5854 -9.1089 -2.0015 0.9620
-0.9262 -9.4233 -2.0015 0.9620
2.4266 -9.1525 -2.0015 0.9620
4.7625 -8.1838 -2.0015 0.9620
8.2728 -4.6062 -2.0015 0.9620
8.6506 -3.8502 -2.0015 0.9620
8.9594 -3.0635 -2.0015 0.9620
9.1969 -2.2524 -2.0015 0.9620
9.3611 -1.4233 -2.0015 0.9620
9.4507 -0.5830 -2.0015 0.9620
9.4651 0.2621 -2.0015 0.9620
9.4040 1.1050 -2.0015 0.9620
9.0582 2.7578 -2.0015 0.9620
8.7762 3.5545 -2.0015 0.9620
6.3813 6.9953 -2.0015 0.9620
5.7191 7.5193 -1.9969 0.9621
4.8455 7.7123 -1.9253 0.9634
3.9752 7.7934 -1.8493 0.9649
2.5276 8.3756 -1.8493 0.9649
0.9997 8.6913 -1.8493 0.9649
0.2207 8.7459 -1.8493 0.9649
-2.8508 8.2711 -1.8493 0.9649
-3.5770 7.9840 -1.8493 0.9649
-4.4306 7.9118 -1.9168 0.9636
-5.3399 7.8090 -1.9997 0.9621
-7.2228 6.1227 -2.0015 0.9620
-8.1955 4.7424 -2.0015 0.9620
-8.9075 3.2113 -2.0015 0.9620
-9.1584 2.4042 -2.0015 0.9620
-9.3363 1.5780 -2.0015 0.9620
-9.4681 -0.1055 -2.0015 0.9620
-9.1025 -2.6076 -2.0015 0.9620
-8.8338 -3.4089 -2.0015 0.9620
-8.0878 -4.9238 -2.0015 0.9620
-7.6165 -5.6254 -2.0015 0.9620
-7.0846 -6.2821 -2.0015 0.9620
-6.4962 -6.8888 -2.0015 0.9620
-5.8560 -7.4406 -2.0015 0.9620
-5.1692 -7.9332 -2.0015 0.9620
-3.6779 -8.7252 -2.0015 0.9620
-1.2374 -9.3875 -2.0015 0.9620
1.2913 -9.3802 -2.0015 0.9620
2.9369 -9.0017 -2.0015 0.9620
3.7279 -8.7040 -2.0015 0.9620
4.4892 -8.3369 -2.0015 0.9620
5.8986 -7.4069 -2.0015 0.9620
8.8532 -3.3581 -2.0015 0.9620
9.1174 -2.5554 -2.0015 0.9620
9.3089 -1.7322 -2.0015 0.9620
9.4263 -0.8952 -2.0015 0.9620
9.4685 -0.0511 -2.0015 0.9620
9.4354 0.7934 -2.0015 0.9620
8.8889 3.2623 -2.0015 0.9620
8.1681 4.7894 -2.0015 0.9620
7.1875 6.1641 -2.0015 0.9620
6.6092 6.7804 -2.0015 0.9620
5.9739 7.3373 -2.0000 0.9621
5.2040 7.7049 -1.9653 0.9627
3.5311 8.0044 -1.8493 0.9649
1.2866 8.6535 -1.8493 0.9649
-0.2709 8.7445 -1.8493 0.9649
-1.0496 8.6855 -1.8493 0.9649
-1.8199 8.5573 -1.8493 0.9649
-2.5757 8.3609 -1.8493 0.9649
-3.3109 8.0979 -1.8493 0.9649
-5.0685 7.9653 -1.9957 0.9621
-5.7753 7.5034 -2.0015 0.9620
-8.0341 5.0109 -2.0015 0.9620
-9.4472 -0.6372 -2.0015 0.9620
-8.9417 -3.1149 -2.0015 0.9620
-8.6283 -3.8998 -2.0015 0.9620
-8.2462 -4.6536 -2.0015 0.9620
-7.7984 -5.3704 -2.0015 0.9620
-7.2884 -6.0444 -2.0015 0.9620
-6.0989 -7.2429 -2.0015 0.9620
-4.7154 -8.2110 -2.0015 0.9620
-3.1819 -8.9180 -2.0015 0.9620
-2.3740 -9.1662 -2.0015 0.9620
0.1367 -9.4677 -2.0015 0.9620
0.9803 -9.4178 -2.0015 0.9620
1.8162 -9.2929 -2.0015 0.9620
2.6376 -9.0939 -2.0015 0.9620
3.4380 -8.8225 -2.0015 0.9620
4.2110 -8.4808 -2.0015 0.9620
5.6504 -7.5979 -2.0015 0.9620
6.3054 -7.0638 -2.0015 0.9620
7.9502 -5.1431 -2.0015 0.9620
8.3771 -4.4137 -2.0015 0.9620
8.7373 -3.6491 -2.0015 0.9620
9.0279 -2.8555 -2.0015 0.9620
9.2465 -2.0391 -2.0015 0.9620
9.3915 -1.2065 -2.0015 0.9620
9.4617 -0.3643 -2.0015 0.9620
9.4565 0.4809 -2.0015 0.9620
8.9920 2.9665 -2.0015 0.9620
7.8862 5.2407 -2.0015 0.9620
5.5379 7.6416 -1.9949 0.9622
4.6032 7.7171 -1.8994 0.9639
3.7939 7.8832 -1.8493 0.9649
0.0184 8.7486 -1.8493 0.9649
-1.5358 8.6128 -1.8493 0.9649
5.3713 -6.6086 -2.0015 0.9656
5.9392 -6.1034 -2.0015 0.9656
6.9288 -4.9513 -2.0015 0.9656
7.6982 -3.6419 -2.0015 0.9656
8.3875 -1.4745 -2.0015 0.9656
8.4856 -0.7207 -2.0015 0.9656
8.3737 1.5508 -2.0015 0.9656
7.9651 3.0136 -2.0015 0.9656
7.6647 3.7118 -2.0015 0.9656
7.3031 4.3805 -2.0015 0.9656
6.4089 5.6081 -2.0015 0.9656
5.3109 6.6573 -2.0015 0.9656
3.3073 7.7040 -1.9704 0.9661
1.7835 7.7238 -1.8630 0.9680
1.0797 7.7941 -1.8493 0.9682
0.3804 7.8594 -1.8493 0.9682
-1.7234 7.7247 -1.8601 0.9680
-2.4615 7.7163 -1.9036 0.9673
-3.9832 7.5154 -1.9990 0.9657
-4.6432 7.1390 -2.0015 0.9656
-5.8374 6.2007 -2.0015 0.9656
-6.3671 5.6555 -2.0015 0.9656
-7.9425 3.0727 -2.0015 0.9656
-8.1848 2.3522 -2.0015 0.9656
-8.3620 1.6130 -2.0015 0.9656
-8.4907 -0.6577 -2.0015 0.9656
-7.7250 -3.5845 -2.0015 0.9656
-7.3746 -4.2591 -2.0015 0.9656
-5.9844 -6.0590 -2.0015 0.9656
-4.1673 -7.4269 -2.0015 0.9656
-3.4885 -7.7689 -2.0015 0.9656
-2.7818 -8.0490 -2.0015 0.9656
-2.0530 -8.2650 -2.0015 0.9656
-1.3079 -8.4151 -2.0015 0.9656
-0.5523 -8.4982 -2.0015 0.9656
1.7166 -8.3413 -2.0015 0.9656
2.4536 -8.1550 -2.0015 0.9656
3.1710 -7.9038 -2.0015 0.9656
3.8631 -7.5896 -2.0015 0.9656
4.5245 -7.2148 -2.0015 0.9656
5.1498 -6.7827 -2.0015 0.9656
6.2727 -5.7601 -2.0015 0.9656
6.7613 -5.1778 -2.0015 0.9656
7.1961 -4.5543 -2.0015 0.9656
7.8906 -3.2036 -2.0015 0.9656
8.4571 -1.0010 -2.0015 0.9656
8.5127 -0.2429 -2.0015 0.9656
8.5004 0.5171 -2.0015 0.9656
8.4205 1.2730 -2.0015 0.9656
7.7832 3.4563 -2.0015 0.9656
6.5909 5.3930 -2.0015 0.9656
6.0838 5.9592 -2.0015 0.9656
5.5282 6.4780 -2.0015 0.9656
4.9285 6.9451 -2.0015 0.9656
0.6401 7.8425 -1.8493 0.9682
-0.0617 7.8683 -1.8493 0.9682
-0.7631 7.8315 -1.8493 0.9682
-2.9501 7.7204 -1.9424 0.9666
-3.7276 7.6331 -1.9964 0.9657
-5.0369 6.8669 -2.0015 0.9656
-7.8365 3.3337 -2.0015 0.9656
-8.1026 2.6217 -2.0015 0.9656
-8.4394 1.1407 -2.0015 0.9656
-8.5078 -0.3765 -2.0015 0.9656
-8.4404 -1.1336 -2.0015 0.9656
-8.1048 -2.6148 -2.0015 0.9656
-7.8393 -3.3271 -2.0015 0.9656
-7.5114 -4.0128 -2.0015 0.9656
-6.6792 -5.2833 -2.0015 0.9656
-6.1815 -5.8578 -2.0015 0.9656
-5.0427 -6.8627 -2.0015 0.9656
-4.4107 -7.2850 -2.0015 0.9656
-3.7435 -7.6492 -2.0015 0.9656
-3.0465 -7.9526 -2.0015 0.9656
-0.8331 -8.4753 -2.0015 0.9656
0.6856 -8.4885 -2.0015 0.9656
2.1825 -8.2317 -2.0015 0.9656
2.9078 -8.0043 -2.0015 0.9656
3.6100 -7.7132 -2.0015 0.9656
4.9226 -6.9493 -2.0015 0.9656
7.7803 -3.4629 -2.0015 0.9656
8.2717 -2.0258 -2.0015 0.9656
8.5000 -0.5243 -2.0015 0.9656
8.4580 0.9938 -2.0015 0.9656
8.1469 2.4804 -2.0015 0.9656
7.5768 3.8881 -2.0015 0.9656
5.7394 6.2916 -2.0015 0.9656
5.1555 6.7783 -2.0015 0.9656
4.5306 7.2110 -2.0015 0.9656
3.0997 7.7073 -1.9524 0.9664
2.3292 7.7180 -1.8947 0.9674
-0.5037 7.8524 -1.8493 0.9682
-1.2019 7.7762 -1.8493 0.9682
-3.4661 7.7365 -1.9924 0.9658
-4.1598 7.4282 -2.0009 0.9656
-4.8070 7.0298 -2.0015 0.9656
-5.4147 6.5731 -2.0015 0.9656
-6.9613 4.9056 -2.0015 0.9656
-8.0114 2.8882 -2.0015 0.9656
-8.3970 1.4192 -2.0015 0.9656
-8.3633 -1.6060 -2.0015 0.9656
-8.1868 -2.3453 -2.0015 0.9656
-7.9451 -3.0660 -2.0015 0.9656
-6.3719 -5.6501 -2.0015 0.9656
-5.8427 -6.1958 -2.0015 0.9656
-4.6492 -7.1351 -2.0015 0.9656
-2.5950 -8.1112 -2.0015 0.9656
-0.3556 -8.5087 -2.0015 0.9656
0.4045 -8.5065 -2.0015 0.9656
1.1614 -8.4366 -2.0015 0.9656
1.9090 -8.2994 -2.0015 0.9656
4.0376 -7.4982 -2.0015 0.9656
5.3052 -6.6618 -2.0015 0.9656
6.4042 -5.6135 -2.0015 0.9656
7.6615 -3.7183 -2.0015 0.9656
8.2002 -2.2983 -2.0015 0.9656
8.4780 -0.8052 -2.0015 0.9656
8.5160 -0.0460 -2.0015 0.9656
6.4644 5.5440 -2.0015 0.9656
5.9443 6.0983 -2.0015 0.9656
3.3979 7.7024 -1.9786 0.9660
2.6095 7.7144 -1.9140 0.9671
1.8645 7.7231 -1.8672 0.9679
0.4586 7.8552 -1.8493 0.9682
-0.2437 7.8648 -1.8493 0.9682
-0.9440 7.8117 -1.8493 0.9682
-3.1592 7.7268 -1.9619 0.9663
-4.5719 7.1849 -2.0015 0.9656
-5.1943 6.7486 -2.0015 0.9656
-6.3105 5.7186 -2.0015 0.9656
-7.5990 3.8445 -2.0015 0.9656
-7.9115 3.1516 -2.0015 0.9656
-8.5141 0.1868 -2.0015 0.9656
-8.4968 -0.5731 -2.0015 0.9656
-8.2599 -2.0733 -2.0015 0.9656
-8.0421 -2.8015 -2.0015 0.9656
-7.4166 -4.1855 -2.0015 0.9656
-6.0444 -5.9992 -2.0015 0.9656
-5.4854 -6.5143 -2.0015 0.9656
-4.2410 -7.3850 -2.0015 0.9656
-3.5656 -7.7338 -2.0015 0.9656
-2.1352 -8.2441 -2.0015 0.9656
-0.6369 -8.4923 -2.0015 0.9656
0.1229 -8.5153 -2.0015 0.9656
0.8817 -8.4704 -2.0015 0.9656
3.0921 -7.9350 -2.0015 0.9656
3.7874 -7.6276 -2.0015 0.9656
4.4524 -7.2595 -2.0015 0.9656
5.0820 -6.8336 -2.0015 0.9656
5.6711 -6.3532 -2.0015 0.9656
6.7094 -5.2449 -2.0015 0.9656
7.1504 -4.6257 -2.0015 0.9656
8.1197 -2.5683 -2.0015 0.9656
8.5098 -0.3276 -2.0015 0.9656
8.5052 0.4325 -2.0015 0.9656
7.8173 3.3786 -2.0015 0.9656
7.4849 4.0622 -2.0015 0.9656
7.0928 4.7135 -2.0015 0.9656
6.1428 5.8984 -2.0015 0.9656
5.5924 6.4226 -2.0015 0.9656
4.9974 6.8957 -2.0015 0.9656
2.8957 7.7104 -1.9357 0.9667
2.1364 7.7202 -1.8826 0.9676
0.7181 7.8357 -1.8493 0.9682
5.3911 -5.5401 -2.0015 0.9686
5.8636 -5.0373 -2.0015 0.9686
7.2547 -2.6695 -2.0015 0.9686
7.6135 -1.3384 -2.0015 0.9686
7.6962 0.7243 -2.0015 0.9686
6.9573 3.3693 -2.0015 0.9686
6.6292 3.9762 -2.0015 0.9686
6.2482 4.5515 -2.0015 0.9686
5.3404 5.5890 -2.0015 0.9686
4.8207 6.0429 -2.0015 0.9686
3.6707 6.8031 -2.0015 0.9686
2.4021 7.3412 -1.9999 0.9686
1.7353 7.5151 -1.9970 0.9686
0.3723 7.6923 -1.9940 0.9687
-0.3151 7.6947 -1.9940 0.9687
-2.3473 7.3586 -1.9999 0.9686
-2.9966 7.1258 -2.0015 0.9686
-3.6200 6.8302 -2.0015 0.9686
-4.2147 6.4802 -2.0015 0.9686
-6.2142 4.5978 -2.0015 0.9686
-6.9321 3.4209 -2.0015 0.9686
-7.2095 2.7891 -2.0015 0.9686
-7.4295 2.1352 -2.0015 0.9686
-7.5903 1.4642 -2.0015 0.9686
-7.6906 0.7815 -2.0015 0.9686
-7.7071 -0.5970 -2.0015 0.9686
-7.6232 -1.2818 -2.0015 0.9686
-7.4785 -1.9565 -2.0015 0.9686
-6.6940 -3.8660 -2.0015 0.9686
-4.9200 -5.9623 -2.0015 0.9686
-3.7827 -6.7415 -2.0015 0.9686
-1.8636 -7.5022 -2.0015 0.9686
-1.1872 -7.6385 -2.0015 0.9686
-0.5013 -7.7139 -2.0015 0.9686
0.1885 -7.7279 -2.0015 0.9686
1.5582 -7.5715 -2.0015 0.9686
2.2271 -7.4024 -2.0015 0.9686
2.8783 -7.1744 -2.0015 0.9686
3.5066 -6.8891 -2.0015 0.9686
4.1069 -6.5490 -2.0015 0.9686
5.6938 -5.2285 -2.0015 0.9686
6.1373 -4.7000 -2.0015 0.9686
6.5320 -4.1340 -2.0015 0.9686
7.3932 -2.2577 -2.0015 0.9686
7.7160 0.4694 -2.0015 0.9686
7.5099 1.8325 -2.0015 0.9686
7.3166 2.4948 -2.0015 0.9686
7.0649 3.1373 -2.0015 0.9686
6.7571 3.7548 -2.0015 0.9686
6.3953 4.3423 -2.0015 0.9686
5.0180 5.8801 -2.0015 0.9686
2.6453 7.2626 -2.0013 0.9686
0.6266 7.6767 -1.9943 0.9687
-0.0604 7.6997 -1.9936 0.9687
-1.4288 7.5753 -1.9960 0.9686
-2.1014 7.4278 -1.9987 0.9686
-3.3922 6.9462 -2.0015 0.9686
-5.6065 5.3219 -2.0015 0.9686
-6.0587 4.8008 -2.0015 0.9686
-6.4627 4.2414 -2.0015 0.9686
-7.6605 1.0355 -2.0015 0.9686
-7.6614 -1.0290 -2.0015 0.9686
-7.5391 -1.7081 -2.0015 0.9686
-7.1159 -3.0200 -2.0015 0.9686
-6.4663 -4.2360 -2.0015 0.9686
-6.0628 -4.7957 -2.0015 0.9686
-5.6110 -5.3172 -2.0015 0.9686
-5.1145 -5.7964 -2.0015 0.9686
-4.5773 -6.2293 -2.0015 0.9686
-4.0036 -6.6126 -2.0015 0.9686
-3.3980 -6.9433 -2.0015 0.9686
-2.1107 -7.4365 -2.0015 0.9686
-1.4392 -7.5950 -2.0015 0.9686
-0.7562 -7.6931 -2.0015 0.9686
-0.0672 -7.7299 -2.0015 0.9686
0.6223 -7.7051 -2.0015 0.9686
1.9811 -7.4721 -2.0015 0.9686
2.6395 -7.2656 -2.0015 0.9686
5.0130 -5.8844 -2.0015 0.9686
5.5177 -5.4139 -2.0015 0.9686
5.9785 -4.9004 -2.0015 0.9686
6.3917 -4.3478 -2.0015 0.9686
6.7539 -3.7605 -2.0015 0.9686
7.3144 -2.5010 -2.0015 0.9686
7.5083 -1.8389 -2.0015 0.9686
7.6424 -1.1620 -2.0015 0.9686
7.5664 1.5831 -2.0015 0.9686
7.1648 2.9019 -2.0015 0.9686
6.8775 3.5292 -2.0015 0.9686
6.5355 4.1285 -2.0015 0.9686
5.2097 5.7110 -2.0015 0.9686
4.1124 6.5455 -2.0015 0.9686
3.5124 6.8862 -2.0015 0.9686
2.2307 7.3917 -1.9991 0.9686
1.5606 7.5509 -1.9964 0.9686
0.8803 7.6533 -1.9947 0.9687
-2.5180 7.3056 -2.0007 0.9686
-3.7770 6.7447 -2.0015 0.9686
-4.9150 5.9665 -2.0015 0.9686
-6.3189 4.4529 -2.0015 0.9686
-7.0093 3.2597 -2.0015 0.9686
-7.2721 2.6217 -2.0015 0.9686
-7.7066 0.6035 -2.0015 0.9686
-7.7297 -0.0861 -2.0015 0.9686
-7.6913 -0.7750 -2.0015 0.9686
-6.6028 -4.0198 -2.0015 0.9686
-5.7838 -5.1287 -2.0015 0.9686
-4.2201 -6.4766 -2.0015 0.9686
-3.6258 -6.8271 -2.0015 0.9686
-2.3555 -7.3626 -2.0015 0.9686
-0.3228 -7.7235 -2.0015 0.9686
1.0542 -7.6580 -2.0015 0.9686
1.7329 -7.5335 -2.0015 0.9686
2.3977 -7.3490 -2.0015 0.9686
3.0434 -7.1059 -2.0015 0.9686
3.6650 -6.8062 -2.0015 0.9686
4.8156 -6.0470 -2.0015 0.9686
5.8132 -5.0954 -2.0015 0.9686
6.2444 -4.5568 -2.0015 0.9686
6.6258 -3.9818 -2.0015 0.9686
6.9545 -3.3752 -2.0015 0.9686
7.2277 -2.7416 -2.0015 0.9686
7.5998 -1.4142 -2.0015 0.9686
7.6956 -0.7309 -2.0015 0.9686
7.7030 0.6477 -2.0015 0.9686
7.4655 2.0057 -2.0015 0.9686
7.2569 2.6634 -2.0015 0.9686
6.6684 3.9100 -2.0015 0.9686
5.8679 5.0323 -2.0015 0.9686
5.3957 5.5355 -2.0015 0.9686
4.3267 6.4059 -2.0015 0.9686
3.7382 6.7662 -2.0015 0.9686
3.1200 7.0726 -2.0015 0.9686
2.4755 7.3184 -2.0003 0.9686
1.8103 7.4985 -1.9973 0.9686
1.1333 7.6221 -1.9952 0.9687
-0.2385 7.6972 -1.9939 0.9687
-0.9243 7.6485 -1.9947 0.9687
-1.6042 7.5431 -1.9967 0.9686
-2.2735 7.3802 -1.9995 0.9686
-2.9255 7.1552 -2.0015 0.9686
-3.5519 6.8659 -2.0015 0.9686
-4.1500 6.5218 -2.0015 0.9686
-5.2424 5.6810 -2.0015 0.9686
-5.7281 5.1909 -2.0015 0.9686
-6.1681 4.6594 -2.0015 0.9686
-6.5590 4.0909 -2.0015 0.9686
-6.8977 3.4897 -2.0015 0.9686
-7.1814 2.8608 -2.0015 0.9686
-7.5753 1.5397 -2.0015 0.9686
-7.6824 0.8580 -2.0015 0.9686
-7.7127 -0.5202 -2.0015 0.9686
-7.0441 -3.1838 -2.0015 0.9686
-6.7322 -3.7992 -2.0015 0.9686
-6.3666 -4.3844 -2.0015 0.9686
-5.9503 -4.9346 -2.0015 0.9686
-5.4866 -5.4455 -2.0015 0.9686
-2.5977 -7.2807 -2.0015 0.9686
-0.5781 -7.7086 -2.0015 0.9686
2.1533 -7.4242 -2.0015 0.9686
2.8068 -7.2027 -2.0015 0.9686
5.1477 -5.7669 -2.0015 0.9686
6.4905 -4.1988 -2.0015 0.9686
6.8390 -3.6033 -2.0015 0.9686
7.1331 -2.9791 -2.0015 0.9686
7.5488 -1.6647 -2.0015 0.9686
7.6672 -0.9850 -2.0015 0.9686
7.7245 -0.2974 -2.0015 0.9686
7.7202 0.3926 -2.0015 0.9686
7.3410 2.4219 -2.0015 0.9686
6.7941 3.6873 -2.0015 0.9686
6.4382 4.2785 -2.0015 0.9686
6.0311 4.8355 -2.0015 0.9686
5.5759 5.3540 -2.0015 0.9686
4.5362 6.2593 -2.0015 0.9686
3.3522 6.9655 -2.0015 0.9686
2.7178 7.2367 -2.0015 0.9686
2.0584 7.4383 -1.9983 0.9686
1.3852 7.5829 -1.9958 0.9687
0.7030 7.6705 -1.9944 0.9687
-0.6707 7.6733 -1.9943 0.9687
4.4592 -5.4865 -2.0015 0.9710
6.3910 -3.0235 -2.0015 0.9710
6.8264 -1.8402 -2.0015 0.9710
6.9633 -1.2241 -2.0015 0.9710
7.0447 -0.5984 -2.0015 0.9710
7.0390 0.6625 -2.0015 0.9710
6.9519 1.2875 -2.0015 0.9710
6.8094 1.9023 -2.0015 0.9710
6.0631 3.6367 -2.0015 0.9710
4.8843 5.1117 -2.0015 0.9710
3.3572 6.2221 -2.0015 0.9710
2.7891 6.4967 -2.0015 0.9710
2.1986 6.7195 -2.0015 0.9710
1.5907 6.8888 -2.0015 0.9710
-0.2893 7.0642 -2.0015 0.9710
-2.1486 6.7357 -2.0015 0.9710
-3.3109 6.2469 -2.0015 0.9710
-4.3679 5.5595 -2.0015 0.9710
-4.8462 5.1479 -2.0015 0.9710
-5.2859 4.6952 -2.0015 0.9710
-6.0359 3.6816 -2.0015 0.9710
-7.0338 0.7148 -2.0015 0.9710
-7.0696 0.0847 -2.0015 0.9710
-6.9722 -1.1724 -2.0015 0.9710
-6.8399 -1.7894 -2.0015 0.9710
-6.1224 -3.5359 -2.0015 0.9710
-5.7827 -4.0677 -2.0015 0.9710
-4.4999 -5.4532 -2.0015 0.9710
-3.4597 -6.1658 -2.0015 0.9710
-2.8961 -6.4497 -2.0015 0.9710
-2.3095 -6.6822 -2.0015 0.9710
-1.0858 -6.9862 -2.0015 0.9710
-0.4585 -7.0552 -2.0015 0.9710
0.8020 -7.0244 -2.0015 0.9710
2.6325 -6.5617 -2.0015 0.9710
3.2071 -6.3008 -2.0015 0.9710
4.7604 -5.2273 -2.0015 0.9710
6.9190 -1.4538 -2.0015 0.9710
7.0211 -0.8310 -2.0015 0.9710
7.0672 -0.2017 -2.0015 0.9710
7.0570 0.4293 -2.0015 0.9710
6.1800 3.4341 -2.0015 0.9710
5.4718 4.4773 -2.0015 0.9710
3.5612 6.1077 -2.0015 0.9710
1.8177 6.8324 -2.0015 0.9710
-0.0555 7.0699 -2.0015 0.9710
-0.6857 7.0368 -2.0015 0.9710
-1.9247 6.8031 -2.0015 0.9710
-3.6566 6.0510 -2.0015 0.9710
-4.1816 5.7009 -2.0015 0.9710
-5.1277 4.8675 -2.0015 0.9710
-5.5414 4.3908 -2.0015 0.9710
-6.7267 2.1765 -2.0015 0.9710
-7.0064 0.9470 -2.0015 0.9710
-7.0072 -0.9411 -2.0015 0.9710
-6.8953 -1.5622 -2.0015 0.9710
-6.7286 -2.1708 -2.0015 0.9710
-6.5082 -2.7621 -2.0015 0.9710
-5.9141 -3.8742 -2.0015 0.9710
-5.5451 -4.3862 -2.0015 0.9710
-4.1864 -5.6974 -2.0015 0.9710
-3.6617 -6.0480 -2.0015 0.9710
-1.9304 -6.8014 -2.0015 0.9710
-1.3163 -6.9465 -2.0015 0.9710
0.5692 -7.0471 -2.0015 0.9710
1.1953 -6.9683 -2.0015 0.9710
2.4141 -6.6452 -2.0015 0.9710
4.0868 -5.7693 -2.0015 0.9710
4.5849 -5.3819 -2.0015 0.9710
5.0465 -4.9516 -2.0015 0.9710
5.4680 -4.4819 -2.0015 0.9710
5.8458 -3.9765 -2.0015 0.9710
6.1771 -3.4394 -2.0015 0.9710
6.4592 -2.8749 -2.0015 0.9710
6.8671 -1.6818 -2.0015 0.9710
6.9897 -1.0628 -2.0015 0.9710
7.0218 0.8251 -2.0015 0.9710
6.9202 1.4479 -2.0015 0.9710
6.7636 2.0592 -2.0015 0.9710
5.9774 3.7759 -2.0015 0.9710
5.6169 4.2938 -2.0015 0.9710
3.7613 5.9866 -2.0015 0.9710
2.6381 6.5595 -2.0015 0.9710
1.4310 6.9237 -2.0015 0.9710
0.8079 7.0238 -2.0015 0.9710
0.1784 7.0678 -2.0015 0.9710
-0.4526 7.0556 -2.0015 0.9710
-1.6986 6.8630 -2.0015 0.9710
-2.3038 6.6842 -2.0015 0.9710
-2.8907 6.4521 -2.0015 0.9710
-3.4545 6.1687 -2.0015 0.9710
-4.9639 5.0344 -2.0015 0.9710
-5.3931 4.5717 -2.0015 0.9710
-5.7792 4.0726 -2.0015 0.9710
-6.6511 2.3978 -2.0015 0.9710
-7.0696 -0.0788 -2.0015 0.9710
-7.0345 -0.7088 -2.0015 0.9710
-6.7967 -1.9471 -2.0015 0.9710
-6.5960 -2.5454 -2.0015 0.9710
-6.3427 -3.1234 -2.0015 0.9710
-6.0390 -3.6765 -2.0015 0.9710
-5.2899 -4.6907 -2.0015 0.9710
-4.8506 -5.1437 -2.0015 0.9710
-4.3726 -5.5558 -2.0015 0.9710
-2.7462 -6.5149 -2.0015 0.9710
-2.1543 -6.7339 -2.0015 0.9710
-1.5453 -6.8991 -2.0015 0.9710
0.3358 -7.0621 -2.0015 0.9710
2.7836 -6.4991 -2.0015 0.9710
4.8800 -5.1158 -2.0015 0.9710
5.3167 -4.6603 -2.0015 0.9710
5.7111 -4.1676 -2.0015 0.9710
6.0600 -3.6418 -2.0015 0.9710
6.6105 -2.5075 -2.0015 0.9710
6.8077 -1.9080 -2.0015 0.9710
6.9508 -1.2934 -2.0015 0.9710
7.0384 -0.6684 -2.0015 0.9710
6.8279 1.8344 -2.0015 0.9710
6.3935 3.0181 -2.0015 0.9710
6.0990 3.5761 -2.0015 0.9710
5.7558 4.1057 -2.0015 0.9710
4.9350 5.0628 -2.0015 0.9710
4.4639 5.4827 -2.0015 0.9710
2.8536 6.4686 -2.0015 0.9710
1.6592 6.8726 -2.0015 0.9710
0.4121 7.0581 -2.0015 0.9710
-0.2189 7.0667 -2.0015 0.9710
-1.4707 6.9154 -2.0015 0.9710
-2.0815 6.7567 -2.0015 0.9710
-2.6757 6.5442 -2.0015 0.9710
-3.2485 6.2796 -2.0015 0.9710
-3.7956 5.9649 -2.0015 0.9710
-4.3123 5.6027 -2.0015 0.9710
-5.2389 4.7476 -2.0015 0.9710
-5.9989 3.7415 -2.0015 0.9710
-6.3087 3.1917 -2.0015 0.9710
-6.7753 2.0204 -2.0015 0.9710
-7.0684 0.1551 -2.0015 0.9710
-6.9835 -1.1029 -2.0015 0.9710
-6.8574 -1.7212 -2.0015 0.9710
-6.6766 -2.3258 -2.0015 0.9710
-6.1573 -3.4748 -2.0015 0.9710
-5.8229 -4.0100 -2.0015 0.9710
-4.0536 -5.7926 -2.0015 0.9710
-3.5209 -6.1310 -2.0015 0.9710
-2.9602 -6.4205 -2.0015 0.9710
-2.3759 -6.6589 -2.0015 0.9710
-1.1553 -6.9751 -2.0015 0.9710
0.1021 -7.0693 -2.0015 0.9710
0.7320 -7.0321 -2.0015 0.9710
1.9695 -6.7902 -2.0015 0.9710
4.2191 -5.6732 -2.0015 0.9710
5.1597 -4.8336 -2.0015 0.9710
5.5701 -4.3542 -2.0015 0.9710
6.2550 -3.2956 -2.0015 0.9710
6.5240 -2.7247 -2.0015 0.9710
7.0648 -0.2720 -2.0015 0.9710
7.0610 0.3590 -2.0015 0.9710
6.4899 2.8049 -2.0015 0.9710
6.2139 3.3725 -2.0015 0.9710
5.8884 3.9131 -2.0015 0.9710
4.6428 5.3321 -2.0015 0.9710
4.1488 5.7248 -2.0015 0.9710
3.0660 6.3707 -2.0015 0.9710
2.4857 6.6187 -2.0015 0.9710
1.8856 6.8140 -2.0015 0.9710
1.2705 6.9550 -2.0015 0.9710
-1.2412 6.9603 -2.0015 0.9710
4.1042 -5.0497 -2.0015 0.9731
4.9359 -4.2404 -2.0015 0.9731
5.6107 -3.2962 -2.0015 0.9731
6.1069 -2.2472 -2.0015 0.9731
6.5072 0.0296 -2.0015 0.9731
6.4786 0.6097 -2.0015 0.9731
6.2673 1.7508 -2.0015 0.9731
5.8566 2.8362 -2.0015 0.9731
5.5804 3.3472 -2.0015 0.9731
3.0900 5.7268 -2.0015 0.9731
2.0236 6.1846 -2.0015 0.9731
1.4641 6.3404 -2.0015 0.9731
-0.2662 6.5018 -2.0015 0.9731
-0.8449 6.4522 -2.0015 0.9731
-1.4169 6.3511 -2.0015 0.9731
-3.0473 5.7496 -2.0015 0.9731
-3.5479 5.4550 -2.0015 0.9731
-4.4604 4.7380 -2.0015 0.9731
-5.2311 3.8704 -2.0015 0.9731
-5.5554 3.3885 -2.0015 0.9731
-5.8354 2.8797 -2.0015 0.9731
-6.0689 2.3479 -2.0015 0.9731
-6.2541 1.7974 -2.0015 0.9731
-6.3895 1.2325 -2.0015 0.9731
-6.4739 0.6579 -2.0015 0.9731
-6.4878 -0.5025 -2.0015 0.9731
-6.4172 -1.0790 -2.0015 0.9731
-5.9027 -2.7390 -2.0015 0.9731
-3.6776 -5.3684 -2.0015 0.9731
-2.6656 -5.9362 -2.0015 0.9731
-0.4220 -6.4935 -2.0015 0.9731
1.8748 -6.2313 -2.0015 0.9731
2.4230 -6.0393 -2.0015 0.9731
2.9518 -5.7992 -2.0015 0.9731
3.4572 -5.5129 -2.0015 0.9731
4.3814 -4.8112 -2.0015 0.9731
5.1664 -3.9564 -2.0015 0.9731
5.7870 -2.9758 -2.0015 0.9731
6.0293 -2.4479 -2.0015 0.9731
6.3682 -1.3380 -2.0015 0.9731
5.9472 2.6410 -2.0015 0.9731
5.0362 4.1208 -2.0015 0.9731
4.2241 4.9499 -2.0015 0.9731
3.7659 5.3068 -2.0015 0.9731
3.2777 5.6215 -2.0015 0.9731
2.2271 6.1143 -2.0015 0.9731
1.1056 6.4126 -2.0015 0.9731
0.5294 6.4857 -2.0015 0.9731
-1.7715 6.2615 -2.0015 0.9731
-2.3227 6.0786 -2.0015 0.9731
-2.8555 5.8473 -2.0015 0.9731
-3.8487 5.2471 -2.0015 0.9731
-4.7195 4.4800 -2.0015 0.9731
-5.1002 4.0413 -2.0015 0.9731
-5.4402 3.5704 -2.0015 0.9731
-5.7370 3.0711 -2.0015 0.9731
-5.9879 2.5473 -2.0015 0.9731
-6.1912 2.0032 -2.0015 0.9731
-6.5006 0.2932 -2.0015 0.9731
-6.5009 -0.2877 -2.0015 0.9731
-6.1929 -1.9980 -2.0015 0.9731
-5.1036 -4.0370 -2.0015 0.9731
-4.7233 -4.4760 -2.0015 0.9731
-4.3054 -4.8793 -2.0015 0.9731
-3.8531 -5.2438 -2.0015 0.9731
-3.3702 -5.5665 -2.0015 0.9731
-2.8604 -5.8448 -2.0015 0.9731
-2.3279 -6.0766 -2.0015 0.9731
-1.2115 -6.3935 -2.0015 0.9731
1.1002 -6.4136 -2.0015 0.9731
1.6677 -6.2899 -2.0015 0.9731
2.2219 -6.1162 -2.0015 0.9731
2.7584 -5.8937 -2.0015 0.9731
3.2729 -5.6242 -2.0015 0.9731
3.7614 -5.3100 -2.0015 0.9731
4.6448 -4.5574 -2.0015 0.9731
5.6854 -3.1656 -2.0015 0.9731
5.9450 -2.6460 -2.0015 0.9731
6.1573 -2.1054 -2.0015 0.9731
6.3205 -1.5479 -2.0015 0.9731
6.4949 -0.4006 -2.0015 0.9731
6.5048 0.1801 -2.0015 0.9731
6.4628 0.7594 -2.0015 0.9731
6.3693 1.3327 -2.0015 0.9731
6.2251 1.8953 -2.0015 0.9731
6.0313 2.4428 -2.0015 0.9731
5.7895 2.9709 -2.0015 0.9731
4.3855 4.8075 -2.0015 0.9731
3.9394 5.1794 -2.0015 0.9731
3.4618 5.5100 -2.0015 0.9731
2.9567 5.7967 -2.0015 0.9731
1.8801 6.2297 -2.0015 0.9731
1.3171 6.3726 -2.0015 0.9731
-0.4165 6.4939 -2.0015 0.9731
-0.9939 6.4309 -2.0015 0.9731
-2.1204 6.1521 -2.0015 0.9731
-3.6731 5.3715 -2.0015 0.9731
-4.1374 5.0226 -2.0015 0.9731
-5.3192 3.7484 -2.0015 0.9731
-5.9004 2.7440 -2.0015 0.9731
-6.1216 2.2069 -2.0015 0.9731
-6.5068 -0.0725 -2.0015 0.9731
-6.4745 -0.6524 -2.0015 0.9731
-6.3905 -1.2271 -2.0015 0.9731
-6.2556 -1.7921 -2.0015 0.9731
-6.0709 -2.3427 -2.0015 0.9731
-5.8378 -2.8747 -2.0015 0.9731
-5.2344 -3.8660 -2.0015 0.9731
-4.8688 -4.3173 -2.0015 0.9731
-4.0245 -5.1135 -2.0015 0.9731
-3.0522 -5.7470 -2.0015 0.9731
-2.5276 -5.9963 -2.0015 0.9731
-1.4223 -6.3499 -2.0015 0.9731
-0.8504 -6.4514 -2.0015 0.9731
-0.2718 -6.5016 -2.0015 0.9731
0.3091 -6.4999 -2.0015 0.9731
1.4587 -6.3416 -2.0015 0.9731
3.5837 -5.4315 -2.0015 0.9731
4.0538 -5.0903 -2.0015 0.9731
5.5776 -3.3519 -2.0015 0.9731
5.8542 -2.8412 -2.0015 0.9731
6.0843 -2.3078 -2.0015 0.9731
6.2658 -1.7561 -2.0015 0.9731
6.3974 -1.1904 -2.0015 0.9731
6.4781 -0.6152 -2.0015 0.9731
6.4844 0.5452 -2.0015 0.9731
6.2844 1.6884 -2.0015 0.9731
6.1088 2.2420 -2.0015 0.9731
5.2976 3.7789 -2.0015 0.9731
4.5421 4.6598 -2.0015 0.9731
3.1468 5.6958 -2.0015 0.9731
2.6264 5.9537 -2.0015 0.9731
2.0851 6.1642 -2.0015 0.9731
0.3793 6.4962 -2.0015 0.9731
-0.7807 6.4602 -2.0015 0.9731
-1.9158 6.2188 -2.0015 0.9731
-2.9899 5.7797 -2.0015 0.9731
-3.9690 5.1567 -2.0015 0.9731
-4.8219 4.3697 -2.0015 0.9731
-5.1923 3.9223 -2.0015 0.9731
-6.5057 0.1428 -2.0015 0.9731
-6.3115 -1.5842 -2.0015 0.9731
-5.9297 -2.6801 -2.0015 0.9731
-5.3594 -3.6907 -2.0015 0.9731
-5.0089 -4.1539 -2.0015 0.9731
-4.6186 -4.5840 -2.0015 0.9731
-4.1914 -4.9776 -2.0015 0.9731
-3.7309 -5.3315 -2.0015 0.9731
-2.7245 -5.9094 -2.0015 0.9731
-2.1867 -6.1288 -2.0015 0.9731
-0.4866 -6.4890 -2.0015 0.9731
1.2482 -6.3864 -2.0015 0.9731
2.8940 -5.8283 -2.0015 0.9731
3.4021 -5.5471 -2.0015 0.9731
4.3333 -4.8545 -2.0015 0.9731
4.7490 -4.4488 -2.0015 0.9731
5.1267 -4.0076 -2.0015 0.9731
6.0046 -2.5078 -2.0015 0.9731
6.2043 -1.9624 -2.0015 0.9731
6.3546 -1.4014 -2.0015 0.9731
6.4542 -0.8292 -2.0015 0.9731
6.4989 0.3305 -2.0015 0.9731
6.4435 0.9087 -2.0015 0.9731
5.9732 2.5816 -2.0015 0.9731
5.7192 3.1040 -2.0015 0.9731
5.4197 3.6016 -2.0015 0.9731
4.6937 4.5070 -2.0015 0.9731
4.2732 4.9076 -2.0015 0.9731
3.3335 5.5886 -2.0015 0.9731
2.8219 5.8636 -2.0015 0.9731
2.2878 6.0918 -2.0015 0.9731
1.7355 6.2716 -2.0015 0.9731
1.1694 6.4013 -2.0015 0.9731
0.5939 6.4801 -2.0015 0.9731
-0.5666 6.4825 -2.0015 0.9731
4.1992 -4.3153 -2.0015 0.9749
4.5673 -3.9237 -2.0015 0.9749
4.8990 -3.5008 -2.0015 0.9749
5.4429 -2.5749 -2.0015 0.9749
5.6508 -2.0793 -2.0015 0.9749
5.9303 -1.0425 -2.0015 0.9749
5.9996 -0.5096 -2.0015 0.9749
5.9205 1.0965 -2.0015 0.9749
5.1636 3.0972 -2.0015 0.9749
4.8669 3.5453 -2.0015 0.9749
4.5314 3.9651 -2.0015 0.9749
4.1597 4.3534 -2.0015 0.9749
2.3753 5.5329 -2.0015 0.9749
1.8725 5.7227 -2.0015 0.9749
1.3547 5.8669 -2.0015 0.9749
-1.3111 5.8768 -2.0015 0.9749
-1.8299 5.7364 -2.0015 0.9749
-2.8197 5.3202 -2.0015 0.9749
-3.2829 5.0476 -2.0015 0.9749
-4.1273 4.3842 -2.0015 0.9749
-4.5017 3.9987 -2.0015 0.9749
-4.8404 3.5813 -2.0015 0.9749
-5.1404 3.1355 -2.0015 0.9749
-5.7870 1.6631 -2.0015 0.9749
-5.9904 0.6087 -2.0015 0.9749
-6.0208 0.0722 -2.0015 0.9749
-6.0032 -0.4650 -2.0015 0.9749
-5.6661 -2.0373 -2.0015 0.9749
-5.4619 -2.5344 -2.0015 0.9749
-5.2141 -3.0113 -2.0015 0.9749
-4.2312 -4.2840 -2.0015 0.9749
-3.4029 -4.9674 -2.0015 0.9749
-2.4665 -5.4929 -2.0015 0.9749
-1.9669 -5.6909 -2.0015 0.9749
-0.9247 -5.9498 -2.0015 0.9749
-0.3905 -6.0085 -2.0015 0.9749
0.1468 -6.0194 -2.0015 0.9749
1.2137 -5.8976 -2.0015 0.9749
1.7348 -5.7659 -2.0015 0.9749
2.2420 -5.5883 -2.0015 0.9749
3.1990 -5.1012 -2.0015 0.9749
3.6411 -4.7956 -2.0015 0.9749
4.4350 -4.0726 -2.0015 0.9749
4.7805 -3.6609 -2.0015 0.9749
5.0879 -3.2200 -2.0015 0.9749
6.0188 -0.1717 -2.0015 0.9749
5.8496 1.4274 -2.0015 0.9749
4.9815 3.3824 -2.0015 0.9749
4.6600 3.8131 -2.0015 0.9749
3.4846 4.9104 -2.0015 0.9749
3.0329 5.2016 -2.0015 0.9749
2.5570 5.4513 -2.0015 0.9749
2.0607 5.6576 -2.0015 0.9749
1.5480 5.8188 -2.0015 0.9749
1.0230 5.9337 -2.0015 0.9749
0.4898 6.0013 -2.0015 0.9749
-0.0472 6.0210 -2.0015 0.9749
-2.6422 5.4105 -2.0015 0.9749
-3.1142 5.1534 -2.0015 0.9749
-5.0339 3.3038 -2.0015 0.9749
-5.3085 2.8417 -2.0015 0.9749
-5.5407 2.3571 -2.0015 0.9749
-5.8713 1.3354 -2.0015 0.9749
-6.0151 0.2713 -2.0015 0.9749
-6.0153 -0.2662 -2.0015 0.9749
-5.8724 -1.3304 -2.0015 0.9749
-5.7304 -1.8488 -2.0015 0.9749
-5.5427 -2.3524 -2.0015 0.9749
-5.3109 -2.8372 -2.0015 0.9749
-4.7224 -3.7355 -2.0015 0.9749
-4.3705 -4.1417 -2.0015 0.9749
-3.9838 -4.5149 -2.0015 0.9749
-0.5890 -5.9923 -2.0015 0.9749
-0.0523 -6.0210 -2.0015 0.9749
0.4848 -6.0017 -2.0015 0.9749
1.5431 -5.8201 -2.0015 0.9749
2.0559 -5.6594 -2.0015 0.9749
2.5524 -5.4535 -2.0015 0.9749
4.2979 -4.2170 -2.0015 0.9749
5.2607 -2.9291 -2.0015 0.9749
5.6974 -1.9481 -2.0015 0.9749
6.0098 -0.3707 -2.0015 0.9749
5.9801 0.7027 -2.0015 0.9749
5.8936 1.2331 -2.0015 0.9749
5.7602 1.7537 -2.0015 0.9749
5.5809 2.2604 -2.0015 0.9749
5.0906 3.2157 -2.0015 0.9749
4.7836 3.6569 -2.0015 0.9749
4.0580 4.4484 -2.0015 0.9749
3.6451 4.7925 -2.0015 0.9749
1.2187 5.8966 -2.0015 0.9749
0.6880 5.9818 -2.0015 0.9749
-0.9197 5.9506 -2.0015 0.9749
-2.4618 5.4950 -2.0015 0.9749
-3.3987 4.9703 -2.0015 0.9749
-3.8284 4.6474 -2.0015 0.9749
-4.9219 3.4684 -2.0015 0.9749
-5.4597 2.5390 -2.0015 0.9749
-5.6644 2.0421 -2.0015 0.9749
-5.8239 1.5289 -2.0015 0.9749
-6.0028 0.4701 -2.0015 0.9749
-6.0208 -0.0671 -2.0015 0.9749
-5.9909 -0.6037 -2.0015 0.9749
-5.1431 -3.1311 -2.0015 0.9749
-4.8434 -3.5772 -2.0015 0.9749
-3.7239 -4.7316 -2.0015 0.9749
-3.2872 -5.0448 -2.0015 0.9749
-1.8347 -5.7349 -2.0015 0.9749
-1.3160 -5.8756 -2.0015 0.9749
-0.2515 -6.0160 -2.0015 0.9749
0.2860 -6.0144 -2.0015 0.9749
0.8212 -5.9650 -2.0015 0.9749
2.3706 -5.5349 -2.0015 0.9749
2.8547 -5.3015 -2.0015 0.9749
3.7510 -4.7101 -2.0015 0.9749
4.1560 -4.3569 -2.0015 0.9749
4.8639 -3.5494 -2.0015 0.9749
5.7978 -1.6250 -2.0015 0.9749
5.9943 -0.5693 -2.0015 0.9749
5.8150 1.5623 -2.0015 0.9749
5.6526 2.0745 -2.0015 0.9749
5.4451 2.5703 -2.0015 0.9749
5.1942 3.0456 -2.0015 0.9749
4.5706 3.9198 -2.0015 0.9749
4.2029 4.3117 -2.0015 0.9749
3.8017 4.6693 -2.0015 0.9749
3.3702 4.9897 -2.0015 0.9749
0.8855 5.9558 -2.0015 0.9749
-2.2787 5.5734 -2.0015 0.9749
-2.7666 5.3480 -2.0015 0.9749
-3.6726 4.7715 -2.0015 0.9749
-4.0834 4.4250 -2.0015 0.9749
-4.4617 4.0433 -2.0015 0.9749
-4.8045 3.6293 -2.0015 0.9749
-5.5937 2.2283 -2.0015 0.9749
-5.9006 1.1993 -2.0015 0.9749
-6.0076 -0.4052 -2.0015 0.9749
-4.6348 -3.8437 -2.0015 0.9749
-2.9986 -5.2215 -2.0015 0.9749
-2.5210 -5.4681 -2.0015 0.9749
-1.5097 -5.8289 -2.0015 0.9749
-0.4503 -6.0044 -2.0015 0.9749
1.6773 -5.7829 -2.0015 0.9749
2.1862 -5.6103 -2.0015 0.9749
2.6778 -5.3930 -2.0015 0.9749
3.1480 -5.1328 -2.0015 0.9749
4.3942 -4.1165 -2.0015 0.9749
5.5561 -2.3205 -2.0015 0.9749
6.0135 0.3058 -2.0015 0.9749
5.9622 0.8408 -2.0015 0.9749
5.0149 3.3326 -2.0015 0.9749
4.3432 4.1704 -2.0015 0.9749
3.9540 4.5410 -2.0015 0.9749
2.6111 5.4256 -2.0015 0.9749
-1.0570 5.9277 -2.0015 0.9749
3.5301 -4.3433 -2.0015 0.9765
4.2454 -3.6472 -2.0015 0.9765
4.5537 -3.2541 -2.0015 0.9765
4.8257 -2.8351 -2.0015 0.9765
5.2526 -1.9328 -2.0015 0.9765
5.4040 -1.4567 -2.0015 0.9765
5.5124 -0.9691 -2.0015 0.9765
5.5768 -0.4737 -2.0015 0.9765
5.5968 0.0255 -2.0015 0.9765
5.3905 1.5059 -2.0015 0.9765
5.2348 1.9806 -2.0015 0.9765
5.0373 2.4394 -2.0015 0.9765
4.7997 2.8789 -2.0015 0.9765
4.5239 3.2954 -2.0015 0.9765
4.2120 3.6857 -2.0015 0.9765
3.8666 4.0466 -2.0015 0.9765
3.4904 4.3752 -2.0015 0.9765
3.0863 4.6690 -2.0015 0.9765
2.2079 5.1430 -2.0015 0.9765
1.7405 5.3194 -2.0015 0.9765
0.2706 5.5904 -2.0015 0.9765
-2.1696 5.1593 -2.0015 0.9765
-3.0515 4.6918 -2.0015 0.9765
-4.1845 3.7169 -2.0015 0.9765
-4.7782 2.9145 -2.0015 0.9765
-5.0190 2.4768 -2.0015 0.9765
-5.2199 2.0194 -2.0015 0.9765
-5.5682 0.5658 -2.0015 0.9765
-5.5965 0.0671 -2.0015 0.9765
-5.2668 -1.8937 -2.0015 0.9765
-5.0769 -2.3558 -2.0015 0.9765
-3.9330 -3.9821 -2.0015 0.9765
-3.5622 -4.3169 -2.0015 0.9765
-1.3493 -5.4318 -2.0015 0.9765
-0.8596 -5.5305 -2.0015 0.9765
-0.3630 -5.5851 -2.0015 0.9765
2.5389 -4.9879 -2.0015 0.9765
3.3845 -4.4576 -2.0015 0.9765
3.7685 -4.1381 -2.0015 0.9765
4.7293 -2.9931 -2.0015 0.9765
5.3529 -1.6347 -2.0015 0.9765
5.4773 -1.1509 -2.0015 0.9765
5.5946 -0.1596 -2.0015 0.9765
5.2974 1.8063 -2.0015 0.9765
5.1152 2.2715 -2.0015 0.9765
4.8923 2.7186 -2.0015 0.9765
3.9983 3.9165 -2.0015 0.9765
2.8192 4.8350 -2.0015 0.9765
2.3768 5.0672 -2.0015 0.9765
1.9155 5.2589 -2.0015 0.9765
0.4553 5.5783 -2.0015 0.9765
-0.5428 5.5705 -2.0015 0.9765
-1.0374 5.4999 -2.0015 0.9765
-1.9978 5.2282 -2.0015 0.9765
-2.4560 5.0292 -2.0015 0.9765
-2.8947 4.7902 -2.0015 0.9765
-3.3103 4.5130 -2.0015 0.9765
-4.0593 3.8532 -2.0015 0.9765
-4.3867 3.4759 -2.0015 0.9765
-4.6792 3.0709 -2.0015 0.9765
-5.1502 2.1909 -2.0015 0.9765
-5.3251 1.7230 -2.0015 0.9765
-5.5464 0.7497 -2.0015 0.9765
-5.5912 0.2521 -2.0015 0.9765
-5.3265 -1.7185 -2.0015 0.9765
-5.1521 -2.1866 -2.0015 0.9765
-4.3896 -3.4722 -2.0015 0.9765
-3.7031 -4.1967 -2.0015 0.9765
-3.3141 -4.5102 -2.0015 0.9765
-2.8987 -4.7877 -2.0015 0.9765
-2.4603 -5.0272 -2.0015 0.9765
-1.5282 -5.3842 -2.0015 0.9765
-1.0420 -5.4990 -2.0015 0.9765
-0.5475 -5.5701 -2.0015 0.9765
-0.0486 -5.5967 -2.0015 0.9765
1.4344 -5.4100 -2.0015 0.9765
2.3725 -5.0692 -2.0015 0.9765
3.2352 -4.5671 -2.0015 0.9765
3.6296 -4.2605 -2.0015 0.9765
3.9950 -3.9199 -2.0015 0.9765
4.3286 -3.5480 -2.0015 0.9765
5.1133 -2.2758 -2.0015 0.9765
5.5333 -0.8413 -2.0015 0.9765
5.5863 -0.3446 -2.0015 0.9765
5.5947 0.1549 -2.0015 0.9765
5.5587 0.6532 -2.0015 0.9765
5.4783 1.1462 -2.0015 0.9765
5.3542 1.6301 -2.0015 0.9765
5.1875 2.1011 -2.0015 0.9765
4.9795 2.5553 -2.0015 0.9765
3.7720 4.1349 -2.0015 0.9765
1.6170 5.3582 -2.0015 0.9765
1.1328 5.4811 -2.0015 0.9765
0.1412 5.5951 -2.0015 0.9765
-0.8549 5.5312 -2.0015 0.9765
-1.3447 5.4330 -2.0015 0.9765
-3.1592 4.6200 -2.0015 0.9765
-3.5586 4.3199 -2.0015 0.9765
-3.9296 3.9854 -2.0015 0.9765
-4.2693 3.6191 -2.0015 0.9765
-4.8443 2.8032 -2.0015 0.9765
-5.2652 1.8982 -2.0015 0.9765
-5.5186 0.9327 -2.0015 0.9765
-5.5798 0.4369 -2.0015 0.9765
-5.5965 -0.0624 -2.0015 0.9765
-5.5687 -0.5611 -2.0015 0.9765
-5.4965 -1.0555 -2.0015 0.9765
-5.3805 -1.5414 -2.0015 0.9765
-5.2216 -2.0150 -2.0015 0.9765
-5.0211 -2.4726 -2.0015 0.9765
-4.5021 -3.3251 -2.0015 0.9765
-3.8398 -4.0719 -2.0015 0.9765
-1.7054 -5.3307 -2.0015 0.9765
2.2035 -5.1449 -2.0015 0.9765
2.6535 -4.9279 -2.0015 0.9765
3.0824 -4.6716 -2.0015 0.9765
3.8632 -4.0498 -2.0015 0.9765
4.2089 -3.6892 -2.0015 0.9765
5.5772 0.4690 -2.0015 0.9765
5.5132 0.9644 -2.0015 0.9765
5.0613 2.3892 -2.0015 0.9765
4.8281 2.8310 -2.0015 0.9765
4.5565 3.2502 -2.0015 0.9765
3.9067 4.0079 -2.0015 0.9765
3.1326 4.6381 -2.0015 0.9765
2.2590 5.1208 -2.0015 0.9765
1.3135 5.4406 -2.0015 0.9765
0.8231 5.5360 -2.0015 0.9765
0.3262 5.5874 -2.0015 0.9765
-1.1643 5.4745 -2.0015 0.9765
-1.6478 5.3488 -2.0015 0.9765
-2.5717 4.9711 -2.0015 0.9765
-3.4138 4.4353 -2.0015 0.9765
-3.7956 4.1132 -2.0015 0.9765
-4.1473 3.7583 -2.0015 0.9765
-4.9941 2.5266 -2.0015 0.9765
-5.1995 2.0713 -2.0015 0.9765
-5.3635 1.5994 -2.0015 0.9765
-5.4848 1.1148 -2.0015 0.9765
-5.5623 0.6212 -2.0015 0.9765
-5.5955 0.1228 -2.0015 0.9765
-5.5284 -0.8731 -2.0015 0.9765
-5.4285 -1.3626 -2.0015 0.9765
-5.1001 -2.3051 -2.0015 0.9765
-4.8743 -2.7507 -2.0015 0.9765
-4.6096 -3.1744 -2.0015 0.9765
-3.6050 -4.2812 -2.0015 0.9765
-3.2089 -4.5856 -2.0015 0.9765
-2.7872 -4.8535 -2.0015 0.9765
-2.3434 -5.0827 -2.0015 0.9765
-1.8808 -5.2714 -2.0015 0.9765
-1.4033 -5.4181 -2.0015 0.9765
-0.9145 -5.5217 -2.0015 0.9765
0.0808 -5.5963 -2.0015 0.9765
0.5795 -5.5668 -2.0015 0.9765
1.5591 -5.3754 -2.0015 0.9765
2.9262 -4.7710 -2.0015 0.9765
3.3400 -4.4911 -2.0015 0.9765
4.0846 -3.8264 -2.0015 0.9765
4.4095 -3.4470 -2.0015 0.9765
4.6993 -3.0400 -2.0015 0.9765
4.9517 -2.6089 -2.0015 0.9765
5.5897 0.2842 -2.0015 0.9765
5.5421 0.7815 -2.0015 0.9765
4.6615 3.0977 -2.0015 0.9765
4.0371 3.8765 -2.0015 0.9765
3.6754 4.2210 -2.0015 0.9765
3.2843 4.5319 -2.0015 0.9765
1.0058 5.5058 -2.0015 0.9765
0.5108 5.5735 -2.0015 0.9765
3.2942 -4.0530 -2.0015 0.9779
3.6424 -3.7431 -2.0015 0.9779
4.2494 -3.0366 -2.0015 0.9779
4.5032 -2.6456 -2.0015 0.9779
4.7212 -2.2335 -2.0015 0.9779
4.9015 -1.8036 -2.0015 0.9779
5.2041 -0.4420 -2.0015 0.9779
5.0303 1.4052 -2.0015 0.9779
4.8849 1.8482 -2.0015 0.9779
4.4789 2.6865 -2.0015 0.9779
4.2215 3.0752 -2.0015 0.9779
3.9305 3.4394 -2.0015 0.9779
3.6082 3.7761 -2.0015 0.9779
2.4801 4.5965 -2.0015 0.9779
1.1751 5.0889 -2.0015 0.9779
-0.2137 5.2185 -2.0015 0.9779
-0.6782 5.1786 -2.0015 0.9779
-1.1372 5.0975 -2.0015 0.9779
-2.4458 4.6148 -2.0015 0.9779
-2.8476 4.3783 -2.0015 0.9779
-3.2267 4.1069 -2.0015 0.9779
-3.5800 3.8028 -2.0015 0.9779
-3.9049 3.4685 -2.0015 0.9779
-4.1986 3.1065 -2.0015 0.9779
-4.4588 2.7197 -2.0015 0.9779
-4.6836 2.3113 -2.0015 0.9779
-4.8710 1.8844 -2.0015 0.9779
-5.1283 0.9893 -2.0015 0.9779
-5.2225 0.0626 -2.0015 0.9779
-5.1505 -0.8660 -2.0015 0.9779
-4.9148 -1.7671 -2.0015 0.9779
-4.7377 -2.1984 -2.0015 0.9779
-3.6701 -3.7159 -2.0015 0.9779
-3.3242 -4.0284 -2.0015 0.9779
-2.1394 -4.7646 -2.0015 0.9779
1.5047 -5.0014 -2.0015 0.9779
1.9447 -4.8473 -2.0015 0.9779
2.3692 -4.6546 -2.0015 0.9779
2.7748 -4.4248 -2.0015 0.9779
3.1583 -4.1597 -2.0015 0.9779
3.5166 -3.8615 -2.0015 0.9779
4.1466 -3.1755 -2.0015 0.9779
4.6447 -2.3884 -2.0015 0.9779
4.9951 -1.5254 -2.0015 0.9779
5.1867 -0.6139 -2.0015 0.9779
5.2132 0.3171 -2.0015 0.9779
5.0740 1.2381 -2.0015 0.9779
4.9434 1.6856 -2.0015 0.9779
4.3209 2.9339 -2.0015 0.9779
4.0421 3.3075 -2.0015 0.9779
3.0226 4.2594 -2.0015 0.9779
2.2179 4.7285 -2.0015 0.9779
1.7875 4.9074 -2.0015 0.9779
1.3428 5.0473 -2.0015 0.9779
-0.5065 5.1982 -2.0015 0.9779
-3.0891 4.2114 -2.0015 0.9779
-3.4523 3.9192 -2.0015 0.9779
-4.0935 3.2436 -2.0015 0.9779
-5.1758 0.6996 -2.0015 0.9779
-5.2175 0.2353 -2.0015 0.9779
-5.1764 -0.6952 -2.0015 0.9779
-5.0938 -1.1540 -2.0015 0.9779
-4.8078 -2.0404 -2.0015 0.9779
-4.6067 -2.4610 -2.0015 0.9779
-3.7910 -3.5925 -2.0015 0.9779
-3.4556 -3.9163 -2.0015 0.9779
-3.0926 -4.2087 -2.0015 0.9779
-2.7050 -4.4678 -2.0015 0.9779
-2.2958 -4.6912 -2.0015 0.9779
-1.8684 -4.8772 -2.0015 0.9779
-1.4261 -5.0244 -2.0015 0.9779
-0.9724 -5.1315 -2.0015 0.9779
-0.5109 -5.1978 -2.0015 0.9779
-0.0454 -5.2227 -2.0015 0.9779
0.4205 -5.2059 -2.0015 0.9779
1.3385 -5.0484 -2.0015 0.9779
3.0190 -4.2619 -2.0015 0.9779
