ply
format ascii 1.0
element vertex 1593
property float32 x
property float32 y
property float32 z
property float32 I
end_header
12.0998 1.0967 -2.0015 0.9519
11.7114 3.2331 -2.0015 0.9519
10.9488 5.2662 -2.0015 0.9519
9.8364 7.1312 -2.0015 0.9519
7.7704 8.1015 -1.8493 0.9555
6.2041 9.3553 -1.8493 0.9555
5.3433 9.8723 -1.8493 0.9555
4.4396 10.3103 -1.8493 0.9555
2.5334 10.9360 -1.8493 0.9555
-0.4580 11.2162 -1.8493 0.9555
-1.4585 11.1304 -1.8493 0.9555
-3.4166 10.6930 -1.8493 0.9555
-5.2655 9.9140 -1.8493 0.9555
-8.3407 8.8341 -2.0015 0.9519
-9.0968 8.0534 -2.0015 0.9519
-9.7801 7.2083 -2.0015 0.9519
-10.3851 6.3054 -2.0015 0.9519
-10.9070 5.3522 -2.0015 0.9519
-11.3417 4.3560 -2.0015 0.9519
-11.6856 3.3251 -2.0015 0.9519
-12.0908 1.1918 -2.0015 0.9519
-12.1490 0.1065 -2.0015 0.9519
-12.1099 -0.9796 -2.0015 0.9519
-11.7421 -3.1196 -2.0015 0.9519
-9.9050 -7.0356 -2.0015 0.9519
-9.2366 -7.8926 -2.0015 0.9519
-7.6841 -9.4108 -2.0015 0.9519
-5.8862 -10.6284 -2.0015 0.9519
-3.8596 -11.3867 -1.9807 0.9524
-2.7187 -11.2400 -1.9051 0.9542
-0.6560 -11.2289 -1.8530 0.9554
0.3498 -11.2308 -1.8511 0.9555
2.3924 -11.2189 -1.8897 0.9546
3.4628 -11.2109 -1.9330 0.9535
5.5932 -10.7817 -2.0010 0.9520
9.7098 -7.3026 -2.0015 0.9519
10.3236 -6.4057 -2.0015 0.9519
10.8547 -5.4575 -2.0015 0.9519
11.2990 -4.4656 -2.0015 0.9519
12.0787 -1.3088 -2.0015 0.9519
12.1188 0.8623 -2.0015 0.9519
11.7718 3.0058 -2.0015 0.9519
11.4560 4.0458 -2.0015 0.9519
10.5529 6.0205 -2.0015 0.9519
9.9726 6.9394 -2.0015 0.9519
9.1934 7.7029 -1.9759 0.9525
7.9257 7.9496 -1.8493 0.9555
7.1836 8.6260 -1.8493 0.9555
6.3840 9.2335 -1.8493 0.9555
4.6384 10.2225 -1.8493 0.9555
-1.2428 11.1565 -1.8493 0.9555
-2.2348 11.0009 -1.8493 0.9555
-3.2089 10.7571 -1.8493 0.9555
-5.9472 9.5207 -1.8493 0.9555
-6.7742 8.9512 -1.8493 0.9555
-9.6387 7.3962 -2.0015 0.9519
-10.2611 6.5053 -2.0015 0.9519
-11.6190 3.5507 -2.0015 0.9519
-11.8898 2.4981 -2.0015 0.9519
-12.0655 1.4256 -2.0015 0.9519
-12.1446 0.3417 -2.0015 0.9519
-11.8003 -2.8918 -2.0015 0.9519
-11.4947 -3.9347 -2.0015 0.9519
-10.0393 -6.8426 -2.0015 0.9519
10.5313 1.5751 -2.0015 0.9576
10.0827 3.4247 -2.0015 0.9576
9.7363 4.3120 -2.0015 0.9576
8.8132 5.9763 -2.0015 0.9576
6.5846 7.7158 -1.9066 0.9596
4.9525 8.5013 -1.8493 0.9607
4.1730 8.9099 -1.8493 0.9607
3.3601 9.2471 -1.8493 0.9607
0.7871 9.8072 -1.8493 0.9607
-0.0925 9.8383 -1.8493 0.9607
-1.8424 9.6647 -1.8493 0.9607
-3.5334 9.1823 -1.8493 0.9607
-6.3010 8.5377 -1.9945 0.9577
-7.0635 7.9685 -2.0015 0.9576
-7.7473 7.3054 -2.0015 0.9576
-8.9240 5.8096 -2.0015 0.9576
-9.4075 4.9888 -2.0015 0.9576
-10.1453 3.2345 -2.0015 0.9576
-10.6355 -0.5248 -2.0015 0.9576
-10.5460 -1.4731 -2.0015 0.9576
-10.3722 -2.4097 -2.0015 0.9576
-10.1154 -3.3269 -2.0015 0.9576
-9.7776 -4.2176 -2.0015 0.9576
-8.3087 -6.6599 -2.0015 0.9576
-7.6803 -7.3757 -2.0015 0.9576
-6.9905 -8.0326 -2.0015 0.9576
-6.2447 -8.6251 -2.0015 0.9576
-5.4489 -9.1487 -2.0015 0.9576
-4.6096 -9.5990 -2.0015 0.9576
-3.7333 -9.9725 -2.0015 0.9576
-2.8272 -10.2663 -2.0015 0.9576
-1.8985 -10.4778 -2.0015 0.9576
-0.9545 -10.6056 -2.0015 0.9576
0.9487 -10.6061 -2.0015 0.9576
1.8927 -10.4789 -2.0015 0.9576
2.8215 -10.2678 -2.0015 0.9576
4.6043 -9.6016 -2.0015 0.9576
5.4439 -9.1517 -2.0015 0.9576
6.9860 -8.0365 -2.0015 0.9576
8.3051 -6.6645 -2.0015 0.9576
8.8674 -5.8957 -2.0015 0.9576
10.1135 -3.3325 -2.0015 0.9576
10.6352 -0.5307 -2.0015 0.9576
10.6401 0.4218 -2.0015 0.9576
10.3951 2.3092 -2.0015 0.9576
10.1471 3.2289 -2.0015 0.9576
8.9273 5.8046 -2.0015 0.9576
7.7482 7.2981 -2.0007 0.9576
6.8421 7.7101 -1.9375 0.9589
5.8467 7.9130 -1.8493 0.9607
5.1162 8.4039 -1.8493 0.9607
3.5385 9.1804 -1.8493 0.9607
1.8477 9.6636 -1.8493 0.9607
0.0979 9.8382 -1.8493 0.9607
-4.1681 8.9122 -1.8493 0.9607
-4.9478 8.5041 -1.8493 0.9607
-6.9079 8.1037 -2.0015 0.9576
-7.6045 7.4539 -2.0015 0.9576
-8.2402 6.7446 -2.0015 0.9576
-8.8099 5.9812 -2.0015 0.9576
-9.3092 5.1700 -2.0015 0.9576
-10.3470 2.5157 -2.0015 0.9576
-10.5304 1.5810 -2.0015 0.9576
-10.6296 0.6336 -2.0015 0.9576
-10.6437 -0.3188 -2.0015 0.9576
-10.5726 -1.2687 -2.0015 0.9576
-8.4361 -6.4978 -2.0015 0.9576
-7.8217 -7.2257 -2.0015 0.9576
-6.4105 -8.5027 -2.0015 0.9576
-5.6250 -9.0415 -2.0015 0.9576
-3.0254 -10.2096 -2.0015 0.9576
-1.1596 -10.5851 -2.0015 0.9576
-0.2091 -10.6464 -2.0015 0.9576
0.7432 -10.6225 -2.0015 0.9576
1.6895 -10.5136 -2.0015 0.9576
2.6222 -10.3205 -2.0015 0.9576
4.4175 -9.6889 -2.0015 0.9576
5.2657 -9.2554 -2.0015 0.9576
6.0717 -8.7478 -2.0015 0.9576
6.8292 -8.1702 -2.0015 0.9576
8.1745 -6.8240 -2.0015 0.9576
8.7516 -6.0662 -2.0015 0.9576
9.2587 -5.2598 -2.0015 0.9576
10.0471 -3.5277 -2.0015 0.9576
10.5146 -1.6828 -2.0015 0.9576
10.6463 0.2158 -2.0015 0.9576
10.4378 2.1075 -2.0015 0.9576
10.2077 3.0318 -2.0015 0.9576
9.8959 3.9319 -2.0015 0.9576
9.5050 4.8005 -2.0015 0.9576
9.0379 5.6307 -2.0015 0.9576
8.4986 6.4158 -2.0015 0.9576
7.1080 7.7040 -1.9702 0.9582
5.9988 7.7984 -1.8493 0.9607
4.5148 8.7417 -1.8493 0.9607
0.2884 9.8345 -1.8493 0.9607
-3.9948 8.9912 -1.8493 0.9607
-5.6302 8.2817 -1.8823 0.9601
-7.4588 7.5998 -2.0015 0.9576
-8.1081 6.9028 -2.0015 0.9576
-10.2964 2.7155 -2.0015 0.9576
-10.4978 1.7845 -2.0015 0.9576
-10.6153 0.8392 -2.0015 0.9576
-10.5952 -1.0638 -2.0015 0.9576
-10.4577 -2.0064 -2.0015 0.9576
-10.2366 -2.9329 -2.0015 0.9576
-9.9335 -3.8359 -2.0015 0.9576
-9.0920 -5.5430 -2.0015 0.9576
-7.9601 -7.0729 -2.0015 0.9576
-7.2962 -7.7560 -2.0015 0.9576
-5.7990 -8.9309 -2.0015 0.9576
-4.9777 -9.4134 -2.0015 0.9576
-3.2225 -10.1491 -2.0015 0.9576
-1.3643 -10.5607 -2.0015 0.9576
6.6697 -8.3008 -2.0015 0.9576
7.3848 -7.6716 -2.0015 0.9576
8.6325 -6.2345 -2.0015 0.9576
10.2696 -2.8150 -2.0015 0.9576
10.4801 -1.8860 -2.0015 0.9576
10.6484 0.0097 -2.0015 0.9576
10.2645 2.8337 -2.0015 0.9576
9.9702 3.7396 -2.0015 0.9576
9.5961 4.6156 -2.0015 0.9576
7.3454 7.6584 -1.9946 0.9577
4.6831 8.6526 -1.8493 0.9607
3.8911 9.0365 -1.8493 0.9607
2.2204 9.5849 -1.8493 0.9607
1.3550 9.7449 -1.8493 0.9607
-1.2783 9.7553 -1.8493 0.9607
-2.9945 9.3719 -1.8493 0.9607
-3.8200 9.0668 -1.8493 0.9607
-4.6150 8.6892 -1.8493 0.9607
-6.5824 8.3566 -1.9995 0.9576
-7.3102 7.7427 -2.0015 0.9576
-7.9729 7.0584 -2.0015 0.9576
-9.1021 5.5264 -2.0015 0.9576
-9.9405 3.8179 -2.0015 0.9576
-10.2419 2.9143 -2.0015 0.9576
-10.4613 1.9874 -2.0015 0.9576
-10.5971 1.0446 -2.0015 0.9576
-10.6480 0.0934 -2.0015 0.9576
-10.4946 -1.8036 -2.0015 0.9576
-8.6813 -6.1664 -2.0015 0.9576
-8.0955 -6.9175 -2.0015 0.9576
-6.7348 -8.2481 -2.0015 0.9576
-5.9708 -8.8170 -2.0015 0.9576
-3.4183 -10.0849 -2.0015 0.9576
-2.5034 -10.3500 -2.0015 0.9576
-0.6210 -10.6303 -2.0015 0.9576
1.2813 -10.5711 -2.0015 0.9576
2.2208 -10.4143 -2.0015 0.9576
3.1426 -10.1742 -2.0015 0.9576
4.0392 -9.8526 -2.0015 0.9576
4.9035 -9.4522 -2.0015 0.9576
5.7286 -8.9762 -2.0015 0.9576
6.5078 -8.4284 -2.0015 0.9576
7.9042 -7.1353 -2.0015 0.9576
8.5102 -6.4004 -2.0015 0.9576
9.5137 -4.7832 -2.0015 0.9576
10.6466 -0.1964 -2.0015 0.9576
10.5116 1.7019 -2.0015 0.9576
10.3174 2.6345 -2.0015 0.9576
10.0407 3.5459 -2.0015 0.9576
9.6837 4.4290 -2.0015 0.9576
9.2491 5.2767 -2.0015 0.9576
8.7406 6.0821 -2.0015 0.9576
7.5009 7.5234 -1.9969 0.9577
6.4284 7.7192 -1.8881 0.9599
5.5953 8.0927 -1.8493 0.9607
4.8497 8.5604 -1.8493 0.9607
4.0653 8.9595 -1.8493 0.9607
3.2484 9.2870 -1.8493 0.9607
2.4055 9.5401 -1.8493 0.9607
0.6688 9.8159 -1.8493 0.9607
-1.9587 9.6418 -1.8493 0.9607
-3.6438 9.1391 -1.8493 0.9607
-6.4094 8.4692 -1.9964 0.9577
-7.1590 7.8828 -2.0015 0.9576
-8.4479 6.4825 -2.0015 0.9576
-8.9934 5.7016 -2.0015 0.9576
-9.4669 4.8751 -2.0015 0.9576
-9.8647 4.0096 -2.0015 0.9576
-10.1836 3.1120 -2.0015 0.9576
-10.5749 1.2495 -2.0015 0.9576
-10.6442 0.2995 -2.0015 0.9576
-10.5275 -1.6001 -2.0015 0.9576
-9.7261 -4.3351 -2.0015 0.9576
-9.2998 -5.1869 -2.0015 0.9576
9.4006 -1.1334 -2.0015 0.9620
9.4643 -0.2887 -2.0015 0.9620
9.2019 2.2319 -2.0015 0.9620
8.9656 3.0453 -2.0015 0.9620
8.2803 4.5926 -2.0015 0.9620
7.8368 5.3142 -2.0015 0.9620
7.3305 5.9933 -2.0015 0.9620
6.1466 7.2025 -2.0015 0.9620
5.4578 7.6939 -1.9940 0.9622
1.4764 8.6232 -1.8493 0.9649
-0.8637 8.7059 -1.8493 0.9649
-1.6382 8.5939 -1.8493 0.9649
-2.3997 8.4131 -1.8493 0.9649
-4.8676 8.0056 -1.9805 0.9624
-7.4419 5.8544 -2.0015 0.9620
-9.0213 2.8761 -2.0015 0.9620
-9.2422 2.0584 -2.0015 0.9620
-9.3892 1.2243 -2.0015 0.9620
-9.4610 0.3803 -2.0015 0.9620
-9.3776 -1.3099 -2.0015 0.9620
-9.2231 -2.1427 -2.0015 0.9620
-8.9947 -2.9583 -2.0015 0.9620
-8.3244 -4.5123 -2.0015 0.9620
-7.3882 -5.9220 -2.0015 0.9620
-6.2160 -7.1426 -2.0015 0.9620
-4.8452 -8.1351 -2.0015 0.9620
-4.0989 -8.5355 -2.0015 0.9620
-1.6881 -9.3170 -2.0015 0.9620
-0.8488 -9.4306 -2.0015 0.9620
-0.0026 -9.4687 -2.0015 0.9620
1.6830 -9.3179 -2.0015 0.9620
3.3148 -8.8695 -2.0015 0.9620
6.8258 -6.5624 -2.0015 0.9620
9.2219 -2.1478 -2.0015 0.9620
9.4569 -0.4719 -2.0015 0.9620
9.4613 0.3751 -2.0015 0.9620
9.3899 1.2191 -2.0015 0.9620
9.2434 2.0533 -2.0015 0.9620
9.0229 2.8711 -2.0015 0.9620
8.7302 3.6660 -2.0015 0.9620
8.3677 4.4315 -2.0015 0.9620
7.9382 5.1615 -2.0015 0.9620
7.4452 5.8502 -2.0015 0.9620
5.6105 7.5933 -1.9957 0.9621
4.6970 7.7153 -1.9093 0.9637
1.6430 8.5930 -1.8493 0.9649
0.8685 8.7054 -1.8493 0.9649
0.0871 8.7482 -1.8493 0.9649
-1.4716 8.6240 -1.8493 0.9649
-2.9833 8.2243 -1.8493 0.9649
-3.7063 7.9248 -1.8493 0.9649
-6.7620 6.6281 -2.0015 0.9620
-8.2778 4.5972 -2.0015 0.9620
-8.9639 3.0502 -2.0015 0.9620
-9.4519 0.5634 -2.0015 0.9620
-9.0503 -2.7837 -2.0015 0.9620
-6.9551 -6.4251 -2.0015 0.9620
-5.7002 -7.5606 -2.0015 0.9620
-3.4907 -8.8018 -2.0015 0.9620
-1.8682 -9.2826 -2.0015 0.9620
-0.1859 -9.4669 -2.0015 0.9620
1.5023 -9.3488 -2.0015 0.9620
2.3317 -9.1771 -2.0015 0.9620
3.1425 -8.9320 -2.0015 0.9620
4.6823 -8.2299 -2.0015 0.9620
5.3990 -7.7786 -2.0015 0.9620
6.0726 -7.2650 -2.0015 0.9620
6.6975 -6.6933 -2.0015 0.9620
7.2688 -6.0680 -2.0015 0.9620
7.7820 -5.3941 -2.0015 0.9620
9.1786 -2.3259 -2.0015 0.9620
9.4667 0.1919 -2.0015 0.9620
9.4117 1.0371 -2.0015 0.9620
9.0768 2.6959 -2.0015 0.9620
8.4519 4.2687 -2.0015 0.9620
8.0366 5.0069 -2.0015 0.9620
7.5570 5.7050 -2.0015 0.9620
5.7615 7.4899 -1.9974 0.9621
4.9015 7.7112 -1.9314 0.9633
3.3038 8.1008 -1.8493 0.9649
1.8090 8.5596 -1.8493 0.9649
-0.5261 8.7328 -1.8493 0.9649
-2.0722 8.4997 -1.8493 0.9649
-3.5522 7.9951 -1.8493 0.9649
-5.3178 7.8222 -1.9994 0.9621
-6.6324 6.7578 -2.0015 0.9620
-8.1873 4.7566 -2.0015 0.9620
-8.5796 4.0059 -2.0015 0.9620
-9.4392 0.7463 -2.0015 0.9620
-9.4681 -0.1002 -2.0015 0.9620
-9.1024 -2.6080 -2.0015 0.9620
-8.4928 -4.1867 -2.0015 0.9620
-6.4878 -6.8967 -2.0015 0.9620
-5.8455 -7.4489 -2.0015 0.9620
-5.1565 -7.9415 -2.0015 0.9620
-4.4262 -8.3705 -2.0015 0.9620
-2.8654 -9.0247 -2.0015 0.9620
-2.0475 -9.2447 -2.0015 0.9620
-1.2132 -9.3906 -2.0015 0.9620
2.1536 -9.2205 -2.0015 0.9620
3.7606 -8.6899 -2.0015 0.9620
4.5221 -8.3190 -2.0015 0.9620
5.9308 -7.3812 -2.0015 0.9620
7.1500 -6.2075 -2.0015 0.9620
7.6761 -5.5437 -2.0015 0.9620
8.1408 -4.8356 -2.0015 0.9620
8.5404 -4.0888 -2.0015 0.9620
9.1318 -2.5032 -2.0015 0.9620
9.3190 -1.6771 -2.0015 0.9620
9.4316 -0.8376 -2.0015 0.9620
9.4687 0.0086 -2.0015 0.9620
9.4300 0.8547 -2.0015 0.9620
8.8656 3.3253 -2.0015 0.9620
8.5329 4.1043 -2.0015 0.9620
7.6660 5.5577 -2.0015 0.9620
7.1387 6.2205 -2.0015 0.9620
5.9107 7.3836 -1.9992 0.9621
5.1109 7.7069 -1.9547 0.9629
3.4600 8.0354 -1.8493 0.9649
1.2048 8.6653 -1.8493 0.9649
-0.3569 8.7414 -1.8493 0.9649
-1.1367 8.6745 -1.8493 0.9649
-1.9073 8.5382 -1.8493 0.9649
-2.6627 8.3336 -1.8493 0.9649
-3.3968 8.0623 -1.8493 0.9649
-4.1740 7.8589 -1.8810 0.9643
-5.1593 7.9143 -1.9970 0.9621
-6.5003 6.8849 -2.0015 0.9620
-7.6221 5.6178 -2.0015 0.9620
-8.5004 4.1712 -2.0015 0.9620
-9.3023 1.7672 -2.0015 0.9620
-9.3319 -1.6038 -2.0015 0.9620
-9.1512 -2.4313 -2.0015 0.9620
-8.8973 -3.2394 -2.0015 0.9620
-8.5723 -4.0215 -2.0015 0.9620
-8.1786 -4.7715 -2.0015 0.9620
-7.7195 -5.4832 -2.0015 0.9620
-6.6201 -6.7698 -2.0015 0.9620
-5.9886 -7.3343 -2.0015 0.9620
-3.8288 -8.6600 -2.0015 0.9620
2.7944 -9.0469 -2.0015 0.9620
3.5917 -8.7610 -2.0015 0.9620
5.0939 -7.9817 -2.0015 0.9620
7.0285 -6.3448 -2.0015 0.9620
7.5674 -5.6913 -2.0015 0.9620
8.0457 -4.9923 -2.0015 0.9620
9.0817 -2.6795 -2.0015 0.9620
9.2848 -1.8571 -2.0015 0.9620
9.4671 -0.1747 -2.0015 0.9620
8.6108 3.9383 -2.0015 0.9620
6.6853 6.7054 -2.0015 0.9620
6.0581 7.2745 -2.0011 0.9620
4.3745 7.7215 -1.8759 0.9644
3.6149 7.9669 -1.8493 0.9649
0.5947 8.7284 -1.8493 0.9649
-0.1877 8.7466 -1.8493 0.9649
-1.7417 8.5735 -1.8493 0.9649
-3.2401 8.1266 -1.8493 0.9649
-4.9994 8.0034 -1.9947 0.9622
-6.9668 6.4125 -2.0015 0.9620
-8.4181 4.3350 -2.0015 0.9620
-9.4033 1.1111 -2.0015 0.9620
-9.4649 0.2663 -2.0015 0.9620
-9.4509 -0.5806 -2.0015 0.9620
-9.1966 -2.2537 -2.0015 0.9620
-7.8242 -5.3328 -2.0015 0.9620
-7.3163 -6.0106 -2.0015 0.9620
8.5122 -0.2597 -2.0015 0.9656
8.5013 0.5020 -2.0015 0.9656
8.4225 1.2597 -2.0015 0.9656
8.0637 2.7389 -2.0015 0.9656
7.4473 4.1306 -2.0015 0.9656
7.0484 4.7796 -2.0015 0.9656
6.5931 5.3903 -2.0015 0.9656
6.0850 5.9580 -2.0015 0.9656
5.5282 6.4779 -2.0015 0.9656
4.2831 7.3522 -1.9998 0.9656
3.5988 7.6838 -1.9941 0.9657
2.8022 7.7117 -1.9284 0.9668
-0.0740 7.8682 -1.8493 0.9682
-1.4740 7.7323 -1.8500 0.9682
-2.9711 7.7211 -1.9443 0.9666
-3.7473 7.6243 -1.9966 0.9657
-5.6491 6.3728 -2.0015 0.9656
-7.1370 4.6462 -2.0015 0.9656
-8.4447 1.1011 -2.0015 0.9656
-8.5093 0.3421 -2.0015 0.9656
-7.0943 -4.7112 -2.0015 0.9656
-5.5907 -6.4241 -2.0015 0.9656
-4.9942 -6.8980 -2.0015 0.9656
-3.6865 -7.6769 -2.0015 0.9656
-2.9857 -7.9756 -2.0015 0.9656
-2.2611 -8.2105 -2.0015 0.9656
-1.5183 -8.3797 -2.0015 0.9656
-0.7634 -8.4819 -2.0015 0.9656
0.7587 -8.4823 -2.0015 0.9656
3.6823 -7.6789 -2.0015 0.9656
4.3538 -7.3191 -2.0015 0.9656
6.1391 -5.9022 -2.0015 0.9656
6.6420 -5.3300 -2.0015 0.9656
7.4847 -4.0625 -2.0015 0.9656
8.0884 -2.6652 -2.0015 0.9656
8.2942 -1.9317 -2.0015 0.9656
8.4336 -1.1828 -2.0015 0.9656
8.5056 -0.4244 -2.0015 0.9656
8.1152 2.5823 -2.0015 0.9656
7.8520 3.2972 -2.0015 0.9656
7.1396 4.6423 -2.0015 0.9656
5.6526 6.3697 -2.0015 0.9656
5.0608 6.8493 -2.0015 0.9656
4.4276 7.2728 -2.0011 0.9656
2.9714 7.7093 -1.9418 0.9666
2.2064 7.7194 -1.8869 0.9675
0.0783 7.8682 -1.8493 0.9682
-3.5964 7.6898 -1.9952 0.9657
-4.9234 6.9488 -2.0015 0.9656
-5.5246 6.4810 -2.0015 0.9656
-6.5901 5.3940 -2.0015 0.9656
-7.0458 4.7835 -2.0015 0.9656
-7.7848 3.4529 -2.0015 0.9656
-8.0622 2.7434 -2.0015 0.9656
-8.4218 1.2644 -2.0015 0.9656
-8.5011 0.5067 -2.0015 0.9656
-8.5123 -0.2550 -2.0015 0.9656
-8.3310 -1.7662 -2.0015 0.9656
-8.1398 -2.5037 -2.0015 0.9656
-7.5641 -3.9126 -2.0015 0.9656
-5.1268 -6.8000 -2.0015 0.9656
-4.4986 -7.2310 -2.0015 0.9656
-3.8344 -7.6041 -2.0015 0.9656
-3.1396 -7.9163 -2.0015 0.9656
-2.4196 -8.1652 -2.0015 0.9656
-1.6802 -8.3488 -2.0015 0.9656
-0.1672 -8.5145 -2.0015 0.9656
1.3512 -8.4083 -2.0015 0.9656
4.8559 -6.9961 -2.0015 0.9656
6.0237 -6.0199 -2.0015 0.9656
6.5376 -5.4575 -2.0015 0.9656
6.9992 -4.8515 -2.0015 0.9656
7.7510 -3.5281 -2.0015 0.9656
8.0352 -2.8213 -2.0015 0.9656
8.4091 -1.3458 -2.0015 0.9656
8.4958 -0.5890 -2.0015 0.9656
8.5144 0.1726 -2.0015 0.9656
8.4649 0.9328 -2.0015 0.9656
8.3477 1.6855 -2.0015 0.9656
8.1637 2.4247 -2.0015 0.9656
7.6016 3.8392 -2.0015 0.9656
7.2281 4.5032 -2.0015 0.9656
6.7968 5.1311 -2.0015 0.9656
6.3111 5.7180 -2.0015 0.9656
5.7748 6.2591 -2.0015 0.9656
4.5684 7.1871 -2.0015 0.9656
3.8980 7.5475 -1.9964 0.9657
3.1431 7.7066 -1.9561 0.9664
0.9326 7.8131 -1.8493 0.9682
-0.4732 7.8543 -1.8493 0.9682
-1.1732 7.7806 -1.8493 0.9682
-3.4367 7.7350 -1.9893 0.9658
-5.9652 6.0779 -2.0015 0.9656
-6.4845 5.5205 -2.0015 0.9656
-8.0076 2.8989 -2.0015 0.9656
-8.3957 1.4272 -2.0015 0.9656
-8.4896 0.6712 -2.0015 0.9656
-8.5157 -0.0902 -2.0015 0.9656
-8.4735 -0.8508 -2.0015 0.9656
-8.1867 -2.3456 -2.0015 0.9656
-7.6384 -3.7655 -2.0015 0.9656
-7.2714 -4.4330 -2.0015 0.9656
-6.8461 -5.0651 -2.0015 0.9656
-6.3661 -5.6566 -2.0015 0.9656
-3.9809 -7.5284 -2.0015 0.9656
-3.2922 -7.8540 -2.0015 0.9656
-1.8415 -8.3147 -2.0015 0.9656
-1.0911 -8.4460 -2.0015 0.9656
0.4298 -8.5053 -2.0015 0.9656
1.1882 -8.4329 -2.0015 0.9656
4.0672 -7.4822 -2.0015 0.9656
4.7196 -7.0888 -2.0015 0.9656
5.3342 -6.6386 -2.0015 0.9656
5.9061 -6.1354 -2.0015 0.9656
6.4307 -5.5831 -2.0015 0.9656
7.3219 -4.3491 -2.0015 0.9656
8.2132 -2.2513 -2.0015 0.9656
8.4814 0.7687 -2.0015 0.9656
8.3787 1.5236 -2.0015 0.9656
7.9737 2.9908 -2.0015 0.9656
7.6745 3.6914 -2.0015 0.9656
7.3139 4.3624 -2.0015 0.9656
6.4206 5.5947 -2.0015 0.9656
5.8949 6.1461 -2.0015 0.9656
5.3221 6.6483 -2.0015 0.9656
1.0836 7.7936 -1.8493 0.9682
0.3828 7.8592 -1.8493 0.9682
-0.3210 7.8620 -1.8493 0.9682
-1.7256 7.7247 -1.8602 0.9680
-3.2566 7.7297 -1.9713 0.9661
-3.9898 7.5122 -1.9991 0.9657
-4.6507 7.1341 -2.0015 0.9656
-5.2697 6.6899 -2.0015 0.9656
-6.3764 5.6450 -2.0015 0.9656
-6.8553 5.0526 -2.0015 0.9656
-7.2794 4.4198 -2.0015 0.9656
-7.6453 3.7516 -2.0015 0.9656
-7.9499 3.0534 -2.0015 0.9656
-8.1910 2.3307 -2.0015 0.9656
-8.3665 1.5894 -2.0015 0.9656
-8.4751 0.8354 -2.0015 0.9656
-8.5158 0.0747 -2.0015 0.9656
-8.0023 -2.9135 -2.0015 0.9656
-7.3558 -4.2915 -2.0015 0.9656
-4.7751 -7.0514 -2.0015 0.9656
-4.1259 -7.4499 -2.0015 0.9656
-2.0021 -8.2775 -2.0015 0.9656
-0.4966 -8.5016 -2.0015 0.9656
0.2651 -8.5120 -2.0015 0.9656
1.7761 -8.3289 -2.0015 0.9656
2.5133 -8.1368 -2.0015 0.9656
3.2304 -7.8797 -2.0015 0.9656
4.5815 -7.1788 -2.0015 0.9656
5.7862 -6.2486 -2.0015 0.9656
6.8061 -5.1188 -2.0015 0.9656
7.2363 -4.4900 -2.0015 0.9656
7.6086 -3.8254 -2.0015 0.9656
7.9200 -3.1302 -2.0015 0.9656
8.1681 -2.4099 -2.0015 0.9656
8.4666 -0.9174 -2.0015 0.9656
8.5147 -0.1571 -2.0015 0.9656
8.4947 0.6044 -2.0015 0.9656
8.4067 1.3611 -2.0015 0.9656
8.2514 2.1069 -2.0015 0.9656
7.3970 4.2200 -2.0015 0.9656
6.9903 4.8642 -2.0015 0.9656
5.4498 6.5441 -2.0015 0.9656
4.1925 7.4002 -1.9989 0.9657
1.2343 7.7711 -1.8493 0.9682
0.5349 7.8503 -1.8493 0.9682
-1.5701 7.7292 -1.8536 0.9681
-3.0797 7.7244 -1.9544 0.9664
-3.8407 7.5822 -1.9976 0.9657
-5.7254 6.3043 -2.0015 0.9656
-6.2659 5.7674 -2.0015 0.9656
-6.7562 5.1844 -2.0015 0.9656
-7.1925 4.5599 -2.0015 0.9656
-8.4573 0.9993 -2.0015 0.9656
-8.5128 0.2395 -2.0015 0.9656
-8.5001 -0.5222 -2.0015 0.9656
-8.2714 -2.0270 -2.0015 0.9656
-8.0572 -2.7580 -2.0015 0.9656
-7.7785 -3.4670 -2.0015 0.9656
-7.4375 -4.1482 -2.0015 0.9656
-6.5803 -5.4060 -2.0015 0.9656
7.7266 -0.2357 -2.0015 0.9686
7.5124 1.8221 -2.0015 0.9686
7.3195 2.4861 -2.0015 0.9686
6.7600 3.7494 -2.0015 0.9686
5.0181 5.8801 -2.0015 0.9686
3.8912 6.6794 -2.0015 0.9686
3.2787 7.0004 -2.0015 0.9686
2.6397 7.2645 -2.0012 0.9686
1.9767 7.4591 -1.9979 0.9686
1.3007 7.5970 -1.9956 0.9687
-0.7605 7.6654 -1.9944 0.9687
-1.4436 7.5727 -1.9960 0.9686
-2.7761 7.2145 -2.0015 0.9686
-4.0161 6.6051 -2.0015 0.9686
-6.4784 4.2174 -2.0015 0.9686
-7.3650 2.3481 -2.0015 0.9686
-7.7240 0.3105 -2.0015 0.9686
-7.5297 -1.7493 -2.0015 0.9686
-6.7960 -3.6838 -2.0015 0.9686
-6.0317 -4.8347 -2.0015 0.9686
-5.0747 -5.8312 -2.0015 0.9686
-2.0524 -7.4528 -2.0015 0.9686
-1.3782 -7.6064 -2.0015 0.9686
-0.0021 -7.7302 -2.0015 0.9686
1.3740 -7.6071 -2.0015 0.9686
2.0483 -7.4539 -2.0015 0.9686
2.7062 -7.2410 -2.0015 0.9686
3.3425 -6.9702 -2.0015 0.9686
3.9520 -6.6437 -2.0015 0.9686
4.5299 -6.2639 -2.0015 0.9686
7.3419 -2.4192 -2.0015 0.9686
7.6553 -1.0737 -2.0015 0.9686
7.7206 -0.3852 -2.0015 0.9686
7.6659 0.9953 -2.0015 0.9686
7.3663 2.3440 -2.0015 0.9686
7.1273 2.9929 -2.0015 0.9686
6.8314 3.6178 -2.0015 0.9686
5.6271 5.3002 -2.0015 0.9686
2.7802 7.2130 -2.0015 0.9686
2.1214 7.4218 -1.9986 0.9686
0.7647 7.6650 -1.9945 0.9687
0.0767 7.6997 -1.9937 0.9687
-0.6119 7.6779 -1.9942 0.9687
-1.2965 7.5976 -1.9956 0.9687
-5.0148 5.8829 -2.0015 0.9686
-5.9819 4.8962 -2.0015 0.9686
-6.3955 4.3420 -2.0015 0.9686
-6.7580 3.7531 -2.0015 0.9686
-7.5114 1.8263 -2.0015 0.9686
-7.6752 -0.9210 -2.0015 0.9686
-7.5621 -1.6032 -2.0015 0.9686
-7.3886 -2.2726 -2.0015 0.9686
-5.6781 -5.2455 -2.0015 0.9686
-5.1867 -5.7319 -2.0015 0.9686
-4.6537 -6.1725 -2.0015 0.9686
-4.0835 -6.5636 -2.0015 0.9686
-3.4806 -6.9023 -2.0015 0.9686
-0.8418 -7.6842 -2.0015 0.9686
-0.1518 -7.7287 -2.0015 0.9686
1.2265 -7.6323 -2.0015 0.9686
1.9036 -7.4922 -2.0015 0.9686
4.4078 -6.3504 -2.0015 0.9686
4.9576 -5.9311 -2.0015 0.9686
5.9343 -4.9539 -2.0015 0.9686
6.7213 -3.8184 -2.0015 0.9686
7.2937 -2.5609 -2.0015 0.9686
7.4934 -1.8989 -2.0015 0.9686
7.6331 -1.2216 -2.0015 0.9686
7.7117 -0.5346 -2.0015 0.9686
7.7286 0.1567 -2.0015 0.9686
7.5773 1.5300 -2.0015 0.9686
7.4103 2.2010 -2.0015 0.9686
6.9001 3.4849 -2.0015 0.9686
6.1695 4.6576 -2.0015 0.9686
5.7286 5.1903 -2.0015 0.9686
4.1468 6.5238 -2.0015 0.9686
2.9192 7.1578 -2.0015 0.9686
-0.4631 7.6876 -1.9941 0.9687
-1.8274 7.4954 -1.9975 0.9686
-2.4937 7.3134 -2.0006 0.9686
-3.1387 7.0643 -2.0015 0.9686
-4.3461 6.3928 -2.0015 0.9686
-4.9000 5.9788 -2.0015 0.9686
-5.4147 5.5170 -2.0015 0.9686
-5.8860 5.0111 -2.0015 0.9686
-6.3103 4.4650 -2.0015 0.9686
-6.6841 3.8832 -2.0015 0.9686
-7.0043 3.2704 -2.0015 0.9686
-7.6209 1.2955 -2.0015 0.9686
-7.7062 0.6093 -2.0015 0.9686
-7.7298 -0.0818 -2.0015 0.9686
-7.6915 -0.7723 -2.0015 0.9686
-7.5917 -1.4565 -2.0015 0.9686
-7.4312 -2.1291 -2.0015 0.9686
-7.2112 -2.7847 -2.0015 0.9686
-6.2143 -4.5976 -2.0015 0.9686
-5.2966 -5.6304 -2.0015 0.9686
-4.7723 -6.0812 -2.0015 0.9686
-2.9884 -7.1292 -2.0015 0.9686
-1.6716 -7.5473 -2.0015 0.9686
0.3901 -7.7204 -2.0015 0.9686
1.0785 -7.6546 -2.0015 0.9686
2.4239 -7.3404 -2.0015 0.9686
3.0701 -7.0944 -2.0015 0.9686
3.6919 -6.7917 -2.0015 0.9686
5.3610 -5.5692 -2.0015 0.9686
5.8373 -5.0678 -2.0015 0.9686
6.2668 -4.5259 -2.0015 0.9686
6.9724 -3.3380 -2.0015 0.9686
7.7302 0.0070 -2.0015 0.9686
7.6055 1.3830 -2.0015 0.9686
7.2378 2.7148 -2.0015 0.9686
5.3509 5.5789 -2.0015 0.9686
3.0573 7.1000 -2.0015 0.9686
2.4087 7.3392 -2.0000 0.9686
-0.3142 7.6947 -1.9940 0.9687
-2.3508 7.3575 -1.9999 0.9686
-3.0013 7.1238 -2.0015 0.9686
-4.2215 6.4757 -2.0015 0.9686
-4.7833 6.0726 -2.0015 0.9686
-6.2227 4.5863 -2.0015 0.9686
-7.2163 2.7716 -2.0015 0.9686
-7.4351 2.1156 -2.0015 0.9686
-7.6185 -1.3093 -2.0015 0.9686
-7.4710 -1.9849 -2.0015 0.9686
-6.6770 -3.8954 -2.0015 0.9686
-6.3022 -4.4765 -2.0015 0.9686
-5.8769 -5.0218 -2.0015 0.9686
-5.4046 -5.5269 -2.0015 0.9686
-4.8891 -5.9877 -2.0015 0.9686
-3.7451 -6.7624 -2.0015 0.9686
-3.1258 -7.0700 -2.0015 0.9686
-2.4815 -7.3211 -2.0015 0.9686
0.9301 -7.6740 -2.0015 0.9686
1.6122 -7.5602 -2.0015 0.9686
4.7243 -6.1186 -2.0015 0.9686
5.7381 -5.1799 -2.0015 0.9686
6.1780 -4.6464 -2.0015 0.9686
6.9064 -3.4724 -2.0015 0.9686
7.1891 -2.8413 -2.0015 0.9686
7.4143 -2.1875 -2.0015 0.9686
7.5801 -1.5162 -2.0015 0.9686
7.7289 -0.1426 -2.0015 0.9686
7.7107 0.5487 -2.0015 0.9686
7.6308 1.2355 -2.0015 0.9686
7.2890 2.5742 -2.0015 0.9686
6.3452 4.4153 -2.0015 0.9686
5.9253 4.9646 -2.0015 0.9686
5.4579 5.4743 -2.0015 0.9686
4.9468 5.9401 -2.0015 0.9686
1.8863 7.4809 -1.9976 0.9686
1.2089 7.6112 -1.9954 0.9687
-0.1652 7.6990 -1.9939 0.9687
-0.8529 7.6563 -1.9946 0.9687
-2.2072 7.3990 -1.9992 0.9686
-2.8629 7.1805 -2.0015 0.9686
-4.0954 6.5562 -2.0015 0.9686
-5.1971 5.7225 -2.0015 0.9686
-5.6877 5.2351 -2.0015 0.9686
-6.5287 4.1391 -2.0015 0.9686
-6.8725 3.5391 -2.0015 0.9686
-7.1613 2.9107 -2.0015 0.9686
-7.3927 2.2592 -2.0015 0.9686
-7.5650 1.5895 -2.0015 0.9686
-7.7272 0.2174 -2.0015 0.9686
-7.7157 -0.4740 -2.0015 0.9686
-7.6424 -1.1616 -2.0015 0.9686
-7.5081 -1.8399 -2.0015 0.9686
-6.7511 -3.7654 -2.0015 0.9686
-5.9730 -4.9071 -2.0015 0.9686
7.0193 -0.8463 -2.0015 0.9710
7.0668 -0.2156 -2.0015 0.9710
7.0578 0.4168 -2.0015 0.9710
6.8709 1.6665 -2.0015 0.9710
6.4645 2.8630 -2.0015 0.9710
6.1828 3.4292 -2.0015 0.9710
5.8516 3.9680 -2.0015 0.9710
4.0906 5.7666 -2.0015 0.9710
3.5589 6.1090 -2.0015 0.9710
2.9987 6.4026 -2.0015 0.9710
2.4146 6.6450 -2.0015 0.9710
1.1931 6.9687 -2.0015 0.9710
-0.0665 7.0698 -2.0015 0.9710
-1.3239 6.9450 -2.0015 0.9710
-2.5391 6.5984 -2.0015 0.9710
-3.1186 6.3451 -2.0015 0.9710
-3.6731 6.0410 -2.0015 0.9710
-4.1983 5.6886 -2.0015 0.9710
-5.1439 4.8504 -2.0015 0.9710
-5.9252 3.8573 -2.0015 0.9710
-6.9010 1.5370 -2.0015 0.9710
-7.0644 0.2840 -2.0015 0.9710
-6.7161 -2.2089 -2.0015 0.9710
-6.2156 -3.3692 -2.0015 0.9710
-5.5166 -4.4219 -2.0015 0.9710
-5.0994 -4.8972 -2.0015 0.9710
-4.6414 -5.3333 -2.0015 0.9710
-4.1462 -5.7267 -2.0015 0.9710
-2.4788 -6.6213 -2.0015 0.9710
-1.8771 -6.8163 -2.0015 0.9710
-0.6338 -7.0416 -2.0015 0.9710
1.2566 -6.9575 -2.0015 0.9710
5.0967 -4.9000 -2.0015 0.9710
5.8875 -3.9145 -2.0015 0.9710
6.8858 -1.6037 -2.0015 0.9710
7.0613 -0.3524 -2.0015 0.9710
7.0645 0.2801 -2.0015 0.9710
7.0112 0.9103 -2.0015 0.9710
6.7372 2.1438 -2.0015 0.9710
6.5187 2.7373 -2.0015 0.9710
6.2480 3.3089 -2.0015 0.9710
5.9273 3.8540 -2.0015 0.9710
5.5592 4.3683 -2.0015 0.9710
5.1466 4.8476 -2.0015 0.9710
4.6928 5.2881 -2.0015 0.9710
4.2014 5.6863 -2.0015 0.9710
3.6765 6.0390 -2.0015 0.9710
1.9430 6.7978 -2.0015 0.9710
1.3278 6.9443 -2.0015 0.9710
0.7019 7.0352 -2.0015 0.9710
0.0704 7.0697 -2.0015 0.9710
-0.5617 7.0477 -2.0015 0.9710
-1.8073 6.8352 -2.0015 0.9710
-2.4109 6.6463 -2.0015 0.9710
-2.9952 6.4043 -2.0015 0.9710
-3.5555 6.1110 -2.0015 0.9710
-4.5866 5.3805 -2.0015 0.9710
-5.4711 4.4781 -2.0015 0.9710
-5.8494 3.9712 -2.0015 0.9710
-6.9917 1.0497 -2.0015 0.9710
-7.0575 0.4207 -2.0015 0.9710
-7.0669 -0.2117 -2.0015 0.9710
-7.0197 -0.8424 -2.0015 0.9710
-6.2797 -3.2483 -2.0015 0.9710
-5.6012 -4.3142 -2.0015 0.9710
-5.1932 -4.7975 -2.0015 0.9710
-4.7437 -5.2424 -2.0015 0.9710
-3.1833 -6.3129 -2.0015 0.9710
-1.3949 -6.9311 -2.0015 0.9710
0.4934 -7.0528 -2.0015 0.9710
1.1217 -6.9805 -2.0015 0.9710
1.7410 -6.8524 -2.0015 0.9710
3.4962 -6.1451 -2.0015 0.9710
4.0314 -5.8081 -2.0015 0.9710
6.4348 -2.9290 -2.0015 0.9710
6.6708 -2.3422 -2.0015 0.9710
6.9812 -1.1173 -2.0015 0.9710
7.0531 -0.4890 -2.0015 0.9710
7.0275 0.7744 -2.0015 0.9710
6.9302 1.3993 -2.0015 0.9710
6.7774 2.0130 -2.0015 0.9710
6.5704 2.6106 -2.0015 0.9710
6.0008 3.7385 -2.0015 0.9710
5.6427 4.2598 -2.0015 0.9710
5.2394 4.7470 -2.0015 0.9710
4.7943 5.1963 -2.0015 0.9710
3.7927 5.9667 -2.0015 0.9710
2.6700 6.5466 -2.0015 0.9710
2.0742 6.7590 -2.0015 0.9710
1.4619 6.9173 -2.0015 0.9710
0.2072 7.0670 -2.0015 0.9710
-0.4252 7.0573 -2.0015 0.9710
-1.0541 6.9911 -2.0015 0.9710
-2.8706 6.4611 -2.0015 0.9710
-3.4365 6.1787 -2.0015 0.9710
-3.9749 5.8469 -2.0015 0.9710
-5.3834 4.5831 -2.0015 0.9710
-6.4062 2.9911 -2.0015 0.9710
-6.6479 2.4067 -2.0015 0.9710
-6.9701 1.1848 -2.0015 0.9710
-7.0481 0.5572 -2.0015 0.9710
-7.0697 -0.0748 -2.0015 0.9710
-7.0347 -0.7063 -2.0015 0.9710
-6.7966 -1.9473 -2.0015 0.9710
-6.3414 -3.1261 -2.0015 0.9710
-5.2851 -4.6961 -2.0015 0.9710
-4.3647 -5.5619 -2.0015 0.9710
-3.8502 -5.9297 -2.0015 0.9710
-0.9058 -7.0118 -2.0015 0.9710
2.8080 -6.4886 -2.0015 0.9710
3.9182 -5.8851 -2.0015 0.9710
4.4284 -5.5114 -2.0015 0.9710
4.9032 -5.0936 -2.0015 0.9710
6.3769 -3.0530 -2.0015 0.9710
6.9583 -1.2522 -2.0015 0.9710
7.0701 0.0064 -2.0015 0.9710
7.0412 0.6382 -2.0015 0.9710
6.8151 1.8814 -2.0015 0.9710
6.6198 2.4829 -2.0015 0.9710
6.3714 3.0646 -2.0015 0.9710
6.0720 3.6217 -2.0015 0.9710
3.9075 5.8922 -2.0015 0.9710
2.7962 6.4937 -2.0015 0.9710
2.2047 6.7175 -2.0015 0.9710
0.9737 7.0027 -2.0015 0.9710
0.3440 7.0617 -2.0015 0.9710
-0.9186 7.0102 -2.0015 0.9710
-1.5414 6.9000 -2.0015 0.9710
-2.1518 6.7347 -2.0015 0.9710
-3.8610 5.9227 -2.0015 0.9710
-4.3749 5.5540 -2.0015 0.9710
-5.2937 4.6865 -2.0015 0.9710
-5.6913 4.1947 -2.0015 0.9710
-6.0434 3.6693 -2.0015 0.9710
-7.0360 0.6935 -2.0015 0.9710
-7.0698 0.0620 -2.0015 0.9710
-7.0471 -0.5700 -2.0015 0.9710
-6.9679 -1.1975 -2.0015 0.9710
-6.8330 -1.8154 -2.0015 0.9710
-5.7640 -4.0942 -2.0015 0.9710
-4.9431 -5.0549 -2.0015 0.9710
-4.4716 -5.4764 -2.0015 0.9710
-1.6621 -6.8719 -2.0015 0.9710
-1.0414 -6.9930 -2.0015 0.9710
0.2201 -7.0667 -2.0015 0.9710
1.4745 -6.9146 -2.0015 0.9710
2.0865 -6.7552 -2.0015 0.9710
3.8035 -5.9598 -2.0015 0.9710
4.3209 -5.5961 -2.0015 0.9710
5.2481 -4.7375 -2.0015 0.9710
6.3166 -3.1759 -2.0015 0.9710
6.7811 -2.0007 -2.0015 0.9710
7.0289 -0.7616 -2.0015 0.9710
7.0523 0.5018 -2.0015 0.9710
6.9792 1.1300 -2.0015 0.9710
6.8503 1.7492 -2.0015 0.9710
6.4295 2.9407 -2.0015 0.9710
5.4193 4.5407 -2.0015 0.9710
4.9918 5.0068 -2.0015 0.9710
1.7286 6.8555 -2.0015 0.9710
0.4806 7.0537 -2.0015 0.9710
-0.1516 7.0685 -2.0015 0.9710
-2.0210 6.7750 -2.0015 0.9710
-2.6184 6.5673 -2.0015 0.9710
-3.1948 6.3071 -2.0015 0.9710
-3.7457 5.9963 -2.0015 0.9710
-4.7533 5.2338 -2.0015 0.9710
-5.2020 4.7881 -2.0015 0.9710
-5.9712 3.7856 -2.0015 0.9710
-6.2856 3.2368 -2.0015 0.9710
-6.7614 2.0662 -2.0015 0.9710
-7.0212 0.8296 -2.0015 0.9710
-7.0568 -0.4335 -2.0015 0.9710
-6.6890 -2.2897 -2.0015 0.9710
-6.4577 -2.8783 -2.0015 0.9710
-6.1746 -3.4439 -2.0015 0.9710
-5.8421 -3.9819 -2.0015 0.9710
6.5042 -0.1985 -2.0015 0.9731
6.4959 0.3836 -2.0015 0.9731
6.4357 0.9625 -2.0015 0.9731
6.3239 1.5338 -2.0015 0.9731
5.9499 2.6351 -2.0015 0.9731
5.6906 3.1562 -2.0015 0.9731
5.0378 4.1188 -2.0015 0.9731
4.6496 4.5525 -2.0015 0.9731
4.2242 4.9498 -2.0015 0.9731
3.7649 5.3075 -2.0015 0.9731
1.0981 6.4139 -2.0015 0.9731
-0.0612 6.5070 -2.0015 0.9731
-0.6424 6.4755 -2.0015 0.9731
-1.2185 6.3921 -2.0015 0.9731
-1.7849 6.2577 -2.0015 0.9731
-2.8703 5.8400 -2.0015 0.9731
-5.7489 3.0487 -2.0015 0.9731
-5.9983 2.5227 -2.0015 0.9731
-6.3516 1.4146 -2.0015 0.9731
-6.3384 -1.4725 -2.0015 0.9731
-5.9751 -2.5774 -2.0015 0.9731
-5.7208 -3.1010 -2.0015 0.9731
-5.0775 -4.0698 -2.0015 0.9731
-4.6935 -4.5073 -2.0015 0.9731
-3.3298 -5.5907 -2.0015 0.9731
-2.8169 -5.8659 -2.0015 0.9731
-2.2814 -6.0942 -2.0015 0.9731
-1.7277 -6.2737 -2.0015 0.9731
-0.0018 -6.5073 -2.0015 0.9731
0.5797 -6.4814 -2.0015 0.9731
1.7242 -6.2747 -2.0015 0.9731
3.3267 -5.5926 -2.0015 0.9731
4.6909 -4.5099 -2.0015 0.9731
5.0752 -4.0727 -2.0015 0.9731
5.4189 -3.6028 -2.0015 0.9731
6.1804 -2.0365 -2.0015 0.9731
6.4442 -0.9038 -2.0015 0.9731
6.4992 -0.3243 -2.0015 0.9731
6.5021 0.2578 -2.0015 0.9731
6.3524 1.4111 -2.0015 0.9731
5.4554 3.5472 -2.0015 0.9731
4.7369 4.4617 -2.0015 0.9731
4.3192 4.8671 -2.0015 0.9731
3.3838 5.5583 -2.0015 0.9731
2.3403 6.0718 -2.0015 0.9731
1.7883 6.2567 -2.0015 0.9731
0.6460 6.4751 -2.0015 0.9731
-0.5170 6.4867 -2.0015 0.9731
-1.6634 6.2910 -2.0015 0.9731
-2.7567 5.8945 -2.0015 0.9731
-3.2725 5.6245 -2.0015 0.9731
-3.7620 5.3096 -2.0015 0.9731
-5.0356 4.1216 -2.0015 0.9731
-5.3837 3.6551 -2.0015 0.9731
-5.6888 3.1594 -2.0015 0.9731
-5.9484 2.6384 -2.0015 0.9731
-6.4351 0.9661 -2.0015 0.9731
-6.4609 -0.7753 -2.0015 0.9731
-6.3658 -1.3496 -2.0015 0.9731
-5.4895 -3.4942 -2.0015 0.9731
-5.1553 -3.9708 -2.0015 0.9731
-4.3661 -4.8251 -2.0015 0.9731
-3.4374 -5.5252 -2.0015 0.9731
-2.9299 -5.8103 -2.0015 0.9731
-2.3990 -6.0489 -2.0015 0.9731
-1.8488 -6.2391 -2.0015 0.9731
-0.7087 -6.4685 -2.0015 0.9731
-0.1278 -6.5060 -2.0015 0.9731
0.4542 -6.4914 -2.0015 0.9731
1.0324 -6.4248 -2.0015 0.9731
3.2179 -5.6559 -2.0015 0.9731
4.1733 -4.9928 -2.0015 0.9731
4.6028 -4.5999 -2.0015 0.9731
4.9954 -4.1701 -2.0015 0.9731
5.3481 -3.7070 -2.0015 0.9731
5.6580 -3.2143 -2.0015 0.9731
5.9226 -2.6958 -2.0015 0.9731
6.3079 -1.5985 -2.0015 0.9731
6.4255 -1.0284 -2.0015 0.9731
6.4917 -0.4500 -2.0015 0.9731
6.5059 0.1319 -2.0015 0.9731
6.3785 1.2879 -2.0015 0.9731
6.2379 1.8528 -2.0015 0.9731
5.5231 3.4409 -2.0015 0.9731
4.4126 4.7826 -2.0015 0.9731
3.4908 5.4917 -2.0015 0.9731
2.9860 5.7817 -2.0015 0.9731
1.3456 6.3666 -2.0015 0.9731
0.7712 6.4614 -2.0015 0.9731
0.1907 6.5045 -2.0015 0.9731
-0.9702 6.4345 -2.0015 0.9731
-3.1630 5.6868 -2.0015 0.9731
-4.5580 4.6442 -2.0015 0.9731
-5.6266 3.2689 -2.0015 0.9731
-5.8962 2.7530 -2.0015 0.9731
-6.1186 2.2151 -2.0015 0.9731
-6.2921 1.6594 -2.0015 0.9731
-6.3907 -1.2261 -2.0015 0.9731
-6.2556 -1.7923 -2.0015 0.9731
-6.0704 -2.3441 -2.0015 0.9731
-5.8366 -2.8772 -2.0015 0.9731
-5.5561 -3.3873 -2.0015 0.9731
-5.2312 -3.8703 -2.0015 0.9731
-4.8644 -4.3223 -2.0015 0.9731
-4.4587 -4.7397 -2.0015 0.9731
-4.0173 -5.1192 -2.0015 0.9731
-3.0419 -5.7525 -2.0015 0.9731
-2.5156 -6.0013 -2.0015 0.9731
-1.9692 -6.2021 -2.0015 0.9731
-0.2537 -6.5023 -2.0015 0.9731
0.3284 -6.4990 -2.0015 0.9731
1.4801 -6.3367 -2.0015 0.9731
3.1078 -5.7172 -2.0015 0.9731
4.0759 -5.0726 -2.0015 0.9731
4.9138 -4.2660 -2.0015 0.9731
5.5947 -3.3232 -2.0015 0.9731
6.0969 -2.2742 -2.0015 0.9731
6.2758 -1.7203 -2.0015 0.9731
6.4044 -1.1525 -2.0015 0.9731
6.4817 -0.5756 -2.0015 0.9731
6.5072 0.0059 -2.0015 0.9731
6.2726 1.7317 -2.0015 0.9731
6.0928 2.2853 -2.0015 0.9731
5.5886 3.3334 -2.0015 0.9731
5.2684 3.8195 -2.0015 0.9731
4.9060 4.2750 -2.0015 0.9731
3.5964 5.4231 -2.0015 0.9731
2.0292 6.1828 -2.0015 0.9731
1.4685 6.3394 -2.0015 0.9731
0.8962 6.4452 -2.0015 0.9731
-0.2655 6.5018 -2.0015 0.9731
-1.9805 6.1985 -2.0015 0.9731
-3.0523 5.7470 -2.0015 0.9731
-4.4673 4.7316 -2.0015 0.9731
-6.0746 2.3331 -2.0015 0.9731
-6.3929 1.2145 -2.0015 0.9731
-6.4759 0.6383 -2.0015 0.9731
-6.5070 0.0571 -2.0015 0.9731
-6.2891 -1.6709 -2.0015 0.9731
-6.1146 -2.2262 -2.0015 0.9731
-5.8912 -2.7637 -2.0015 0.9731
-5.6206 -3.2791 -2.0015 0.9731
-5.3051 -3.7683 -2.0015 0.9731
-4.9471 -4.2273 -2.0015 0.9731
-4.5496 -4.6525 -2.0015 0.9731
-2.6313 -5.9515 -2.0015 0.9731
-2.0889 -6.1628 -2.0015 0.9731
-0.9585 -6.4363 -2.0015 0.9731
-0.3795 -6.4962 -2.0015 0.9731
0.7830 -6.4600 -2.0015 0.9731
1.3571 -6.3642 -2.0015 0.9731
1.9204 -6.2174 -2.0015 0.9731
4.8303 -4.3604 -2.0015 0.9731
5.2006 -3.9113 -2.0015 0.9731
5.5293 -3.4309 -2.0015 0.9731
5.8138 -2.9230 -2.0015 0.9731
6.3809 -1.2763 -2.0015 0.9731
6.4694 -0.7010 -2.0015 0.9731
6.4908 0.4618 -2.0015 0.9731
6.3050 1.6099 -2.0015 0.9731
5.9177 2.7066 -2.0015 0.9731
5.6521 3.2246 -2.0015 0.9731
4.9878 4.1792 -2.0015 0.9731
4.5944 4.6082 -2.0015 0.9731
4.1642 5.0004 -2.0015 0.9731
3.2076 5.6618 -2.0015 0.9731
2.1485 6.1423 -2.0015 0.9731
0.4423 6.4922 -2.0015 0.9731
-1.2955 6.3770 -2.0015 0.9731
-1.8602 6.2357 -2.0015 0.9731
-2.4100 6.0445 -2.0015 0.9731
-3.4475 5.5190 -2.0015 0.9731
-3.9269 5.1888 -2.0015 0.9731
-4.3749 4.8171 -2.0015 0.9731
-5.1625 3.9614 -2.0015 0.9731
-6.0283 2.4502 -2.0015 0.9731
-6.2232 1.9017 -2.0015 0.9731
-6.3682 1.3380 -2.0015 0.9731
-6.4950 -0.3990 -2.0015 0.9731
-6.4334 -0.9778 -2.0015 0.9731
-5.9436 -2.6492 -2.0015 0.9731
-5.0280 -4.1307 -2.0015 0.9731
6.0184 -0.1836 -2.0015 0.9749
6.0108 0.3550 -2.0015 0.9749
5.9550 0.8907 -2.0015 0.9749
5.5055 2.4382 -2.0015 0.9749
4.9835 3.3794 -2.0015 0.9749
4.6616 3.8112 -2.0015 0.9749
4.3023 4.2125 -2.0015 0.9749
3.4837 4.9111 -2.0015 0.9749
3.0309 5.2028 -2.0015 0.9749
-0.5944 5.9918 -2.0015 0.9749
-2.6559 5.4038 -2.0015 0.9749
-3.5755 4.8447 -2.0015 0.9749
-3.9941 4.5058 -2.0015 0.9749
-4.7324 3.7228 -2.0015 0.9749
-5.3195 2.8210 -2.0015 0.9749
-5.7367 1.8290 -2.0015 0.9749
-5.8772 1.3090 -2.0015 0.9749
-5.9707 0.7785 -2.0015 0.9749
-6.0164 0.2419 -2.0015 0.9749
-6.0139 -0.2968 -2.0015 0.9749
-5.5288 -2.3848 -2.0015 0.9749
-5.2936 -2.8694 -2.0015 0.9749
-4.6982 -3.7659 -2.0015 0.9749
-3.9528 -4.5421 -2.0015 0.9749
-3.5311 -4.8771 -2.0015 0.9749
-3.0811 -5.1732 -2.0015 0.9749
-2.1110 -5.6390 -2.0015 0.9749
-1.5987 -5.8051 -2.0015 0.9749
-0.5397 -5.9970 -2.0015 0.9749
-0.0017 -6.0212 -2.0015 0.9749
0.5364 -5.9973 -2.0015 0.9749
1.0702 -5.9254 -2.0015 0.9749
1.5954 -5.8060 -2.0015 0.9749
2.1079 -5.6402 -2.0015 0.9749
2.6035 -5.4293 -2.0015 0.9749
3.9503 -4.5443 -2.0015 0.9749
4.6961 -3.7685 -2.0015 0.9749
5.0141 -3.3337 -2.0015 0.9749
5.2920 -2.8723 -2.0015 0.9749
5.5275 -2.3879 -2.0015 0.9749
5.8643 -1.3658 -2.0015 0.9749
5.9629 -0.8363 -2.0015 0.9749
6.0137 -0.3001 -2.0015 0.9749
6.0165 0.2385 -2.0015 0.9749
5.9711 0.7752 -2.0015 0.9749
5.7377 1.8258 -2.0015 0.9749
5.3211 2.8180 -2.0015 0.9749
4.3831 4.1284 -2.0015 0.9749
3.5781 4.8427 -2.0015 0.9749
2.6589 5.4023 -2.0015 0.9749
2.1655 5.6183 -2.0015 0.9749
1.6548 5.7894 -2.0015 0.9749
0.5978 5.9915 -2.0015 0.9749
0.0600 6.0209 -2.0015 0.9749
-2.0532 5.6603 -2.0015 0.9749
-2.5508 5.4542 -2.0015 0.9749
-3.0280 5.2044 -2.0015 0.9749
-4.6594 3.8138 -2.0015 0.9749
-5.5041 2.4413 -2.0015 0.9749
-5.7003 1.9397 -2.0015 0.9749
-6.0106 0.3583 -2.0015 0.9749
-6.0185 -0.1803 -2.0015 0.9749
-5.8903 -1.2488 -2.0015 0.9749
-5.7551 -1.7702 -2.0015 0.9749
-4.7702 -3.6742 -2.0015 0.9749
-4.4228 -4.0858 -2.0015 0.9749
-4.0400 -4.4647 -2.0015 0.9749
-3.6248 -4.8079 -2.0015 0.9749
-3.1807 -5.1126 -2.0015 0.9749
-2.7111 -5.3764 -2.0015 0.9749
-1.7107 -5.7731 -2.0015 0.9749
-1.1880 -5.9029 -2.0015 0.9749
-0.6557 -5.9854 -2.0015 0.9749
0.9553 -5.9450 -2.0015 0.9749
1.9983 -5.6799 -2.0015 0.9749
2.4979 -5.4787 -2.0015 0.9749
3.4333 -4.9465 -2.0015 0.9749
3.8616 -4.6199 -2.0015 0.9749
4.6223 -3.8587 -2.0015 0.9749
5.2354 -2.9742 -2.0015 0.9749
5.4802 -2.4945 -2.0015 0.9749
5.8367 -1.4791 -2.0015 0.9749
5.9456 -0.9516 -2.0015 0.9749
5.9021 1.1917 -2.0015 0.9749
5.1106 3.1839 -2.0015 0.9749
4.4622 4.0428 -2.0015 0.9749
3.6712 4.7726 -2.0015 0.9749
3.2300 5.0815 -2.0015 0.9749
2.7630 5.3499 -2.0015 0.9749
2.2739 5.5754 -2.0015 0.9749
0.7136 5.9788 -2.0015 0.9749
0.1765 6.0186 -2.0015 0.9749
-0.3621 6.0103 -2.0015 0.9749
-0.8977 5.9539 -2.0015 0.9749
-1.9433 5.6990 -2.0015 0.9749
-2.4448 5.5026 -2.0015 0.9749
-2.9267 5.2621 -2.0015 0.9749
-3.3853 4.9795 -2.0015 0.9749
-3.8167 4.6570 -2.0015 0.9749
-4.2176 4.2973 -2.0015 0.9749
-5.2063 3.0247 -2.0015 0.9749
-5.6616 2.0496 -2.0015 0.9749
-5.8221 1.5355 -2.0015 0.9749
-5.9361 1.0091 -2.0015 0.9749
-5.6170 -2.1691 -2.0015 0.9749
-5.4007 -2.6623 -2.0015 0.9749
-5.1411 -3.1343 -2.0015 0.9749
-4.8405 -3.5812 -2.0015 0.9749
-4.1257 -4.3857 -2.0015 0.9749
-3.7172 -4.7368 -2.0015 0.9749
-2.8146 -5.3229 -2.0015 0.9749
-2.3277 -5.5531 -2.0015 0.9749
-1.3020 -5.8788 -2.0015 0.9749
-0.2347 -6.0167 -2.0015 0.9749
0.3039 -6.0136 -2.0015 0.9749
0.8401 -5.9624 -2.0015 0.9749
2.3914 -5.5260 -2.0015 0.9749
2.8757 -5.2902 -2.0015 0.9749
3.3369 -5.0120 -2.0015 0.9749
3.7715 -4.6938 -2.0015 0.9749
4.5468 -3.9474 -2.0015 0.9749
5.4309 -2.6001 -2.0015 0.9749
5.6415 -2.1043 -2.0015 0.9749
5.9976 -0.5326 -2.0015 0.9749
5.9966 0.5435 -2.0015 0.9749
5.6377 2.1146 -2.0015 0.9749
4.8749 3.5342 -2.0015 0.9749
4.5396 3.9557 -2.0015 0.9749
4.1679 4.3455 -2.0015 0.9749
2.8660 5.2954 -2.0015 0.9749
2.3814 5.5303 -2.0015 0.9749
1.8776 5.7210 -2.0015 0.9749
1.3589 5.8659 -2.0015 0.9749
0.8292 5.9639 -2.0015 0.9749
-0.7823 5.9702 -2.0015 0.9749
-2.3378 5.5489 -2.0015 0.9749
-2.8243 5.3177 -2.0015 0.9749
-3.2882 5.0441 -2.0015 0.9749
-4.1336 4.3782 -2.0015 0.9749
-4.5083 3.9912 -2.0015 0.9749
-4.8470 3.5724 -2.0015 0.9749
-5.4055 2.6525 -2.0015 0.9749
-5.7913 1.6479 -2.0015 0.9749
-6.0210 0.0528 -2.0015 0.9749
-6.0016 -0.4855 -2.0015 0.9749
-5.8193 -1.5461 -2.0015 0.9749
-5.4512 -2.5573 -2.0015 0.9749
-5.2008 -3.0342 -2.0015 0.9749
-4.2098 -4.3050 -2.0015 0.9749
-3.8082 -4.6640 -2.0015 0.9749
-3.3762 -4.9856 -2.0015 0.9749
-2.9172 -5.2674 -2.0015 0.9749
-2.4348 -5.5070 -2.0015 0.9749
-1.9329 -5.7025 -2.0015 0.9749
-1.4156 -5.8525 -2.0015 0.9749
-0.3511 -6.0110 -2.0015 0.9749
0.7245 -5.9775 -2.0015 0.9749
2.2840 -5.5712 -2.0015 0.9749
2.7727 -5.3448 -2.0015 0.9749
3.2393 -5.0757 -2.0015 0.9749
3.6799 -4.7659 -2.0015 0.9749
4.0911 -4.4180 -2.0015 0.9749
4.4695 -4.0347 -2.0015 0.9749
4.8122 -3.6192 -2.0015 0.9749
5.1163 -3.1746 -2.0015 0.9749
5.3796 -2.7047 -2.0015 0.9749
5.5998 -2.2131 -2.0015 0.9749
5.7751 -1.7039 -2.0015 0.9749
5.9043 -1.1810 -2.0015 0.9749
5.9862 -0.6486 -2.0015 0.9749
6.0060 0.4273 -2.0015 0.9749
5.9438 0.9624 -2.0015 0.9749
5.8341 1.4897 -2.0015 0.9749
3.8532 4.6269 -2.0015 0.9749
2.9680 5.2389 -2.0015 0.9749
2.4880 5.4832 -2.0015 0.9749
1.9880 5.6836 -2.0015 0.9749
0.9445 5.9467 -2.0015 0.9749
0.4093 6.0073 -2.0015 0.9749
-0.1292 6.0198 -2.0015 0.9749
-1.1987 5.9007 -2.0015 0.9749
-2.2300 5.5931 -2.0015 0.9749
-4.4302 4.0778 -2.0015 0.9749
-5.9796 0.7065 -2.0015 0.9749
-5.9529 -0.9048 -2.0015 0.9749
-5.6967 -1.9500 -2.0015 0.9749
-5.4997 -2.4513 -2.0015 0.9749
-5.2586 -2.9330 -2.0015 0.9749
-4.9755 -3.3912 -2.0015 0.9749
-4.6525 -3.8222 -2.0015 0.9749
5.4392 1.3192 -2.0015 0.9765
5.1175 2.2664 -2.0015 0.9765
4.8945 2.7147 -2.0015 0.9765
4.3330 3.5426 -2.0015 0.9765
3.2382 4.5650 -2.0015 0.9765
1.9114 5.2604 -2.0015 0.9765
1.4337 5.4102 -2.0015 0.9765
0.9445 5.5166 -2.0015 0.9765
0.4477 5.5790 -2.0015 0.9765
-0.0526 5.5966 -2.0015 0.9765
-1.0481 5.4979 -2.0015 0.9765
-2.0100 5.2235 -2.0015 0.9765
-2.9078 4.7823 -2.0015 0.9765
-3.3235 4.5033 -2.0015 0.9765
-3.7126 4.1883 -2.0015 0.9765
-5.1592 2.1698 -2.0015 0.9765
-5.3324 1.7001 -2.0015 0.9765
-5.4630 1.2167 -2.0015 0.9765
-5.5431 -0.7743 -2.0015 0.9765
-5.3167 -1.7487 -2.0015 0.9765
-5.1392 -2.2168 -2.0015 0.9765
-4.9205 -2.6672 -2.0015 0.9765
-4.3671 -3.5005 -2.0015 0.9765
-4.0368 -3.8767 -2.0015 0.9765
-3.6742 -4.2220 -2.0015 0.9765
-2.8640 -4.8086 -2.0015 0.9765
-2.4228 -5.0453 -2.0015 0.9765
-1.4860 -5.3960 -2.0015 0.9765
-0.5017 -5.5744 -2.0015 0.9765
-0.0015 -5.5969 -2.0015 0.9765
0.9948 -5.5078 -2.0015 0.9765
1.9594 -5.2427 -2.0015 0.9765
2.8613 -4.8102 -2.0015 0.9765
3.2797 -4.5353 -2.0015 0.9765
4.0347 -3.8790 -2.0015 0.9765
4.6608 -3.0988 -2.0015 0.9765
5.3157 -1.7516 -2.0015 0.9765
5.4510 -1.2696 -2.0015 0.9765
5.5899 -0.2789 -2.0015 0.9765
5.5925 0.2217 -2.0015 0.9765
5.5503 0.7206 -2.0015 0.9765
5.4637 1.2137 -2.0015 0.9765
5.1604 2.1669 -2.0015 0.9765
4.9461 2.6194 -2.0015 0.9765
4.6922 3.0509 -2.0015 0.9765
4.4008 3.4580 -2.0015 0.9765
4.0742 3.8375 -2.0015 0.9765
3.3260 4.5015 -2.0015 0.9765
2.9104 4.7807 -2.0015 0.9765
2.0129 5.2224 -2.0015 0.9765
0.5556 5.5692 -2.0015 0.9765
0.0557 5.5966 -2.0015 0.9765
-1.4307 5.4110 -2.0015 0.9765
-1.9085 5.2615 -2.0015 0.9765
-2.3711 5.0698 -2.0015 0.9765
-2.8146 4.8377 -2.0015 0.9765
-3.2357 4.5668 -2.0015 0.9765
-3.9970 3.9178 -2.0015 0.9765
-4.3311 3.5450 -2.0015 0.9765
-5.1162 2.2693 -2.0015 0.9765
-5.4385 1.3223 -2.0015 0.9765
-5.5349 0.8310 -2.0015 0.9765
-5.5870 0.3330 -2.0015 0.9765
-5.5570 -0.6669 -2.0015 0.9765
-5.4752 -1.1608 -2.0015 0.9765
-5.3496 -1.6454 -2.0015 0.9765
-4.9712 -2.5714 -2.0015 0.9765
-4.7215 -3.0054 -2.0015 0.9765
-4.4341 -3.4153 -2.0015 0.9765
-3.3694 -4.4690 -2.0015 0.9765
-2.9565 -4.7523 -2.0015 0.9765
-2.5200 -4.9975 -2.0015 0.9765
-2.0633 -5.2027 -2.0015 0.9765
-1.5902 -5.3662 -2.0015 0.9765
-1.1043 -5.4869 -2.0015 0.9765
-0.6095 -5.5636 -2.0015 0.9765
1.3783 -5.4245 -2.0015 0.9765
1.8575 -5.2797 -2.0015 0.9765
3.5895 -4.2943 -2.0015 0.9765
3.9589 -3.9563 -2.0015 0.9765
4.8664 -2.7646 -2.0015 0.9765
5.0940 -2.3187 -2.0015 0.9765
5.2808 -1.8542 -2.0015 0.9765
5.4254 -1.3748 -2.0015 0.9765
5.5266 -0.8845 -2.0015 0.9765
5.5835 -0.3871 -2.0015 0.9765
5.5632 0.6130 -2.0015 0.9765
5.4862 1.1077 -2.0015 0.9765
5.3652 1.5936 -2.0015 0.9765
4.9959 2.5232 -2.0015 0.9765
4.7504 2.9595 -2.0015 0.9765
4.4669 3.3722 -2.0015 0.9765
4.1477 3.7579 -2.0015 0.9765
2.5683 4.9728 -2.0015 0.9765
2.1136 5.1825 -2.0015 0.9765
1.6420 5.3506 -2.0015 0.9765
0.1640 5.5945 -2.0015 0.9765
-0.3366 5.5868 -2.0015 0.9765
-0.8345 5.5343 -2.0015 0.9765
-1.3257 5.4376 -2.0015 0.9765
-2.2725 5.1148 -2.0015 0.9765
-3.5477 4.3288 -2.0015 0.9765
-3.9204 3.9945 -2.0015 0.9765
-4.8394 2.8116 -2.0015 0.9765
-5.4118 1.4273 -2.0015 0.9765
-5.5966 -0.0592 -2.0015 0.9765
-5.4966 -1.0546 -2.0015 0.9765
-5.3804 -1.5416 -2.0015 0.9765
-4.7788 -2.9134 -2.0015 0.9765
-4.4993 -3.3288 -2.0015 0.9765
-3.8349 -4.0766 -2.0015 0.9765
-3.4553 -4.4030 -2.0015 0.9765
-3.0480 -4.6942 -2.0015 0.9765
-2.6163 -4.9477 -2.0015 0.9765
-2.1637 -5.1618 -2.0015 0.9765
-0.2182 -5.5926 -2.0015 0.9765
0.2825 -5.5898 -2.0015 0.9765
1.2730 -5.4502 -2.0015 0.9765
1.7550 -5.3146 -2.0015 0.9765
4.5373 -3.2769 -2.0015 0.9765
5.0482 -2.4168 -2.0015 0.9765
5.5084 -0.9913 -2.0015 0.9765
5.5750 -0.4951 -2.0015 0.9765
5.5969 0.0051 -2.0015 0.9765
5.5740 0.5052 -2.0015 0.9765
5.5066 1.0013 -2.0015 0.9765
5.3951 1.4894 -2.0015 0.9765
5.2404 1.9656 -2.0015 0.9765
5.0438 2.4260 -2.0015 0.9765
4.2196 3.6769 -2.0015 0.9765
3.0933 4.6644 -2.0015 0.9765
2.6641 4.9222 -2.0015 0.9765
1.7453 5.3178 -2.0015 0.9765
1.2631 5.4525 -2.0015 0.9765
0.2723 5.5903 -2.0015 0.9765
-0.2283 5.5922 -2.0015 0.9765
-1.2202 5.4623 -2.0015 0.9765
-1.7035 5.3314 -2.0015 0.9765
-3.4633 4.3967 -2.0015 0.9765
-3.8423 4.0696 -2.0015 0.9765
-4.5054 3.3206 -2.0015 0.9765
-4.7841 2.9047 -2.0015 0.9765
-5.0245 2.4656 -2.0015 0.9765
-5.3832 1.5318 -2.0015 0.9765
-5.5699 0.5490 -2.0015 0.9765
-5.5967 0.0491 -2.0015 0.9765
-5.2592 -1.9148 -2.0015 0.9765
-5.0670 -2.3771 -2.0015 0.9765
-4.8343 -2.8204 -2.0015 0.9765
-4.2550 -3.6359 -2.0015 0.9765
-3.9131 -4.0016 -2.0015 0.9765
-3.5399 -4.3353 -2.0015 0.9765
-1.7967 -5.3007 -2.0015 0.9765
-1.3158 -5.4400 -2.0015 0.9765
-0.3264 -5.5874 -2.0015 0.9765
0.1742 -5.5942 -2.0015 0.9765
1.1673 -5.4738 -2.0015 0.9765
1.6518 -5.3476 -2.0015 0.9765
2.5773 -4.9682 -2.0015 0.9765
4.1545 -3.7504 -2.0015 0.9765
5.5828 0.3972 -2.0015 0.9765
5.2775 1.8638 -2.0015 0.9765
5.0898 2.3279 -2.0015 0.9765
4.8614 2.7735 -2.0015 0.9765
4.5941 3.1968 -2.0015 0.9765
3.9517 3.9635 -2.0015 0.9765
2.7589 4.8697 -2.0015 0.9765
1.8479 5.2830 -2.0015 0.9765
-0.1200 5.5956 -2.0015 0.9765
-0.6196 5.5625 -2.0015 0.9765
-1.1142 5.4849 -2.0015 0.9765
-2.0728 5.1989 -2.0015 0.9765
-2.5291 4.9929 -2.0015 0.9765
-2.9652 4.7469 -2.0015 0.9765
-3.3775 4.4629 -2.0015 0.9765
-3.7628 4.1432 -2.0015 0.9765
-5.1850 2.1075 -2.0015 0.9765
-5.3525 1.6357 -2.0015 0.9765
-5.5582 0.6567 -2.0015 0.9765
-5.5947 0.1574 -2.0015 0.9765
-5.5333 -0.8410 -2.0015 0.9765
-5.2952 -1.8126 -2.0015 0.9765
-4.8880 -2.7263 -2.0015 0.9765
5.1853 -0.6252 -2.0015 0.9779
5.1654 0.7726 -2.0015 0.9779
5.0757 1.2311 -2.0015 0.9779
4.0435 3.3058 -2.0015 0.9779
3.0218 4.2599 -2.0015 0.9779
2.6290 4.5129 -2.0015 0.9779
1.3379 5.0486 -2.0015 0.9779
0.4178 5.2061 -2.0015 0.9779
-1.4326 5.0225 -2.0015 0.9779
-2.3038 4.6873 -2.0015 0.9779
-2.7134 4.4627 -2.0015 0.9779
-3.1014 4.2023 -2.0015 0.9779
-3.7999 3.5831 -2.0015 0.9779
-4.3771 2.8495 -2.0015 0.9779
-4.6142 2.4469 -2.0015 0.9779
-4.8144 2.0248 -2.0015 0.9779
-4.9761 1.5865 -2.0015 0.9779
-5.0979 1.1354 -2.0015 0.9779
-5.1790 0.6753 -2.0015 0.9779
-5.2186 0.2098 -2.0015 0.9779
-5.1726 -0.7225 -2.0015 0.9779
-4.7957 -2.0686 -2.0015 0.9779
-4.5917 -2.4889 -2.0015 0.9779
-4.3509 -2.8893 -2.0015 0.9779
-3.7671 -3.6177 -2.0015 0.9779
-3.4287 -3.9398 -2.0015 0.9779
-3.0629 -4.2305 -2.0015 0.9779
-2.6726 -4.4872 -2.0015 0.9779
-2.2609 -4.7081 -2.0015 0.9779
-0.9312 -5.1392 -2.0015 0.9779
-0.4682 -5.2018 -2.0015 0.9779
-0.0014 -5.2229 -2.0015 0.9779
0.4653 -5.2021 -2.0015 0.9779
0.9283 -5.1397 -2.0015 0.9779
1.3839 -5.0362 -2.0015 0.9779
3.0606 -4.2322 -2.0015 0.9779
4.0735 -3.2688 -2.0015 0.9779
4.5903 -2.4915 -2.0015 0.9779
4.7946 -2.0713 -2.0015 0.9779
5.1722 -0.7254 -2.0015 0.9779
5.2164 -0.2603 -2.0015 0.9779
5.2187 0.2069 -2.0015 0.9779
5.1794 0.6724 -2.0015 0.9779
5.0986 1.1326 -2.0015 0.9779
4.9770 1.5837 -2.0015 0.9779
4.8155 2.0221 -2.0015 0.9779
4.6155 2.4444 -2.0015 0.9779
4.3786 2.8470 -2.0015 0.9779
4.1067 3.2269 -2.0015 0.9779
3.4667 3.9064 -2.0015 0.9779
2.7159 4.4612 -2.0015 0.9779
2.3064 4.6860 -2.0015 0.9779
1.8784 4.8734 -2.0015 0.9779
0.5185 5.1971 -2.0015 0.9779
-0.4149 5.2063 -2.0015 0.9779
-1.3351 5.0493 -2.0015 0.9779
-1.7810 4.9098 -2.0015 0.9779
-2.2126 4.7310 -2.0015 0.9779
-2.6265 4.5144 -2.0015 0.9779
-3.3882 3.9747 -2.0015 0.9779
-4.0416 3.3081 -2.0015 0.9779
-4.5660 2.5358 -2.0015 0.9779
-4.9444 1.6825 -2.0015 0.9779
-5.0750 1.2339 -2.0015 0.9779
-5.2136 0.3108 -2.0015 0.9779
-5.2205 -0.1564 -2.0015 0.9779
-5.1093 -1.0832 -2.0015 0.9779
-4.6390 -2.3996 -2.0015 0.9779
-4.1377 -3.1870 -2.0015 0.9779
-3.5043 -3.8727 -2.0015 0.9779
-2.3516 -4.6635 -2.0015 0.9779
-1.0305 -5.1202 -2.0015 0.9779
-0.1025 -5.2218 -2.0015 0.9779
0.3645 -5.2101 -2.0015 0.9779
1.7334 -4.9268 -2.0015 0.9779
2.5827 -4.5396 -2.0015 0.9779
3.3496 -4.0073 -2.0015 0.9779
3.6943 -3.6919 -2.0015 0.9779
4.0094 -3.3470 -2.0015 0.9779
4.2925 -2.9754 -2.0015 0.9779
4.5412 -2.5798 -2.0015 0.9779
4.7536 -2.1637 -2.0015 0.9779
5.0628 -1.2830 -2.0015 0.9779
5.2218 0.1058 -2.0015 0.9779
5.0067 1.4871 -2.0015 0.9779
4.8538 1.9285 -2.0015 0.9779
4.6620 2.3546 -2.0015 0.9779
