ply
format ascii 1.0
element vertex 1596
property float32 x
property float32 y
property float32 z
property float32 I
end_header
-8.3386 1.7299 -2.0015 0.9656
-8.4596 0.9795 -2.0015 0.9656
-8.5133 0.2213 -2.0015 0.9656
-8.4991 -0.5387 -2.0015 0.9656
-8.4172 -1.2944 -2.0015 0.9656
-8.0534 -2.7689 -2.0015 0.9656
-7.7745 -3.4759 -2.0015 0.9656
-6.0687 -5.9745 -2.0015 0.9656
-5.5118 -6.4919 -2.0015 0.9656
-4.9110 -6.9575 -2.0015 0.9656
-2.1688 -8.2353 -2.0015 0.9656
-0.6715 -8.4896 -2.0015 0.9656
3.0596 -7.9475 -2.0015 0.9656
3.7561 -7.6431 -2.0015 0.9656
4.4226 -7.2777 -2.0015 0.9656
5.0539 -6.8544 -2.0015 0.9656
6.6878 -5.2724 -2.0015 0.9656
7.1313 -4.6550 -2.0015 0.9656
7.5180 -4.0006 -2.0015 0.9656
7.8447 -3.3143 -2.0015 0.9656
8.1090 -2.6017 -2.0015 0.9656
8.3087 -1.8682 -2.0015 0.9656
8.4376 1.1543 -2.0015 0.9656
8.3010 1.9021 -2.0015 0.9656
8.0983 2.6347 -2.0015 0.9656
7.8312 3.3463 -2.0015 0.9656
6.6663 5.2996 -2.0015 0.9656
6.1672 5.8729 -2.0015 0.9656
5.6189 6.3994 -2.0015 0.9656
5.0260 6.8749 -2.0015 0.9656
4.3913 7.2930 -2.0008 0.9656
3.7128 7.6335 -1.9950 0.9657
1.4462 7.7345 -1.8493 0.9682
0.0493 7.8684 -1.8493 0.9682
-0.6524 7.8414 -1.8493 0.9682
-4.3011 7.3502 -2.0015 0.9656
-4.9393 6.9374 -2.0015 0.9656
-5.5382 6.4694 -2.0015 0.9656
-7.0530 4.7729 -2.0015 0.9656
-7.4504 4.1250 -2.0015 0.9656
-7.7886 3.4442 -2.0015 0.9656
-8.0647 2.7360 -2.0015 0.9656
-8.5012 0.5041 -2.0015 0.9656
-8.4556 -1.0140 -2.0015 0.9656
-8.3315 -1.7639 -2.0015 0.9656
-7.8857 -3.2157 -2.0015 0.9656
-7.5675 -3.9060 -2.0015 0.9656
-6.7534 -5.1881 -2.0015 0.9656
-5.1395 -6.7905 -2.0015 0.9656
-3.8516 -7.5954 -2.0015 0.9656
-3.1590 -7.9086 -2.0015 0.9656
-0.1949 -8.5139 -2.0015 0.9656
1.3205 -8.4132 -2.0015 0.9656
2.0654 -8.2619 -2.0015 0.9656
3.5000 -7.7637 -2.0015 0.9656
7.7303 -3.5732 -2.0015 0.9656
8.2420 -2.1433 -2.0015 0.9656
8.4003 -1.3998 -2.0015 0.9656
8.4917 -0.6453 -2.0015 0.9656
8.5154 0.1145 -2.0015 0.9656
8.4712 0.8733 -2.0015 0.9656
8.1814 2.3641 -2.0015 0.9656
7.9380 3.0842 -2.0015 0.9656
7.6314 3.7797 -2.0015 0.9656
6.8387 5.0751 -2.0015 0.9656
5.8285 6.2091 -2.0015 0.9656
4.6329 7.1457 -2.0015 0.9656
3.2273 7.7053 -1.9633 0.9663
2.4494 7.7165 -1.9027 0.9673
1.0106 7.8034 -1.8493 0.9682
-1.0907 7.7926 -1.8493 0.9682
-1.7951 7.7239 -1.8637 0.9679
-3.3323 7.7320 -1.9788 0.9660
-4.0509 7.4825 -1.9997 0.9656
-4.7061 7.0977 -2.0015 0.9656
-5.8920 6.1490 -2.0015 0.9656
-6.8905 5.0046 -2.0015 0.9656
-7.6698 3.7011 -2.0015 0.9656
-7.9693 3.0025 -2.0015 0.9656
-8.4798 0.7862 -2.0015 0.9656
-8.5161 0.0270 -2.0015 0.9656
-8.4846 -0.7324 -2.0015 0.9656
-8.3855 -1.4861 -2.0015 0.9656
-8.2196 -2.2279 -2.0015 0.9656
-7.9882 -2.9519 -2.0015 0.9656
-7.6932 -3.6524 -2.0015 0.9656
-6.9221 -4.9608 -2.0015 0.9656
-6.4522 -5.5583 -2.0015 0.9656
-5.3623 -6.6159 -2.0015 0.9656
-4.1019 -7.4632 -2.0015 0.9656
-0.4777 -8.5027 -2.0015 0.9656
2.5250 -8.1332 -2.0015 0.9656
3.2401 -7.8757 -2.0015 0.9656
3.9295 -7.5554 -2.0015 0.9656
4.5875 -7.1749 -2.0015 0.9656
5.2090 -6.7373 -2.0015 0.9656
5.7890 -6.2460 -2.0015 0.9656
6.8063 -5.1184 -2.0015 0.9656
7.2356 -4.4911 -2.0015 0.9656
7.9183 -3.1345 -2.0015 0.9656
8.1663 -2.4160 -2.0015 0.9656
8.3492 -1.6782 -2.0015 0.9656
8.5145 -0.1685 -2.0015 0.9656
7.0036 4.8451 -2.0015 0.9656
6.5436 5.4503 -2.0015 0.9656
6.0316 6.0120 -2.0015 0.9656
3.5304 7.7002 -1.9909 0.9658
1.9825 7.7219 -1.8737 0.9678
1.2694 7.7655 -1.8493 0.9682
0.5719 7.8477 -1.8493 0.9682
-0.8312 7.8245 -1.8493 0.9682
-1.5278 7.7308 -1.8521 0.9681
-2.2564 7.7189 -1.8900 0.9675
-3.0282 7.7228 -1.9496 0.9665
-3.7950 7.6029 -1.9971 0.9657
-5.0963 6.8229 -2.0015 0.9656
-7.1600 4.6108 -2.0015 0.9656
-7.8651 3.2656 -2.0015 0.9656
-8.4490 1.0676 -2.0015 0.9656
-8.5042 -0.4501 -2.0015 0.9656
-8.0819 -2.6848 -2.0015 0.9656
-7.8103 -3.3948 -2.0015 0.9656
-7.4765 -4.0776 -2.0015 0.9656
-7.0831 -4.7281 -2.0015 0.9656
-6.6333 -5.3408 -2.0015 0.9656
-6.1307 -5.9110 -2.0015 0.9656
-5.5792 -6.4341 -2.0015 0.9656
-4.9832 -6.9059 -2.0015 0.9656
-3.6774 -7.6813 -2.0015 0.9656
7.7137 -0.5054 -2.0015 0.9686
7.6808 0.8728 -2.0015 0.9686
7.4036 2.2232 -2.0015 0.9686
6.5512 4.1034 -2.0015 0.9686
6.1592 4.6712 -2.0015 0.9686
5.2316 5.6909 -2.0015 0.9686
3.5388 6.8726 -2.0015 0.9686
2.9119 7.1608 -2.0015 0.9686
0.2240 7.6976 -1.9939 0.9687
-1.1476 7.6201 -1.9952 0.9687
-2.4896 7.3147 -2.0006 0.9686
-4.3387 6.3978 -2.0015 0.9686
-4.8919 5.9855 -2.0015 0.9686
-5.4061 5.5255 -2.0015 0.9686
-6.6757 3.8976 -2.0015 0.9686
-6.9966 3.2869 -2.0015 0.9686
-7.6170 1.3179 -2.0015 0.9686
-7.7042 0.6335 -2.0015 0.9686
-7.7300 -0.0560 -2.0015 0.9686
-7.6942 -0.7451 -2.0015 0.9686
-7.5971 -1.4282 -2.0015 0.9686
-7.4395 -2.0999 -2.0015 0.9686
-6.9482 -3.3879 -2.0015 0.9686
-6.6185 -3.9940 -2.0015 0.9686
-5.3254 -5.6032 -2.0015 0.9686
-3.6525 -6.8129 -2.0015 0.9686
-3.0305 -7.1114 -2.0015 0.9686
-1.7192 -7.5366 -2.0015 0.9686
-1.0403 -7.6599 -2.0015 0.9686
-0.3532 -7.7221 -2.0015 0.9686
0.3368 -7.7229 -2.0015 0.9686
1.0241 -7.6621 -2.0015 0.9686
2.3687 -7.3584 -2.0015 0.9686
3.6381 -6.8206 -2.0015 0.9686
4.7917 -6.0659 -2.0015 0.9686
5.7930 -5.1184 -2.0015 0.9686
6.2263 -4.5814 -2.0015 0.9686
6.9411 -3.4027 -2.0015 0.9686
7.2168 -2.7702 -2.0015 0.9686
7.4351 -2.1157 -2.0015 0.9686
7.5941 -1.4443 -2.0015 0.9686
7.6926 -0.7614 -2.0015 0.9686
7.7056 0.6171 -2.0015 0.9686
7.4734 1.9760 -2.0015 0.9686
6.3110 4.4640 -2.0015 0.9686
5.4178 5.5140 -2.0015 0.9686
4.9046 5.9751 -2.0015 0.9686
4.3522 6.3886 -2.0015 0.9686
3.7653 6.7512 -2.0015 0.9686
3.1483 7.0601 -2.0015 0.9686
2.5050 7.3090 -2.0005 0.9686
1.1638 7.6177 -1.9953 0.9687
0.4797 7.6867 -1.9941 0.9687
-0.2076 7.6981 -1.9939 0.9687
-0.8935 7.6519 -1.9947 0.9687
-2.2437 7.3887 -1.9993 0.9686
-3.5242 6.8801 -2.0015 0.9686
-4.1237 6.5385 -2.0015 0.9686
-5.7071 5.2139 -2.0015 0.9686
-6.1493 4.6843 -2.0015 0.9686
-6.5425 4.1173 -2.0015 0.9686
-7.5690 1.5703 -2.0015 0.9686
-7.6789 0.8891 -2.0015 0.9686
-7.7147 -0.4890 -2.0015 0.9686
-7.6404 -1.1749 -2.0015 0.9686
-7.5052 -1.8515 -2.0015 0.9686
-6.7475 -3.7718 -2.0015 0.9686
-6.3843 -4.3585 -2.0015 0.9686
-5.9703 -4.9104 -2.0015 0.9686
-5.5087 -5.4232 -2.0015 0.9686
-5.0031 -5.8928 -2.0015 0.9686
-3.8769 -6.6877 -2.0015 0.9686
-2.6274 -7.2700 -2.0015 0.9686
-1.2943 -7.6211 -2.0015 0.9686
-0.6096 -7.7061 -2.0015 0.9686
0.0800 -7.7298 -2.0015 0.9686
0.7689 -7.6919 -2.0015 0.9686
3.4094 -6.9377 -2.0015 0.9686
4.0145 -6.6061 -2.0015 0.9686
6.0706 -4.7858 -2.0015 0.9686
7.3607 -2.3616 -2.0015 0.9686
7.5419 -1.6958 -2.0015 0.9686
7.7232 -0.3293 -2.0015 0.9686
7.7218 0.3607 -2.0015 0.9686
7.3510 2.3915 -2.0015 0.9686
6.8093 3.6592 -2.0015 0.9686
6.4559 4.2518 -2.0015 0.9686
4.5621 6.2404 -2.0015 0.9686
3.9875 6.6224 -2.0015 0.9686
2.7478 7.2254 -2.0015 0.9686
2.0894 7.4302 -1.9984 0.9686
0.7349 7.6677 -1.9944 0.9687
0.0483 7.6997 -1.9936 0.9687
-3.9041 6.6719 -2.0015 0.9686
-4.4835 6.2972 -2.0015 0.9686
-5.0271 5.8723 -2.0015 0.9686
-5.5307 5.4007 -2.0015 0.9686
-5.9903 4.8860 -2.0015 0.9686
-6.4021 4.3324 -2.0015 0.9686
-6.7629 3.7443 -2.0015 0.9686
-7.3204 2.4836 -2.0015 0.9686
-7.6451 1.1438 -2.0015 0.9686
-7.7167 0.4575 -2.0015 0.9686
-7.7267 -0.2323 -2.0015 0.9686
-7.6752 -0.9204 -2.0015 0.9686
-7.3897 -2.2691 -2.0015 0.9686
-7.1579 -2.9189 -2.0015 0.9686
-6.5256 -4.1439 -2.0015 0.9686
-6.1302 -4.7093 -2.0015 0.9686
-5.1962 -5.7232 -2.0015 0.9686
-4.6652 -6.1638 -2.0015 0.9686
-2.8675 -7.1787 -2.0015 0.9686
-2.2160 -7.4058 -2.0015 0.9686
-1.5468 -7.5739 -2.0015 0.9686
-0.8653 -7.6816 -2.0015 0.9686
0.5129 -7.7132 -2.0015 0.9686
1.8748 -7.4994 -2.0015 0.9686
3.1770 -7.0472 -2.0015 0.9686
4.9289 -5.9550 -2.0015 0.9686
5.4402 -5.4918 -2.0015 0.9686
6.6997 -3.8562 -2.0015 0.9686
7.4814 -1.9455 -2.0015 0.9686
7.7080 -0.5857 -2.0015 0.9686
7.7295 0.1039 -2.0015 0.9686
7.6895 0.7927 -2.0015 0.9686
7.5881 1.4752 -2.0015 0.9686
6.9271 3.4309 -2.0015 0.9686
6.5936 4.0349 -2.0015 0.9686
5.7721 5.1419 -2.0015 0.9686
5.2906 5.6361 -2.0015 0.9686
3.6103 6.8354 -2.0015 0.9686
2.9864 7.1300 -2.0015 0.9686
1.6685 7.5293 -1.9968 0.9686
0.3042 7.6951 -1.9939 0.9687
-0.3832 7.6918 -1.9940 0.9687
-1.7462 7.5135 -1.9972 0.9686
-2.4127 7.3387 -2.0002 0.9686
-4.2718 6.4427 -2.0015 0.9686
-4.8292 6.0361 -2.0015 0.9686
-5.3482 5.5815 -2.0015 0.9686
-5.8246 5.0824 -2.0015 0.9686
-6.6347 3.9670 -2.0015 0.9686
-6.9620 3.3596 -2.0015 0.9686
-7.2338 2.7254 -2.0015 0.9686
-5.8567 -5.0453 -2.0015 0.9686
-5.3835 -5.5474 -2.0015 0.9686
-4.8674 -6.0054 -2.0015 0.9686
-4.3126 -6.4154 -2.0015 0.9686
-3.1045 -7.0794 -2.0015 0.9686
-2.4608 -7.3281 -2.0015 0.9686
-1.7976 -7.5183 -2.0015 0.9686
0.2563 -7.7260 -2.0015 0.9686
0.9442 -7.6723 -2.0015 0.9686
2.9411 -7.1489 -2.0015 0.9686
4.1641 -6.5128 -2.0015 0.9686
4.7283 -6.1155 -2.0015 0.9686
5.2547 -5.6696 -2.0015 0.9686
6.5679 -4.0767 -2.0015 0.9686
6.9052 -3.4748 -2.0015 0.9686
7.7287 -0.1530 -2.0015 0.9686
7.7116 0.5368 -2.0015 0.9686
7.2945 2.5586 -2.0015 0.9686
6.7240 3.8136 -2.0015 0.9686
4.9665 5.9237 -2.0015 0.9686
4.4186 6.3429 -2.0015 0.9686
3.8354 6.7116 -2.0015 0.9686
3.2217 7.0269 -2.0015 0.9686
1.9187 7.4732 -1.9977 0.9686
1.2433 7.6060 -1.9955 0.9687
0.5598 7.6816 -1.9942 0.9687
-0.1274 7.6996 -1.9938 0.9687
-1.4947 7.5634 -1.9962 0.9686
-4.0553 6.5811 -2.0015 0.9686
-4.6260 6.1933 -2.0015 0.9686
-5.6525 5.2731 -2.0015 0.9686
-6.1002 4.7481 -2.0015 0.9686
-7.3752 2.3159 -2.0015 0.9686
-7.5523 1.6491 -2.0015 0.9686
-7.6692 0.9691 -2.0015 0.9686
-7.7194 -0.4086 -2.0015 0.9686
-7.6522 -1.0953 -2.0015 0.9686
-7.3360 -2.4370 -2.0015 0.9686
-5.5649 -5.3655 -2.0015 0.9686
-5.0643 -5.8403 -2.0015 0.9686
-3.3380 -6.9724 -2.0015 0.9686
7.0550 -0.4622 -2.0015 0.9710
7.0681 0.1687 -2.0015 0.9710
7.0249 0.7983 -2.0015 0.9710
6.9257 1.4215 -2.0015 0.9710
6.7714 2.0333 -2.0015 0.9710
6.3025 3.2038 -2.0015 0.9710
5.9918 3.7530 -2.0015 0.9710
3.7842 5.9721 -2.0015 0.9710
3.2366 6.2857 -2.0015 0.9710
2.0687 6.7607 -2.0015 0.9710
1.4576 6.9182 -2.0015 0.9710
0.8349 7.0206 -2.0015 0.9710
-3.4306 6.1820 -2.0015 0.9710
-4.4741 5.4743 -2.0015 0.9710
-4.9444 5.0536 -2.0015 0.9710
-5.3753 4.5926 -2.0015 0.9710
-6.1056 3.5648 -2.0015 0.9710
-7.0699 -0.0512 -2.0015 0.9710
-6.8042 -1.9206 -2.0015 0.9710
-5.7035 -4.1781 -2.0015 0.9710
-5.3082 -4.6700 -2.0015 0.9710
-3.3406 -6.2311 -2.0015 0.9710
-2.7717 -6.5041 -2.0015 0.9710
-2.1807 -6.7254 -2.0015 0.9710
-0.3230 -7.0627 -2.0015 0.9710
0.9366 -7.0078 -2.0015 0.9710
1.5577 -6.8963 -2.0015 0.9710
3.3274 -6.2381 -2.0015 0.9710
3.8704 -5.9166 -2.0015 0.9710
4.3825 -5.5479 -2.0015 0.9710
5.2983 -4.6813 -2.0015 0.9710
6.0455 -3.6657 -2.0015 0.9710
6.3483 -3.1121 -2.0015 0.9710
6.6005 -2.5336 -2.0015 0.9710
6.9456 -1.3209 -2.0015 0.9710
7.0357 -0.6964 -2.0015 0.9710
7.0475 0.5644 -2.0015 0.9710
6.6468 2.4095 -2.0015 0.9710
6.1132 3.5518 -2.0015 0.9710
5.7721 4.0827 -2.0015 0.9710
4.9551 5.0431 -2.0015 0.9710
4.4857 5.4648 -2.0015 0.9710
3.9806 5.8430 -2.0015 0.9710
3.4437 6.1747 -2.0015 0.9710
2.8794 6.4572 -2.0015 0.9710
1.6867 6.8659 -2.0015 0.9710
-0.1906 7.0675 -2.0015 0.9710
-1.4429 6.9213 -2.0015 0.9710
-2.0543 6.7650 -2.0015 0.9710
-2.6494 6.5549 -2.0015 0.9710
-3.7715 5.9801 -2.0015 0.9710
-4.7738 5.2151 -2.0015 0.9710
-5.2198 4.7687 -2.0015 0.9710
-6.5575 2.6430 -2.0015 0.9710
-6.7670 2.0477 -2.0015 0.9710
-6.9227 1.4362 -2.0015 0.9710
-7.0232 0.8132 -2.0015 0.9710
-7.0677 0.1837 -2.0015 0.9710
-6.8643 -1.6934 -2.0015 0.9710
-6.4544 -2.8857 -2.0015 0.9710
-6.1713 -3.4497 -2.0015 0.9710
-5.8391 -3.9863 -2.0015 0.9710
-4.5759 -5.3895 -2.0015 0.9710
-2.4030 -6.6492 -2.0015 0.9710
-0.5575 -7.0481 -2.0015 0.9710
1.9416 -6.7982 -2.0015 0.9710
2.5401 -6.5980 -2.0015 0.9710
3.6717 -6.0419 -2.0015 0.9710
4.1958 -5.6905 -2.0015 0.9710
5.1398 -4.8547 -2.0015 0.9710
5.5522 -4.3771 -2.0015 0.9710
5.9204 -3.8646 -2.0015 0.9710
6.2414 -3.3213 -2.0015 0.9710
6.8979 -1.5510 -2.0015 0.9710
7.0087 -0.9298 -2.0015 0.9710
7.0637 -0.3011 -2.0015 0.9710
7.0624 0.3299 -2.0015 0.9710
7.0048 0.9583 -2.0015 0.9710
6.2278 3.3467 -2.0015 0.9710
5.9046 3.8887 -2.0015 0.9710
5.1200 4.8756 -2.0015 0.9710
4.6648 5.3128 -2.0015 0.9710
2.5132 6.6083 -2.0015 0.9710
0.6746 7.0378 -2.0015 0.9710
0.0443 7.0699 -2.0015 0.9710
-3.5707 6.1021 -2.0015 0.9710
-4.1006 5.7594 -2.0015 0.9710
-6.1854 3.4246 -2.0015 0.9710
-6.4660 2.8594 -2.0015 0.9710
-6.6953 2.2715 -2.0015 0.9710
-7.0198 -0.8418 -2.0015 0.9710
-6.9168 -1.4644 -2.0015 0.9710
-6.7586 -2.0753 -2.0015 0.9710
-6.2826 -3.2428 -2.0015 0.9710
-5.6067 -4.3071 -2.0015 0.9710
-5.2003 -4.7899 -2.0015 0.9710
-4.7525 -5.2345 -2.0015 0.9710
-4.2668 -5.6374 -2.0015 0.9710
-3.1976 -6.3056 -2.0015 0.9710
-2.0268 -6.7734 -2.0015 0.9710
-1.4147 -6.9271 -2.0015 0.9710
-0.1618 -7.0682 -2.0015 0.9710
0.4691 -7.0545 -2.0015 0.9710
1.0962 -6.9846 -2.0015 0.9710
1.7147 -6.8590 -2.0015 0.9710
2.3194 -6.6788 -2.0015 0.9710
2.9057 -6.4454 -2.0015 0.9710
3.4688 -6.1606 -2.0015 0.9710
4.0044 -5.8268 -2.0015 0.9710
4.5079 -5.4465 -2.0015 0.9710
5.4037 -4.5592 -2.0015 0.9710
5.7887 -4.0592 -2.0015 0.9710
6.4177 -2.9664 -2.0015 0.9710
6.8425 -1.7794 -2.0015 0.9710
7.0328 0.7250 -2.0015 0.9710
6.9401 1.3492 -2.0015 0.9710
6.7922 1.9627 -2.0015 0.9710
6.5901 2.5605 -2.0015 0.9710
6.3356 3.1379 -2.0015 0.9710
4.8388 5.1548 -2.0015 0.9710
3.8462 5.9323 -2.0015 0.9710
2.7314 6.5212 -2.0015 0.9710
0.2792 7.0646 -2.0015 0.9710
-0.3518 7.0613 -2.0015 0.9710
-2.2081 6.7164 -2.0015 0.9710
-2.7982 6.4928 -2.0015 0.9710
-3.3660 6.2174 -2.0015 0.9710
-3.9070 5.8925 -2.0015 0.9710
-5.3272 4.6483 -2.0015 0.9710
-6.0681 3.6282 -2.0015 0.9710
-6.3675 3.0727 -2.0015 0.9710
-6.8120 1.8928 -2.0015 0.9710
-7.0399 0.6527 -2.0015 0.9710
-7.0700 0.0224 -2.0015 0.9710
-7.0439 -0.6081 -2.0015 0.9710
-6.6318 -2.4507 -2.0015 0.9710
-6.0910 -3.5896 -2.0015 0.9710
-2.8393 -6.4749 -2.0015 0.9710
-2.2507 -6.7023 -2.0015 0.9710
-1.6441 -6.8763 -2.0015 0.9710
-1.0244 -6.9955 -2.0015 0.9710
0.2344 -7.0662 -2.0015 0.9710
0.8635 -7.0171 -2.0015 0.9710
2.0962 -6.7522 -2.0015 0.9710
2.6899 -6.5384 -2.0015 0.9710
3.8085 -5.9566 -2.0015 0.9710
5.6506 -4.2493 -2.0015 0.9710
6.5738 -2.6023 -2.0015 0.9710
6.7796 -2.0058 -2.0015 0.9710
6.9314 -1.3933 -2.0015 0.9710
7.0687 -0.1399 -2.0015 0.9710
7.0530 0.4909 -2.0015 0.9710
6.8537 1.7359 -2.0015 0.9710
6.1498 3.4879 -2.0015 0.9710
5.8143 4.0224 -2.0015 0.9710
4.5424 5.4178 -2.0015 0.9710
4.0412 5.8012 -2.0015 0.9710
2.3617 6.6639 -2.0015 0.9710
1.7581 6.8480 -2.0015 0.9710
0.5138 7.0514 -2.0015 0.9710
-0.1170 7.0691 -2.0015 0.9710
-1.3707 6.9359 -2.0015 0.9710
-2.5809 6.5822 -2.0015 0.9710
-3.1575 6.3258 -2.0015 0.9710
-4.2309 5.6644 -2.0015 0.9710
-5.1698 4.8228 -2.0015 0.9710
-5.5792 4.3426 -2.0015 0.9710
-5.9442 3.8278 -2.0015 0.9710
-6.2619 3.2826 -2.0015 0.9710
-6.5296 2.7111 -2.0015 0.9710
-6.9073 1.5082 -2.0015 0.9710
-7.0654 0.2573 -2.0015 0.9710
-7.0602 -0.3737 -2.0015 0.9710
-6.7095 -2.2289 -2.0015 0.9710
-6.4841 -2.8183 -2.0015 0.9710
-6.2069 -3.3852 -2.0015 0.9710
-5.8804 -3.9252 -2.0015 0.9710
-5.0896 -4.9073 -2.0015 0.9710
-4.6318 -5.3416 -2.0015 0.9710
-4.1371 -5.7333 -2.0015 0.9710
-3.6094 -6.0794 -2.0015 0.9710
-3.0529 -6.3770 -2.0015 0.9710
6.4933 -0.4254 -2.0015 0.9731
6.5054 0.1553 -2.0015 0.9731
6.4656 0.7347 -2.0015 0.9731
6.3744 1.3083 -2.0015 0.9731
6.2323 1.8715 -2.0015 0.9731
4.4039 4.7906 -2.0015 0.9731
3.9592 5.1642 -2.0015 0.9731
2.9790 5.7853 -2.0015 0.9731
2.4513 6.0279 -2.0015 0.9731
1.9040 6.2225 -2.0015 0.9731
0.1892 6.5045 -2.0015 0.9731
-0.3915 6.4955 -2.0015 0.9731
-2.6376 5.9487 -2.0015 0.9731
-3.1575 5.6899 -2.0015 0.9731
-4.1179 5.0385 -2.0015 0.9731
-5.3046 3.7690 -2.0015 0.9731
-5.6195 3.2810 -2.0015 0.9731
-5.8897 2.7669 -2.0015 0.9731
-6.2875 1.6767 -2.0015 0.9731
-6.4854 0.5332 -2.0015 0.9731
-6.5071 -0.0472 -2.0015 0.9731
-6.3952 -1.2022 -2.0015 0.9731
-6.0800 -2.3190 -2.0015 0.9731
-4.8856 -4.2982 -2.0015 0.9731
-3.0747 -5.7350 -2.0015 0.9731
-2.5511 -5.9863 -2.0015 0.9731
-2.0071 -6.1900 -2.0015 0.9731
-0.8757 -6.4481 -2.0015 0.9731
0.8621 -6.4499 -2.0015 0.9731
1.9940 -6.1942 -2.0015 0.9731
2.5384 -5.9917 -2.0015 0.9731
3.0625 -5.7415 -2.0015 0.9731
4.0336 -5.1063 -2.0015 0.9731
5.2413 -3.8566 -2.0015 0.9731
5.5643 -3.3739 -2.0015 0.9731
5.8429 -2.8643 -2.0015 0.9731
6.2588 -1.7810 -2.0015 0.9731
6.3927 -1.2158 -2.0015 0.9731
6.4756 -0.6409 -2.0015 0.9731
6.5070 -0.0610 -2.0015 0.9731
6.4143 1.0958 -2.0015 0.9731
5.8956 2.7543 -2.0015 0.9731
5.6265 3.2691 -2.0015 0.9731
4.1286 5.0298 -2.0015 0.9731
3.6637 5.3779 -2.0015 0.9731
2.1097 6.1558 -2.0015 0.9731
0.9828 6.4326 -2.0015 0.9731
0.4053 6.4946 -2.0015 0.9731
-0.1754 6.5049 -2.0015 0.9731
-0.7548 6.4633 -2.0015 0.9731
-1.3281 6.3703 -2.0015 0.9731
-2.9667 5.7916 -2.0015 0.9731
-3.4713 5.5040 -2.0015 0.9731
-3.9482 5.1726 -2.0015 0.9731
-4.8042 4.3890 -2.0015 0.9731
-6.3716 1.3218 -2.0015 0.9731
-6.4641 0.7484 -2.0015 0.9731
-6.4942 -0.4116 -2.0015 0.9731
-6.4316 -0.9890 -2.0015 0.9731
-6.1537 -2.1157 -2.0015 0.9731
-5.6800 -3.1751 -2.0015 0.9731
-5.3743 -3.6689 -2.0015 0.9731
-5.0257 -4.1335 -2.0015 0.9731
-4.6372 -4.5652 -2.0015 0.9731
-3.7525 -5.3163 -2.0015 0.9731
-1.6572 -6.2927 -2.0015 0.9731
-1.0895 -6.4154 -2.0015 0.9731
0.6473 -6.4750 -2.0015 0.9731
2.3379 -6.0728 -2.0015 0.9731
2.8700 -5.8401 -2.0015 0.9731
3.3794 -5.5610 -2.0015 0.9731
4.3134 -4.8723 -2.0015 0.9731
5.4491 -3.5570 -2.0015 0.9731
6.4507 -0.8558 -2.0015 0.9731
6.5013 -0.2772 -2.0015 0.9731
6.5002 0.3036 -2.0015 0.9731
6.4472 0.8820 -2.0015 0.9731
5.9838 2.5569 -2.0015 0.9731
5.7320 3.0803 -2.0015 0.9731
5.4345 3.5791 -2.0015 0.9731
3.8404 5.2532 -2.0015 0.9731
3.3567 5.5747 -2.0015 0.9731
2.8462 5.8518 -2.0015 0.9731
1.7616 6.2643 -2.0015 0.9731
0.6209 6.4776 -2.0015 0.9731
0.0408 6.5071 -2.0015 0.9731
-0.5396 6.4848 -2.0015 0.9731
-2.7726 5.8870 -2.0015 0.9731
-3.2865 5.6163 -2.0015 0.9731
-4.2318 4.9433 -2.0015 0.9731
-4.6557 4.5463 -2.0015 0.9731
-5.0426 4.1130 -2.0015 0.9731
-5.6929 3.1519 -2.0015 0.9731
-5.9513 2.6318 -2.0015 0.9731
-6.3241 1.5328 -2.0015 0.9731
-6.4356 0.9628 -2.0015 0.9731
-6.4958 0.3852 -2.0015 0.9731
-6.3661 -1.3478 -2.0015 0.9731
-5.7824 -2.9846 -2.0015 0.9731
-5.4932 -3.4883 -2.0015 0.9731
-5.1603 -3.9642 -2.0015 0.9731
-4.7863 -4.4086 -2.0015 0.9731
-3.4488 -5.5181 -2.0015 0.9731
-2.9431 -5.8037 -2.0015 0.9731
-2.4138 -6.0430 -2.0015 0.9731
-1.8654 -6.2342 -2.0015 0.9731
-1.3021 -6.3756 -2.0015 0.9731
0.4317 -6.4929 -2.0015 0.9731
1.0090 -6.4285 -2.0015 0.9731
1.5782 -6.3130 -2.0015 0.9731
2.1348 -6.1471 -2.0015 0.9731
2.6744 -5.9323 -2.0015 0.9731
3.6856 -5.3629 -2.0015 0.9731
4.5795 -4.6230 -2.0015 0.9731
5.3279 -3.7361 -2.0015 0.9731
5.9068 -2.7303 -2.0015 0.9731
6.4187 -1.0696 -2.0015 0.9731
6.4885 -0.4930 -2.0015 0.9731
6.3877 1.2418 -2.0015 0.9731
6.0655 2.3567 -2.0015 0.9731
4.8589 4.3284 -2.0015 0.9731
4.4536 4.7445 -2.0015 0.9731
4.0128 5.1227 -2.0015 0.9731
3.0391 5.7540 -2.0015 0.9731
1.9687 6.2023 -2.0015 0.9731
0.8358 6.4534 -2.0015 0.9731
0.2570 6.5022 -2.0015 0.9731
-1.4730 6.3383 -2.0015 0.9731
-2.0323 6.1817 -2.0015 0.9731
-3.5959 5.4234 -2.0015 0.9731
-4.0652 5.0812 -2.0015 0.9731
-4.5021 4.6985 -2.0015 0.9731
-4.9031 4.2783 -2.0015 0.9731
-6.0894 2.2942 -2.0015 0.9731
-6.2697 1.7421 -2.0015 0.9731
-6.4001 1.1761 -2.0015 0.9731
-6.4074 -1.1355 -2.0015 0.9731
-6.2806 -1.7023 -2.0015 0.9731
-5.6061 -3.3039 -2.0015 0.9731
-5.2892 -3.7906 -2.0015 0.9731
-4.5318 -4.6698 -2.0015 0.9731
-3.1343 -5.7027 -2.0015 0.9731
-2.0715 -6.1687 -2.0015 0.9731
-1.5132 -6.3289 -2.0015 0.9731
1.9294 -6.2147 -2.0015 0.9731
3.5053 -5.4824 -2.0015 0.9731
4.4234 -4.7726 -2.0015 0.9731
4.8313 -4.3592 -2.0015 0.9731
5.2008 -3.9110 -2.0015 0.9731
5.5288 -3.4317 -2.0015 0.9731
5.8128 -2.9251 -2.0015 0.9731
6.0504 -2.3951 -2.0015 0.9731
6.3796 -1.2823 -2.0015 0.9731
6.5060 -0.1288 -2.0015 0.9731
6.4915 0.4519 -2.0015 0.9731
6.4254 1.0289 -2.0015 0.9731
6.1405 2.1538 -2.0015 0.9731
5.6603 3.2103 -2.0015 0.9731
4.6088 4.5938 -2.0015 0.9731
4.1808 4.9865 -2.0015 0.9731
3.2286 5.6498 -2.0015 0.9731
2.7120 5.9152 -2.0015 0.9731
1.6182 6.3028 -2.0015 0.9731
1.0498 6.4220 -2.0015 0.9731
-0.6874 6.4708 -2.0015 0.9731
-1.2616 6.3838 -2.0015 0.9731
-1.8258 6.2459 -2.0015 0.9731
-2.3755 6.0582 -2.0015 0.9731
-3.4138 5.5399 -2.0015 0.9731
-4.7582 4.4389 -2.0015 0.9731
-5.4710 3.5231 -2.0015 0.9731
-5.7634 3.0213 -2.0015 0.9731
-6.0098 2.4953 -2.0015 0.9731
-6.2084 1.9495 -2.0015 0.9731
-6.3575 1.3882 -2.0015 0.9731
-6.5029 0.2369 -2.0015 0.9731
-6.4981 -0.3439 -2.0015 0.9731
-6.1754 -2.0515 -2.0015 0.9731
-5.7128 -3.1158 -2.0015 0.9731
-5.0685 -4.0809 -2.0015 0.9731
-3.8077 -5.2769 -2.0015 0.9731
-2.8099 -5.8693 -2.0015 0.9731
6.0195 0.1437 -2.0015 0.9749
5.8983 1.2106 -2.0015 0.9749
5.5895 2.2390 -2.0015 0.9749
5.1029 3.1962 -2.0015 0.9749
4.0750 4.4328 -2.0015 0.9749
2.7565 5.3532 -2.0015 0.9749
2.2682 5.5777 -2.0015 0.9749
0.7111 5.9791 -2.0015 0.9749
-0.3622 6.0103 -2.0015 0.9749
-0.8967 5.9541 -2.0015 0.9749
-2.9217 5.2649 -2.0015 0.9749
-4.2109 4.3039 -2.0015 0.9749
-4.5779 3.9113 -2.0015 0.9749
-5.1998 3.0359 -2.0015 0.9749
-5.8179 1.5515 -2.0015 0.9749
-5.9331 1.0265 -2.0015 0.9749
-6.0010 0.4934 -2.0015 0.9749
-6.0211 -0.0436 -2.0015 0.9749
-5.9932 -0.5803 -2.0015 0.9749
-5.9176 -1.1124 -2.0015 0.9749
-5.6259 -2.1458 -2.0015 0.9749
-4.8574 -3.5583 -2.0015 0.9749
-2.8450 -5.3067 -2.0015 0.9749
-1.8572 -5.7276 -2.0015 0.9749
-0.2751 -6.0149 -2.0015 0.9749
0.2623 -6.0155 -2.0015 0.9749
0.7977 -5.9682 -2.0015 0.9749
2.8338 -5.3127 -2.0015 0.9749
3.2962 -5.0389 -2.0015 0.9749
4.5123 -3.9868 -2.0015 0.9749
4.8498 -3.5686 -2.0015 0.9749
5.1487 -3.1219 -2.0015 0.9749
5.4065 -2.6504 -2.0015 0.9749
5.6213 -2.1578 -2.0015 0.9749
5.7913 -1.6479 -2.0015 0.9749
6.0210 -0.0564 -2.0015 0.9749
5.6608 2.0520 -2.0015 0.9749
5.4553 2.5486 -2.0015 0.9749
5.2063 3.0249 -2.0015 0.9749
4.9158 3.4771 -2.0015 0.9749
4.5862 3.9015 -2.0015 0.9749
4.2200 4.2949 -2.0015 0.9749
2.4523 5.4992 -2.0015 0.9749
1.9521 5.6960 -2.0015 0.9749
0.3750 6.0095 -2.0015 0.9749
-0.1623 6.0190 -2.0015 0.9749
-0.6984 5.9806 -2.0015 0.9749
-1.2289 5.8945 -2.0015 0.9749
-1.7496 5.7614 -2.0015 0.9749
-2.7451 5.3591 -2.0015 0.9749
-3.2120 5.0930 -2.0015 0.9749
-3.6533 4.7863 -2.0015 0.9749
-4.4454 4.0612 -2.0015 0.9749
-4.7898 3.6487 -2.0015 0.9749
-5.3618 2.7399 -2.0015 0.9749
-5.8957 1.2231 -2.0015 0.9749
-5.9813 0.6925 -2.0015 0.9749
-6.0192 0.1565 -2.0015 0.9749
-6.0092 -0.3809 -2.0015 0.9749
-5.9513 -0.9152 -2.0015 0.9749
-5.4968 -2.4576 -2.0015 0.9749
-5.2558 -2.9380 -2.0015 0.9749
-4.9729 -3.3949 -2.0015 0.9749
-4.6504 -3.8248 -2.0015 0.9749
-4.2908 -4.2242 -2.0015 0.9749
-3.8971 -4.5900 -2.0015 0.9749
-3.0198 -5.2092 -2.0015 0.9749
-2.5433 -5.4577 -2.0015 0.9749
-1.5334 -5.8227 -2.0015 0.9749
0.0623 -6.0209 -2.0015 0.9749
0.5989 -5.9914 -2.0015 0.9749
2.1633 -5.6192 -2.0015 0.9749
2.6557 -5.4039 -2.0015 0.9749
3.1270 -5.1456 -2.0015 0.9749
3.5733 -4.8463 -2.0015 0.9749
3.9912 -4.5084 -2.0015 0.9749
5.0421 -3.2913 -2.0015 0.9749
5.5465 -2.3434 -2.0015 0.9749
5.7334 -1.8395 -2.0015 0.9749
5.9689 -0.7918 -2.0015 0.9749
5.7258 1.8628 -2.0015 0.9749
5.5369 2.3659 -2.0015 0.9749
5.0286 3.3118 -2.0015 0.9749
4.3604 4.1523 -2.0015 0.9749
3.9728 4.5246 -2.0015 0.9749
3.5535 4.8608 -2.0015 0.9749
3.1060 5.1583 -2.0015 0.9749
2.6336 5.4147 -2.0015 0.9749
2.1403 5.6280 -2.0015 0.9749
1.6300 5.7964 -2.0015 0.9749
0.5745 5.9938 -2.0015 0.9749
0.0378 6.0211 -2.0015 0.9749
-1.5572 5.8164 -2.0015 0.9749
-2.5655 5.4473 -2.0015 0.9749
-3.0410 5.1969 -2.0015 0.9749
-3.9157 4.5741 -2.0015 0.9749
-4.3080 4.2067 -2.0015 0.9749
-4.9867 3.3746 -2.0015 0.9749
-5.2677 2.9165 -2.0015 0.9749
-5.5068 2.4352 -2.0015 0.9749
-5.9549 0.8909 -2.0015 0.9749
-6.0107 0.3564 -2.0015 0.9749
-6.0185 -0.1810 -2.0015 0.9749
-5.9784 -0.7169 -2.0015 0.9749
-5.8906 -1.2471 -2.0015 0.9749
-5.7560 -1.7674 -2.0015 0.9749
-5.5755 -2.2736 -2.0015 0.9749
-5.0830 -3.2278 -2.0015 0.9749
-4.7749 -3.6682 -2.0015 0.9749
-3.1912 -5.1060 -2.0015 0.9749
-0.6740 -5.9834 -2.0015 0.9749
-0.1378 -6.0197 -2.0015 0.9749
0.3995 -6.0080 -2.0015 0.9749
2.4746 -5.4892 -2.0015 0.9749
2.9542 -5.2467 -2.0015 0.9749
3.4103 -4.9624 -2.0015 0.9749
4.2375 -4.2777 -2.0015 0.9749
4.9299 -3.4570 -2.0015 0.9749
5.8274 -1.5154 -2.0015 0.9749
6.0039 -0.4562 -2.0015 0.9749
6.0207 0.0809 -2.0015 0.9749
5.9106 1.1491 -2.0015 0.9749
5.3957 2.6724 -2.0015 0.9749
4.4960 4.0051 -2.0015 0.9749
3.7131 4.7401 -2.0015 0.9749
3.2756 5.0523 -2.0015 0.9749
2.3262 5.5537 -2.0015 0.9749
1.8217 5.7390 -2.0015 0.9749
1.3027 5.8786 -2.0015 0.9749
0.2378 6.0165 -2.0015 0.9749
-2.3831 5.5296 -2.0015 0.9749
-2.8667 5.2950 -2.0015 0.9749
-3.3274 5.0183 -2.0015 0.9749
-3.7616 4.7017 -2.0015 0.9749
-4.5369 3.9588 -2.0015 0.9749
-5.4229 2.6168 -2.0015 0.9749
-5.6346 2.1229 -2.0015 0.9749
-5.9989 -0.5179 -2.0015 0.9749
-5.8115 -1.5752 -2.0015 0.9749
-5.4393 -2.5824 -2.0015 0.9749
-4.1933 -4.3210 -2.0015 0.9749
-3.7913 -4.6777 -2.0015 0.9749
-1.9168 -5.7080 -2.0015 0.9749
-0.3377 -6.0118 -2.0015 0.9749
3.2435 -5.0729 -2.0015 0.9749
3.6829 -4.7635 -2.0015 0.9749
5.1159 -3.1754 -2.0015 0.9749
5.5985 -2.2162 -2.0015 0.9749
5.7738 -1.7082 -2.0015 0.9749
5.9032 -1.1866 -2.0015 0.9749
6.0200 -0.1192 -2.0015 0.9749
6.0067 0.4181 -2.0015 0.9749
5.9455 0.9520 -2.0015 0.9749
5.6818 1.9929 -2.0015 0.9749
5.2375 2.9705 -2.0015 0.9749
4.9518 3.4257 -2.0015 0.9749
3.8685 4.6141 -2.0015 0.9749
2.9875 5.2278 -2.0015 0.9749
0.9713 5.9424 -2.0015 0.9749
0.4376 6.0053 -2.0015 0.9749
-0.6360 5.9875 -2.0015 0.9749
-1.1674 5.9070 -2.0015 0.9749
-1.6895 5.7794 -2.0015 0.9749
-2.6891 5.3873 -2.0015 0.9749
-3.1588 5.1261 -2.0015 0.9749
-3.6033 4.8241 -2.0015 0.9749
-4.7515 3.6984 -2.0015 0.9749
-5.3329 2.7956 -2.0015 0.9749
-5.7447 1.8039 -2.0015 0.9749
-5.8826 1.2845 -2.0015 0.9749
-5.9605 -0.8531 -2.0015 0.9749
-5.8607 -1.3812 -2.0015 0.9749
-5.7142 -1.8983 -2.0015 0.9749
-5.2861 -2.8830 -2.0015 0.9749
-5.0080 -3.3429 -2.0015 0.9749
-4.6900 -3.7761 -2.0015 0.9749
-4.3346 -4.1793 -2.0015 0.9749
-3.5233 -4.8828 -2.0015 0.9749
-2.6000 -5.4309 -2.0015 0.9749
5.5611 0.6319 -2.0015 0.9765
5.4826 1.1253 -2.0015 0.9765
4.9893 2.5362 -2.0015 0.9765
4.7433 2.9710 -2.0015 0.9765
4.4595 3.3821 -2.0015 0.9765
3.7878 4.1204 -2.0015 0.9765
3.4053 4.4417 -2.0015 0.9765
2.9957 4.7277 -2.0015 0.9765
2.1083 5.1846 -2.0015 0.9765
0.6610 5.5577 -2.0015 0.9765
0.1628 5.5945 -2.0015 0.9765
-0.3367 5.5868 -2.0015 0.9765
-0.8335 5.5345 -2.0015 0.9765
-1.3237 5.4381 -2.0015 0.9765
-1.8033 5.2984 -2.0015 0.9765
-2.2686 5.1165 -2.0015 0.9765
-2.7158 4.8939 -2.0015 0.9765
-3.5418 4.3337 -2.0015 0.9765
-3.9142 4.0006 -2.0015 0.9765
-4.2553 3.6356 -2.0015 0.9765
-4.5625 3.2417 -2.0015 0.9765
-4.8334 2.8220 -2.0015 0.9765
-5.2578 1.9186 -2.0015 0.9765
-5.5149 0.9542 -2.0015 0.9765
-5.5781 0.4587 -2.0015 0.9765
-5.5005 -1.0340 -2.0015 0.9765
-5.3864 -1.5204 -2.0015 0.9765
-5.2294 -1.9946 -2.0015 0.9765
-3.8558 -4.0569 -2.0015 0.9765
-2.6446 -4.9327 -2.0015 0.9765
-2.1942 -5.1489 -2.0015 0.9765
-0.2557 -5.5910 -2.0015 0.9765
0.7415 -5.5476 -2.0015 0.9765
1.7150 -5.3277 -2.0015 0.9765
2.1833 -5.1535 -2.0015 0.9765
2.6341 -4.9383 -2.0015 0.9765
5.3832 -1.5318 -2.0015 0.9765
5.4983 -1.0457 -2.0015 0.9765
5.5697 -0.5513 -2.0015 0.9765
5.5967 -0.0524 -2.0015 0.9765
5.0708 2.3690 -2.0015 0.9765
4.8394 2.8117 -2.0015 0.9765
4.2630 3.6266 -2.0015 0.9765
3.9226 3.9923 -2.0015 0.9765
3.5510 4.3261 -2.0015 0.9765
2.7262 4.8881 -2.0015 0.9765
2.2794 5.1117 -2.0015 0.9765
1.8146 5.2946 -2.0015 0.9765
1.3353 5.4353 -2.0015 0.9765
-0.1509 5.5949 -2.0015 0.9765
-1.1423 5.4791 -2.0015 0.9765
-1.6263 5.3554 -2.0015 0.9765
-2.5517 4.9814 -2.0015 0.9765
-3.3959 4.4490 -2.0015 0.9765
-4.7369 2.9810 -2.0015 0.9765
-4.9839 2.5468 -2.0015 0.9765
-5.1911 2.0923 -2.0015 0.9765
-5.3570 1.6210 -2.0015 0.9765
-5.5597 0.6437 -2.0015 0.9765
-5.5950 0.1454 -2.0015 0.9765
-5.5857 -0.3540 -2.0015 0.9765
-5.4340 -1.3405 -2.0015 0.9765
-5.1095 -2.2844 -2.0015 0.9765
-3.9884 -3.9265 -2.0015 0.9765
-0.9371 -5.5179 -2.0015 0.9765
0.5567 -5.5691 -2.0015 0.9765
1.0511 -5.4973 -2.0015 0.9765
2.4685 -5.0231 -2.0015 0.9765
3.3215 -4.5048 -2.0015 0.9765
3.7099 -4.1907 -2.0015 0.9765
5.1556 -2.1782 -2.0015 0.9765
5.5918 -0.2384 -2.0015 0.9765
5.5452 0.7586 -2.0015 0.9765
5.1467 2.1992 -2.0015 0.9765
4.0531 3.8597 -2.0015 0.9765
2.8871 4.7948 -2.0015 0.9765
1.9895 5.2314 -2.0015 0.9765
1.5151 5.3879 -2.0015 0.9765
-0.9596 5.5140 -2.0015 0.9765
-1.4474 5.4065 -2.0015 0.9765
-1.9237 5.2559 -2.0015 0.9765
-2.3847 5.0634 -2.0015 0.9765
-3.2462 4.5593 -2.0015 0.9765
-4.3371 3.5376 -2.0015 0.9765
-4.8965 2.7110 -2.0015 0.9765
-5.4394 1.3184 -2.0015 0.9765
-5.5871 0.3313 -2.0015 0.9765
-5.5944 -0.1682 -2.0015 0.9765
-5.5571 -0.6664 -2.0015 0.9765
-5.4755 -1.1592 -2.0015 0.9765
-5.1826 -2.1134 -2.0015 0.9765
-4.9735 -2.5671 -2.0015 0.9765
-4.7247 -3.0003 -2.0015 0.9765
-3.7622 -4.1438 -2.0015 0.9765
-2.9663 -4.7462 -2.0015 0.9765
-2.5313 -4.9917 -2.0015 0.9765
-1.1199 -5.4837 -2.0015 0.9765
0.8678 -5.5292 -2.0015 0.9765
1.8361 -5.2871 -2.0015 0.9765
3.1700 -4.6126 -2.0015 0.9765
3.9389 -3.9762 -2.0015 0.9765
4.5825 -3.2134 -2.0015 0.9765
4.8508 -2.7920 -2.0015 0.9765
5.2696 -1.8860 -2.0015 0.9765
5.5964 0.0752 -2.0015 0.9765
5.3769 1.5537 -2.0015 0.9765
4.7740 2.9214 -2.0015 0.9765
4.4945 3.3354 -2.0015 0.9765
3.8305 4.0807 -2.0015 0.9765
2.6139 4.9490 -2.0015 0.9765
0.2211 5.5925 -2.0015 0.9765
-0.2785 5.5900 -2.0015 0.9765
-0.7758 5.5429 -2.0015 0.9765
-1.7480 5.3169 -2.0015 0.9765
-2.6646 4.9219 -2.0015 0.9765
-3.0929 4.6647 -2.0015 0.9765
-3.4965 4.3703 -2.0015 0.9765
-4.2172 3.6798 -2.0015 0.9765
-5.0407 2.4324 -2.0015 0.9765
-5.5047 1.0116 -2.0015 0.9765
-5.5730 0.5167 -2.0015 0.9765
-5.5969 0.0178 -2.0015 0.9765
-5.5761 -0.4814 -2.0015 0.9765
-5.0560 -2.4004 -2.0015 0.9765
-4.8218 -2.8417 -2.0015 0.9765
-4.2404 -3.6529 -2.0015 0.9765
-3.5242 -4.3481 -2.0015 0.9765
-3.1224 -4.6450 -2.0015 0.9765
-2.2477 -5.1257 -2.0015 0.9765
-0.8110 -5.5378 -2.0015 0.9765
0.6836 -5.5550 -2.0015 0.9765
1.6594 -5.3452 -2.0015 0.9765
2.1294 -5.1760 -2.0015 0.9765
2.5825 -4.9655 -2.0015 0.9765
4.1554 -3.7493 -2.0015 0.9765
4.7553 -2.9516 -2.0015 0.9765
5.2040 -2.0600 -2.0015 0.9765
5.5958 -0.1108 -2.0015 0.9765
5.5834 0.3886 -2.0015 0.9765
5.4256 1.3742 -2.0015 0.9765
5.2814 1.8525 -2.0015 0.9765
5.0952 2.3161 -2.0015 0.9765
4.8684 2.7611 -2.0015 0.9765
3.9640 3.9512 -2.0015 0.9765
2.7769 4.8594 -2.0015 0.9765
2.3326 5.0877 -2.0015 0.9765
-0.0926 5.5961 -2.0015 0.9765
-0.5912 5.5656 -2.0015 0.9765
-1.5704 5.3721 -2.0015 0.9765
-2.0431 5.2106 -2.0015 0.9765
-3.7358 4.1676 -2.0015 0.9765
-4.0926 3.8179 -2.0015 0.9765
-4.7056 3.0302 -2.0015 0.9765
-4.9571 2.5986 -2.0015 0.9765
-5.1690 2.1462 -2.0015 0.9765
-5.3398 1.6768 -2.0015 0.9765
-5.5932 0.2037 -2.0015 0.9765
-5.5404 -0.7930 -2.0015 0.9765
-5.4477 -1.2839 -2.0015 0.9765
-4.9136 -2.6799 -2.0015 0.9765
-4.3595 -3.5100 -2.0015 0.9765
-4.0291 -3.8848 -2.0015 0.9765
-3.2750 -4.5387 -2.0015 0.9765
-2.8573 -4.8126 -2.0015 0.9765
5.2117 -0.3414 -2.0015 0.9779
5.2214 0.1246 -2.0015 0.9779
4.6558 2.3667 -2.0015 0.9779
4.4263 2.7724 -2.0015 0.9779
4.1614 3.1560 -2.0015 0.9779
3.8634 3.5145 -2.0015 0.9779
3.5347 3.8450 -2.0015 0.9779
3.1777 4.1449 -2.0015 0.9779
2.7955 4.4117 -2.0015 0.9779
2.3910 4.6434 -2.0015 0.9779
1.5282 4.9943 -2.0015 0.9779
1.0768 5.1106 -2.0015 0.9779
-0.3142 5.2134 -2.0015 0.9779
-1.6828 4.9443 -2.0015 0.9779
-2.1170 4.7746 -2.0015 0.9779
-2.9314 4.3226 -2.0015 0.9779
-3.3051 4.0440 -2.0015 0.9779
-4.5104 2.6334 -2.0015 0.9779
-4.7272 2.2207 -2.0015 0.9779
-4.9064 1.7904 -2.0015 0.9779
-5.2227 -0.0378 -2.0015 0.9779
-5.0265 -1.4188 -2.0015 0.9779
-4.8799 -1.8613 -2.0015 0.9779
-4.6945 -2.2890 -2.0015 0.9779
-4.2133 -3.0865 -2.0015 0.9779
-3.9213 -3.4499 -2.0015 0.9779
-2.8684 -4.3647 -2.0015 0.9779
-2.4678 -4.6030 -2.0015 0.9779
-2.0475 -4.8048 -2.0015 0.9779
-1.6110 -4.9682 -2.0015 0.9779
-0.7029 -5.1753 -2.0015 0.9779
0.6919 -5.1768 -2.0015 0.9779
1.1508 -5.0945 -2.0015 0.9779
2.0373 -4.8091 -2.0015 0.9779
2.8592 -4.3707 -2.0015 0.9779
3.5900 -3.7934 -2.0015 0.9779
3.9140 -3.4582 -2.0015 0.9779
4.8760 -1.8717 -2.0015 0.9779
5.1309 -0.9758 -2.0015 0.9779
5.2226 -0.0489 -2.0015 0.9779
5.1483 0.8795 -2.0015 0.9779
4.9102 1.7800 -2.0015 0.9779
3.9781 3.3842 -2.0015 0.9779
3.6605 3.7254 -2.0015 0.9779
2.1271 4.7701 -2.0015 0.9779
1.6933 4.9407 -2.0015 0.9779
0.7888 5.1629 -2.0015 0.9779
0.3253 5.2127 -2.0015 0.9779
-0.1408 5.2210 -2.0015 0.9779
-0.6058 5.1876 -2.0015 0.9779
-1.0659 5.1129 -2.0015 0.9779
-1.5176 4.9975 -2.0015 0.9779
-2.7861 4.4177 -2.0015 0.9779
-3.8560 3.5227 -2.0015 0.9779
-4.6508 2.3766 -2.0015 0.9779
-5.1139 1.0609 -2.0015 0.9779
-5.1882 0.6007 -2.0015 0.9779
-5.2211 0.1357 -2.0015 0.9779
-5.0708 -1.2509 -2.0015 0.9779
-4.9391 -1.6981 -2.0015 0.9779
-4.5589 -2.5484 -2.0015 0.9779
-4.3135 -2.9448 -2.0015 0.9779
-4.0338 -3.3177 -2.0015 0.9779
-3.3803 -3.9814 -2.0015 0.9779
-3.0119 -4.2669 -2.0015 0.9779
-0.8745 -5.1491 -2.0015 0.9779
0.9808 -5.1299 -2.0015 0.9779
1.4343 -5.0220 -2.0015 0.9779
2.7123 -4.4633 -2.0015 0.9779
4.3735 -2.8549 -2.0015 0.9779
5.1775 -0.6869 -2.0015 0.9779
5.2181 -0.2225 -2.0015 0.9779
4.9666 1.6158 -2.0015 0.9779
4.8028 2.0522 -2.0015 0.9779
3.7823 3.6018 -2.0015 0.9779
3.4460 3.9247 -2.0015 0.9779
3.0824 4.2163 -2.0015 0.9779
1.8565 4.8817 -2.0015 0.9779
1.4139 5.0278 -2.0015 0.9779
0.9599 5.1339 -2.0015 0.9779
0.4983 5.1990 -2.0015 0.9779
-0.4331 5.2049 -2.0015 0.9779
-0.8954 5.1455 -2.0015 0.9779
-1.3507 5.0452 -2.0015 0.9779
-1.7952 4.9046 -2.0015 0.9779
-3.0292 4.2546 -2.0015 0.9779
-3.3965 3.9676 -2.0015 0.9779
-3.7368 3.6489 -2.0015 0.9779
-4.0473 3.3012 -2.0015 0.9779
-4.5693 2.5298 -2.0015 0.9779
-4.7766 2.1123 -2.0015 0.9779
-4.9460 1.6780 -2.0015 0.9779
-5.1654 0.7728 -2.0015 0.9779
-5.2137 0.3091 -2.0015 0.9779
-5.2205 -0.1570 -2.0015 0.9779
-5.1096 -1.0818 -2.0015 0.9779
-4.9928 -1.5331 -2.0015 0.9779
-4.6411 -2.3955 -2.0015 0.9779
-4.1418 -3.1818 -2.0015 0.9779
-3.8416 -3.5384 -2.0015 0.9779
-3.5108 -3.8669 -2.0015 0.9779
-2.7681 -4.4290 -2.0015 0.9779
-1.9374 -4.8502 -2.0015 0.9779
-1.4972 -5.0036 -2.0015 0.9779
-1.0451 -5.1172 -2.0015 0.9779
-0.1195 -5.2215 -2.0015 0.9779
1.2667 -5.0669 -2.0015 0.9779
1.7134 -4.9338 -2.0015 0.9779
2.5625 -4.5510 -2.0015 0.9779
2.9581 -4.3044 -2.0015 0.9779
3.3301 -4.0235 -2.0015 0.9779
4.5266 -2.6054 -2.0015 0.9779
4.9174 -1.7599 -2.0015 0.9779
5.2078 -0.3957 -2.0015 0.9779
5.2224 0.0702 -2.0015 0.9779
5.1269 0.9967 -2.0015 0.9779
5.0176 1.4499 -2.0015 0.9779
4.8683 1.8915 -2.0015 0.9779
4.4549 2.7262 -2.0015 0.9779
4.1941 3.1125 -2.0015 0.9779
3.8999 3.4741 -2.0015 0.9779
3.5745 3.8080 -2.0015 0.9779
2.8413 4.3824 -2.0015 0.9779
2.4392 4.6183 -2.0015 0.9779
1.1300 5.0991 -2.0015 0.9779
0.6708 5.1796 -2.0015 0.9779
-0.2599 5.2164 -2.0015 0.9779
-1.1823 5.0873 -2.0015 0.9779
-1.6312 4.9616 -2.0015 0.9779
-2.0671 4.7964 -2.0015 0.9779
-2.4865 4.5930 -2.0015 0.9779
-3.2628 4.0782 -2.0015 0.9779
-4.4827 2.6802 -2.0015 0.9779
-4.7038 2.2699 -2.0015 0.9779
-5.0322 1.3983 -2.0015 0.9779
-5.2005 0.4822 -2.0015 0.9779
-5.2228 0.0166 -2.0015 0.9779
-5.1427 -0.9114 -2.0015 0.9779
-5.0410 -1.3663 -2.0015 0.9779
-4.8990 -1.8104 -2.0015 0.9779
-4.4996 -2.6518 -2.0015 0.9779
-3.9570 -3.4088 -2.0015 0.9779
-3.2886 -4.0575 -2.0015 0.9779
-2.9137 -4.3345 -2.0015 0.9779
-2.5156 -4.5771 -2.0015 0.9779
-2.0975 -4.7832 -2.0015 0.9779
-1.6626 -4.9511 -2.0015 0.9779
-1.2145 -5.0797 -2.0015 0.9779
-0.7568 -5.1677 -2.0015 0.9779
-0.2930 -5.2146 -2.0015 0.9779
1.5485 -4.9880 -2.0015 0.9779
2.8135 -4.4003 -2.0015 0.9779
3.5503 -3.8306 -2.0015 0.9779
3.8777 -3.4988 -2.0015 0.9779
4.4375 -2.7544 -2.0015 0.9779
4.8562 -1.9224 -2.0015 0.9779
5.1918 -0.5686 -2.0015 0.9779
5.0630 1.2824 -2.0015 0.9779
4.9285 1.7287 -2.0015 0.9779
4.0131 3.3426 -2.0015 0.9779
3.6991 3.6871 -2.0015 0.9779
3.3556 4.0023 -2.0015 0.9779
2.9854 4.2855 -2.0015 0.9779
1.7447 4.9228 -2.0015 0.9779
0.8426 5.1544 -2.0015 0.9779
0.3796 5.2090 -2.0015 0.9779
-0.0864 5.2221 -2.0015 0.9779
-0.5517 5.1936 -2.0015 0.9779
-1.4654 5.0131 -2.0015 0.9779
-1.9066 4.8624 -2.0015 0.9779
-2.3326 4.6730 -2.0015 0.9779
-2.7400 4.4464 -2.0015 0.9779
-3.4862 3.8891 -2.0015 0.9779
-3.8191 3.5627 -2.0015 0.9779
-4.1215 3.2080 -2.0015 0.9779
-4.3911 2.8277 -2.0015 0.9779
-4.8236 2.0028 -2.0015 0.9779
-5.1816 0.6547 -2.0015 0.9779
-5.1701 -0.7400 -2.0015 0.9779
-2.6663 -4.4910 -2.0015 0.9779
4.8799 -0.3197 -2.0015 0.9791
4.8889 0.1167 -2.0015 0.9791
4.8591 0.5522 -2.0015 0.9791
4.5397 1.8185 -2.0015 0.9791
3.8965 2.9551 -2.0015 0.9791
3.3096 3.6002 -2.0015 0.9791
2.6175 4.1308 -2.0015 0.9791
1.4309 4.6763 -2.0015 0.9791
1.0082 4.7853 -2.0015 0.9791
0.1422 4.8883 -2.0015 0.9791
-0.2942 4.8815 -2.0015 0.9791
-0.7283 4.8358 -2.0015 0.9791
-2.7448 4.0474 -2.0015 0.9791
-3.0947 3.7866 -2.0015 0.9791
-3.4200 3.4955 -2.0015 0.9791
-4.4262 2.0793 -2.0015 0.9791
-4.7252 1.2601 -2.0015 0.9791
-1.9565 0.1609 -0.8035 0.9916
-1.9579 -0.1896 -0.8051 0.9915
-2.2009 -0.4137 -0.9165 0.9904
-4.5692 -1.7428 -2.0015 0.9791
-4.3956 -2.1433 -2.0015 0.9791
-4.1870 -2.5267 -2.0015 0.9791
-3.9450 -2.8900 -2.0015 0.9791
-3.0395 -3.8310 -2.0015 0.9791
-2.3107 -4.3100 -2.0015 0.9791
-1.9172 -4.4989 -2.0015 0.9791
-1.5084 -4.6519 -2.0015 0.9791
-0.6581 -4.8458 -2.0015 0.9791
-0.2234 -4.8852 -2.0015 0.9791
0.6479 -4.8472 -2.0015 0.9791
3.0314 -3.8375 -2.0015 0.9791
3.3615 -3.5519 -2.0015 0.9791
3.9389 -2.8983 -2.0015 0.9791
4.1817 -2.5356 -2.0015 0.9791
4.5655 -1.7525 -2.0015 0.9791
4.7036 -1.3384 -2.0015 0.9791
4.8042 -0.9137 -2.0015 0.9791
4.8901 -0.0458 -2.0015 0.9791
4.2284 2.4568 -2.0015 0.9791
3.9925 2.8240 -2.0015 0.9791
3.7248 3.1688 -2.0015 0.9791
3.1027 3.7800 -2.0015 0.9791
2.7533 4.0416 -2.0015 0.9791
1.9917 4.4664 -2.0015 0.9791
1.5855 4.6262 -2.0015 0.9791
1.1667 4.7491 -2.0015 0.9791
0.3046 4.8808 -2.0015 0.9791
-0.5672 4.8573 -2.0015 0.9791
-0.9981 4.7874 -2.0015 0.9791
-1.4210 4.6793 -2.0015 0.9791
-2.2295 4.3525 -2.0015 0.9791
-2.9672 3.8873 -2.0015 0.9791
-3.3020 3.6073 -2.0015 0.9791
-3.6105 3.2985 -2.0015 0.9791
-4.1389 2.6047 -2.0015 0.9791
-4.3547 2.2253 -2.0015 0.9791
-4.5358 1.8281 -2.0015 0.9791
-4.6807 1.4164 -2.0015 0.9791
-1.9229 0.0500 -0.7873 0.9917
-1.9881 -0.3057 -0.8232 0.9913
-4.7480 -1.1713 -2.0015 0.9791
-4.4644 -1.9960 -2.0015 0.9791
-4.0389 -2.7573 -2.0015 0.9791
-3.4849 -3.4308 -2.0015 0.9791
-3.1651 -3.7279 -2.0015 0.9791
-2.8201 -3.9953 -2.0015 0.9791
-1.2454 -4.7291 -2.0015 0.9791
-0.8188 -4.8213 -2.0015 0.9791
0.0506 -4.8901 -2.0015 0.9791
1.7570 -4.5638 -2.0015 0.9791
2.1569 -4.3890 -2.0015 0.9791
2.5397 -4.1792 -2.0015 0.9791
2.9022 -3.9361 -2.0015 0.9791
3.2416 -3.6616 -2.0015 0.9791
3.8404 -3.0276 -2.0015 0.9791
4.3171 -2.2973 -2.0015 0.9791
4.7712 -1.0728 -2.0015 0.9791
4.8479 -0.6431 -2.0015 0.9791
4.8850 0.2282 -2.0015 0.9791
4.7668 1.0923 -2.0015 0.9791
4.6504 1.5129 -2.0015 0.9791
4.4970 1.9216 -2.0015 0.9791
3.8281 3.0432 -2.0015 0.9791
3.2266 3.6748 -2.0015 0.9791
2.8861 3.9479 -2.0015 0.9791
2.1390 4.3977 -2.0015 0.9791
1.7383 4.5709 -2.0015 0.9791
1.3238 4.7077 -2.0015 0.9791
0.8988 4.8070 -2.0015 0.9791
-0.4055 4.8735 -2.0015 0.9791
-0.8384 4.8179 -2.0015 0.9791
-2.8364 3.9838 -2.0015 0.9791
-4.0501 2.7408 -2.0015 0.9791
-4.4725 1.9778 -2.0015 0.9791
-4.6311 1.5712 -2.0015 0.9791
-1.9560 0.2926 -0.8095 0.9915
-1.9263 -0.0579 -0.7888 0.9917
-4.7843 -1.0129 -2.0015 0.9791
-4.5283 -1.8466 -2.0015 0.9791
-4.3456 -2.2430 -2.0015 0.9791
-3.8781 -2.9792 -2.0015 0.9791
-3.5970 -3.3131 -2.0015 0.9791
-3.2873 -3.6207 -2.0015 0.9791
-2.9513 -3.8994 -2.0015 0.9791
-1.4019 -4.6851 -2.0015 0.9791
-0.9785 -4.7914 -2.0015 0.9791
-0.5474 -4.8596 -2.0015 0.9791
-0.1119 -4.8891 -2.0015 0.9791
2.0099 -4.4582 -2.0015 0.9791
3.4416 -3.4743 -2.0015 0.9791
3.7377 -3.1536 -2.0015 0.9791
4.0040 -2.8077 -2.0015 0.9791
4.4390 -2.0519 -2.0015 0.9791
4.6043 -1.6479 -2.0015 0.9791
4.7329 -1.2308 -2.0015 0.9791
4.8899 0.0658 -2.0015 0.9791
4.8646 0.5015 -2.0015 0.9791
4.6981 1.3576 -2.0015 0.9791
4.3823 2.1705 -2.0015 0.9791
4.1713 2.5526 -2.0015 0.9791
3.6516 3.2529 -2.0015 0.9791
2.6604 4.1034 -2.0015 0.9791
1.0580 4.7745 -2.0015 0.9791
-0.2433 4.8843 -2.0015 0.9791
-0.6779 4.8431 -2.0015 0.9791
-1.1070 4.7634 -2.0015 0.9791
-1.5273 4.6457 -2.0015 0.9791
-1.9355 4.4910 -2.0015 0.9791
-2.7024 4.0758 -2.0015 0.9791
-3.3834 3.5310 -2.0015 0.9791
-3.9568 2.8739 -2.0015 0.9791
-4.1973 2.5096 -2.0015 0.9791
-4.4043 2.1254 -2.0015 0.9791
-4.5763 1.7242 -2.0015 0.9791
-1.9579 0.1815 -0.8048 0.9915
-1.9577 -0.1690 -0.8042 0.9915
-2.1575 -0.3823 -0.8968 0.9906
-4.7200 -1.2793 -2.0015 0.9791
-4.5871 -1.6951 -2.0015 0.9791
-4.4177 -2.0974 -2.0015 0.9791
-4.2131 -2.4829 -2.0015 0.9791
-3.9749 -2.8487 -2.0015 0.9791
-3.7051 -3.1918 -2.0015 0.9791
-3.0793 -3.7991 -2.0015 0.9791
-2.7282 -4.0586 -2.0015 0.9791
-2.3555 -4.2857 -2.0015 0.9791
-1.5568 -4.6359 -2.0015 0.9791
-1.1372 -4.7563 -2.0015 0.9791
-0.7086 -4.8387 -2.0015 0.9791
1.4499 -4.6704 -2.0015 0.9791
1.8606 -4.5225 -2.0015 0.9791
2.2565 -4.3386 -2.0015 0.9791
2.6343 -4.1201 -2.0015 0.9791
3.3243 -3.5867 -2.0015 0.9791
3.6309 -3.2760 -2.0015 0.9791
3.9085 -2.9392 -2.0015 0.9791
4.1550 -2.5790 -2.0015 0.9791
4.3684 -2.1982 -2.0015 0.9791
4.8613 -0.5324 -2.0015 0.9791
4.8894 -0.0968 -2.0015 0.9791
4.8785 0.3396 -2.0015 0.9791
4.8288 0.7732 -2.0015 0.9791
4.7406 1.2007 -2.0015 0.9791
4.4520 2.0237 -2.0015 0.9791
4.0217 2.7823 -2.0015 0.9791
3.4636 3.4524 -2.0015 0.9791
3.1420 3.7475 -2.0015 0.9791
2.7953 4.0127 -2.0015 0.9791
2.4264 4.2459 -2.0015 0.9791
1.2161 4.7367 -2.0015 0.9791
-0.0809 4.8897 -2.0015 0.9791
-0.9481 4.7975 -2.0015 0.9791
-1.3721 4.6939 -2.0015 0.9791
-2.1841 4.3755 -2.0015 0.9791
-2.9265 3.9180 -2.0015 0.9791
-3.5759 3.3359 -2.0015 0.9791
-3.8591 3.0037 -2.0015 0.9791
-4.1116 2.6477 -2.0015 0.9791
-4.7778 1.0432 -2.0015 0.9791
-1.9524 0.2467 -0.8054 0.9915
-1.9314 0.0703 -0.7910 0.9917
-4.0674 -2.7150 -2.0015 0.9791
-3.8091 -3.0669 -2.0015 0.9791
-3.5205 -3.3943 -2.0015 0.9791
-3.2038 -3.6947 -2.0015 0.9791
-2.8616 -3.9657 -2.0015 0.9791
-2.4966 -4.2050 -2.0015 0.9791
-2.1117 -4.4109 -2.0015 0.9791
4.5827 -0.3002 -2.0015 0.9802
4.5912 0.1096 -2.0015 0.9802
4.5631 0.5185 -2.0015 0.9802
4.0939 2.0811 -2.0015 0.9802
3.3972 3.0904 -2.0015 0.9802
3.1081 3.3810 -2.0015 0.9802
2.4581 3.8793 -2.0015 0.9802
2.1024 4.0830 -2.0015 0.9802
1.7300 4.2542 -2.0015 0.9802
0.9468 4.4938 -2.0015 0.9802
0.5423 4.5604 -2.0015 0.9802
0.1336 4.5906 -2.0015 0.9802
-0.2763 4.5842 -2.0015 0.9802
-0.6839 4.5413 -2.0015 0.9802
-1.4797 4.3476 -2.0015 0.9802
-1.8615 4.1983 -2.0015 0.9802
-2.9062 3.5560 -2.0015 0.9802
-3.4916 2.9832 -2.0015 0.9802
-3.7437 2.6600 -2.0015 0.9802
-3.9660 2.3156 -2.0015 0.9802
-1.5967 0.5827 -0.7408 0.9926
-1.5036 0.2601 -0.6650 0.9934
-1.5267 -0.1478 -0.6685 0.9933
-4.2910 -1.6367 -2.0015 0.9802
-4.1279 -2.0128 -2.0015 0.9802
-3.7048 -2.7140 -2.0015 0.9802
-3.4480 -3.0335 -2.0015 0.9802
-3.1638 -3.3289 -2.0015 0.9802
-0.6181 -4.5507 -2.0015 0.9802
0.2001 -4.5881 -2.0015 0.9802
0.6084 -4.5520 -2.0015 0.9802
1.0119 -4.4796 -2.0015 0.9802
1.4073 -4.3716 -2.0015 0.9802
2.1614 -4.0521 -2.0015 0.9802
3.1568 -3.3356 -2.0015 0.9802
3.4416 -3.0408 -2.0015 0.9802
3.9270 -2.3812 -2.0015 0.9802
4.2875 -1.6458 -2.0015 0.9802
4.4172 -1.2569 -2.0015 0.9802
4.5116 -0.8581 -2.0015 0.9802
4.5702 -0.4523 -2.0015 0.9802
4.5923 -0.0430 -2.0015 0.9802
4.5779 0.3666 -2.0015 0.9802
4.4399 1.1739 -2.0015 0.9802
4.3176 1.5651 -2.0015 0.9802
3.7494 2.6520 -2.0015 0.9802
3.2187 3.2758 -2.0015 0.9802
2.5857 3.7954 -2.0015 0.9802
2.2369 4.0109 -2.0015 0.9802
1.4889 4.3444 -2.0015 0.9802
0.6936 4.5398 -2.0015 0.9802
0.2860 4.5836 -2.0015 0.9802
-0.5327 4.5615 -2.0015 0.9802
-1.3344 4.3944 -2.0015 0.9802
-2.0937 4.0875 -2.0015 0.9802
-3.3906 3.0976 -2.0015 0.9802
-3.8869 2.4461 -2.0015 0.9802
-4.2595 1.7168 -2.0015 0.9802
-1.5750 0.4766 -0.7172 0.9928
-1.5231 0.1764 -0.6682 0.9933
-1.5272 0.0397 -0.6658 0.9934
-1.5296 -0.0970 -0.6680 0.9933
-1.5115 -0.2324 -0.6665 0.9933
-1.5428 -0.3806 -0.6926 0.9931
-4.1925 -1.8745 -2.0015 0.9802
-4.0087 -2.2408 -2.0015 0.9802
-1.9398 -4.1627 -2.0015 0.9802
-1.1696 -4.4411 -2.0015 0.9802
-0.7689 -4.5277 -2.0015 0.9802
-0.3621 -4.5782 -2.0015 0.9802
0.4568 -4.5697 -2.0015 0.9802
0.8625 -4.5108 -2.0015 0.9802
1.2612 -4.4159 -2.0015 0.9802
1.6500 -4.2859 -2.0015 0.9802
2.0255 -4.1217 -2.0015 0.9802
3.0442 -3.4386 -2.0015 0.9802
3.8457 -2.5103 -2.0015 0.9802
4.3730 -1.4030 -2.0015 0.9802
4.5526 -0.6040 -2.0015 0.9802
4.5883 -0.1956 -2.0015 0.9802
4.5501 0.6225 -2.0015 0.9802
4.4765 1.0257 -2.0015 0.9802
4.3672 1.4208 -2.0015 0.9802
3.3258 3.1671 -2.0015 0.9802
3.0301 3.4510 -2.0015 0.9802
2.7103 3.7074 -2.0015 0.9802
1.6325 4.2926 -2.0015 0.9802
1.2432 4.4210 -2.0015 0.9802
0.8441 4.5143 -2.0015 0.9802
0.4382 4.5715 -2.0015 0.9802
-0.3808 4.5767 -2.0015 0.9802
-1.1877 4.4363 -2.0015 0.9802
-1.5785 4.3127 -2.0015 0.9802
-1.9568 4.1548 -2.0015 0.9802
-2.3194 3.9637 -2.0015 0.9802
-2.9866 3.4887 -2.0015 0.9802
-3.2858 3.2085 -2.0015 0.9802
-3.8034 2.5739 -2.0015 0.9802
-4.2001 1.8574 -2.0015 0.9802
-1.5897 0.5393 -0.7316 0.9927
-1.5131 0.2264 -0.6668 0.9933
-1.5277 -0.0459 -0.6661 0.9934
-1.5167 -0.3211 -0.6757 0.9933
-1.5771 -0.4843 -0.7190 0.9928
-3.6419 -2.7978 -2.0015 0.9802
-3.3779 -3.1114 -2.0015 0.9802
-3.0871 -3.4002 -2.0015 0.9802
-1.3165 -4.3998 -2.0015 0.9802
-0.1051 -4.5913 -2.0015 0.9802
0.7121 -4.5370 -2.0015 0.9802
1.1138 -4.4554 -2.0015 0.9802
1.5066 -4.3383 -2.0015 0.9802
1.8875 -4.1867 -2.0015 0.9802
2.6011 -3.7849 -2.0015 0.9802
3.2320 -3.2627 -2.0015 0.9802
4.1687 -1.9269 -2.0015 0.9802
4.3239 -1.5475 -2.0015 0.9802
4.4447 -1.1558 -2.0015 0.9802
4.5300 -0.7549 -2.0015 0.9802
4.5793 -0.3480 -2.0015 0.9802
4.5683 0.4710 -2.0015 0.9802
4.5081 0.8764 -2.0015 0.9802
4.2807 1.6632 -2.0015 0.9802
3.6879 2.7369 -2.0015 0.9802
3.1431 3.3484 -2.0015 0.9802
2.1448 4.0609 -2.0015 0.9802
1.7742 4.2359 -2.0015 0.9802
1.3894 4.3773 -2.0015 0.9802
0.9936 4.4837 -2.0015 0.9802
0.1814 4.5889 -2.0015 0.9802
-0.2285 4.5868 -2.0015 0.9802
-1.4343 4.3628 -2.0015 0.9802
-1.8176 4.2175 -2.0015 0.9802
-2.1865 4.0386 -2.0015 0.9802
-2.8690 3.5860 -2.0015 0.9802
-3.4604 3.0194 -2.0015 0.9802
-3.7158 2.6988 -2.0015 0.9802
-4.1361 1.9959 -2.0015 0.9802
-4.2976 1.6192 -2.0015 0.9802
-1.5622 0.4341 -0.7066 0.9930
-1.4985 0.2754 -0.6640 0.9934
-1.5273 0.1416 -0.6685 0.9933
-1.5229 0.0048 -0.6637 0.9934
-1.5281 -0.1319 -0.6685 0.9933
-1.5016 -0.2661 -0.6646 0.9934
-1.5582 -0.4223 -0.7036 0.9930
-4.1487 -1.9696 -2.0015 0.9802
-3.9565 -2.3317 -2.0015 0.9802
-3.7329 -2.6752 -2.0015 0.9802
-3.4795 -2.9974 -2.0015 0.9802
-2.5621 -3.8114 -2.0015 0.9802
-1.8443 -4.2059 -2.0015 0.9802
-1.4620 -4.3536 -2.0015 0.9802
-1.0680 -4.4666 -2.0015 0.9802
-0.2576 -4.5853 -2.0015 0.9802
0.5609 -4.5581 -2.0015 0.9802
0.9651 -4.4900 -2.0015 0.9802
1.3616 -4.3860 -2.0015 0.9802
1.7473 -4.2471 -2.0015 0.9802
2.1190 -4.0744 -2.0015 0.9802
2.8091 -3.6332 -2.0015 0.9802
3.1218 -3.3683 -2.0015 0.9802
3.4097 -3.0765 -2.0015 0.9802
3.6705 -2.7602 -2.0015 0.9802
4.2701 -1.6903 -2.0015 0.9802
4.5652 -0.4999 -2.0015 0.9802
4.5916 -0.0909 -2.0015 0.9802
4.5347 0.7261 -2.0015 0.9802
4.1808 1.9004 -2.0015 0.9802
3.7768 2.6128 -2.0015 0.9802
3.2527 3.2421 -2.0015 0.9802
2.9506 3.5192 -2.0015 0.9802
2.6251 3.7683 -2.0015 0.9802
1.9140 4.1747 -2.0015 0.9802
0.3338 4.5804 -2.0015 0.9802
-0.4851 4.5668 -2.0015 0.9802
-0.8904 4.5054 -2.0015 0.9802
-1.2886 4.4080 -2.0015 0.9802
-1.6765 4.2756 -2.0015 0.9802
-3.0654 3.4197 -2.0015 0.9802
-3.3581 3.1327 -2.0015 0.9802
-4.2414 1.7611 -2.0015 0.9802
-1.5221 0.3323 -0.6790 0.9932
-1.5295 -0.0810 -0.6675 0.9933
-4.2118 -1.8307 -2.0015 0.9802
-4.0318 -2.1990 -2.0015 0.9802
-3.5771 -2.8801 -2.0015 0.9802
-3.0087 -3.4697 -2.0015 0.9802
-2.6873 -3.7242 -2.0015 0.9802
4.3227 0.1032 -2.0015 0.9811
4.2357 0.8693 -2.0015 0.9811
4.1413 1.2436 -2.0015 0.9811
4.0139 1.6079 -2.0015 0.9811
3.8545 1.9594 -2.0015 0.9811
3.6645 2.2953 -2.0015 0.9811
3.4452 2.6129 -2.0015 0.9811
1.9795 3.8442 -2.0015 0.9811
1.2652 4.1347 -2.0015 0.9811
0.8915 4.2311 -2.0015 0.9811
-0.2601 4.3161 -2.0015 0.9811
-0.6440 4.2757 -2.0015 0.9811
-1.0226 4.2013 -2.0015 0.9811
-1.7526 3.9528 -2.0015 0.9811
-2.4269 3.5787 -2.0015 0.9811
-2.7363 3.3480 -2.0015 0.9811
-3.0239 3.0907 -2.0015 0.9811
