ply
format ascii 1.0
element vertex 1598
property float32 x
property float32 y
property float32 z
property float32 I
end_header
-1.0141 7.6479 -1.9975 0.9686
-1.6929 7.5271 -1.9976 0.9686
-2.3582 7.3462 -1.9977 0.9686
-3.6275 6.8106 -1.9979 0.9686
6.5765 2.5865 -2.0006 0.9710
6.3183 3.1628 -2.0002 0.9711
5.6534 4.2347 -1.9996 0.9711
5.2520 4.7218 -1.9993 0.9711
4.8088 5.1712 -1.9991 0.9711
4.3274 5.5791 -1.9988 0.9711
2.6936 6.5245 -1.9983 0.9711
2.1003 6.7385 -1.9981 0.9711
0.8684 7.0039 -1.9979 0.9711
0.2396 7.0533 -1.9979 0.9711
-0.3910 7.0465 -1.9979 0.9711
-1.6380 6.8648 -1.9979 0.9711
-3.9381 5.8588 -1.9984 0.9711
-4.4458 5.4843 -1.9986 0.9711
-4.9182 5.0661 -1.9989 0.9711
-5.7422 4.1117 -1.9994 0.9711
-6.0873 3.5832 -1.9996 0.9711
-6.3838 3.0259 -2.0000 0.9711
-6.8224 1.8430 -2.0006 0.9710
-7.0438 0.6005 -2.0013 0.9710
-7.0408 -0.6619 -2.0020 0.9710
-6.8133 -1.9042 -2.0027 0.9710
-5.7196 -4.1711 -2.0040 0.9710
-5.3251 -4.6657 -2.0043 0.9710
-4.8880 -5.1232 -2.0046 0.9710
-4.4116 -5.5398 -2.0048 0.9710
-3.3568 -6.2374 -2.0052 0.9710
-1.5844 -6.9053 -2.0057 0.9710
-0.9617 -7.0195 -2.0057 0.9710
-0.3312 -7.0775 -2.0058 0.9710
2.1668 -6.7454 -2.0057 0.9710
2.7602 -6.5247 -2.0056 0.9710
3.8760 -5.9289 -2.0053 0.9710
5.3067 -4.6884 -2.0046 0.9710
5.7033 -4.1953 -2.0044 0.9710
6.8313 1.8153 -2.0010 0.9710
6.6409 2.4175 -2.0007 0.9710
6.1031 3.5588 -2.0000 0.9711
5.7601 4.0888 -1.9997 0.9711
4.4690 5.4667 -1.9989 0.9711
3.4248 6.1730 -1.9985 0.9711
2.8598 6.4536 -1.9983 0.9711
2.2721 6.6826 -1.9982 0.9711
1.6663 6.8584 -1.9980 0.9711
-0.2105 7.0542 -1.9979 0.9711
-0.8395 7.0072 -1.9979 0.9711
-2.0724 6.7466 -1.9980 0.9711
-2.6665 6.5350 -1.9981 0.9711
-4.3039 5.5962 -1.9986 0.9711
-5.2317 4.7427 -1.9990 0.9711
-5.6349 4.2572 -1.9993 0.9711
-6.5645 2.6131 -2.0002 0.9711
-6.7727 2.0169 -2.0005 0.9711
-6.9269 1.4045 -2.0008 0.9710
-6.9852 -1.1096 -2.0023 0.9710
-6.6788 -2.3349 -2.0029 0.9710
-6.1592 -3.4866 -2.0036 0.9710
-5.0173 -4.9962 -2.0045 0.9710
-4.5518 -5.4249 -2.0047 0.9710
-2.9526 -6.4391 -2.0054 0.9710
-1.7606 -6.8624 -2.0056 0.9710
-1.1410 -6.9925 -2.0057 0.9710
-0.5122 -7.0667 -2.0058 0.9710
3.1704 -6.3351 -2.0055 0.9710
4.7345 -5.2671 -2.0049 0.9710
5.5943 -4.3401 -2.0044 0.9710
5.9586 -3.8228 -2.0042 0.9710
6.5415 -2.7014 -2.0035 0.9710
7.0684 -0.2408 -2.0022 0.9710
7.0604 0.3911 -2.0018 0.9710
6.7009 2.2468 -2.0008 0.9710
5.4872 4.4472 -1.9995 0.9711
5.0676 4.9187 -1.9992 0.9711
4.1111 5.7401 -1.9987 0.9711
3.5818 6.0835 -1.9985 0.9711
3.0241 6.3784 -1.9984 0.9711
1.8414 6.8136 -1.9981 0.9711
1.2257 6.9504 -1.9980 0.9711
0.6003 7.0319 -1.9979 0.9711
-0.0299 7.0573 -1.9979 0.9711
-0.6598 7.0264 -1.9979 0.9711
-1.2845 6.9396 -1.9979 0.9711
-3.0778 6.3520 -1.9982 0.9711
-4.1591 5.7044 -1.9985 0.9711
-5.5239 4.3999 -1.9992 0.9711
-5.8954 3.8897 -1.9995 0.9711
-6.2201 3.3484 -1.9998 0.9711
-6.7185 2.1895 -2.0004 0.9711
-7.0648 -0.3007 -2.0018 0.9710
-6.5172 -2.7563 -2.0032 0.9710
-6.2461 -3.3276 -2.0035 0.9710
-5.5565 -4.3867 -2.0041 0.9710
-4.6890 -5.3064 -2.0047 0.9710
-4.1971 -5.7045 -2.0049 0.9710
-3.6714 -6.0571 -2.0051 0.9710
-3.1163 -6.3612 -2.0053 0.9710
-1.9357 -6.8150 -2.0056 0.9710
-1.3196 -6.9609 -2.0057 0.9710
-0.6929 -7.0512 -2.0058 0.9710
1.8188 -6.8476 -2.0057 0.9710
2.4228 -6.6576 -2.0056 0.9710
4.5982 -5.3867 -2.0050 0.9710
5.0602 -4.9542 -2.0048 0.9710
5.4816 -4.4821 -2.0045 0.9710
5.8590 -3.9743 -2.0042 0.9710
6.1896 -3.4348 -2.0039 0.9710
6.4705 -2.8681 -2.0036 0.9710
6.9957 -1.0505 -2.0026 0.9710
6.7565 2.0747 -2.0009 0.9710
6.5432 2.6691 -2.0005 0.9710
6.2778 3.2421 -2.0002 0.9711
5.1920 4.7875 -1.9993 0.9711
4.7432 5.2312 -1.9990 0.9711
3.1865 6.2991 -1.9984 0.9711
2.6112 6.5579 -1.9982 0.9711
2.0152 6.7643 -1.9981 0.9711
0.7800 7.0143 -1.9979 0.9711
0.1507 7.0558 -1.9979 0.9711
-1.7243 6.8437 -1.9980 0.9711
-2.3285 6.6627 -1.9980 0.9711
-4.0116 5.8088 -1.9985 0.9711
-4.5146 5.4280 -1.9987 0.9711
-4.9817 5.0038 -1.9989 0.9711
-5.7937 4.0392 -1.9994 0.9711
-6.1321 3.5063 -1.9997 0.9711
-6.4216 2.9453 -2.0000 0.9711
-6.8452 1.7570 -2.0007 0.9710
-6.9759 1.1390 -2.0010 0.9710
-7.0510 0.5118 -2.0013 0.9710
-7.0698 -0.1198 -2.0017 0.9710
-6.7889 -1.9899 -2.0028 0.9710
-6.0219 -3.7195 -2.0037 0.9710
-5.6667 -4.2429 -2.0040 0.9710
-5.2660 -4.7325 -2.0043 0.9710
-4.8232 -5.1844 -2.0046 0.9710
-4.3416 -5.5950 -2.0048 0.9710
-3.8252 -5.9609 -2.0051 0.9710
-3.2781 -6.2792 -2.0053 0.9710
-2.1094 -6.7631 -2.0056 0.9710
-0.8732 -7.0311 -2.0057 0.9710
-0.2420 -7.0811 -2.0058 0.9710
0.3912 -7.0745 -2.0058 0.9710
1.0212 -7.0113 -2.0058 0.9710
1.6430 -6.8920 -2.0057 0.9710
2.2516 -6.7175 -2.0057 0.9710
2.8422 -6.4893 -2.0056 0.9710
4.9319 -5.0822 -2.0048 0.9710
5.3653 -4.6211 -2.0046 0.9710
6.0999 -3.5923 -2.0040 0.9710
6.3952 -3.0329 -2.0037 0.9710
7.0475 -0.6023 -2.0024 0.9710
7.0719 0.0293 -2.0020 0.9710
7.0398 0.6604 -2.0017 0.9710
6.9515 1.2860 -2.0013 0.9710
6.6097 2.5009 -2.0006 0.9710
4.3997 5.5225 -1.9989 0.9711
3.8887 5.8926 -1.9986 0.9711
3.3468 6.2156 -1.9985 0.9711
2.7783 6.4890 -1.9983 0.9711
0.3313 7.0496 -1.9979 0.9711
-0.2994 7.0510 -1.9979 0.9711
-0.9277 6.9961 -1.9979 0.9711
-1.5486 6.8855 -1.9979 0.9711
-2.1572 6.7200 -1.9980 0.9711
6.0533 2.3807 -2.0007 0.9731
4.8344 4.3464 -1.9995 0.9732
3.9834 5.1356 -1.9991 0.9732
3.0061 5.7611 -1.9987 0.9732
1.3718 6.3505 -1.9983 0.9732
0.7993 6.4473 -1.9982 0.9732
-0.9376 6.4286 -1.9982 0.9732
-2.0660 6.1597 -1.9983 0.9732
-3.1289 5.6948 -1.9986 0.9732
-4.0924 5.0484 -1.9989 0.9732
-4.5273 4.6634 -1.9991 0.9732
-4.9260 4.2410 -1.9993 0.9732
-5.2856 3.7848 -1.9996 0.9732
-6.1021 2.2499 -2.0004 0.9731
-6.4070 1.1292 -2.0010 0.9731
-6.4832 0.5528 -2.0013 0.9731
-6.5077 -0.0283 -2.0017 0.9731
-6.4803 -0.6092 -2.0020 0.9731
-6.4011 -1.1855 -2.0023 0.9731
-6.2707 -1.7525 -2.0026 0.9731
-5.8609 -2.8406 -2.0033 0.9731
-4.9007 -4.2939 -2.0041 0.9731
-4.4984 -4.7148 -2.0043 0.9731
-4.0600 -5.0982 -2.0046 0.9731
-3.5890 -5.4408 -2.0048 0.9731
-2.5646 -5.9934 -2.0051 0.9731
-2.0194 -6.1988 -2.0052 0.9731
-0.8850 -6.4597 -2.0054 0.9731
-0.3047 -6.5131 -2.0055 0.9731
0.8584 -6.4635 -2.0055 0.9731
1.4320 -6.3609 -2.0054 0.9731
1.9940 -6.2074 -2.0054 0.9731
3.5669 -5.4562 -2.0050 0.9731
4.4795 -4.7340 -2.0046 0.9731
5.5718 -3.3765 -2.0039 0.9731
5.8502 -2.8652 -2.0036 0.9731
6.0817 -2.3312 -2.0033 0.9731
6.2646 -1.7787 -2.0030 0.9731
6.4790 -0.6360 -2.0024 0.9731
6.5089 -0.0551 -2.0021 0.9731
6.4867 0.5262 -2.0017 0.9731
6.4128 1.1030 -2.0014 0.9731
6.1125 2.2251 -2.0008 0.9731
5.8885 2.7615 -2.0005 0.9731
5.6177 3.2757 -2.0002 0.9732
5.3020 3.7636 -1.9999 0.9732
4.9442 4.2214 -1.9996 0.9732
4.5470 4.6453 -1.9994 0.9732
3.6477 5.3787 -1.9989 0.9732
3.1526 5.6824 -1.9987 0.9732
1.5339 6.3134 -1.9983 0.9732
0.9641 6.4248 -1.9983 0.9732
0.3867 6.4851 -1.9982 0.9732
-0.1938 6.4936 -1.9982 0.9732
-0.7728 6.4504 -1.9982 0.9732
-2.9820 5.7729 -1.9985 0.9732
-3.4858 5.4840 -1.9987 0.9732
-3.9618 5.1514 -1.9988 0.9732
-4.4063 4.7776 -1.9990 0.9732
-4.8157 4.3656 -1.9992 0.9732
-5.1869 3.9187 -1.9995 0.9732
-5.8026 2.9346 -2.0000 0.9732
-6.0423 2.4052 -2.0003 0.9732
-6.3757 1.2927 -2.0009 0.9731
-6.4667 0.7185 -2.0012 0.9731
-6.5060 0.1383 -2.0016 0.9731
-6.4935 -0.4431 -2.0019 0.9731
-6.4290 -1.0212 -2.0022 0.9731
-6.1469 -2.1490 -2.0029 0.9731
-5.9314 -2.6895 -2.0032 0.9731
-5.6685 -3.2088 -2.0035 0.9731
-5.0088 -4.1669 -2.0040 0.9731
-3.7270 -5.3470 -2.0047 0.9731
-3.2350 -5.6589 -2.0049 0.9731
-2.7171 -5.9256 -2.0051 0.9731
-1.6202 -6.3152 -2.0053 0.9731
-1.0500 -6.4349 -2.0054 0.9731
-0.4714 -6.5031 -2.0055 0.9731
0.1111 -6.5193 -2.0055 0.9731
0.6927 -6.4833 -2.0055 0.9731
2.3856 -6.0675 -2.0053 0.9731
2.9176 -5.8300 -2.0052 0.9731
4.3570 -4.8472 -2.0047 0.9731
4.7719 -4.4384 -2.0045 0.9731
5.1484 -3.9942 -2.0042 0.9731
6.0203 -2.4862 -2.0034 0.9731
6.3645 -1.3755 -2.0028 0.9731
6.4609 -0.8017 -2.0025 0.9731
6.4984 0.3600 -2.0018 0.9731
6.1677 2.0680 -2.0009 0.9731
5.9575 2.6100 -2.0005 0.9731
5.0508 4.0936 -1.9997 0.9732
3.7842 5.2837 -1.9990 0.9732
2.7838 5.8714 -1.9986 0.9732
1.6950 6.2721 -1.9984 0.9732
0.5526 6.4731 -1.9982 0.9732
-0.0275 6.4965 -1.9982 0.9732
-0.6074 6.4681 -1.9982 0.9732
-1.1824 6.3881 -1.9982 0.9732
-2.8332 5.8472 -1.9985 0.9732
-3.3442 5.5713 -1.9986 0.9732
-3.8285 5.2509 -1.9988 0.9732
-4.2824 4.8886 -1.9990 0.9732
-4.7022 4.4873 -1.9992 0.9732
-5.0847 4.0501 -1.9994 0.9732
-5.4266 3.5804 -1.9997 0.9732
-5.7254 3.0821 -1.9999 0.9732
-5.9785 2.5590 -2.0002 0.9732
-6.4459 0.8837 -2.0012 0.9731
-6.5001 0.3048 -2.0015 0.9731
-6.4527 -0.8563 -2.0021 0.9731
-6.3516 -1.4292 -2.0024 0.9731
-6.1996 -1.9908 -2.0028 0.9731
-5.4529 -3.5640 -2.0037 0.9731
-5.1137 -4.0371 -2.0039 0.9731
-4.7334 -4.4781 -2.0042 0.9731
-3.8625 -5.2497 -2.0047 0.9731
-2.8679 -5.8540 -2.0050 0.9731
-2.3340 -6.0871 -2.0052 0.9731
-1.2144 -6.4058 -2.0054 0.9731
-0.6377 -6.4889 -2.0054 0.9731
0.5265 -6.4990 -2.0055 0.9731
1.1046 -6.4259 -2.0055 0.9731
2.2296 -6.1267 -2.0053 0.9731
2.7675 -5.9028 -2.0052 0.9731
4.2317 -4.9573 -2.0047 0.9731
5.0447 -4.1248 -2.0043 0.9731
5.6963 -3.1611 -2.0038 0.9731
5.9550 -2.6396 -2.0035 0.9731
6.1659 -2.0971 -2.0032 0.9731
6.4386 -0.9668 -2.0026 0.9731
6.4981 -0.3881 -2.0022 0.9731
6.4615 0.7734 -2.0016 0.9731
6.3656 1.3470 -2.0013 0.9731
6.0227 2.4568 -2.0006 0.9731
5.4881 3.4876 -2.0000 0.9732
5.1542 3.9631 -1.9998 0.9732
4.3661 4.8153 -1.9993 0.9732
3.9184 5.1853 -1.9990 0.9732
2.9332 5.7984 -1.9987 0.9732
-1.5873 6.2999 -1.9983 0.9732
-3.2004 5.6550 -1.9986 0.9732
-3.6928 5.3471 -1.9987 0.9732
-4.9792 4.1787 -1.9993 0.9732
-5.6444 3.2275 -1.9999 0.9732
-6.1301 2.1729 -2.0004 0.9731
-6.4208 1.0484 -2.0011 0.9731
-6.2482 -1.8314 -2.0027 0.9731
-5.2151 -3.9048 -2.0039 0.9731
-3.5202 -5.4857 -2.0048 0.9731
-2.4890 -6.0253 -2.0051 0.9731
-1.9412 -6.2238 -2.0053 0.9731
-1.3779 -6.3726 -2.0054 0.9731
0.9397 -6.4521 -2.0055 0.9731
3.1380 -5.7141 -2.0051 0.9731
3.6353 -5.4107 -2.0050 0.9731
4.5387 -4.6771 -2.0046 0.9731
5.2969 -3.7945 -2.0041 0.9731
6.1105 -2.2543 -2.0033 0.9731
6.2864 -1.6996 -2.0030 0.9731
6.4864 -0.5543 -2.0023 0.9731
6.4794 0.6078 -2.0017 0.9731
6.0838 2.3019 -2.0007 0.9731
5.8532 2.8354 -2.0004 0.9731
5.2541 3.8300 -1.9998 0.9732
4.8906 4.2832 -1.9996 0.9732
3.5796 5.4242 -1.9989 0.9732
2.5575 5.9733 -1.9986 0.9732
2.0139 6.1773 -1.9984 0.9732
-1.4255 6.3384 -1.9982 0.9732
-2.5302 5.9843 -1.9984 0.9732
-3.0545 5.7349 -1.9985 0.9732
5.6014 2.2030 -2.0008 0.9749
5.3816 2.6939 -2.0005 0.9750
5.1189 3.1632 -2.0002 0.9750
4.4737 4.0221 -1.9997 0.9750
3.2470 5.0622 -1.9991 0.9750
2.7819 5.3314 -1.9989 0.9750
2.2946 5.5581 -1.9988 0.9750
1.7892 5.7404 -1.9987 0.9750
0.7397 5.9666 -1.9985 0.9750
0.2041 6.0087 -1.9985 0.9750
-0.3331 6.0029 -1.9985 0.9750
-3.3547 4.9909 -1.9989 0.9750
-3.7872 4.6718 -1.9991 0.9750
-4.8913 3.5024 -1.9997 0.9750
-5.1851 3.0521 -2.0000 0.9750
-5.8108 1.5697 -2.0008 0.9749
-5.9286 1.0448 -2.0011 0.9749
-6.0217 -0.0261 -2.0017 0.9749
-5.9962 -0.5637 -2.0020 0.9749
-5.9229 -1.0969 -2.0023 0.9749
-5.8022 -1.6216 -2.0026 0.9749
-5.6350 -2.1334 -2.0029 0.9749
-5.4228 -2.6283 -2.0031 0.9749
-5.1673 -3.1024 -2.0034 0.9749
-4.8703 -3.5517 -2.0037 0.9749
-3.7563 -4.7169 -2.0044 0.9749
-3.3206 -5.0339 -2.0046 0.9749
-2.8581 -5.3107 -2.0047 0.9749
-2.3728 -5.5451 -2.0049 0.9749
-1.8684 -5.7351 -2.0050 0.9749
-1.3490 -5.8793 -2.0051 0.9749
-0.2820 -6.0258 -2.0052 0.9749
0.2571 -6.0270 -2.0052 0.9749
1.8449 -5.7431 -2.0051 0.9749
2.3501 -5.5552 -2.0050 0.9749
2.8365 -5.3229 -2.0049 0.9749
3.3001 -5.0480 -2.0048 0.9749
4.5185 -3.9920 -2.0042 0.9749
5.1552 -3.1241 -2.0037 0.9749
5.4129 -2.6511 -2.0035 0.9749
5.6272 -2.1569 -2.0032 0.9749
5.7965 -1.6457 -2.0029 0.9749
5.9194 -1.1215 -2.0026 0.9749
5.9950 -0.5885 -2.0023 0.9749
6.0023 0.4869 -2.0017 0.9749
5.9339 1.0206 -2.0014 0.9749
5.8183 1.5461 -2.0011 0.9749
5.6562 2.0590 -2.0008 0.9749
5.4490 2.5554 -2.0006 0.9750
4.9064 3.4828 -2.0000 0.9750
4.2078 4.2988 -1.9996 0.9750
3.8068 4.6567 -1.9993 0.9750
1.9356 5.6928 -1.9987 0.9750
0.8922 5.9458 -1.9985 0.9750
0.3579 6.0015 -1.9985 0.9750
-0.1794 6.0095 -1.9985 0.9750
-2.7596 5.3424 -1.9988 0.9750
-4.0776 4.4212 -1.9992 0.9750
-4.4565 4.0399 -1.9994 0.9750
-4.7999 3.6263 -1.9997 0.9750
-5.1050 3.1837 -1.9999 0.9750
-5.5913 2.2257 -2.0004 0.9750
-5.8997 1.1962 -2.0010 0.9749
-5.9838 0.6648 -2.0013 0.9749
-6.0202 0.1280 -2.0016 0.9749
-5.9488 -0.9449 -2.0022 0.9749
-5.8415 -1.4725 -2.0025 0.9749
-5.6876 -1.9884 -2.0028 0.9749
-5.4881 -2.4885 -2.0031 0.9749
-4.9594 -3.4258 -2.0036 0.9749
-4.2722 -4.2542 -2.0041 0.9749
-3.4482 -4.9471 -2.0045 0.9749
-2.9931 -5.2357 -2.0047 0.9749
-0.9715 -5.9535 -2.0051 0.9749
-0.4361 -6.0166 -2.0052 0.9749
0.1028 -6.0316 -2.0052 0.9749
0.6408 -5.9983 -2.0052 0.9749
3.1699 -5.1310 -2.0048 0.9749
4.0312 -4.4847 -2.0045 0.9749
5.0738 -3.2552 -2.0038 0.9749
5.3434 -2.7888 -2.0036 0.9749
6.0130 0.3331 -2.0018 0.9749
5.5129 2.4152 -2.0006 0.9749
4.9941 3.3561 -2.0001 0.9750
3.5020 4.8896 -1.9992 0.9750
3.0512 5.1823 -1.9990 0.9750
2.5762 5.4336 -1.9989 0.9750
1.5686 5.8044 -1.9986 0.9750
1.0441 5.9210 -1.9985 0.9750
-0.5621 5.9858 -1.9985 0.9750
-1.6177 5.7907 -1.9985 0.9750
-3.5430 4.8593 -1.9990 0.9750
-3.9630 4.5240 -1.9992 0.9750
-4.7053 3.7479 -1.9996 0.9750
-5.0217 3.3133 -1.9998 0.9750
-5.5323 2.3680 -2.0003 0.9750
-5.8669 1.3468 -2.0009 0.9749
-5.9646 0.8178 -2.0012 0.9749
-6.0146 0.2820 -2.0015 0.9749
-6.0167 -0.2562 -2.0018 0.9749
-5.7364 -1.8421 -2.0027 0.9749
-5.0453 -3.2976 -2.0035 0.9749
-3.5736 -4.8571 -2.0044 0.9749
-2.6533 -5.4162 -2.0048 0.9749
-1.6481 -5.8024 -2.0050 0.9749
-0.0516 -6.0322 -2.0052 0.9749
0.4871 -6.0127 -2.0052 0.9749
2.5605 -5.4613 -2.0050 0.9749
3.0376 -5.2105 -2.0048 0.9749
3.4904 -4.9182 -2.0047 0.9749
3.9152 -4.5865 -2.0045 0.9749
4.6675 -3.8164 -2.0041 0.9749
5.9575 -0.8946 -2.0025 0.9749
6.0198 0.1791 -2.0019 0.9749
5.8903 1.2464 -2.0013 0.9749
5.7546 1.7670 -2.0010 0.9749
5.5731 2.2734 -2.0007 0.9749
5.3471 2.7614 -2.0004 0.9750
4.7696 3.6674 -1.9999 0.9750
4.4226 4.0780 -1.9997 0.9750
3.1829 5.1026 -1.9991 0.9750
1.1954 5.8924 -1.9986 0.9750
0.1284 6.0108 -1.9985 0.9750
-0.9426 5.9378 -1.9985 0.9750
-1.4690 5.8301 -1.9985 0.9750
-1.9836 5.6759 -1.9986 0.9750
-2.4825 5.4764 -1.9987 0.9750
-2.9617 5.2332 -1.9988 0.9750
-3.4174 4.9483 -1.9990 0.9750
-4.2436 4.2624 -1.9993 0.9750
-5.2232 2.9866 -2.0000 0.9750
-5.6726 2.0107 -2.0005 0.9750
-6.0052 0.4359 -2.0014 0.9749
-6.0210 -0.1020 -2.0017 0.9749
-5.7814 -1.6946 -2.0026 0.9749
-5.1279 -3.1673 -2.0035 0.9749
-4.8253 -3.6129 -2.0037 0.9749
-4.1068 -4.4144 -2.0042 0.9749
-3.2569 -5.0754 -2.0046 0.9749
-2.7910 -5.3463 -2.0047 0.9749
-2.3028 -5.5746 -2.0049 0.9749
-1.7960 -5.7582 -2.0050 0.9749
-1.2748 -5.8958 -2.0051 0.9749
-0.7434 -5.9863 -2.0052 0.9749
0.3330 -6.0232 -2.0052 0.9749
0.8694 -5.9694 -2.0052 0.9749
1.3988 -5.8678 -2.0052 0.9749
1.9170 -5.7193 -2.0051 0.9749
2.9033 -5.2867 -2.0049 0.9749
3.3634 -5.0060 -2.0047 0.9749
3.7966 -4.6854 -2.0046 0.9749
4.1993 -4.3273 -2.0044 0.9749
4.5684 -3.9347 -2.0042 0.9749
4.9009 -3.5108 -2.0039 0.9749
5.4457 -2.5826 -2.0034 0.9749
5.6538 -2.0859 -2.0032 0.9749
5.8166 -1.5726 -2.0029 0.9749
5.9329 -1.0468 -2.0026 0.9749
6.0018 -0.5129 -2.0023 0.9749
5.9205 1.0953 -2.0014 0.9749
5.7982 1.6192 -2.0011 0.9749
5.6297 2.1301 -2.0008 0.9749
5.4163 2.6238 -2.0005 0.9750
5.1597 3.0964 -2.0003 0.9750
4.8621 3.5442 -2.0000 0.9750
4.1533 4.3513 -1.9995 0.9750
3.3126 5.0196 -1.9991 0.9750
2.8510 5.2948 -1.9990 0.9750
1.3458 5.8600 -1.9986 0.9750
0.2822 6.0056 -1.9985 0.9750
-1.8377 5.7247 -1.9986 0.9750
-2.3415 5.5381 -1.9987 0.9750
-2.8268 5.3072 -1.9988 0.9750
5.3696 1.5750 -2.0011 0.9765
5.2068 2.0478 -2.0008 0.9765
4.7584 2.9404 -2.0003 0.9765
4.4764 3.3531 -2.0001 0.9765
4.1587 3.7389 -1.9999 0.9765
3.8079 4.0948 -1.9997 0.9765
2.1332 5.1669 -1.9990 0.9765
1.6633 5.3364 -1.9989 0.9765
1.1802 5.4634 -1.9988 0.9765
0.6877 5.5468 -1.9987 0.9765
-0.3097 5.5805 -1.9987 0.9765
-1.2972 5.4366 -1.9988 0.9765
-1.7774 5.2993 -1.9988 0.9765
-2.2435 5.1197 -1.9989 0.9765
-2.6918 4.8992 -1.9990 0.9765
-3.1186 4.6396 -1.9991 0.9765
-3.5206 4.3430 -1.9993 0.9765
-3.8946 4.0117 -1.9995 0.9765
-4.2376 3.6484 -1.9997 0.9765
-4.5469 3.2558 -1.9999 0.9765
-5.5736 -0.5240 -2.0020 0.9765
-5.5054 -1.0196 -2.0022 0.9765
-5.3931 -1.5072 -2.0025 0.9765
-4.5268 -3.3012 -2.0036 0.9765
-4.2145 -3.6926 -2.0038 0.9765
-3.8684 -4.0545 -2.0040 0.9765
-3.0862 -4.6787 -2.0044 0.9765
-1.7365 -5.3303 -2.0048 0.9765
-1.2538 -5.4643 -2.0049 0.9765
-0.2621 -5.6005 -2.0050 0.9765
0.2390 -5.6016 -2.0050 0.9765
0.7381 -5.5578 -2.0050 0.9765
1.2313 -5.4696 -2.0049 0.9765
2.6363 -4.9472 -2.0047 0.9765
3.4736 -4.3989 -2.0044 0.9765
3.8521 -4.0709 -2.0042 0.9765
4.1998 -3.7104 -2.0040 0.9765
4.5138 -3.3203 -2.0038 0.9765
5.2304 -2.0048 -2.0031 0.9765
5.5982 -0.0474 -2.0020 0.9765
5.5793 0.4526 -2.0017 0.9765
5.5158 0.9487 -2.0015 0.9765
5.0652 2.3754 -2.0007 0.9765
4.2532 3.6314 -1.9999 0.9765
3.9116 3.9961 -1.9997 0.9765
3.5389 4.3290 -1.9995 0.9765
3.1380 4.6272 -1.9993 0.9765
1.7993 5.2922 -1.9989 0.9765
1.3196 5.4315 -1.9988 0.9765
0.8295 5.5274 -1.9988 0.9765
0.3327 5.5792 -1.9987 0.9765
-1.6412 5.3430 -1.9988 0.9765
-2.1117 5.1753 -1.9989 0.9765
-2.9988 4.7178 -1.9991 0.9765
-3.4082 4.4316 -1.9993 0.9765
-3.7906 4.1100 -1.9994 0.9765
-4.1428 3.7555 -1.9996 0.9765
-4.4620 3.3710 -1.9998 0.9765
-4.7456 2.9596 -2.0000 0.9765
-4.9915 2.5244 -2.0003 0.9765
-5.4841 1.1119 -2.0011 0.9765
-5.5960 0.1190 -2.0016 0.9765
-5.5295 -0.8783 -2.0022 0.9765
-5.4297 -1.3687 -2.0024 0.9765
-5.2866 -1.8482 -2.0027 0.9765
-5.1011 -2.3131 -2.0030 0.9765
-4.8749 -2.7596 -2.0032 0.9765
-4.6096 -3.1842 -2.0035 0.9765
-3.6023 -4.2932 -2.0041 0.9765
-3.2049 -4.5981 -2.0043 0.9765
-2.7819 -4.8662 -2.0045 0.9765
-2.3365 -5.0955 -2.0046 0.9765
-1.8724 -5.2841 -2.0047 0.9765
-0.9029 -5.5333 -2.0049 0.9765
-0.4053 -5.5919 -2.0050 0.9765
3.3599 -4.4865 -2.0044 0.9765
3.7467 -4.1683 -2.0043 0.9765
5.1775 -2.1381 -2.0032 0.9765
5.5568 -0.6895 -2.0024 0.9765
5.3052 1.7788 -2.0010 0.9765
4.9030 2.6932 -2.0005 0.9765
4.6425 3.1198 -2.0002 0.9765
4.3449 3.5214 -2.0000 0.9765
4.0127 3.8948 -1.9998 0.9765
3.6486 4.2371 -1.9996 0.9765
2.3949 5.0512 -1.9991 0.9765
1.9342 5.2445 -1.9990 0.9765
0.9707 5.5044 -1.9988 0.9765
0.4754 5.5689 -1.9987 0.9765
-0.0237 5.5891 -1.9987 0.9765
-1.0173 5.4958 -1.9987 0.9765
-2.8770 4.7930 -1.9991 0.9765
-3.2936 4.5173 -1.9992 0.9765
-3.6840 4.2056 -1.9994 0.9765
-4.9250 2.6512 -2.0002 0.9765
-5.3194 1.7336 -2.0007 0.9765
-5.5908 0.2622 -2.0015 0.9765
-5.5927 -0.2380 -2.0018 0.9765
-5.5499 -0.7365 -2.0021 0.9765
-5.4628 -1.2292 -2.0024 0.9765
-5.3319 -1.7122 -2.0026 0.9765
-2.0070 -5.2343 -2.0047 0.9765
-1.0442 -5.5083 -2.0049 0.9765
-0.5483 -5.5797 -2.0049 0.9765
0.4527 -5.5883 -2.0050 0.9765
0.9498 -5.5255 -2.0050 0.9765
1.4393 -5.4186 -2.0049 0.9765
2.8232 -4.8428 -2.0046 0.9765
3.2441 -4.5711 -2.0045 0.9765
4.3382 -3.5472 -2.0039 0.9765
4.8988 -2.7185 -2.0035 0.9765
5.4419 -1.3228 -2.0027 0.9765
5.5375 -0.8315 -2.0025 0.9765
5.5956 0.1664 -2.0019 0.9765
5.3492 1.6425 -2.0011 0.9765
5.1805 2.1132 -2.0008 0.9765
4.9706 2.5670 -2.0005 0.9765
4.4337 3.4092 -2.0001 0.9765
3.7560 4.1424 -1.9996 0.9765
3.3708 4.4608 -1.9994 0.9765
2.5234 4.9883 -1.9991 0.9765
1.1113 5.4778 -1.9988 0.9765
0.1194 5.5879 -1.9987 0.9765
-0.8763 5.5200 -1.9987 0.9765
-1.3656 5.4199 -1.9988 0.9765
-1.8441 5.2765 -1.9988 0.9765
-2.3078 5.0910 -1.9989 0.9765
-3.1768 4.6000 -1.9992 0.9765
-3.5751 4.2984 -1.9993 0.9765
-3.9449 3.9624 -1.9995 0.9765
-4.8554 2.7763 -2.0001 0.9765
-5.5967 -0.0948 -2.0017 0.9765
-5.5667 -0.5942 -2.0020 0.9765
-5.3738 -1.5751 -2.0026 0.9765
-4.7662 -2.9439 -2.0033 0.9765
-4.4849 -3.3580 -2.0036 0.9765
-3.8171 -4.1030 -2.0040 0.9765
-2.5941 -4.9691 -2.0045 0.9765
-2.1402 -5.1811 -2.0047 0.9765
-1.6692 -5.3518 -2.0048 0.9765
-0.1915 -5.6034 -2.0050 0.9765
0.3095 -5.5981 -2.0050 0.9765
1.3001 -5.4537 -2.0049 0.9765
3.5287 -4.3548 -2.0044 0.9765
3.9030 -4.0220 -2.0042 0.9765
4.5552 -3.2631 -2.0038 0.9765
4.8277 -2.8431 -2.0036 0.9765
5.5147 -0.9730 -2.0025 0.9765
5.5787 -0.4768 -2.0023 0.9765
5.5730 0.5228 -2.0017 0.9765
5.5033 1.0181 -2.0014 0.9765
5.2331 1.9800 -2.0009 0.9765
4.7964 2.8784 -2.0004 0.9765
4.5197 3.2947 -2.0001 0.9765
4.2070 3.6846 -1.9999 0.9765
3.8609 4.0450 -1.9997 0.9765
2.2002 5.1388 -1.9990 0.9765
1.7325 5.3144 -1.9989 0.9765
0.2624 5.5830 -1.9987 0.9765
-0.2371 5.5841 -1.9987 0.9765
-0.7347 5.5406 -1.9987 0.9765
-1.2264 5.4530 -1.9987 0.9765
-2.1768 5.1484 -1.9989 0.9765
5.0109 1.4698 -2.0012 0.9779
4.8590 1.9110 -2.0009 0.9779
4.6685 2.3369 -2.0007 0.9779
4.4407 2.7441 -2.0004 0.9779
4.1775 3.1292 -2.0002 0.9779
3.8810 3.4893 -2.0000 0.9779
2.4135 4.6254 -1.9993 0.9779
1.1014 5.0988 -1.9990 0.9779
0.1771 5.2131 -1.9989 0.9779
-0.2890 5.2081 -1.9989 0.9779
-1.2106 5.0738 -1.9990 0.9779
-1.6588 4.9456 -1.9990 0.9779
-2.5121 4.5722 -1.9992 0.9779
-2.9104 4.3299 -1.9993 0.9779
-3.6346 3.7439 -1.9996 0.9779
-4.2433 3.0384 -2.0000 0.9779
-4.7170 2.2359 -2.0004 0.9779
-4.8984 1.8060 -2.0007 0.9779
-5.1428 0.9064 -2.0012 0.9779
-5.1374 -0.9515 -2.0022 0.9779
-5.0326 -1.4065 -2.0025 0.9779
-4.7034 -2.2796 -2.0030 0.9779
-4.2240 -3.0804 -2.0034 0.9779
-2.4787 -4.6056 -2.0043 0.9778
-1.6203 -4.9736 -2.0046 0.9778
-1.1699 -5.0986 -2.0047 0.9778
-0.7100 -5.1829 -2.0047 0.9778
0.2230 -5.2267 -2.0048 0.9778
0.6887 -5.1858 -2.0048 0.9778
1.5999 -4.9805 -2.0047 0.9778
2.4599 -4.6162 -2.0045 0.9778
3.2412 -4.1046 -2.0042 0.9778
4.2118 -3.0982 -2.0037 0.9779
4.6946 -2.2993 -2.0033 0.9779
4.8806 -1.8708 -2.0030 0.9779
5.0275 -1.4274 -2.0028 0.9779
5.2240 -0.0442 -2.0020 0.9779
5.0470 1.3411 -2.0012 0.9779
4.7269 2.2167 -2.0007 0.9779
3.6504 3.7293 -1.9999 0.9779
2.5311 4.5622 -1.9994 0.9779
1.6793 4.9390 -1.9991 0.9779
0.7741 5.1585 -1.9990 0.9779
-1.0804 5.1031 -1.9989 0.9779
-3.8662 3.5048 -1.9998 0.9779
-4.1640 3.1460 -2.0000 0.9779
-4.4287 2.7619 -2.0002 0.9779
-5.0040 1.4902 -2.0009 0.9779
-5.1177 1.0377 -2.0011 0.9779
-5.0667 -1.2772 -2.0024 0.9779
-4.5489 -2.5750 -2.0031 0.9779
-4.3013 -2.9712 -2.0034 0.9779
-2.1801 -4.7545 -2.0044 0.9778
-1.7471 -4.9304 -2.0045 0.9778
-1.3000 -5.0669 -2.0046 0.9778
-0.8425 -5.1629 -2.0047 0.9778
0.0891 -5.2306 -2.0048 0.9778
0.5557 -5.2018 -2.0048 0.9778
1.0179 -5.1313 -2.0047 0.9778
2.7491 -4.4498 -2.0044 0.9778
3.1351 -4.1863 -2.0043 0.9778
3.4961 -3.8894 -2.0041 0.9778
4.1313 -3.2051 -2.0038 0.9779
4.4004 -2.8232 -2.0035 0.9779
4.8313 -1.9952 -2.0031 0.9779
4.9895 -1.5557 -2.0029 0.9779
5.1078 -1.1039 -2.0026 0.9779
5.2157 0.2889 -2.0018 0.9779
5.0799 1.2115 -2.0013 0.9779
4.9508 1.6600 -2.0011 0.9779
4.7823 2.0951 -2.0008 0.9779
4.5756 2.5134 -2.0006 0.9779
4.3324 2.9115 -2.0003 0.9779
4.0548 3.2863 -2.0001 0.9779
3.4050 3.9542 -1.9997 0.9779
2.6471 4.4960 -1.9994 0.9779
2.2350 4.7140 -1.9993 0.9779
1.8052 4.8945 -1.9991 0.9779
0.9059 5.1370 -1.9990 0.9779
-0.4877 5.1933 -1.9989 0.9779
-0.9494 5.1291 -1.9989 0.9779
-1.4035 5.0239 -1.9990 0.9779
-1.8465 4.8787 -1.9990 0.9779
-3.4381 3.9248 -1.9995 0.9779
-3.7751 3.6025 -1.9997 0.9779
-4.9640 1.6178 -2.0008 0.9779
-5.0893 1.1683 -2.0010 0.9779
-5.1739 0.7093 -2.0013 0.9779
-5.2189 -0.2221 -2.0018 0.9779
-5.1790 -0.6873 -2.0021 0.9779
-5.0976 -1.1470 -2.0023 0.9779
-4.8136 -2.0358 -2.0028 0.9779
-4.6132 -2.4577 -2.0031 0.9779
-4.1035 -3.2396 -2.0035 0.9779
-3.0993 -4.2124 -2.0041 0.9778
-0.9743 -5.1396 -2.0047 0.9778
-0.0448 -5.2312 -2.0048 0.9778
0.4224 -5.2143 -2.0048 0.9778
0.8862 -5.1557 -2.0047 0.9778
1.3429 -5.0559 -2.0047 0.9778
2.6343 -4.5187 -2.0044 0.9778
3.3954 -3.9777 -2.0042 0.9778
4.3269 -2.9350 -2.0036 0.9779
4.7788 -2.1182 -2.0032 0.9779
4.9482 -1.6829 -2.0029 0.9779
5.1673 -0.7760 -2.0024 0.9779
5.2153 -0.3115 -2.0022 0.9779
5.2216 0.1553 -2.0019 0.9779
5.1862 0.6208 -2.0016 0.9779
5.1094 1.0812 -2.0014 0.9779
4.9919 1.5328 -2.0011 0.9779
4.8345 1.9721 -2.0009 0.9779
4.4057 2.7997 -2.0004 0.9779
4.1377 3.1815 -2.0002 0.9779
3.8367 3.5378 -2.0000 0.9779
3.1458 4.1630 -1.9996 0.9779
2.7614 4.4268 -1.9994 0.9779
1.9299 4.8467 -1.9992 0.9779
1.4894 4.9994 -1.9991 0.9779
0.5765 5.1843 -1.9989 0.9779
-0.3546 5.2041 -1.9989 0.9779
-2.1538 4.7513 -1.9991 0.9779
-2.5695 4.5402 -1.9992 0.9779
-3.3365 4.0115 -1.9995 0.9779
-3.6816 3.6979 -1.9997 0.9779
-4.2813 2.9848 -2.0000 0.9779
-4.5312 2.5909 -2.0003 0.9779
-4.9208 1.7442 -2.0007 0.9779
-5.0575 1.2981 -2.0010 0.9779
-5.2227 -0.0885 -2.0017 0.9779
-5.1947 -0.5544 -2.0020 0.9779
-5.0145 -1.4698 -2.0025 0.9779
-4.8639 -1.9118 -2.0028 0.9779
-4.4475 -2.7470 -2.0032 0.9779
-3.8889 -3.4949 -2.0037 0.9779
-2.4205 -4.6365 -2.0044 0.9778
-1.9970 -4.8344 -2.0045 0.9778
-0.6447 -5.1914 -2.0047 0.9778
1.2131 -5.0887 -2.0047 0.9778
1.6625 -4.9599 -2.0047 0.9778
2.0986 -4.7915 -2.0046 0.9778
2.5178 -4.5848 -2.0045 0.9778
3.6419 -3.7529 -2.0040 0.9778
4.9037 -1.8091 -2.0030 0.9779
5.0450 -1.3640 -2.0027 0.9779
5.2058 -0.4449 -2.0022 0.9779
5.2006 0.4879 -2.0017 0.9779
5.1356 0.9501 -2.0015 0.9779
4.2179 3.0746 -2.0002 0.9779
3.2514 4.0812 -1.9996 0.9779
2.0533 4.7958 -1.9992 0.9779
1.6169 4.9597 -1.9991 0.9779
0.7091 5.1678 -1.9990 0.9779
-0.2213 5.2114 -1.9989 0.9779
-1.1446 5.0891 -1.9990 0.9779
4.3714 2.1882 -2.0007 0.9791
4.1581 2.5695 -2.0005 0.9791
3.9117 2.9301 -2.0003 0.9791
3.3277 3.5784 -1.9999 0.9791
2.6378 4.1125 -1.9996 0.9791
2.2600 4.3312 -1.9995 0.9791
1.8642 4.5154 -1.9994 0.9791
1.0314 4.7746 -1.9992 0.9791
0.1658 4.8817 -1.9991 0.9791
-0.2706 4.8770 -1.9991 0.9791
-1.1337 4.7512 -1.9991 0.9791
-1.5533 4.6312 -1.9992 0.9791
-1.9607 4.4742 -1.9993 0.9791
-2.7254 4.0546 -1.9995 0.9791
-3.4035 3.5058 -1.9998 0.9791
-3.9734 2.8451 -2.0001 0.9791
-4.2119 2.4793 -2.0003 0.9791
-4.5867 1.6911 -2.0008 0.9791
-2.1535 0.3795 -0.8950 0.9906
-1.9575 0.1669 -0.8041 0.9915
-1.9023 -0.0083 -0.7786 0.9918
-2.1896 -0.4055 -0.9114 0.9904
-4.7121 -1.3169 -2.0024 0.9791
-4.4038 -2.1344 -2.0029 0.9791
-3.9549 -2.8842 -2.0033 0.9791
-3.0501 -3.8301 -2.0039 0.9791
-2.6962 -4.0874 -2.0040 0.9791
-2.3207 -4.3121 -2.0042 0.9791
-1.9266 -4.5023 -2.0043 0.9791
-1.5170 -4.6566 -2.0044 0.9791
-1.0953 -4.7736 -2.0045 0.9791
0.2088 -4.8934 -2.0046 0.9791
1.0757 -4.7782 -2.0045 0.9791
2.3031 -4.3219 -2.0043 0.9791
2.6796 -4.0988 -2.0042 0.9791
3.0346 -3.8430 -2.0041 0.9791
3.3653 -3.5564 -2.0039 0.9791
3.9434 -2.9008 -2.0036 0.9791
4.5697 -1.7516 -2.0029 0.9791
4.7073 -1.3365 -2.0027 0.9791
4.8688 -0.4780 -2.0022 0.9791
4.8914 -0.0414 -2.0020 0.9791
4.8750 0.3954 -2.0018 0.9791
4.8196 0.8290 -2.0015 0.9791
4.7258 1.2558 -2.0013 0.9791
4.5943 1.6724 -2.0010 0.9791
3.9856 2.8291 -2.0004 0.9791
3.7167 3.1733 -2.0002 0.9791
3.4182 3.4921 -2.0000 0.9791
2.3702 4.2720 -1.9995 0.9791
0.2907 4.8759 -1.9991 0.9791
-0.5810 4.8498 -1.9991 0.9791
-1.0117 4.7786 -1.9991 0.9791
-1.4343 4.6694 -1.9992 0.9791
-1.8455 4.5228 -1.9992 0.9791
-2.2420 4.3402 -1.9993 0.9791
-3.3126 3.5917 -1.9997 0.9791
-3.6203 3.2819 -1.9999 0.9791
-4.1470 2.5862 -2.0003 0.9791
-4.6856 1.3954 -2.0009 0.9791
-4.7920 0.9716 -2.0012 0.9791
-1.9563 0.2174 -0.8056 0.9915
-1.9188 0.0408 -0.7855 0.9917
-1.9510 -0.1331 -0.8003 0.9916
-2.0281 -0.3222 -0.8405 0.9912
-4.6189 -1.6148 -2.0026 0.9791
-4.4568 -2.0209 -2.0028 0.9791
-4.2591 -2.4110 -2.0031 0.9791
-4.0273 -2.7819 -2.0033 0.9791
-3.7632 -3.1306 -2.0035 0.9791
-3.4690 -3.4544 -2.0037 0.9791
-2.0412 -4.4514 -2.0043 0.9791
-1.6357 -4.6161 -2.0044 0.9791
-1.2171 -4.7439 -2.0045 0.9791
-0.7887 -4.8338 -2.0045 0.9791
-0.3541 -4.8850 -2.0046 0.9791
0.0835 -4.8972 -2.0046 0.9791
0.5203 -4.8702 -2.0046 0.9791
1.3781 -4.6998 -2.0045 0.9791
1.7921 -4.5579 -2.0044 0.9791
3.5850 -3.3345 -2.0038 0.9791
3.8680 -3.0008 -2.0036 0.9791
4.3391 -2.2647 -2.0032 0.9791
4.7825 -1.0336 -2.0026 0.9791
4.8889 -0.1666 -2.0021 0.9791
4.6357 1.5544 -2.0011 0.9791
4.4779 1.9618 -2.0009 0.9791
4.2844 2.3534 -2.0006 0.9791
4.0568 2.7262 -2.0004 0.9791
3.7968 3.0772 -2.0002 0.9791
3.1885 3.7027 -1.9999 0.9791
2.4788 4.2101 -1.9996 0.9791
2.0929 4.4143 -1.9994 0.9791
1.6904 4.5832 -1.9993 0.9791
1.2744 4.7156 -1.9992 0.9791
-0.4567 4.8631 -1.9991 0.9791
-0.8890 4.8030 -1.9991 0.9791
-2.1301 4.3961 -1.9993 0.9791
-2.5142 4.1886 -1.9994 0.9791
-3.8224 3.0446 -2.0000 0.9791
-4.0793 2.6915 -2.0002 0.9791
-4.7654 1.0939 -2.0011 0.9791
-1.9481 0.2671 -0.8048 0.9915
-1.9359 -0.0824 -0.7930 0.9917
-4.6586 -1.4960 -2.0025 0.9791
-4.5070 -1.9061 -2.0028 0.9791
-4.0970 -2.6778 -2.0032 0.9791
-3.8420 -3.0332 -2.0034 0.9791
-3.5562 -3.3644 -2.0036 0.9791
-2.9017 -3.9439 -2.0040 0.9791
-2.1544 -4.3977 -2.0042 0.9791
-1.7533 -4.5727 -2.0043 0.9791
-0.9122 -4.8120 -2.0045 0.9791
0.8297 -4.8270 -2.0046 0.9791
1.6748 -4.6023 -2.0045 0.9791
2.8341 -3.9934 -2.0042 0.9791
3.1790 -3.7242 -2.0040 0.9791
3.4985 -3.4252 -2.0039 0.9791
4.2799 -2.3751 -2.0033 0.9791
4.6330 -1.5757 -2.0029 0.9791
4.7547 -1.1557 -2.0026 0.9791
4.8383 -0.7265 -2.0024 0.9791
4.8832 -0.2917 -2.0021 0.9791
4.8561 0.5813 -2.0017 0.9791
4.6742 1.4352 -2.0012 0.9791
4.3434 2.2431 -2.0007 0.9791
4.1254 2.6216 -2.0005 0.9791
3.5927 3.3128 -2.0001 0.9791
2.9458 3.8982 -1.9997 0.9791
2.5858 4.1453 -1.9996 0.9791
2.2052 4.3593 -1.9995 0.9791
1.8072 4.5385 -1.9993 0.9791
1.3947 4.6815 -1.9993 0.9791
-1.1934 4.7366 -1.9991 0.9791
-1.6116 4.6112 -1.9992 0.9791
-2.0169 4.4491 -1.9993 0.9791
-2.4061 4.2515 -1.9994 0.9791
-2.7763 4.0200 -1.9995 0.9791
-3.1243 3.7563 -1.9996 0.9791
-3.7431 3.1414 -2.0000 0.9791
-4.0090 2.7949 -2.0002 0.9791
-4.2429 2.4261 -2.0004 0.9791
-4.4430 2.0378 -2.0006 0.9791
-4.6077 1.6332 -2.0008 0.9791
-1.9529 0.1418 -0.8014 0.9916
-1.9148 -0.0324 -0.7838 0.9918
-3.9183 -2.9338 -2.0034 0.9791
-3.0017 -3.8682 -2.0039 0.9791
-2.6445 -4.1211 -2.0041 0.9791
-1.4582 -4.6753 -2.0044 0.9791
-0.6036 -4.8604 -2.0045 0.9791
0.2704 -4.8904 -2.0046 0.9791
0.7059 -4.8467 -2.0046 0.9791
1.5565 -4.6437 -2.0045 0.9791
1.9648 -4.4861 -2.0044 0.9791
2.3573 -4.2925 -2.0043 0.9791
2.7310 -4.0647 -2.0042 0.9791
3.0827 -3.8044 -2.0041 0.9791
3.4098 -3.5137 -2.0039 0.9791
3.9796 -2.8508 -2.0035 0.9791
4.2178 -2.4839 -2.0033 0.9791
4.7237 -1.2771 -2.0027 0.9791
4.8743 -0.4166 -2.0022 0.9791
4.8915 0.0202 -2.0020 0.9791
4.8695 0.4568 -2.0017 0.9791
4.5728 1.7302 -2.0010 0.9791
4.1912 2.5152 -2.0005 0.9791
3.0446 3.8216 -1.9998 0.9791
2.3161 4.3015 -1.9995 0.9791
0.6640 4.8393 -1.9991 0.9791
0.2293 4.8791 -1.9991 0.9791
-0.2072 4.8801 -1.9991 0.9791
-0.6420 4.8421 -1.9991 0.9791
-1.0718 4.7655 -1.9991 0.9791
-1.4930 4.6509 -1.9992 0.9791
-2.2965 4.3117 -1.9994 0.9791
4.4063 1.2925 -2.0012 0.9802
4.2728 1.6805 -2.0010 0.9802
3.9050 2.4131 -2.0006 0.9802
3.6737 2.7518 -2.0004 0.9802
3.1252 3.3606 -2.0000 0.9802
2.8125 3.6259 -1.9999 0.9802
2.4773 3.8623 -1.9997 0.9802
2.1225 4.0678 -1.9996 0.9802
1.3652 4.3799 -1.9994 0.9802
0.9686 4.4842 -1.9994 0.9802
0.5644 4.5526 -1.9993 0.9802
0.1557 4.5848 -1.9993 0.9802
-0.2542 4.5803 -1.9993 0.9802
-0.6621 4.5394 -1.9993 0.9802
-1.0647 4.4622 -1.9993 0.9802
-1.4589 4.3495 -1.9994 0.9802
-1.8414 4.2020 -1.9994 0.9802
-3.1964 3.2925 -1.9999 0.9802
-3.4779 2.9942 -2.0001 0.9802
-3.9556 2.3284 -2.0004 0.9802
-4.1481 1.9662 -2.0006 0.9802
-1.5975 0.5890 -0.7421 0.9926
-1.5577 0.4208 -0.7032 0.9930
-1.5283 0.1303 -0.6685 0.9933
-1.5631 -0.4368 -0.7073 0.9929
-4.2974 -1.6270 -2.0026 0.9801
-4.1355 -2.0043 -2.0028 0.9801
-3.1736 -3.3263 -2.0036 0.9801
-2.8642 -3.5966 -2.0038 0.9801
-2.5318 -3.8382 -2.0039 0.9801
-2.1792 -4.0492 -2.0040 0.9801
-1.4245 -4.3726 -2.0042 0.9801
-0.6242 -4.5565 -2.0044 0.9801
-0.2150 -4.5942 -2.0044 0.9801
0.6055 -4.5592 -2.0044 0.9801
1.4066 -4.3786 -2.0043 0.9801
2.1627 -4.0584 -2.0042 0.9801
2.5162 -3.8489 -2.0041 0.9801
2.8496 -3.6087 -2.0039 0.9801
3.1602 -3.3396 -2.0038 0.9801
3.4454 -3.0439 -2.0036 0.9801
4.1277 -2.0216 -2.0031 0.9801
4.5144 -0.8553 -2.0024 0.9802
4.5261 0.7785 -2.0015 0.9802
4.4381 1.1793 -2.0013 0.9802
3.9656 2.3124 -2.0007 0.9802
3.7430 2.6569 -2.0005 0.9802
3.4905 2.9802 -2.0003 0.9802
3.2103 3.2796 -2.0001 0.9802
2.9044 3.5528 -1.9999 0.9802
2.5754 3.7977 -1.9998 0.9802
2.2260 4.0122 -1.9997 0.9802
1.8588 4.1946 -1.9995 0.9802
1.4768 4.3436 -1.9994 0.9802
1.0831 4.4579 -1.9994 0.9802
0.6808 4.5367 -1.9993 0.9802
0.2730 4.5793 -1.9993 0.9802
-0.5457 4.5548 -1.9993 0.9802
-0.9501 4.4880 -1.9993 0.9802
-2.1056 4.0762 -1.9995 0.9802
-2.4612 3.8721 -1.9996 0.9802
-3.1110 3.3732 -1.9999 0.9802
-3.4000 3.0822 -2.0000 0.9802
-3.6619 2.7666 -2.0002 0.9802
-3.8946 2.4288 -2.0004 0.9802
-4.0963 2.0717 -2.0006 0.9802
-4.2653 1.6979 -2.0008 0.9802
-1.5242 0.1693 -0.6683 0.9933
-1.5096 -0.2398 -0.6661 0.9934
-1.5464 -0.3898 -0.6950 0.9931
-1.5928 -0.5569 -0.7354 0.9927
-4.1853 -1.8978 -2.0028 0.9801
-3.9996 -2.2641 -2.0030 0.9801
-3.7819 -2.6124 -2.0032 0.9801
-2.2821 -3.9920 -2.0040 0.9801
-0.7407 -4.5390 -2.0044 0.9801
0.8949 -4.5112 -2.0044 0.9801
1.6828 -4.2800 -2.0043 0.9801
2.4169 -3.9121 -2.0041 0.9801
2.7563 -3.6805 -2.0040 0.9801
3.0737 -3.4195 -2.0038 0.9801
3.8690 -2.4822 -2.0033 0.9801
4.0747 -2.1267 -2.0031 0.9801
4.2479 -1.7542 -2.0029 0.9801
4.3871 -1.3678 -2.0027 0.9801
4.5594 -0.5657 -2.0023 0.9802
4.5911 -0.1564 -2.0021 0.9802
4.5862 0.2541 -2.0018 0.9802
4.4669 1.0654 -2.0014 0.9802
3.2932 3.1965 -2.0001 0.9802
2.6719 3.7306 -1.9998 0.9802
2.3280 3.9539 -1.9997 0.9802
1.9656 4.1457 -1.9996 0.9802
1.5875 4.3044 -1.9995 0.9802
1.1969 4.4288 -1.9994 0.9802
0.7967 4.5178 -1.9993 0.9802
0.3902 4.5708 -1.9993 0.9802
-0.4289 4.5673 -1.9993 0.9802
-1.6239 4.2907 -1.9994 0.9802
-2.0006 4.1287 -1.9995 0.9802
-2.3613 3.9338 -1.9996 0.9802
-2.7032 3.7075 -1.9997 0.9802
-3.3199 3.1681 -2.0000 0.9802
-3.5898 2.8593 -2.0001 0.9802
-3.8311 2.5277 -2.0003 0.9802
-4.0418 2.1758 -2.0005 0.9802
-4.2203 1.8064 -2.0007 0.9802
-1.5306 0.3514 -0.6844 0.9932
-1.5290 -0.0651 -0.6670 0.9933
-1.5187 -0.2015 -0.6677 0.9933
-3.6079 -2.8483 -2.0033 0.9801
-2.7248 -3.7035 -2.0038 0.9801
-1.6464 -4.2939 -2.0042 0.9801
-1.2565 -4.4239 -2.0043 0.9801
-0.8566 -4.5186 -2.0043 0.9801
-0.4498 -4.5771 -2.0044 0.9801
-0.0394 -4.5990 -2.0044 0.9801
0.3714 -4.5842 -2.0044 0.9801
0.7791 -4.5327 -2.0044 0.9801
1.1807 -4.4450 -2.0044 0.9801
1.5727 -4.3217 -2.0043 0.9801
2.3160 -3.9728 -2.0041 0.9801
2.9852 -3.4971 -2.0039 0.9801
3.2853 -3.2164 -2.0037 0.9801
4.4650 -1.0853 -2.0026 0.9802
4.5435 -0.6823 -2.0024 0.9802
4.5858 -0.2739 -2.0021 0.9802
4.5914 0.1366 -2.0019 0.9802
4.5604 0.5459 -2.0017 0.9802
4.4929 0.9507 -2.0014 0.9802
4.3896 1.3479 -2.0012 0.9802
4.0790 2.1065 -2.0008 0.9802
3.8743 2.4620 -2.0006 0.9802
3.6387 2.7978 -2.0004 0.9802
3.3740 3.1112 -2.0002 0.9802
2.4285 3.8931 -1.9997 0.9802
2.0711 4.0941 -1.9996 0.9802
1.6972 4.2625 -1.9995 0.9802
0.0980 4.5864 -1.9993 0.9802
-0.3119 4.5768 -1.9993 0.9802
-1.1208 4.4485 -1.9993 0.9802
-1.8942 4.1785 -1.9994 0.9802
-2.2598 3.9929 -1.9995 0.9802
-2.6074 3.7754 -1.9996 0.9802
-3.2377 3.2520 -1.9999 0.9802
-3.9847 2.2784 -2.0004 0.9802
-1.5494 0.3977 -0.6971 0.9930
-1.5250 -0.1628 -0.6684 0.9933
-1.5055 -0.2985 -0.6689 0.9933
-1.5704 -0.4603 -0.7132 0.9929
-4.2767 -1.6810 -2.0027 0.9801
-3.6795 -2.7550 -2.0033 0.9801
-3.1315 -3.3660 -2.0036 0.9801
-2.8187 -3.6324 -2.0038 0.9801
-2.4833 -3.8698 -2.0039 0.9801
-1.3693 -4.3902 -2.0043 0.9801
1.0665 -4.4737 -2.0044 0.9801
1.4616 -4.3606 -2.0043 0.9801
2.2136 -4.0308 -2.0042 0.9801
3.4834 -3.0003 -2.0036 0.9801
3.7371 -2.6771 -2.0034 0.9801
3.9608 -2.3325 -2.0033 0.9801
4.1528 -1.9694 -2.0031 0.9801
4.3116 -1.5907 -2.0029 0.9801
4.5730 0.4290 -2.0017 0.9802
4.4228 1.2351 -2.0013 0.9802
4.1317 2.0015 -2.0008 0.9802
3.9361 2.3621 -2.0006 0.9802
3.4527 3.0239 -2.0002 0.9802
3.1686 3.3198 -2.0001 0.9802
2.8594 3.5891 -1.9999 0.9802
1.4220 4.3619 -1.9994 0.9802
1.0269 4.4712 -1.9994 0.9802
0.6236 4.5449 -1.9993 0.9802
-0.6030 4.5476 -1.9993 0.9802
-1.4022 4.3680 -1.9993 0.9802
-2.1568 4.0494 -1.9995 0.9802
4.1487 1.2169 -2.0013 0.9811
4.0231 1.5823 -2.0011 0.9811
3.8654 1.9349 -2.0009 0.9811
3.4590 2.5910 -2.0005 0.9811
2.9426 3.1643 -2.0001 0.9811
2.6481 3.4141 -2.0000 0.9811
2.3326 3.6366 -1.9999 0.9811
1.6485 3.9931 -1.9996 0.9811
1.2854 4.1241 -1.9996 0.9811
0.9121 4.2223 -1.9995 0.9811
0.5315 4.2867 -1.9995 0.9811
-0.2393 4.3128 -1.9994 0.9811
-0.6234 4.2743 -1.9994 0.9811
-1.0025 4.2016 -1.9995 0.9811
-2.4101 3.5855 -1.9998 0.9811
-3.2746 2.8193 -2.0002 0.9811
-3.5135 2.5159 -2.0003 0.9811
-3.9057 1.8513 -2.0007 0.9811
-1.3174 0.2322 -0.6192 0.9941
-1.3371 -0.1257 -0.6216 0.9941
-1.3200 -0.3689 -0.6344 0.9940
-1.3318 -0.5042 -0.6592 0.9937
-3.8935 -1.8871 -2.0028 0.9811
-3.7099 -2.2274 -2.0030 0.9811
-3.4965 -2.5499 -2.0032 0.9811
-2.6965 -3.3861 -2.0037 0.9811
-2.3836 -3.6136 -2.0038 0.9811
-2.0515 -3.8124 -2.0039 0.9811
-1.3411 -4.1166 -2.0041 0.9811
-0.5877 -4.2898 -2.0042 0.9811
-0.2024 -4.3252 -2.0043 0.9811
0.1846 -4.3260 -2.0043 0.9811
0.5700 -4.2922 -2.0043 0.9811
0.9509 -4.2241 -2.0042 0.9811
2.6828 -3.3975 -2.0038 0.9811
3.2438 -2.8658 -2.0035 0.9811
4.0402 -1.5486 -2.0028 0.9811
4.2503 -0.8053 -2.0024 0.9811
4.3048 -0.4226 -2.0022 0.9811
4.3249 -0.0366 -2.0020 0.9811
4.1786 1.1104 -2.0013 0.9811
3.9137 1.8354 -2.0009 0.9811
3.7339 2.1773 -2.0007 0.9811
3.5243 2.5017 -2.0005 0.9811
3.2866 2.8061 -2.0004 0.9811
2.7347 3.3453 -2.0000 0.9811
1.7502 3.9496 -1.9997 0.9811
1.0199 4.1976 -1.9995 0.9811
0.6410 4.2717 -1.9995 0.9811
-0.1289 4.3175 -1.9994 0.9811
-1.2684 4.1292 -1.9995 0.9811
-1.6320 3.9996 -1.9995 0.9811
-2.3175 3.6459 -1.9997 0.9811
-2.6338 3.4247 -1.9998 0.9811
-3.2013 2.9021 -2.0001 0.9811
-3.4479 2.6049 -2.0003 0.9811
-3.8569 1.9506 -2.0006 0.9811
-1.3293 0.5291 -0.6623 0.9937
-1.3251 0.3946 -0.6400 0.9939
-1.3385 -0.0913 -0.6210 0.9941
-1.3230 -0.2102 -0.6201 0.9941
-1.3336 -0.4662 -0.6539 0.9938
-3.7656 -2.1316 -2.0029 0.9811
-3.3271 -2.7678 -2.0033 0.9811
-3.0669 -3.0540 -2.0035 0.9811
-2.7823 -3.3159 -2.0036 0.9811
-2.4753 -3.5513 -2.0038 0.9811
-1.0760 -4.1939 -2.0042 0.9811
-0.3130 -4.3186 -2.0042 0.9811
0.0738 -4.3293 -2.0043 0.9811
0.8425 -4.2471 -2.0042 0.9811
1.2183 -4.1549 -2.0042 0.9811
1.9376 -3.8717 -2.0041 0.9811
2.2754 -3.6831 -2.0040 0.9811
2.8938 -3.2193 -2.0037 0.9811
3.4197 -2.6530 -2.0034 0.9811
4.3181 0.2392 -2.0018 0.9811
4.2790 0.6237 -2.0016 0.9811
4.2058 1.0031 -2.0014 0.9811
4.0990 1.3744 -2.0012 0.9811
3.3574 2.7211 -2.0004 0.9811
3.1008 3.0097 -2.0002 0.9811
2.8195 3.2742 -2.0001 0.9811
2.5158 3.5126 -1.9999 0.9811
1.1270 4.1701 -1.9995 0.9811
-0.0183 4.3194 -1.9994 0.9811
-1.1622 4.1603 -1.9995 0.9811
-1.5291 4.0400 -1.9995 0.9811
-1.8837 3.8875 -1.9996 0.9811
-2.2233 3.7040 -1.9997 0.9811
-2.8470 3.2500 -1.9999 0.9811
-1.3313 0.4339 -0.6481 0.9938
-1.3011 0.2987 -0.6179 0.9941
-1.3290 0.1822 -0.6209 0.9941
-1.3300 -0.1765 -0.6210 0.9941
-1.2990 -0.2923 -0.6163 0.9941
-3.3967 -2.6817 -2.0032 0.9811
-2.2440 -3.7020 -2.0038 0.9811
-1.9046 -3.8878 -2.0040 0.9811
-1.5500 -4.0425 -2.0041 0.9811
-0.8064 -4.2540 -2.0042 0.9811
-0.4235 -4.3091 -2.0042 0.9811
-0.0371 -4.3298 -2.0043 0.9811
1.1115 -4.1847 -2.0042 0.9811
1.4806 -4.0687 -2.0042 0.9811
2.1804 -3.7402 -2.0040 0.9811
3.0930 -3.0282 -2.0036 0.9811
3.7839 -2.0998 -2.0031 0.9811
4.0962 -1.3932 -2.0027 0.9811
4.3176 -0.2579 -2.0021 0.9811
4.3229 0.1286 -2.0019 0.9811
4.2937 0.5139 -2.0017 0.9811
4.2302 0.8951 -2.0015 0.9811
4.1330 1.2691 -2.0012 0.9811
4.0028 1.6328 -2.0010 0.9811
3.4260 2.6343 -2.0005 0.9811
2.6049 3.4472 -2.0000 0.9811
1.2334 4.1399 -1.9996 0.9811
0.4774 4.2931 -1.9994 0.9811
-1.4221 4.0692 -1.9953 0.9812
-1.7835 3.9344 -1.9996 0.9811
-2.1278 3.7597 -1.9997 0.9811
-2.7628 3.3217 -1.9999 0.9811
-1.3144 0.6029 -0.6694 0.9936
-1.3335 0.4727 -0.6549 0.9938
-1.3122 0.3368 -0.6271 0.9940
-1.3358 -0.0226 -0.6184 0.9941
-1.3239 -0.3880 -0.6386 0.9939
-1.3300 -0.5228 -0.6615 0.9937
-3.8695 -1.9360 -2.0028 0.9811
-3.6816 -2.2740 -2.0030 0.9811
-3.2191 -2.8929 -2.0034 0.9811
-2.9482 -3.1690 -2.0035 0.9811
-2.6537 -3.4198 -2.0037 0.9811
-2.3379 -3.6433 -2.0038 0.9811
-0.9151 -4.2320 -2.0042 0.9811
-0.5336 -4.2968 -2.0042 0.9811
0.2390 -4.3233 -2.0043 0.9811
1.3760 -4.1053 -2.0042 0.9811
1.7370 -3.9659 -2.0041 0.9811
2.7253 -3.3634 -2.0038 0.9811
3.7290 -2.1960 -2.0032 0.9811
4.1764 -1.1291 -2.0026 0.9811
4.2601 -0.7517 -2.0024 0.9811
4.3249 0.0179 -2.0020 0.9811
4.2519 0.7866 -2.0015 0.9811
4.1642 1.1629 -2.0013 0.9811
4.0434 1.5299 -2.0011 0.9811
3.8902 1.8845 -2.0009 0.9811
3.4924 2.5458 -2.0005 0.9811
2.9835 3.1258 -2.0002 0.9811
2.6923 3.3794 -2.0000 0.9811
2.3797 3.6060 -1.9999 0.9811
2.0482 3.8039 -1.9998 0.9811
1.7003 3.9713 -1.9997 0.9811
0.5872 4.2795 -1.9995 0.9811
-0.5678 4.2820 -1.9994 0.9811
-0.9478 4.2143 -1.9994 0.9811
-1.3203 4.1129 -1.9995 0.9811
-1.6822 3.9788 -1.9996 0.9811
-2.0308 3.8128 -1.9996 0.9811
3.4698 2.1441 -2.0007 0.9820
3.2642 2.4451 -2.0006 0.9820
2.2013 3.4319 -2.0000 0.9820
0.8607 3.9846 -1.9996 0.9820
0.5016 4.0455 -1.9996 0.9820
0.1384 4.0740 -1.9996 0.9820
-0.2259 4.0701 -1.9995 0.9820
-0.5883 4.0337 -1.9996 0.9820
-1.2963 3.8649 -1.9996 0.9820
-1.6362 3.7339 -1.9997 0.9820
-1.9631 3.5730 -1.9998 0.9820
-2.2744 3.3837 -1.9999 0.9820
-2.5675 3.1673 -2.0000 0.9820
-3.5147 2.0689 -2.0006 0.9820
-1.1360 0.5385 -0.6167 0.9944
-1.1548 0.4258 -0.6037 0.9945
-1.1801 0.2080 -0.5878 0.9947
-1.1943 0.1018 -0.5880 0.9947
-1.1935 -0.1122 -0.5880 0.9947
-1.1588 -0.3239 -0.5902 0.9947
-1.1333 -0.5493 -0.6178 0.9944
-3.5007 -2.1018 -2.0029 0.9820
-3.2994 -2.4061 -2.0031 0.9820
-3.0717 -2.6913 -2.0033 0.9820
-2.8194 -2.9550 -2.0034 0.9820
-1.9359 -3.5971 -2.0038 0.9820
-0.9137 -3.9820 -2.0040 0.9820
-0.5545 -4.0478 -2.0041 0.9820
-0.1910 -4.0812 -2.0041 0.9820
0.1742 -4.0820 -2.0041 0.9820
1.2495 -3.8898 -2.0040 0.9820
1.5917 -3.7626 -2.0040 0.9820
1.9212 -3.6053 -2.0039 0.9820
2.2353 -3.4192 -2.0038 0.9820
2.5315 -3.2058 -2.0037 0.9820
2.8074 -2.9669 -2.0036 0.9820
3.4924 -2.1164 -2.0031 0.9820
3.6671 -1.7960 -2.0029 0.9820
4.0108 -0.7599 -2.0024 0.9820
4.0622 -0.3988 -2.0022 0.9820
4.0214 0.6917 -2.0016 0.9820
3.9432 1.0478 -2.0014 0.9820
3.8336 1.3955 -2.0012 0.9820
3.6933 1.7320 -2.0010 0.9820
3.5236 2.0546 -2.0008 0.9820
3.1015 2.6481 -2.0004 0.9820
2.5808 3.1569 -2.0001 0.9820
2.2885 3.3745 -2.0000 0.9820
1.9780 3.5651 -1.9999 0.9820
1.6517 3.7273 -1.9998 0.9820
1.3123 3.8597 -1.9997 0.9820
0.9625 3.9613 -1.9996 0.9820
0.6050 4.0313 -1.9996 0.9820
-0.1216 4.0745 -1.9995 0.9820
-1.1970 3.8968 -1.9996 0.9820
-1.5401 3.7745 -1.9997 0.9820
-2.4856 3.2319 -2.0000 0.9820
-2.7644 2.9973 -2.0001 0.9820
-3.0211 2.7387 -2.0002 0.9820
-3.4605 2.1581 -2.0005 0.9820
-1.1277 0.5703 -0.6199 0.9944
-1.1510 0.4582 -0.6077 0.9945
-1.1963 0.0254 -0.5869 0.9947
-1.1955 -0.0816 -0.5878 0.9947
-1.1838 -0.1880 -0.5880 0.9947
-1.1407 -0.5173 -0.6144 0.9944
-3.5533 -2.0114 -2.0029 0.9820
-3.3598 -2.3208 -2.0030 0.9820
-2.8940 -2.8818 -2.0034 0.9820
-2.3357 -3.3510 -2.0036 0.9820
-2.0273 -3.5464 -2.0038 0.9820
-1.7027 -3.7134 -2.0039 0.9820
-0.6580 -4.0323 -2.0041 0.9820
-0.2954 -4.0750 -2.0041 0.9820
0.0696 -4.0851 -2.0041 0.9820
0.4340 -4.0626 -2.0041 0.9820
1.1496 -3.9205 -2.0041 0.9820
2.1471 -3.4754 -2.0038 0.9820
2.4486 -3.2696 -2.0037 0.9820
2.7306 -3.0378 -2.0036 0.9820
2.9907 -2.7817 -2.0035 0.9820
3.2268 -2.5034 -2.0033 0.9820
3.4372 -2.2052 -2.0032 0.9820
3.8976 -1.2152 -2.0026 0.9820
4.0791 -0.1390 -2.0020 0.9820
4.0748 0.2257 -2.0018 0.9820
4.0379 0.5885 -2.0016 0.9820
3.7365 1.6370 -2.0010 0.9820
3.1683 2.5679 -2.0005 0.9820
2.9262 2.8402 -2.0003 0.9820
2.6608 3.0899 -2.0002 0.9820
1.7466 3.6838 -1.9998 0.9820
1.0635 3.9354 -1.9997 0.9820
-0.0173 4.0763 -1.9996 0.9820
-1.7777 3.6687 -1.9997 0.9820
-2.0982 3.4955 -1.9998 0.9820
-2.4020 3.2944 -1.9999 0.9820
-3.1897 2.5407 -2.0003 0.9820
-1.1147 0.6001 -0.6210 0.9944
-1.1582 0.3775 -0.5975 0.9946
-1.1659 0.2677 -0.5868 0.9947
-1.1878 0.1628 -0.5881 0.9947
-1.1963 0.0561 -0.5875 0.9947
-1.1584 -0.3720 -0.5968 0.9946
-1.1469 -0.4850 -0.6108 0.9945
-3.4180 -2.2340 -2.0030 0.9820
-2.9668 -2.8067 -2.0033 0.9820
-2.4207 -3.2901 -2.0036 0.9820
-2.1174 -3.4932 -2.0037 0.9820
-1.7972 -3.6685 -2.0038 0.9820
-1.4626 -3.8145 -2.0039 0.9820
-0.7610 -4.0141 -2.0041 0.9820
-0.3996 -4.0660 -2.0041 0.9820
1.0488 -3.9487 -2.0041 0.9820
1.3971 -3.8392 -2.0040 0.9820
2.3642 -3.3313 -2.0038 0.9820
2.6520 -3.1068 -2.0037 0.9820
3.7329 -1.6546 -2.0029 0.9820
3.9669 -0.9642 -2.0025 0.9820
4.0367 -0.6062 -2.0023 0.9820
4.0743 -0.2433 -2.0021 0.9820
4.0793 0.1213 -2.0019 0.9820
4.0518 0.4850 -2.0017 0.9820
3.9919 0.8447 -2.0015 0.9820
3.7773 1.5408 -2.0011 0.9820
3.6243 1.8717 -2.0009 0.9820
3.2331 2.4860 -2.0005 0.9820
2.7391 3.0208 -2.0002 0.9820
2.4583 3.2531 -2.0001 0.9820
1.8403 3.6380 -1.9999 0.9820
1.5081 3.7876 -1.9998 0.9820
0.8105 3.9951 -1.9996 0.9820
0.0871 4.0754 -1.9996 0.9820
-0.2771 4.0669 -1.9995 0.9820
-0.6391 4.0260 -1.9996 0.9820
-0.9960 3.9529 -1.9996 0.9820
-1.3449 3.8483 -1.9996 0.9820
-1.6832 3.7130 -1.9997 0.9820
-2.0080 3.5480 -1.9998 0.9820
-2.8769 2.8896 -2.0001 0.9820
-3.5406 2.0245 -2.0006 0.9820
-1.1396 0.5227 -0.6150 0.9944
-1.1562 0.4098 -0.6017 0.9945
-1.1953 0.0868 -0.5879 0.9947
-1.1962 -0.0203 -0.5868 0.9947
-1.1922 -0.1272 -0.5881 0.9947
-1.1292 -0.5650 -0.6194 0.9944
-3.4740 -2.1458 -2.0029 0.9820
-3.0376 -2.7298 -2.0033 0.9820
-2.7820 -2.9903 -2.0034 0.9820
-2.2061 -3.4378 -2.0037 0.9820
-1.5597 -3.7758 -2.0039 0.9820
-1.2164 -3.9001 -2.0040 0.9820
-0.5035 -4.0545 -2.0041 0.9820
-0.1395 -4.0833 -2.0041 0.9820
0.5889 -4.0430 -2.0041 0.9820
1.2984 -3.8737 -2.0040 0.9820
1.9665 -3.5808 -2.0039 0.9820
2.2782 -3.3908 -2.0038 0.9820
2.5716 -3.1737 -2.0037 0.9820
3.3200 -2.3783 -2.0033 0.9820
3.6894 -1.7497 -2.0029 0.9820
4.0668 -0.3476 -2.0021 0.9820
4.0123 0.7423 -2.0015 0.9820
3.2958 2.4025 -2.0006 0.9820
2.8155 2.9498 -2.0003 0.9820
1.9329 3.5897 -1.9999 0.9820
1.6046 3.7478 -1.9998 0.9820
0.5541 4.0386 -1.9996 0.9820
-0.5358 4.0410 -1.9996 0.9820
-1.2460 3.8814 -1.9996 0.9820
-1.9165 3.5982 -1.9998 0.9820
3.0865 2.3120 -2.0006 0.9828
2.6258 2.8236 -2.0003 0.9828
2.0815 3.2452 -2.0001 0.9828
1.4711 3.5632 -1.9999 0.9828
1.1471 3.6802 -1.9998 0.9828
0.8139 3.7678 -1.9997 0.9828
0.4743 3.8254 -1.9997 0.9828
-0.2136 3.8487 -1.9997 0.9828
-0.5563 3.8142 -1.9997 0.9828
-1.2258 3.6546 -1.9998 0.9828
-2.1506 3.1995 -2.0000 0.9828
-2.6857 2.7664 -2.0002 0.9828
-2.9221 2.5158 -2.0003 0.9828
-3.1352 2.2450 -2.0005 0.9828
-1.0581 0.3901 -0.5851 0.9949
-1.0656 0.2879 -0.5726 0.9950
-1.0914 0.1923 -0.5749 0.9950
-1.1060 -0.0048 -0.5738 0.9950
-1.1038 -0.1038 -0.5752 0.9950
-1.0895 -0.2018 -0.5748 0.9950
-1.0638 -0.2973 -0.5730 0.9950
-1.0569 -0.4001 -0.5863 0.9949
-0.9886 -0.5935 -0.5982 0.9948
-3.1196 -2.2750 -2.0030 0.9828
-2.6657 -2.7939 -2.0033 0.9827
-2.1266 -3.2239 -2.0036 0.9827
-1.8304 -3.4010 -2.0037 0.9827
-1.5195 -3.5510 -2.0038 0.9827
-0.8639 -3.7649 -2.0039 0.9827
-0.5243 -3.8271 -2.0040 0.9827
-0.1805 -3.8587 -2.0040 0.9827
0.5085 -3.8293 -2.0040 0.9827
1.1814 -3.6777 -2.0039 0.9827
2.3935 -3.0311 -2.0036 0.9827
2.6544 -2.8051 -2.0035 0.9827
2.8940 -2.5568 -2.0034 0.9827
3.1105 -2.2880 -2.0032 0.9828
3.3021 -2.0011 -2.0031 0.9828
3.6047 -1.3817 -2.0027 0.9828
3.7133 -1.0543 -2.0025 0.9828
3.7923 -0.7185 -2.0023 0.9828
3.8460 0.3120 -2.0018 0.9828
3.7285 0.9908 -2.0014 0.9828
3.6248 1.3195 -2.0012 0.9828
3.4922 1.6377 -2.0010 0.9828
3.3318 1.9428 -2.0008 0.9828
2.6973 2.7555 -2.0004 0.9828
2.4403 2.9851 -2.0002 0.9828
2.1639 3.1909 -2.0001 0.9828
1.8703 3.3711 -2.0000 0.9828
1.5618 3.5245 -1.9999 0.9828
0.2294 3.8478 -1.9997 0.9828
-0.7984 3.7710 -1.9997 0.9828
-1.4563 3.5691 -1.9998 0.9828
-2.0680 3.2535 -2.0000 0.9828
-2.3503 3.0560 -2.0001 0.9828
-2.6139 2.8342 -2.0002 0.9828
-3.0767 2.3245 -2.0004 0.9828
-0.9782 0.6100 -0.5981 0.9948
-1.0278 0.5198 -0.5975 0.9948
-1.0541 0.4196 -0.5886 0.9949
-1.0635 0.3167 -0.5757 0.9950
-1.1065 0.0235 -0.5742 0.9950
-1.1057 -0.0755 -0.5749 0.9950
-3.1767 -2.1944 -2.0030 0.9828
-2.7363 -2.7247 -2.0033 0.9827
-2.4823 -2.9583 -2.0034 0.9827
-2.2084 -3.1683 -2.0035 0.9827
-1.6099 -3.5109 -2.0038 0.9827
-0.2793 -3.8528 -2.0040 0.9827
0.0658 -3.8624 -2.0040 0.9827
0.4104 -3.8411 -2.0040 0.9827
0.7516 -3.7890 -2.0040 0.9827
1.4134 -3.5948 -2.0039 0.9827
2.0300 -3.2859 -2.0037 0.9827
2.3152 -3.0914 -2.0036 0.9827
2.5817 -2.8722 -2.0035 0.9827
3.0510 -2.3670 -2.0032 0.9827
3.2499 -2.0850 -2.0031 0.9828
3.6852 -1.1490 -2.0026 0.9828
3.8301 -0.4752 -2.0022 0.9828
