ply
format ascii 1.0
element vertex 1593
property float32 x
property float32 y
property float32 z
property float32 I
end_header
-4.0131 5.1180 -2.0004 0.9731
-4.8593 4.3221 -2.0003 0.9732
-5.2258 3.8708 -2.0002 0.9732
-5.8309 2.8792 -2.0002 0.9732
-6.0648 2.3469 -2.0002 0.9732
-6.4838 -0.5062 -2.0003 0.9732
-6.2908 -1.6518 -2.0005 0.9731
-5.8971 -2.7449 -2.0007 0.9731
-5.6287 -3.2608 -2.0008 0.9731
-4.9593 -4.2107 -2.0010 0.9731
-4.1316 -5.0264 -2.0013 0.9731
-2.1107 -6.1566 -2.0018 0.9731
-1.5525 -6.3210 -2.0020 0.9731
0.1787 -6.5077 -2.0024 0.9731
1.3337 -6.3729 -2.0026 0.9731
1.8977 -6.2287 -2.0027 0.9731
3.4815 -5.5036 -2.0030 0.9731
3.9592 -5.1709 -2.0031 0.9731
4.4054 -4.7968 -2.0032 0.9731
6.3809 -1.3060 -2.0033 0.9731
6.5113 -0.1500 -2.0033 0.9731
6.4984 0.4321 -2.0032 0.9731
6.4337 1.0108 -2.0031 0.9731
5.9348 2.6797 -2.0029 0.9731
5.6714 3.1989 -2.0028 0.9731
4.5004 4.4685 -1.9507 0.9738
2.9917 5.2171 -1.8498 0.9751
0.9753 5.9327 -1.8493 0.9752
-0.0957 6.0107 -1.8490 0.9752
-0.6321 5.9778 -1.8489 0.9752
-2.7145 5.4367 -1.8690 0.9749
-3.3911 5.5000 -1.9874 0.9733
-4.7585 4.4329 -2.0003 0.9732
-5.1353 3.9901 -2.0003 0.9732
-5.7631 3.0128 -2.0002 0.9732
-6.0091 2.4860 -2.0002 0.9732
-6.2071 1.9394 -2.0002 0.9732
-6.3556 1.3773 -2.0002 0.9732
-6.4533 0.8042 -2.0002 0.9732
-6.4994 0.2246 -2.0003 0.9732
-6.4937 -0.3568 -2.0003 0.9732
-6.4361 -0.9353 -2.0004 0.9731
-6.3271 -1.5065 -2.0005 0.9731
-6.1675 -2.0656 -2.0006 0.9731
-5.9587 -2.6083 -2.0007 0.9731
-5.7022 -3.1302 -2.0008 0.9731
-5.4002 -3.6272 -2.0009 0.9731
-4.2462 -4.9299 -2.0012 0.9731
-3.7892 -5.2897 -2.0014 0.9731
-2.7881 -5.8803 -2.0017 0.9731
-1.1298 -6.4104 -2.0021 0.9731
-0.5528 -6.4861 -2.0022 0.9731
0.0287 -6.5100 -2.0024 0.9731
2.3068 -6.0893 -2.0028 0.9731
3.8390 -5.2606 -2.0031 0.9731
5.4386 -3.5838 -2.0033 0.9731
6.1941 -2.0139 -2.0033 0.9731
6.3492 -1.4527 -2.0033 0.9731
6.4535 -0.8798 -2.0033 0.9731
6.5061 -0.2999 -2.0033 0.9731
6.5067 0.2823 -2.0032 0.9731
6.4553 0.8623 -2.0031 0.9731
5.9950 2.5423 -2.0029 0.9731
5.4465 3.5680 -2.0027 0.9731
1.6351 5.7863 -1.8494 0.9752
1.1117 5.9088 -1.8493 0.9752
0.0427 6.0115 -1.8490 0.9752
-1.5521 5.8067 -1.8487 0.9752
-3.2088 5.4832 -1.9541 0.9738
-3.7670 5.2888 -1.9972 0.9732
-4.2311 4.9391 -2.0004 0.9731
-4.6551 4.5414 -2.0003 0.9732
-5.0420 4.1074 -2.0003 0.9732
-5.3886 3.6406 -2.0002 0.9732
-5.9502 2.6238 -2.0002 0.9732
-6.1608 2.0819 -2.0002 0.9732
-6.3221 1.5233 -2.0002 0.9732
-6.4925 0.3743 -2.0003 0.9732
-6.3600 -1.3603 -2.0005 0.9731
-6.2134 -1.9230 -2.0005 0.9731
-6.0171 -2.4703 -2.0006 0.9731
-5.4822 -3.5018 -2.0008 0.9731
-5.1479 -3.9777 -2.0010 0.9731
-4.3586 -4.8307 -2.0012 0.9731
-2.9227 -5.8144 -2.0016 0.9731
-1.8419 -6.2425 -2.0019 0.9731
-1.2771 -6.3825 -2.0020 0.9731
-0.1213 -6.5088 -2.0023 0.9731
1.0388 -6.4274 -2.0026 0.9731
2.1660 -6.1407 -2.0028 0.9731
2.7059 -5.9230 -2.0029 0.9731
4.1797 -4.9945 -2.0032 0.9731
5.0019 -4.1714 -2.0033 0.9731
6.1461 -2.1561 -2.0033 0.9731
6.4315 -1.0282 -2.0033 0.9731
6.4975 -0.4497 -2.0033 0.9731
6.5116 0.1324 -2.0032 0.9731
6.4735 0.7134 -2.0032 0.9731
6.3837 1.2887 -2.0031 0.9731
6.2428 1.8536 -2.0030 0.9731
5.8129 2.9344 -2.0028 0.9731
5.1972 3.9210 -2.0024 0.9731
4.8104 4.3552 -1.9959 0.9732
4.1768 4.5233 -1.8937 0.9746
3.2289 5.0740 -1.8498 0.9751
2.7626 5.3417 -1.8497 0.9751
2.2744 5.5667 -1.8496 0.9751
1.2475 5.8817 -1.8493 0.9752
0.7172 5.9692 -1.8492 0.9752
-0.3562 6.0008 -1.8490 0.9752
-1.4179 5.8410 -1.8487 0.9752
-1.9338 5.6907 -1.8486 0.9752
-3.0324 5.4668 -1.9228 0.9742
-4.1162 5.0353 -2.0004 0.9731
-4.5493 4.6474 -2.0003 0.9732
-5.8882 2.7601 -2.0002 0.9732
-6.2854 1.6685 -2.0002 0.9732
-6.4093 1.1005 -2.0002 0.9732
-6.4821 0.5237 -2.0003 0.9732
-6.5031 -0.0573 -2.0003 0.9732
-6.4722 -0.6379 -2.0004 0.9731
-5.5613 -3.3745 -2.0008 0.9731
-4.4686 -4.7289 -2.0012 0.9731
-4.0287 -5.1094 -2.0013 0.9731
-3.0558 -5.7455 -2.0016 0.9731
-2.5307 -5.9958 -2.0017 0.9731
-1.9852 -6.1983 -2.0019 0.9731
-0.8509 -6.4535 -2.0021 0.9731
1.4630 -6.3446 -2.0027 0.9731
2.0239 -6.1889 -2.0028 0.9731
4.0635 -5.0894 -2.0031 0.9731
-5.9875 -0.6065 -2.0005 0.9750
-5.6132 -2.1723 -2.0007 0.9749
-5.3970 -2.6650 -2.0008 0.9749
-5.1376 -3.1366 -2.0009 0.9749
-4.8372 -3.5831 -2.0010 0.9749
-4.4981 -4.0010 -2.0011 0.9749
-3.2772 -5.0512 -2.0015 0.9749
-2.8132 -5.3240 -2.0016 0.9749
-1.8213 -5.7403 -2.0019 0.9749
-0.7711 -5.9736 -2.0021 0.9749
-0.2346 -6.0189 -2.0022 0.9749
0.3040 -6.0162 -2.0024 0.9749
0.8401 -5.9654 -2.0025 0.9749
2.3918 -5.5301 -2.0028 0.9749
2.8762 -5.2946 -2.0029 0.9749
3.3377 -5.0168 -2.0030 0.9749
4.1773 -4.3432 -2.0031 0.9749
5.1795 -3.0807 -2.0032 0.9749
5.4340 -2.6058 -2.0032 0.9749
5.9302 -1.0721 -2.0032 0.9749
6.0262 0.0000 -2.0031 0.9749
6.0019 0.5382 -2.0031 0.9749
5.9297 1.0721 -2.0030 0.9749
5.8100 1.5973 -2.0029 0.9749
5.6439 2.1098 -2.0029 0.9749
5.4327 2.6053 -2.0028 0.9749
5.1780 3.0799 -2.0027 0.9749
4.8820 3.5299 -2.0026 0.9749
4.5470 3.9516 -2.0024 0.9749
4.1658 4.3314 -1.9976 0.9750
3.6774 4.5803 -1.9525 0.9755
2.6596 4.8960 -1.8521 0.9768
2.2088 5.1072 -1.8496 0.9768
1.7437 5.2837 -1.8495 0.9768
1.2647 5.4179 -1.8494 0.9768
0.7758 5.5089 -1.8493 0.9768
0.2806 5.5558 -1.8491 0.9768
-1.2020 5.4305 -1.8488 0.9768
-2.2476 5.3656 -1.9337 0.9758
-2.8040 5.3065 -1.9950 0.9750
-3.7135 4.7360 -2.0005 0.9750
-4.4966 3.9995 -2.0004 0.9750
-5.7837 1.6619 -2.0003 0.9750
-5.9090 1.1387 -2.0003 0.9750
-6.0176 0.0693 -2.0004 0.9750
-2.4539 -5.4992 -2.0017 0.9749
-1.9531 -5.6968 -2.0018 0.9749
0.7025 -5.9830 -2.0025 0.9749
1.2341 -5.8967 -2.0026 0.9749
1.7559 -5.7633 -2.0027 0.9749
2.7535 -5.3594 -2.0029 0.9749
3.2213 -5.0923 -2.0029 0.9749
3.6633 -4.7844 -2.0030 0.9749
4.4563 -4.0566 -2.0031 0.9749
5.1071 -3.1992 -2.0032 0.9749
5.3725 -2.7303 -2.0032 0.9749
5.9882 -0.6763 -2.0032 0.9749
6.0246 -0.1388 -2.0031 0.9749
6.0128 0.3998 -2.0031 0.9749
5.9528 0.9352 -2.0030 0.9749
5.8453 1.4631 -2.0030 0.9749
5.6911 1.9792 -2.0029 0.9749
5.4913 2.4795 -2.0028 0.9749
5.2477 2.9599 -2.0027 0.9749
1.3892 5.3875 -1.8494 0.9768
0.9025 5.4897 -1.8493 0.9768
-0.0886 5.5619 -1.8491 0.9768
-0.5849 5.5315 -1.8489 0.9768
-4.7520 3.6923 -2.0004 0.9750
-5.0627 3.2531 -2.0003 0.9750
-5.3329 2.7879 -2.0003 0.9750
-5.7438 1.7947 -2.0003 0.9750
-5.9716 0.7442 -2.0004 0.9750
-6.0090 -0.3301 -2.0004 0.9750
-5.9557 -0.8655 -2.0005 0.9750
-5.8548 -1.3940 -2.0006 0.9750
-5.5138 -2.4136 -2.0007 0.9749
-4.9970 -3.3564 -2.0009 0.9749
-3.0553 -5.1887 -2.0015 0.9749
-1.0454 -5.9315 -2.0021 0.9749
-0.5115 -6.0016 -2.0022 0.9749
0.5645 -5.9976 -2.0024 0.9749
1.0979 -5.9235 -2.0025 0.9749
1.6227 -5.8021 -2.0026 0.9749
2.1345 -5.6343 -2.0028 0.9749
2.6293 -5.4214 -2.0028 0.9749
3.1031 -5.1651 -2.0029 0.9749
3.9728 -4.5309 -2.0031 0.9749
4.3617 -4.1581 -2.0031 0.9749
4.7157 -3.7521 -2.0032 0.9749
5.0321 -3.3159 -2.0032 0.9749
5.7311 -1.8634 -2.0032 0.9749
5.9711 -0.8141 -2.0032 0.9749
5.9729 0.7979 -2.0030 0.9749
5.8775 1.3281 -2.0030 0.9749
5.7352 1.8476 -2.0029 0.9749
4.7243 3.7381 -2.0025 0.9749
3.3959 4.6271 -1.9078 0.9761
2.8787 4.7624 -1.8498 0.9768
1.9852 5.1979 -1.8496 0.9768
1.5130 5.3541 -1.8494 0.9768
1.0287 5.4675 -1.8493 0.9768
0.5362 5.5372 -1.8492 0.9768
0.0396 5.5626 -1.8491 0.9768
-0.4574 5.5436 -1.8490 0.9768
-0.9506 5.4802 -1.8489 0.9768
-1.4362 5.3731 -1.8488 0.9768
-1.9517 5.3367 -1.8888 0.9763
-4.3077 4.2024 -2.0004 0.9750
-4.6657 3.8008 -2.0004 0.9750
-5.2673 2.9100 -2.0003 0.9750
-5.7010 1.9265 -2.0003 0.9750
-5.8503 1.4096 -2.0003 0.9750
-5.9529 0.8815 -2.0003 0.9750
-6.0150 -0.1916 -2.0004 0.9750
-5.8853 -1.2588 -2.0006 0.9750
-5.7496 -1.7794 -2.0006 0.9749
-5.3418 -2.7742 -2.0008 0.9749
-4.7635 -3.6807 -2.0010 0.9749
-4.4160 -4.0916 -2.0011 0.9749
-4.0331 -4.4699 -2.0013 0.9749
-1.7044 -5.7762 -2.0019 0.9749
-0.6496 -5.9881 -2.0022 0.9749
0.4262 -6.0089 -2.0024 0.9749
0.9612 -5.9471 -2.0025 0.9749
2.0041 -5.6819 -2.0027 0.9749
2.9833 -5.2351 -2.0029 0.9749
3.8673 -4.6212 -2.0031 0.9749
4.2647 -4.2575 -2.0031 0.9749
4.6280 -3.8597 -2.0032 0.9749
4.9543 -3.4310 -2.0032 0.9749
5.2410 -2.9748 -2.0032 0.9749
5.4858 -2.4949 -2.0032 0.9749
5.8421 -1.4791 -2.0032 0.9749
5.9508 -0.9514 -2.0032 0.9749
6.0119 -0.4161 -2.0032 0.9749
5.7763 1.7150 -2.0029 0.9749
5.3785 2.7151 -2.0027 0.9749
5.1143 3.1844 -2.0026 0.9749
4.8092 3.6283 -2.0025 0.9749
2.9898 4.6982 -1.8511 0.9768
2.5563 4.9427 -1.8497 0.9768
2.1045 5.1509 -1.8496 0.9768
1.6359 5.3179 -1.8495 0.9768
0.1677 5.5603 -1.8491 0.9768
-0.3296 5.5527 -1.8490 0.9768
-1.3120 5.4049 -1.8488 0.9768
-1.8086 5.3224 -1.8685 0.9766
-3.3777 4.9812 -2.0006 0.9750
-3.8090 4.6595 -2.0005 0.9750
-4.5769 3.9073 -2.0004 0.9750
-4.9075 3.4828 -2.0003 0.9750
-5.1989 3.0306 -2.0003 0.9750
-5.4487 2.5541 -2.0003 0.9750
-5.9310 1.0184 -2.0003 0.9750
-6.0178 -0.0530 -2.0004 0.9750
-5.7890 -1.6465 -2.0006 0.9749
-5.4042 -2.6504 -2.0008 0.9749
-5.1461 -3.1226 -2.0009 0.9749
-4.8469 -3.5699 -2.0010 0.9749
-4.5090 -3.9888 -2.0011 0.9749
-3.2909 -5.0423 -2.0015 0.9749
-1.3174 -5.8769 -2.0020 0.9749
1.3537 -5.8705 -2.0026 0.9749
2.3767 -5.5366 -2.0028 0.9749
3.3241 -5.0258 -2.0030 0.9749
3.7598 -4.7090 -2.0030 0.9749
-4.5707 3.2252 -2.0004 0.9765
-4.8404 2.8040 -2.0004 0.9765
-5.0714 2.3605 -2.0004 0.9765
-5.2620 1.8981 -2.0004 0.9765
-5.2178 -2.0193 -2.0008 0.9765
-4.7757 -2.9156 -2.0009 0.9765
-4.4965 -3.3307 -2.0010 0.9765
-4.1813 -3.7191 -2.0012 0.9765
-3.8326 -4.0779 -2.0013 0.9765
-2.6149 -4.9489 -2.0016 0.9765
-1.2097 -5.4660 -2.0020 0.9765
0.2825 -5.5921 -2.0023 0.9765
0.7809 -5.5448 -2.0024 0.9765
1.2731 -5.4532 -2.0025 0.9765
2.2231 -5.1402 -2.0027 0.9765
2.6734 -4.9213 -2.0028 0.9765
3.8827 -4.0370 -2.0030 0.9765
4.2279 -3.6741 -2.0030 0.9765
4.5392 -3.2819 -2.0031 0.9765
5.0508 -2.4220 -2.0031 0.9765
5.2469 -1.9613 -2.0031 0.9765
5.4011 -1.4848 -2.0031 0.9765
5.6012 0.0000 -2.0030 0.9765
5.4003 1.4847 -2.0029 0.9765
5.2460 1.9610 -2.0028 0.9765
5.0496 2.4216 -2.0027 0.9765
4.5378 3.2810 -2.0025 0.9765
3.4988 4.3580 -1.9986 0.9765
3.0895 4.6438 -1.9946 0.9766
1.1756 5.0362 -1.8494 0.9783
0.2609 5.1644 -1.8492 0.9783
-0.6685 5.1784 -1.8672 0.9781
-1.6768 5.2844 -1.9826 0.9767
-2.1570 5.1493 -1.9965 0.9766
-3.8313 4.0764 -2.0005 0.9765
-4.1799 3.7178 -2.0005 0.9765
-5.2169 2.0188 -2.0004 0.9765
-5.4929 1.0585 -2.0004 0.9765
-5.5655 0.5637 -2.0005 0.9765
-5.5938 0.0644 -2.0005 0.9765
-5.5773 -0.4355 -2.0005 0.9765
-5.5163 -0.9319 -2.0006 0.9765
-5.4112 -1.4208 -2.0007 0.9765
-5.2629 -1.8985 -2.0007 0.9765
-4.5719 -3.2262 -2.0010 0.9765
-4.2658 -3.6218 -2.0011 0.9765
-3.1536 -4.6238 -2.0015 0.9765
-2.7282 -4.8873 -2.0016 0.9765
-1.8154 -5.2953 -2.0018 0.9765
-0.3468 -5.5881 -2.0022 0.9765
0.1537 -5.5971 -2.0023 0.9765
0.6529 -5.5613 -2.0024 0.9765
1.6321 -5.3569 -2.0026 0.9765
2.9941 -4.7332 -2.0029 0.9765
3.4050 -4.4471 -2.0029 0.9765
3.7887 -4.1253 -2.0030 0.9765
4.1421 -3.7705 -2.0030 0.9765
4.9936 -2.5377 -2.0031 0.9765
5.3654 -1.6089 -2.0031 0.9765
5.5998 -0.1290 -2.0030 0.9765
5.5888 0.3717 -2.0030 0.9765
5.5331 0.8693 -2.0029 0.9765
5.1041 2.3047 -2.0027 0.9765
4.3100 3.5747 -2.0024 0.9765
3.6003 4.2786 -1.9997 0.9765
3.1972 4.5736 -1.9955 0.9766
2.2053 4.7930 -1.8868 0.9778
1.2913 5.0078 -1.8494 0.9783
0.8389 5.1028 -1.8493 0.9783
-0.0824 5.1701 -1.8491 0.9783
-0.5461 5.1641 -1.8570 0.9782
-1.0294 5.2178 -1.9019 0.9777
-1.5397 5.2707 -1.9636 0.9769
-2.0368 5.1950 -1.9955 0.9766
-2.4978 5.0027 -1.9996 0.9765
-2.9362 4.7622 -2.0007 0.9765
-3.7364 4.1636 -2.0006 0.9765
-4.0932 3.8131 -2.0005 0.9765
-4.7061 3.0240 -2.0004 0.9765
-4.9574 2.5916 -2.0004 0.9765
-5.1690 2.1385 -2.0004 0.9765
-5.4670 1.1847 -2.0004 0.9765
-5.5858 -0.3069 -2.0005 0.9765
-5.5362 -0.8045 -2.0006 0.9765
-5.4424 -1.2958 -2.0007 0.9765
-5.3051 -1.7768 -2.0007 0.9765
-4.3480 -3.5225 -2.0011 0.9765
-2.8400 -4.8230 -2.0016 0.9765
-2.3981 -5.0577 -2.0017 0.9765
-1.9369 -5.2520 -2.0018 0.9765
-1.4602 -5.4043 -2.0019 0.9765
-0.4754 -5.5785 -2.0022 0.9765
0.5247 -5.5748 -2.0024 0.9765
1.5083 -5.3930 -2.0026 0.9765
1.9840 -5.2370 -2.0027 0.9765
2.4439 -5.0391 -2.0028 0.9765
3.6926 -4.2114 -2.0030 0.9765
4.0541 -3.8649 -2.0030 0.9765
4.3832 -3.4875 -2.0031 0.9765
5.1510 -2.2009 -2.0031 0.9765
5.3270 -1.7320 -2.0031 0.9765
5.4603 -1.2493 -2.0031 0.9765
5.5500 -0.7567 -2.0031 0.9765
5.5953 -0.2579 -2.0031 0.9765
5.5959 0.2428 -2.0030 0.9765
5.5517 0.7416 -2.0030 0.9765
5.3308 1.7173 -2.0028 0.9765
5.1559 2.1865 -2.0027 0.9765
4.9398 2.6381 -2.0026 0.9765
3.7001 4.1970 -2.0009 0.9765
2.8369 4.6933 -1.9611 0.9770
1.8515 4.8478 -1.8558 0.9782
-0.4253 5.1552 -1.8498 0.9783
-1.9157 5.2380 -1.9945 0.9766
-3.6395 4.2486 -2.0006 0.9765
-4.3371 3.5331 -2.0005 0.9765
-5.1184 2.2570 -2.0004 0.9765
-5.5336 0.8194 -2.0004 0.9765
-5.5913 -0.1781 -2.0005 0.9765
-5.5532 -0.6768 -2.0006 0.9765
-4.9655 -2.5788 -2.0009 0.9765
-4.7155 -3.0121 -2.0010 0.9765
-4.4279 -3.4214 -2.0011 0.9765
-3.7490 -4.1550 -2.0013 0.9765
-3.3631 -4.4735 -2.0014 0.9765
-2.5139 -5.0011 -2.0016 0.9765
-1.5842 -5.3692 -2.0019 0.9765
-1.0984 -5.4895 -2.0020 0.9765
-0.6038 -5.5660 -2.0021 0.9765
0.3961 -5.5853 -2.0024 0.9765
0.8934 -5.5279 -2.0025 0.9765
2.7729 -4.8660 -2.0028 0.9765
3.1965 -4.5991 -2.0029 0.9765
4.3017 -3.5875 -2.0031 0.9765
4.8714 -2.7650 -2.0031 0.9765
5.0989 -2.3189 -2.0031 0.9765
5.4301 -1.3748 -2.0031 0.9765
5.5879 -0.3868 -2.0031 0.9765
5.5673 0.6135 -2.0030 0.9765
5.4901 1.1083 -2.0029 0.9765
5.3690 1.5941 -2.0028 0.9765
5.2050 2.0672 -2.0028 0.9765
4.9993 2.5237 -2.0027 0.9765
4.7537 2.9599 -2.0026 0.9765
4.1509 3.7581 -2.0024 0.9765
3.7981 4.1132 -2.0021 0.9765
2.9726 4.6713 -1.9800 0.9768
2.4585 4.7537 -1.9139 0.9775
1.5207 4.9432 -1.8495 0.9783
1.0730 5.0589 -1.8494 0.9783
0.1559 5.1685 -1.8491 0.9783
-2.2622 5.1068 -1.9974 0.9766
-3.9133 3.9977 -2.0005 0.9765
-4.2546 3.6321 -2.0005 0.9765
-4.5619 3.2376 -2.0004 0.9765
-4.8328 2.8172 -2.0004 0.9765
-5.0650 2.3743 -2.0004 0.9765
-5.5133 0.9467 -2.0004 0.9765
-5.5673 -0.5487 -2.0006 0.9765
-5.3812 -1.5305 -2.0007 0.9765
-5.2232 -2.0051 -2.0008 0.9765
-5.0235 -2.4637 -2.0009 0.9765
-4.7836 -2.9026 -2.0009 0.9765
-4.1913 -3.7078 -2.0012 0.9765
-3.4652 -4.3948 -2.0014 0.9765
-3.0590 -4.6870 -2.0015 0.9765
-2.6284 -4.9417 -2.0016 0.9765
-2.1766 -5.1571 -2.0017 0.9765
-0.2332 -5.5941 -2.0022 0.9765
0.2674 -5.5929 -2.0023 0.9765
1.2582 -5.4566 -2.0025 0.9765
1.7406 -5.3227 -2.0026 0.9765
2.2092 -5.1462 -2.0027 0.9765
3.0897 -4.6714 -2.0029 0.9765
3.4947 -4.3770 -2.0029 0.9765
-4.2654 3.0098 -2.0005 0.9779
-5.1474 0.8695 -2.0005 0.9779
-5.2202 -0.0602 -2.0006 0.9779
-4.1961 -3.1081 -2.0011 0.9779
-3.5765 -3.8054 -2.0013 0.9779
-3.2225 -4.1099 -2.0014 0.9779
-2.4402 -4.6181 -2.0016 0.9779
-1.5798 -4.9792 -2.0019 0.9779
-0.2034 -5.2207 -2.0022 0.9779
0.2637 -5.2183 -2.0023 0.9779
1.1879 -5.0886 -2.0025 0.9779
2.0745 -4.7965 -2.0027 0.9779
3.6231 -3.7670 -2.0029 0.9779
3.9451 -3.4284 -2.0030 0.9779
4.2356 -3.0625 -2.0030 0.9779
4.4923 -2.6719 -2.0030 0.9779
4.7130 -2.2601 -2.0030 0.9779
4.8960 -1.8301 -2.0030 0.9779
5.0399 -1.3855 -2.0030 0.9779
5.2267 0.0000 -2.0029 0.9779
5.0392 1.3854 -2.0028 0.9779
4.7120 2.2597 -2.0026 0.9779
4.2344 3.0617 -2.0025 0.9779
3.9439 3.4275 -2.0024 0.9779
3.6218 3.7658 -2.0023 0.9779
3.2709 4.0740 -2.0021 0.9779
2.4874 4.5789 -1.9969 0.9779
1.6040 4.8604 -1.9614 0.9783
1.1498 4.9254 -1.9382 0.9786
0.7021 4.9860 -1.9296 0.9787
-0.6655 5.1547 -1.9918 0.9780
-1.1254 5.0844 -1.9956 0.9779
-1.5772 4.9705 -1.9984 0.9779
-2.4393 4.6162 -2.0008 0.9779
-3.2214 4.1083 -2.0007 0.9779
-3.9007 3.4695 -2.0006 0.9779
-4.4556 2.7201 -2.0005 0.9779
-5.0173 1.4417 -2.0005 0.9779
-5.2201 0.0601 -2.0006 0.9779
-5.0497 -1.3259 -2.0007 0.9779
-4.7336 -2.2033 -2.0009 0.9779
-4.2665 -3.0106 -2.0011 0.9779
-3.9807 -3.3798 -2.0012 0.9779
-3.6632 -3.7220 -2.0013 0.9779
-2.9429 -4.3148 -2.0015 0.9779
-2.5459 -4.5607 -2.0016 0.9779
-1.6941 -4.9414 -2.0018 0.9779
-0.3236 -5.2146 -2.0022 0.9779
0.1434 -5.2229 -2.0023 0.9779
1.5230 -4.9988 -2.0026 0.9779
1.9634 -4.8430 -2.0026 0.9779
3.5353 -3.8494 -2.0029 0.9779
3.8651 -3.5184 -2.0030 0.9779
4.1640 -3.1592 -2.0030 0.9779
4.6597 -2.3680 -2.0030 0.9779
4.8526 -1.9424 -2.0030 0.9779
5.0066 -1.5013 -2.0030 0.9779
5.1937 -0.5866 -2.0030 0.9779
5.1631 0.8112 -2.0029 0.9779
4.9361 1.7167 -2.0027 0.9779
4.7629 2.1506 -2.0027 0.9779
4.3039 2.9634 -2.0025 0.9779
4.0219 3.3357 -2.0024 0.9779
3.7077 3.6814 -2.0023 0.9779
2.5931 4.5221 -1.9977 0.9779
2.1760 4.7294 -1.9950 0.9779
1.7229 4.8427 -1.9698 0.9782
0.8171 4.9707 -1.9304 0.9787
-2.7401 4.4441 -2.0008 0.9779
-3.4868 3.8855 -2.0006 0.9779
-3.8198 3.5585 -2.0006 0.9779
-4.1223 3.2030 -2.0006 0.9779
-4.3918 2.8220 -2.0005 0.9779
-4.8238 1.9956 -2.0005 0.9779
-4.9827 1.5569 -2.0005 0.9779
-5.1803 0.6455 -2.0005 0.9779
-5.2127 -0.2864 -2.0006 0.9779
-5.1664 -0.7508 -2.0007 0.9779
-4.9508 -1.6581 -2.0008 0.9779
-4.7831 -2.0937 -2.0009 0.9779
-4.5772 -2.5126 -2.0010 0.9779
-4.3346 -2.9115 -2.0010 0.9779
-4.0575 -3.2872 -2.0011 0.9779
-3.7479 -3.6366 -2.0012 0.9779
-3.0414 -4.2458 -2.0015 0.9779
-2.6502 -4.5007 -2.0016 0.9779
-2.2378 -4.7197 -2.0017 0.9779
-1.8074 -4.9010 -2.0018 0.9779
-0.9068 -5.1449 -2.0020 0.9779
-0.4437 -5.2056 -2.0021 0.9779
0.0230 -5.2247 -2.0022 0.9779
1.8513 -4.8869 -2.0026 0.9779
2.2805 -4.7022 -2.0027 0.9779
2.6914 -4.4799 -2.0028 0.9779
3.0809 -4.2217 -2.0028 0.9779
3.4457 -3.9298 -2.0029 0.9779
4.0901 -3.2543 -2.0030 0.9779
4.3644 -2.8760 -2.0030 0.9779
4.9707 -1.6162 -2.0030 0.9779
5.1804 0.6920 -2.0029 0.9779
4.8112 2.0403 -2.0027 0.9779
3.7915 3.5951 -2.0023 0.9779
3.0908 4.2114 -2.0019 0.9779
2.2851 4.6794 -1.9956 0.9779
0.0361 5.0712 -1.9434 0.9785
-0.4230 5.1265 -1.9713 0.9782
-1.3456 5.0341 -1.9969 0.9779
-1.7925 4.9014 -2.0000 0.9779
-2.2241 4.7238 -2.0008 0.9779
-2.6370 4.5061 -2.0008 0.9779
-3.0288 4.2524 -2.0007 0.9779
-3.3964 3.9648 -2.0006 0.9779
-3.7368 3.6455 -2.0006 0.9779
-4.0474 3.2972 -2.0006 0.9779
-4.5693 2.5244 -2.0005 0.9779
-4.7765 2.1062 -2.0005 0.9779
-4.9455 1.6712 -2.0005 0.9779
-5.1640 0.7647 -2.0005 0.9779
-5.2179 -0.1662 -2.0006 0.9779
-5.1823 -0.6316 -2.0007 0.9779
-4.8300 -1.9830 -2.0009 0.9779
-4.6338 -2.4065 -2.0009 0.9779
-3.8306 -3.5493 -2.0012 0.9779
-2.7532 -4.4384 -2.0015 0.9779
-2.3459 -4.6669 -2.0017 0.9779
-1.9198 -4.8580 -2.0018 0.9779
-1.4784 -5.0103 -2.0019 0.9779
-1.0250 -5.1226 -2.0020 0.9779
-0.0973 -5.2238 -2.0022 0.9779
0.3696 -5.2119 -2.0023 0.9779
0.8337 -5.1583 -2.0024 0.9779
1.7383 -4.9282 -2.0026 0.9779
2.1715 -4.7534 -2.0027 0.9779
2.5875 -4.5407 -2.0028 0.9779
2.9828 -4.2916 -2.0028 0.9779
3.6989 -3.6926 -2.0029 0.9779
4.0140 -3.3476 -2.0030 0.9779
4.2970 -2.9758 -2.0030 0.9779
4.7579 -2.1638 -2.0030 0.9779
5.1613 -0.8252 -2.0030 0.9779
5.2143 -0.3609 -2.0030 0.9779
5.2255 0.1062 -2.0029 0.9779
5.1951 0.5725 -2.0029 0.9779
5.1230 1.0342 -2.0028 0.9779
5.0100 1.4875 -2.0028 0.9779
4.8570 1.9290 -2.0027 0.9779
2.8009 4.4014 -1.9993 0.9779
2.3931 4.6271 -1.9963 0.9779
0.6007 4.9994 -1.9296 0.9787
0.1525 5.0568 -1.9387 0.9786
-0.3034 5.1124 -1.9626 0.9783
-0.7709 5.1456 -1.9939 0.9780
-1.6784 4.9392 -1.9991 0.9779
-2.1147 4.7738 -2.0009 0.9779
-2.5325 4.5657 -2.0008 0.9779
-2.9301 4.3211 -2.0007 0.9779
-3.3042 4.0420 -2.0007 0.9779
-3.9704 3.3895 -2.0006 0.9779
-4.5100 2.6290 -2.0005 0.9779
-4.7267 2.2157 -2.0005 0.9779
-5.2034 0.4204 -2.0006 0.9779
-4.8743 -1.8712 -2.0008 0.9779
-4.6879 -2.2991 -2.0009 0.9779
-4.2045 -3.0967 -2.0011 0.9779
-3.2337 -4.1011 -2.0014 0.9779
-2.0312 -4.8124 -2.0017 0.9779
-0.6829 -5.1795 -2.0021 0.9779
0.2495 -5.2190 -2.0023 0.9779
0.7146 -5.1761 -2.0024 0.9779
2.0614 -4.8021 -2.0027 0.9779
2.8831 -4.3591 -2.0028 0.9779
3.6129 -3.7768 -2.0029 0.9779
-4.2297 2.4502 -2.0006 0.9791
-4.4316 2.0627 -2.0006 0.9791
-4.5981 1.6586 -2.0006 0.9791
-4.7279 1.2414 -2.0006 0.9791
-1.9551 0.1526 -0.8026 0.9916
-1.9096 -0.0220 -0.7816 0.9918
-4.6986 -1.3502 -2.0008 0.9791
-4.3837 -2.1647 -2.0010 0.9791
-3.9290 -2.9103 -2.0011 0.9791
-3.6535 -3.2497 -2.0012 0.9791
-3.0174 -3.8483 -2.0014 0.9791
-2.2849 -4.3242 -2.0016 0.9791
-1.4792 -4.6622 -2.0018 0.9791
-1.0570 -4.7759 -2.0020 0.9791
-0.1905 -4.8883 -2.0022 0.9791
0.2469 -4.8860 -2.0023 0.9791
0.6823 -4.8446 -2.0024 0.9791
1.1123 -4.7646 -2.0024 0.9791
1.9424 -4.4910 -2.0026 0.9791
2.7105 -4.0741 -2.0027 0.9791
3.6938 -3.2100 -2.0029 0.9791
4.2061 -2.5017 -2.0029 0.9791
4.4128 -2.1161 -2.0030 0.9791
4.8158 -0.8706 -2.0029 0.9791
4.8937 0.0000 -2.0029 0.9791
4.8740 0.4371 -2.0028 0.9791
4.8154 0.8706 -2.0028 0.9791
4.4119 2.1158 -2.0026 0.9791
3.6927 3.2092 -2.0023 0.9791
3.3912 3.5260 -2.0022 0.9791
3.0626 3.8146 -2.0021 0.9791
1.1091 4.7512 -1.9968 0.9791
-0.1901 4.8764 -1.9973 0.9791
-0.6253 4.8433 -1.9987 0.9791
-1.0564 4.7730 -2.0007 0.9791
-1.4787 4.6602 -2.0010 0.9791
-1.8889 4.5093 -2.0009 0.9791
-2.2840 4.3225 -2.0009 0.9791
-2.6609 4.1011 -2.0008 0.9791
-3.6525 3.2487 -2.0007 0.9791
-3.9280 2.9095 -2.0006 0.9791
-4.7998 0.9250 -2.0006 0.9791
-1.9551 -0.1527 -0.8026 0.9916
-2.1196 -0.3581 -0.8798 0.9908
-4.7284 -1.2416 -2.0008 0.9791
-4.5988 -1.6590 -2.0009 0.9791
-4.2306 -2.4508 -2.0010 0.9791
-3.9949 -2.8190 -2.0011 0.9791
-3.7274 -3.1647 -2.0012 0.9791
-3.4300 -3.4851 -2.0013 0.9791
-3.1052 -3.7777 -2.0014 0.9791
-2.7555 -4.0401 -2.0015 0.9791
-1.1667 -4.7502 -2.0019 0.9791
-0.7379 -4.8357 -2.0020 0.9791
0.1342 -4.8903 -2.0022 0.9791
0.5705 -4.8590 -2.0023 0.9791
1.0022 -4.7889 -2.0024 0.9791
1.4260 -4.6804 -2.0025 0.9791
3.6189 -3.2943 -2.0029 0.9791
3.8987 -2.9579 -2.0029 0.9791
4.1474 -2.5979 -2.0029 0.9791
4.8629 -0.5492 -2.0029 0.9791
4.8924 -0.1127 -2.0029 0.9791
4.8342 0.7595 -2.0028 0.9791
4.2617 2.4037 -2.0025 0.9791
4.0298 2.7746 -2.0024 0.9791
3.7657 3.1233 -2.0023 0.9791
3.1497 3.7431 -2.0021 0.9791
2.0428 4.4397 -2.0002 0.9791
1.2184 4.7249 -1.9970 0.9791
0.7913 4.8133 -1.9964 0.9791
0.3582 4.8647 -1.9964 0.9791
-0.0777 4.8788 -1.9970 0.9791
-0.9459 4.7946 -2.0002 0.9791
-1.3710 4.6931 -2.0010 0.9791
-1.7846 4.5517 -2.0010 0.9791
-2.1839 4.3740 -2.0009 0.9791
-2.5657 4.1613 -2.0008 0.9791
-2.9270 3.9154 -2.0008 0.9791
-3.8600 2.9992 -2.0006 0.9791
-4.1124 2.6425 -2.0006 0.9791
-4.3319 2.2646 -2.0006 0.9791
-4.5168 1.8687 -2.0006 0.9791
-4.6657 1.4578 -2.0006 0.9791
-1.9530 0.2434 -0.8055 0.9915
-1.9299 0.0667 -0.7903 0.9917
-1.9439 -0.1068 -0.7968 0.9916
-4.4787 -1.9605 -2.0009 0.9791
-4.2859 -2.3527 -2.0010 0.9791
-2.4815 -4.2142 -2.0016 0.9791
-2.0953 -4.4192 -2.0017 0.9791
-1.6924 -4.5890 -2.0018 0.9791
-0.4154 -4.8742 -2.0021 0.9791
0.0216 -4.8920 -2.0022 0.9791
1.3178 -4.7120 -2.0025 0.9791
1.7334 -4.5756 -2.0026 0.9791
2.8846 -3.9528 -2.0028 0.9791
3.2262 -3.6795 -2.0028 0.9791
3.8295 -3.0470 -2.0029 0.9791
4.3106 -2.3171 -2.0029 0.9791
4.6541 -1.5132 -2.0030 0.9791
4.7706 -1.0915 -2.0029 0.9791
4.8490 -0.6611 -2.0029 0.9791
4.8891 0.2121 -2.0029 0.9791
4.7731 1.0785 -2.0028 0.9791
4.0927 2.6811 -2.0025 0.9791
3.8367 3.0358 -2.0024 0.9791
3.5501 3.3661 -2.0023 0.9791
3.2351 3.6696 -2.0022 0.9791
2.5304 4.1862 -2.0020 0.9791
2.1451 4.3928 -2.0008 0.9791
1.7424 4.5622 -1.9987 0.9791
1.3271 4.6962 -1.9973 0.9791
0.9020 4.7940 -1.9965 0.9791
0.4702 4.8550 -1.9963 0.9791
-0.4014 4.8650 -1.9979 0.9791
-0.8350 4.8139 -1.9996 0.9791
-1.2625 4.7235 -2.0011 0.9791
-2.0826 4.4231 -2.0009 0.9791
-2.4692 4.2193 -2.0008 0.9791
-3.1803 3.7125 -2.0007 0.9791
-3.4991 3.4136 -2.0007 0.9791
-4.0504 2.7365 -2.0006 0.9791
-4.4726 1.9722 -2.0006 0.9791
-4.7521 1.1450 -2.0006 0.9791
-1.9445 0.2879 -0.8045 0.9915
-1.9455 0.1121 -0.7976 0.9916
-1.9278 -0.0614 -0.7894 0.9917
-1.9538 -0.2381 -0.8056 0.9915
-4.7805 -1.0225 -2.0008 0.9791
-4.5226 -1.8568 -2.0009 0.9791
-4.1204 -2.6320 -2.0011 0.9791
-3.8691 -2.9896 -2.0012 0.9791
-3.5868 -3.3233 -2.0013 0.9791
-2.9386 -3.9088 -2.0015 0.9791
-0.9598 -4.7964 -2.0020 0.9791
-0.5276 -4.8632 -2.0021 0.9791
-0.0911 -4.8912 -2.0022 0.9791
0.3461 -4.8800 -2.0023 0.9791
1.6275 -4.6143 -2.0025 0.9791
2.4227 -4.2514 -2.0027 0.9791
2.7928 -4.0182 -2.0028 0.9791
3.1406 -3.7528 -2.0028 0.9791
3.7583 -3.1343 -2.0029 0.9791
4.0233 -2.7862 -2.0029 0.9791
4.4548 -2.0260 -2.0030 0.9791
4.6180 -1.6200 -2.0030 0.9791
4.8325 -0.7726 -2.0029 0.9791
4.8821 -0.3379 -2.0029 0.9791
4.8927 0.0995 -2.0029 0.9791
4.8641 0.5360 -2.0028 0.9791
4.6909 1.3928 -2.0027 0.9791
4.3680 2.2050 -2.0026 0.9791
3.9057 2.9466 -2.0024 0.9791
3.6267 3.2835 -2.0023 0.9791
3.3188 3.5941 -2.0022 0.9791
2.9844 3.8760 -2.0021 0.9791
1.0122 4.7723 -1.9967 0.9791
-0.2892 4.8721 -1.9976 0.9791
-0.7237 4.8306 -1.9991 0.9791
-2.7436 4.0461 -2.0008 0.9791
-3.0939 3.7848 -2.0007 0.9791
-3.7178 3.1738 -2.0006 0.9791
-3.9863 2.8291 -2.0006 0.9791
-4.2230 2.4617 -2.0006 0.9791
-1.9561 0.1580 -0.8032 0.9916
-1.9069 -0.0168 -0.7805 0.9918
-4.5641 -1.7521 -2.0009 0.9791
-4.3896 -2.1528 -2.0010 0.9791
-4.1799 -2.5363 -2.0010 0.9791
-3.9369 -2.8996 -2.0011 0.9791
-3.6623 -3.2398 -2.0012 0.9791
-2.6729 -4.0953 -2.0015 0.9791
-2.2966 -4.3179 -2.0016 0.9791
-1.4919 -4.6581 -2.0018 0.9791
-1.0700 -4.7730 -2.0020 0.9791
1.9302 -4.4963 -2.0026 0.9791
2.3241 -4.3061 -2.0027 0.9791
2.6995 -4.0814 -2.0027 0.9791
3.0533 -3.8241 -2.0028 0.9791
3.3827 -3.5362 -2.0028 0.9791
-3.7509 2.6467 -2.0007 0.9802
-1.5054 0.2543 -0.6654 0.9934
-1.5247 -0.0176 -0.6646 0.9934
-1.5260 -0.1546 -0.6685 0.9933
-1.5007 -0.2892 -0.6661 0.9934
-1.5674 -0.4504 -0.7107 0.9929
-4.2818 -1.6571 -2.0009 0.9802
-4.1169 -2.0329 -2.0010 0.9802
-3.9190 -2.3926 -2.0011 0.9802
-3.1450 -3.3463 -2.0014 0.9802
-2.8337 -3.6139 -2.0014 0.9802
-2.4997 -3.8528 -2.0015 0.9802
-1.7746 -4.2364 -2.0017 0.9802
-1.3892 -4.3782 -2.0018 0.9802
-0.9926 -4.4850 -2.0019 0.9802
0.2318 -4.5883 -2.0022 0.9802
1.0445 -4.4743 -2.0024 0.9802
1.8240 -4.2174 -2.0026 0.9802
3.1856 -3.3121 -2.0028 0.9801
3.4687 -3.0144 -2.0028 0.9801
3.9498 -2.3493 -2.0029 0.9801
4.1439 -1.9872 -2.0029 0.9801
4.4313 -1.2182 -2.0029 0.9801
4.5223 -0.8176 -2.0029 0.9801
4.5771 0.4104 -2.0028 0.9801
4.5220 0.8176 -2.0027 0.9801
4.4308 1.2181 -2.0027 0.9801
3.9490 2.3489 -2.0025 0.9802
3.4678 3.0137 -2.0023 0.9802
2.8760 3.5822 -2.0021 0.9802
2.5445 3.8246 -2.0020 0.9802
2.1926 4.0364 -2.0019 0.9802
1.8233 4.2158 -2.0018 0.9802
0.2317 4.5863 -2.0013 0.9802
-0.1789 4.5886 -2.0013 0.9802
-1.3887 4.3765 -2.0011 0.9802
-2.1450 4.0593 -2.0009 0.9802
-3.4302 3.0510 -2.0007 0.9802
-3.9182 2.3920 -2.0007 0.9802
-4.1161 2.0325 -2.0007 0.9802
-4.2812 1.6567 -2.0007 0.9802
-1.5007 0.2892 -0.6661 0.9934
-1.5247 0.0175 -0.6646 0.9934
-1.5289 -0.1194 -0.6684 0.9933
-1.5054 -0.2543 -0.6654 0.9934
-4.1625 -1.9375 -2.0010 0.9802
-3.9730 -2.3016 -2.0011 0.9802
-3.7517 -2.6474 -2.0012 0.9802
-3.5004 -2.9720 -2.0012 0.9802
-2.5877 -3.7941 -2.0015 0.9802
-2.2386 -4.0103 -2.0016 0.9802
-1.8716 -4.1944 -2.0017 0.9802
-1.4896 -4.3450 -2.0018 0.9802
-1.0957 -4.4609 -2.0019 0.9802
-0.6929 -4.5411 -2.0020 0.9802
0.1261 -4.5924 -2.0022 0.9802
0.5357 -4.5630 -2.0023 0.9802
1.3391 -4.3953 -2.0025 0.9802
2.0999 -4.0872 -2.0026 0.9801
2.4566 -3.8834 -2.0027 0.9801
3.1084 -3.3846 -2.0028 0.9801
3.3984 -3.0935 -2.0028 0.9801
3.6611 -2.7777 -2.0028 0.9801
4.2666 -1.7079 -2.0029 0.9801
4.4021 -1.3200 -2.0029 0.9801
4.5023 -0.9215 -2.0029 0.9801
4.5666 -0.5157 -2.0028 0.9801
4.5943 -0.1058 -2.0028 0.9801
4.5853 0.3049 -2.0028 0.9801
4.5397 0.7132 -2.0027 0.9801
4.4577 1.1158 -2.0027 0.9801
4.3401 1.5094 -2.0026 0.9801
3.5363 2.9330 -2.0023 0.9802
3.2601 3.2370 -2.0022 0.9802
2.6319 3.7650 -2.0020 0.9802
1.9199 4.1728 -2.0018 0.9802
1.5395 4.3274 -2.0017 0.9802
0.7449 4.5312 -2.0013 0.9802
-1.2875 4.4074 -2.0011 0.9802
-1.6759 4.2746 -2.0010 0.9802
-2.7488 3.6771 -2.0008 0.9802
-3.0662 3.4168 -2.0008 0.9802
-3.3590 3.1292 -2.0007 0.9802
-3.8621 2.4816 -2.0007 0.9802
-4.0682 2.1268 -2.0007 0.9802
-4.2419 1.7549 -2.0007 0.9802
-1.5795 0.4935 -0.7212 0.9928
-1.5208 0.3296 -0.6782 0.9932
-1.5209 0.1895 -0.6680 0.9933
-1.5146 -0.2201 -0.6670 0.9933
-1.5369 -0.3659 -0.6885 0.9931
-1.5882 -0.5319 -0.7300 0.9927
-4.2060 -1.8411 -2.0010 0.9802
-3.5679 -2.8905 -2.0012 0.9802
-3.2957 -3.1978 -2.0013 0.9802
-2.9970 -3.4795 -2.0014 0.9802
-2.6744 -3.7335 -2.0015 0.9802
-1.9677 -4.1501 -2.0017 0.9802
-1.1981 -4.4344 -2.0019 0.9802
0.0202 -4.5940 -2.0022 0.9802
0.8373 -4.5176 -2.0024 0.9802
1.2375 -4.4249 -2.0024 0.9802
1.6278 -4.2969 -2.0025 0.9802
2.3664 -3.9390 -2.0027 0.9801
3.3262 -3.1710 -2.0028 0.9801
3.5962 -2.8613 -2.0028 0.9801
3.8374 -2.5287 -2.0029 0.9801
4.0479 -2.1759 -2.0029 0.9801
4.2261 -1.8057 -2.0029 0.9801
4.4799 -1.0250 -2.0029 0.9801
4.5535 -0.6208 -2.0029 0.9801
4.5907 -0.2116 -2.0028 0.9801
4.5549 0.6085 -2.0027 0.9801
4.3738 1.4090 -2.0026 0.9801
4.0530 2.1645 -2.0025 0.9802
3.3338 3.1611 -2.0022 0.9802
3.0380 3.4460 -2.0021 0.9802
2.7180 3.7034 -2.0021 0.9802
2.3763 3.9312 -2.0020 0.9802
1.2490 4.4198 -2.0017 0.9802
0.4426 4.5704 -2.0012 0.9802
0.0326 4.5921 -2.0014 0.9802
-0.3776 4.5765 -2.0013 0.9802
-1.9558 4.1539 -2.0010 0.9802
-2.3189 3.9625 -2.0009 0.9802
-3.2861 3.2058 -2.0007 0.9802
-3.5592 2.8994 -2.0007 0.9802
-4.0182 2.2199 -2.0007 0.9802
-1.5389 0.3708 -0.6899 0.9931
-1.5136 0.2241 -0.6669 0.9933
-1.5296 0.0882 -0.6677 0.9933
-1.5280 -0.0487 -0.6663 0.9934
-1.5782 -0.4884 -0.7200 0.9928
-4.2473 -1.7437 -2.0010 0.9802
-3.6335 -2.8076 -2.0012 0.9802
-2.7597 -3.6708 -2.0015 0.9802
-1.6881 -4.2717 -2.0018 0.9802
-1.2999 -4.4056 -2.0019 0.9802
-0.9013 -4.5043 -2.0020 0.9802
-0.4954 -4.5670 -2.0021 0.9802
0.3250 -4.5827 -2.0022 0.9802
0.7330 -4.5356 -2.0023 0.9802
2.2751 -3.9924 -2.0026 0.9801
2.6226 -3.7734 -2.0027 0.9801
3.2523 -3.2467 -2.0028 0.9801
3.5293 -2.9433 -2.0028 0.9801
4.3366 -1.5213 -2.0029 0.9801
4.4551 -1.1279 -2.0029 0.9801
4.5946 0.0934 -2.0028 0.9801
4.5677 0.5034 -2.0028 0.9801
4.2705 1.6961 -2.0026 0.9801
4.1018 2.0706 -2.0025 0.9802
3.9004 2.4286 -2.0024 0.9802
3.4058 3.0835 -2.0023 0.9802
3.1166 3.3752 -2.0022 0.9802
2.8026 3.6399 -2.0021 0.9802
1.3504 4.3899 -2.0017 0.9802
0.9529 4.4926 -2.0015 0.9802
-0.6804 4.5412 -2.0012 0.9802
-1.4773 4.3473 -2.0010 0.9802
-1.8596 4.1979 -2.0010 0.9802
-2.2270 4.0149 -2.0009 0.9802
-2.9056 3.5544 -2.0008 0.9802
-3.2114 3.2806 -2.0008 0.9802
-3.7437 2.6569 -2.0007 0.9802
-3.9660 2.3119 -2.0007 0.9802
-1.5042 0.2583 -0.6651 0.9934
-1.5287 0.1235 -0.6684 0.9933
-1.5265 -0.1504 -0.6685 0.9933
-4.2863 -1.6454 -2.0009 0.9802
-3.6972 -2.7231 -2.0012 0.9802
-3.1540 -3.3377 -2.0014 0.9802
-2.8435 -3.6062 -2.0014 0.9802
-1.4010 -4.3744 -2.0018 0.9802
0.6284 -4.5512 -2.0023 0.9802
1.0324 -4.4771 -2.0024 0.9802
1.4282 -4.3672 -2.0025 0.9802
2.5350 -3.8327 -2.0027 0.9801
2.8673 -3.5911 -2.0027 0.9801
3.1766 -3.3208 -2.0028 0.9801
-3.7401 2.1666 -2.0007 0.9811
-1.3122 0.6107 -0.6699 0.9936
-1.3332 0.4809 -0.6561 0.9938
-1.3143 0.3451 -0.6290 0.9940
-1.3382 0.1045 -0.6213 0.9941
-1.3351 -0.0154 -0.6180 0.9941
-1.3360 -0.1354 -0.6216 0.9941
-1.3115 -0.2527 -0.6182 0.9941
-1.3223 -0.3800 -0.6368 0.9940
-3.8762 -1.9141 -2.0011 0.9811
-3.6899 -2.2527 -2.0011 0.9811
-2.9611 -3.1506 -2.0014 0.9811
-2.6680 -3.4026 -2.0015 0.9811
-2.0202 -3.8234 -2.0017 0.9811
-1.6708 -3.9887 -2.0017 0.9811
-0.9346 -4.2227 -2.0019 0.9811
-0.5537 -4.2895 -2.0020 0.9811
0.2183 -4.3200 -2.0022 0.9811
1.7173 -3.9707 -2.0025 0.9811
2.3965 -3.6020 -2.0026 0.9811
3.5063 -2.5351 -2.0028 0.9811
3.9014 -1.8709 -2.0028 0.9811
4.1720 -1.1469 -2.0028 0.9811
4.3094 -0.3864 -2.0028 0.9811
4.3093 0.3864 -2.0027 0.9811
4.2575 0.7698 -2.0027 0.9811
4.0524 1.5148 -2.0025 0.9811
3.9007 1.8706 -2.0025 0.9811
3.7180 2.2115 -2.0024 0.9811
2.7078 3.3727 -2.0021 0.9811
1.7167 3.9693 -2.0018 0.9811
1.3552 4.1066 -2.0017 0.9811
0.9830 4.2110 -2.0016 0.9811
0.6029 4.2818 -2.0015 0.9811
0.2181 4.3183 -2.0014 0.9811
-0.1684 4.3204 -2.0013 0.9811
-0.5536 4.2879 -2.0013 0.9811
-0.9343 4.2211 -2.0012 0.9811
-1.6702 3.9873 -2.0010 0.9811
-2.3528 3.6263 -2.0009 0.9811
-3.4733 2.5727 -2.0008 0.9811
-1.3309 0.5150 -0.6606 0.9937
-1.3223 0.3800 -0.6368 0.9940
-1.3115 0.2527 -0.6182 0.9941
-1.3360 0.1353 -0.6216 0.9941
-1.3121 -0.6108 -0.6699 0.9936
-3.7408 -2.1671 -2.0011 0.9811
-3.5324 -2.4926 -2.0012 0.9811
-3.2958 -2.7983 -2.0013 0.9811
-3.0328 -3.0815 -2.0014 0.9811
-2.7456 -3.3402 -2.0014 0.9811
-2.4364 -3.5723 -2.0015 0.9811
-2.1077 -3.7758 -2.0016 0.9811
-1.4025 -4.0909 -2.0018 0.9811
-0.6524 -4.2756 -2.0020 0.9811
-0.2679 -4.3169 -2.0021 0.9811
0.1187 -4.3238 -2.0022 0.9811
1.6254 -4.0092 -2.0025 0.9811
3.4469 -2.6152 -2.0028 0.9811
3.8573 -1.9603 -2.0028 0.9811
4.0170 -1.6079 -2.0028 0.9811
4.1445 -1.2427 -2.0028 0.9811
4.2389 -0.8676 -2.0028 0.9811
4.3171 0.2871 -2.0027 0.9811
4.1969 1.0505 -2.0026 0.9811
4.0862 1.4211 -2.0026 0.9811
3.5629 2.4532 -2.0024 0.9811
3.0694 3.0477 -2.0022 0.9811
2.1514 3.7518 -2.0019 0.9811
1.8077 3.9288 -2.0018 0.9811
0.3175 4.3122 -2.0015 0.9811
-0.8368 4.2416 -2.0012 0.9811
-1.2122 4.1497 -2.0011 0.9811
-1.9310 3.8676 -2.0010 0.9811
-3.1627 2.9463 -2.0008 0.9811
-3.4132 2.6520 -2.0008 0.9811
-3.8305 2.0025 -2.0007 0.9811
-1.3385 -0.0735 -0.6205 0.9941
-1.3269 -0.1928 -0.6206 0.9941
-1.3327 -0.4464 -0.6506 0.9938
-3.7896 -2.0803 -2.0011 0.9811
-3.5888 -2.4106 -2.0012 0.9811
-3.3593 -2.7216 -2.0013 0.9811
-3.1030 -3.0108 -2.0013 0.9811
-2.8218 -3.2761 -2.0014 0.9811
-1.8527 -3.9074 -2.0017 0.9811
-1.4964 -4.0575 -2.0018 0.9811
-1.1280 -4.1751 -2.0019 0.9811
0.7884 -4.2533 -2.0023 0.9811
1.1651 -4.1661 -2.0024 0.9811
1.5326 -4.0455 -2.0025 0.9811
1.8878 -3.8926 -2.0025 0.9811
2.2280 -3.7085 -2.0026 0.9811
2.5504 -3.4948 -2.0027 0.9811
2.8524 -3.2532 -2.0027 0.9811
3.1316 -2.9855 -2.0027 0.9811
3.3858 -2.6939 -2.0028 0.9811
3.8111 -2.0486 -2.0028 0.9811
4.1148 -1.3379 -2.0028 0.9811
4.2178 -0.9650 -2.0028 0.9811
4.3221 -0.1992 -2.0028 0.9811
4.2200 0.9535 -2.0026 0.9811
2.5590 3.4868 -2.0020 0.9811
2.2373 3.7013 -2.0019 0.9811
1.8977 3.8861 -2.0019 0.9811
1.1759 4.1614 -2.0017 0.9811
-0.3555 4.3089 -2.0013 0.9811
-1.1164 4.1766 -2.0011 0.9811
-1.4848 4.0600 -2.0011 0.9811
-1.8415 3.9111 -2.0010 0.9811
-2.8121 3.2827 -2.0008 0.9811
-3.5816 2.4197 -2.0007 0.9811
-3.7833 2.0902 -2.0007 0.9811
-1.3060 0.3147 -0.6218 0.9941
-1.3385 0.0772 -0.6206 0.9941
-1.3324 -0.1624 -0.6213 0.9941
-1.3029 -0.2787 -0.6167 0.9941
-1.3270 -0.5448 -0.6640 0.9937
-3.4211 -2.6434 -2.0012 0.9811
-3.1715 -2.9385 -2.0013 0.9811
-1.9421 -3.8637 -2.0017 0.9811
-1.5894 -4.0219 -2.0018 0.9811
-1.2239 -4.1480 -2.0019 0.9811
-0.4665 -4.2999 -2.0020 0.9811
0.6902 -4.2703 -2.0023 0.9811
1.0688 -4.1918 -2.0024 0.9811
1.7977 -3.9350 -2.0025 0.9811
2.1420 -3.7588 -2.0026 0.9811
2.7767 -3.3180 -2.0027 0.9811
3.0620 -3.0568 -2.0027 0.9811
3.5571 -2.4633 -2.0028 0.9811
3.7629 -2.1358 -2.0028 0.9811
3.9386 -1.7912 -2.0028 0.9811
4.1945 -1.0619 -2.0028 0.9811
4.2725 -0.6831 -2.0028 0.9811
4.3164 -0.2987 -2.0028 0.9811
4.2409 0.8561 -2.0027 0.9811
4.1474 1.2314 -2.0026 0.9811
3.8619 1.9495 -2.0025 0.9811
3.6722 2.2865 -2.0024 0.9811
3.4532 2.6053 -2.0023 0.9811
3.2066 2.9031 -2.0022 0.9811
2.9344 3.1778 -2.0021 0.9811
1.6356 4.0033 -2.0018 0.9811
0.8972 4.2301 -2.0016 0.9811
-0.2562 4.3160 -2.0013 0.9811
-0.6406 4.2757 -2.0012 0.9811
-1.0199 4.2012 -2.0012 0.9811
-1.3910 4.0932 -2.0011 0.9811
-1.7509 3.9525 -2.0010 0.9811
-3.0237 3.0889 -2.0008 0.9811
-3.5249 2.5016 -2.0007 0.9811
-3.7342 2.1768 -2.0007 0.9811
-1.3154 0.3492 -0.6299 0.9940
-1.3313 -0.5111 -0.6601 0.9937
-3.4810 -2.5639 -2.0012 0.9811
-3.2383 -2.8647 -2.0013 0.9811
-2.0306 -3.8179 -2.0016 0.9811
-0.9460 -4.2202 -2.0019 0.9811
-0.5654 -4.2880 -2.0020 0.9811
0.5916 -4.2850 -2.0023 0.9811
0.9720 -4.2152 -2.0024 0.9811
1.3446 -4.1117 -2.0024 0.9811
2.3867 -3.6085 -2.0026 0.9811
-3.3328 2.3517 -2.0008 0.9820
-3.5294 2.0446 -2.0008 0.9820
-1.1380 0.5297 -0.6157 0.9944
-1.1557 0.4169 -0.6026 0.9945
-1.1817 0.1996 -0.5879 0.9947
-1.1960 -0.0138 -0.5867 0.9947
-1.1928 -0.1208 -0.5881 0.9947
-1.1761 -0.2267 -0.5875 0.9947
-1.1310 -0.5585 -0.6187 0.9944
-3.2784 -2.4284 -2.0012 0.9820
-3.0485 -2.7116 -2.0013 0.9820
-2.5177 -3.2110 -2.0015 0.9820
-0.1589 -4.0785 -2.0021 0.9820
0.5692 -4.0420 -2.0023 0.9820
1.2794 -3.8765 -2.0024 0.9820
1.6205 -3.7469 -2.0025 0.9820
2.8302 -2.9426 -2.0027 0.9820
3.0817 -2.6781 -2.0027 0.9820
3.3086 -2.3922 -2.0027 0.9820
3.5091 -2.0872 -2.0027 0.9820
4.0177 -0.7264 -2.0027 0.9820
4.0665 -0.3646 -2.0027 0.9820
4.0828 0.0000 -2.0027 0.9820
4.0664 0.3647 -2.0027 0.9820
4.0175 0.7264 -2.0026 0.9820
3.6809 1.7652 -2.0024 0.9820
3.3079 2.3917 -2.0023 0.9820
3.0809 2.6775 -2.0022 0.9820
2.8294 2.9418 -2.0021 0.9820
2.5552 3.1827 -2.0021 0.9820
0.5690 4.0405 -2.0015 0.9820
0.2058 4.0750 -2.0015 0.9820
-0.1589 4.0770 -2.0014 0.9820
-0.5224 4.0463 -2.0013 0.9820
-0.8817 3.9833 -2.0012 0.9820
-1.2338 3.8885 -2.0011 0.9820
-1.9059 3.6068 -2.0010 0.9820
-2.2203 3.4220 -2.0010 0.9820
-2.7936 2.9723 -2.0009 0.9820
-3.0478 2.7109 -2.0008 0.9820
-3.4814 2.1254 -2.0008 0.9820
-1.1310 0.5585 -0.6187 0.9944
-1.1526 0.4460 -0.6062 0.9945
-1.1761 0.2267 -0.5875 0.9947
-1.1928 0.1208 -0.5881 0.9947
-1.1817 -0.1996 -0.5879 0.9947
-1.1582 -0.3041 -0.5874 0.9947
-1.1380 -0.5297 -0.6157 0.9944
-3.5300 -2.0450 -2.0012 0.9820
-3.3334 -2.3522 -2.0012 0.9820
-3.1101 -2.6406 -2.0013 0.9820
-2.5909 -3.1521 -2.0015 0.9820
-2.2992 -3.3710 -2.0015 0.9820
-1.3235 -3.8604 -2.0018 0.9820
-0.6156 -4.0346 -2.0020 0.9820
0.4760 -4.0540 -2.0022 0.9820
0.8362 -3.9954 -2.0023 0.9820
1.1897 -3.9049 -2.0024 0.9820
1.5338 -3.7832 -2.0025 0.9820
1.8656 -3.6312 -2.0025 0.9820
2.4820 -3.2415 -2.0026 0.9820
3.0192 -2.7484 -2.0027 0.9820
3.4601 -2.1674 -2.0027 0.9820
3.7905 -1.5173 -2.0028 0.9820
3.9109 -1.1727 -2.0028 0.9820
4.0737 0.2709 -2.0027 0.9820
3.5556 2.0055 -2.0024 0.9820
3.1418 2.6058 -2.0022 0.9820
2.6279 3.1230 -2.0021 0.9820
2.3384 3.3451 -2.0020 0.9820
2.0302 3.5404 -2.0019 0.9820
1.7058 3.7074 -2.0018 0.9820
1.3678 3.8447 -2.0017 0.9820
1.0189 3.9514 -2.0016 0.9820
0.6619 4.0264 -2.0016 0.9820
0.2996 4.0693 -2.0015 0.9820
-0.4291 4.0573 -2.0013 0.9820
-0.7897 4.0026 -2.0012 0.9820
-1.4891 3.7980 -2.0011 0.9820
-1.8223 3.6497 -2.0010 0.9820
-2.7244 3.0359 -2.0009 0.9820
-1.1215 0.5863 -0.6208 0.9944
-1.1485 0.4752 -0.6097 0.9945
-1.1965 0.0413 -0.5872 0.9947
-1.1961 -0.0657 -0.5876 0.9947
-1.1632 -0.2770 -0.5865 0.9947
-1.1100 -0.6093 -0.6211 0.9944
-3.1701 -2.5683 -2.0013 0.9820
-2.6628 -3.0915 -2.0014 0.9820
-2.0705 -3.5162 -2.0016 0.9820
-1.7483 -3.6873 -2.0017 0.9820
-0.7084 -4.0193 -2.0020 0.9820
-0.3466 -4.0667 -2.0021 0.9820
0.3825 -4.0638 -2.0022 0.9820
1.4462 -3.8175 -2.0024 0.9820
2.1024 -3.4995 -2.0026 0.9820
2.4066 -3.2978 -2.0026 0.9820
3.1949 -2.5420 -2.0027 0.9820
3.5963 -1.9331 -2.0028 0.9820
3.9800 -0.9106 -2.0027 0.9820
4.0454 -0.5515 -2.0027 0.9820
4.0467 0.5406 -2.0026 0.9820
3.9822 0.8998 -2.0026 0.9820
3.7583 1.5938 -2.0025 0.9820
3.6009 1.9230 -2.0024 0.9820
3.4146 2.2369 -2.0023 0.9820
3.2010 2.5328 -2.0023 0.9820
2.9619 2.8085 -2.0022 0.9820
2.1112 3.4927 -2.0019 0.9820
1.4560 3.8123 -2.0018 0.9820
1.1097 3.9269 -2.0017 0.9820
0.7545 4.0101 -2.0016 0.9820
0.3933 4.0613 -2.0015 0.9820
-0.6973 4.0198 -2.0013 0.9820
-2.3665 3.3226 -2.0009 0.9820
-2.6537 3.0978 -2.0009 0.9820
-2.9198 2.8484 -2.0009 0.9820
-3.3798 2.2835 -2.0008 0.9820
-1.1960 0.0689 -0.5877 0.9947
-1.1588 -0.3586 -0.5950 0.9946
-3.2284 -2.4945 -2.0013 0.9820
-2.9928 -2.7730 -2.0013 0.9820
-2.7333 -3.0293 -2.0014 0.9820
-2.4519 -3.2615 -2.0015 0.9820
-2.1509 -3.4676 -2.0016 0.9820
-1.8327 -3.6460 -2.0017 0.9820
-1.4998 -3.7953 -2.0018 0.9820
-1.1549 -3.9142 -2.0019 0.9820
-0.0760 -4.0809 -2.0021 0.9820
0.6513 -4.0296 -2.0023 0.9820
1.0086 -3.9555 -2.0023 0.9820
2.0212 -3.5470 -2.0025 0.9820
2.3300 -3.3524 -2.0026 0.9820
2.8894 -2.8845 -2.0027 0.9820
3.5508 -2.0154 -2.0027 0.9820
3.8527 -1.3516 -2.0028 0.9820
3.9580 -1.0021 -2.0028 0.9820
4.0317 -0.6446 -2.0027 0.9820
4.0731 -0.2819 -2.0027 0.9820
4.0819 0.0830 -2.0027 0.9820
4.0581 0.4472 -2.0026 0.9820
3.7941 1.5068 -2.0025 0.9820
3.6442 1.8396 -2.0024 0.9820
2.7690 2.9987 -2.0021 0.9820
2.4900 3.2339 -2.0020 0.9820
2.1911 3.4432 -2.0020 0.9820
1.5435 3.7778 -2.0018 0.9820
0.8467 3.9917 -2.0016 0.9820
0.4868 4.0512 -2.0015 0.9820
0.1230 4.0783 -2.0014 0.9820
-0.2417 4.0729 -2.0014 0.9820
-0.6045 4.0348 -2.0013 0.9820
-1.3126 3.8626 -2.0011 0.9820
-1.6523 3.7299 -2.0011 0.9820
-1.9787 3.5673 -2.0010 0.9820
-2.2894 3.3762 -2.0010 0.9820
-2.5817 3.1582 -2.0009 0.9820
-2.8534 2.9149 -2.0009 0.9820
-1.1373 0.5331 -0.6161 0.9944
-1.1554 0.4203 -0.6031 0.9945
-1.1584 0.3075 -0.5879 0.9947
-1.1811 0.2028 -0.5878 0.9947
-1.1947 0.0965 -0.5879 0.9947
-1.1931 -0.1176 -0.5881 0.9947
-1.1319 -0.5551 -0.6184 0.9944
-3.2850 -2.4195 -2.0012 0.9820
-3.0559 -2.7033 -2.0013 0.9820
-1.9162 -3.6028 -2.0017 0.9820
-1.5868 -3.7597 -2.0017 0.9820
-1.2448 -3.8865 -2.0018 0.9820
-0.5335 -4.0464 -2.0020 0.9820
-0.1700 -4.0780 -2.0021 0.9820
0.9172 -3.9776 -2.0023 0.9820
2.2522 -3.4051 -2.0026 0.9820
2.8222 -2.9502 -2.0027 0.9820
-3.1513 2.2236 -2.0009 0.9828
-1.0410 0.4846 -0.5957 0.9948
-1.0591 0.3820 -0.5841 0.9949
-1.0929 0.1846 -0.5750 0.9950
-1.1063 -0.0127 -0.5739 0.9950
-1.1031 -0.1117 -0.5752 0.9950
-1.0878 -0.2096 -0.5747 0.9950
-1.0637 -0.3057 -0.5742 0.9950
-1.0557 -0.4086 -0.5873 0.9949
-1.0323 -0.5098 -0.5973 0.9948
-0.9841 -0.6008 -0.5981 0.9948
-3.0999 -2.2962 -2.0013 0.9828
-2.8825 -2.5639 -2.0013 0.9828
-2.1000 -3.2367 -2.0016 0.9828
-1.8026 -3.4115 -2.0017 0.9828
-0.8339 -3.7677 -2.0019 0.9828
0.1947 -3.8544 -2.0022 0.9828
0.5382 -3.8218 -2.0022 0.9828
0.8774 -3.7586 -2.0023 0.9828
2.1382 -3.2138 -2.0025 0.9828
2.6759 -2.7822 -2.0026 0.9828
2.9138 -2.5322 -2.0027 0.9828
3.1283 -2.2618 -2.0027 0.9828
3.4809 -1.6692 -2.0027 0.9828
3.8448 0.3448 -2.0026 0.9828
3.7986 0.6868 -2.0026 0.9828
3.7220 1.0233 -2.0025 0.9828
3.6156 1.3516 -2.0025 0.9828
3.1277 2.2614 -2.0023 0.9828
2.9131 2.5316 -2.0022 0.9828
2.6752 2.7816 -2.0021 0.9828
2.4160 3.0093 -2.0020 0.9828
2.1375 3.2129 -2.0020 0.9828
0.8771 3.7573 -2.0016 0.9828
0.5380 3.8205 -2.0016 0.9828
-0.1503 3.8550 -2.0014 0.9828
-0.4940 3.8260 -2.0013 0.9828
-0.8337 3.7664 -2.0012 0.9828
-1.1667 3.6768 -2.0012 0.9828
-2.0994 3.2357 -2.0010 0.9828
-2.3800 3.0352 -2.0010 0.9828
-2.6415 2.8105 -2.0009 0.9828
-2.8819 2.5633 -2.0009 0.9828
-0.9841 0.6008 -0.5981 0.9948
-1.0323 0.5097 -0.5973 0.9948
-1.0557 0.4085 -0.5873 0.9949
-1.0637 0.3057 -0.5742 0.9950
-1.0878 0.2096 -0.5747 0.9950
-1.1031 0.1117 -0.5752 0.9950
-1.0929 -0.1846 -0.5750 0.9950
-1.0680 -0.2804 -0.5729 0.9950
-0.9978 -0.5780 -0.5982 0.9948
-3.1519 -2.2241 -2.0013 0.9828
-2.9408 -2.4968 -2.0013 0.9828
-1.8807 -3.3690 -2.0016 0.9828
-1.5723 -3.5236 -2.0017 0.9828
-0.9204 -3.7475 -2.0019 0.9828
-0.2391 -3.8518 -2.0021 0.9828
0.4501 -3.8331 -2.0022 0.9828
1.4502 -3.5771 -2.0024 0.9828
1.7639 -3.4334 -2.0025 0.9828
2.0636 -3.2622 -2.0025 0.9828
2.3467 -3.0649 -2.0026 0.9828
2.6111 -2.8431 -2.0026 0.9828
2.8547 -2.5986 -2.0026 0.9828
3.0754 -2.3333 -2.0027 0.9828
3.4415 -1.7490 -2.0027 0.9828
3.7820 -0.7741 -2.0027 0.9828
3.8134 0.5991 -2.0026 0.9828
3.7446 0.9373 -2.0025 0.9828
3.5179 1.5884 -2.0024 0.9828
3.3619 1.8962 -2.0024 0.9828
1.9196 3.3475 -2.0019 0.9828
1.2933 3.6354 -2.0017 0.9828
0.9634 3.7362 -2.0017 0.9828
0.2833 3.8477 -2.0015 0.9828
-1.0817 3.7027 -2.0012 0.9828
-1.7231 3.4510 -2.0011 0.9828
-2.0243 3.2833 -2.0010 0.9828
-2.3094 3.0893 -2.0010 0.9828
-2.8221 2.6290 -2.0009 0.9828
-1.0629 0.3321 -0.5777 0.9950
-1.1003 0.1371 -0.5752 0.9950
-1.1066 0.0382 -0.5744 0.9950
-1.0756 -0.2561 -0.5736 0.9950
-1.0470 -0.4583 -0.5929 0.9949
-3.2023 -2.1509 -2.0012 0.9828
-2.9975 -2.4284 -2.0013 0.9828
-2.7687 -2.6865 -2.0014 0.9828
-2.5178 -2.9232 -2.0015 0.9828
-2.2468 -3.1365 -2.0015 0.9828
-1.0065 -3.7252 -2.0019 0.9828
0.0170 -3.8592 -2.0021 0.9828
0.3616 -3.8425 -2.0022 0.9828
0.7034 -3.7949 -2.0023 0.9828
1.0395 -3.7171 -2.0023 0.9828
1.3674 -3.6095 -2.0024 0.9828
1.6844 -3.4731 -2.0025 0.9828
1.9879 -3.3088 -2.0025 0.9828
2.7940 -2.6637 -2.0026 0.9828
3.0208 -2.4035 -2.0027 0.9828
3.6712 -1.1937 -2.0027 0.9828
3.8250 -0.5215 -2.0027 0.9828
3.8562 -0.1778 -2.0027 0.9828
3.8262 0.5111 -2.0026 0.9828
3.7652 0.8508 -2.0025 0.9828
3.6741 1.1836 -2.0025 0.9828
3.2286 2.1150 -2.0023 0.9828
2.5521 2.8949 -2.0021 0.9828
2.2833 3.1111 -2.0020 0.9828
1.9962 3.3025 -2.0019 0.9828
1.3767 3.6046 -2.0018 0.9828
-0.9961 3.7267 -2.0012 0.9828
-1.3249 3.6227 -2.0011 0.9828
-1.9482 3.3290 -2.0010 0.9828
-2.7608 2.6933 -2.0009 0.9828
-2.9903 2.4360 -2.0009 0.9828
-3.1958 2.1591 -2.0009 0.9828
-1.0463 0.4614 -0.5933 0.9949
-1.1007 -0.1342 -0.5752 0.9950
-1.0824 -0.2315 -0.5742 0.9950
-1.0520 -0.4319 -0.5900 0.9949
-1.0225 -0.5310 -0.5977 0.9948
-3.0526 -2.3587 -2.0013 0.9828
-2.8298 -2.6220 -2.0014 0.9828
-2.5845 -2.8644 -2.0014 0.9828
-1.7329 -3.4474 -2.0017 0.9828
-0.7572 -3.7839 -2.0019 0.9828
-0.4162 -3.8366 -2.0020 0.9828
-0.0719 -3.8586 -2.0021 0.9828
0.2730 -3.8497 -2.0022 0.9828
1.2839 -3.6400 -2.0024 0.9828
1.9111 -3.3537 -2.0025 0.9828
2.2031 -3.1697 -2.0025 0.9828
2.4774 -2.9603 -2.0026 0.9828
2.7319 -2.7273 -2.0026 0.9828
3.3573 -1.9056 -2.0027 0.9828
3.6428 -1.2779 -2.0027 0.9828
3.7423 -0.9475 -2.0027 0.9828
3.8120 -0.6094 -2.0027 0.9828
3.8511 -0.2665 -2.0027 0.9828
3.8595 0.0785 -2.0026 0.9828
3.7004 1.0987 -2.0025 0.9828
3.5874 1.4247 -2.0025 0.9828
3.4457 1.7394 -2.0024 0.9828
3.2765 2.0401 -2.0023 0.9828
3.0810 2.3245 -2.0023 0.9828
2.8610 2.5903 -2.0022 0.9828
2.6181 2.8353 -2.0021 0.9828
2.3544 3.0577 -2.0020 0.9828
2.0718 3.2556 -2.0019 0.9828
1.7727 3.4275 -2.0019 0.9828
1.4594 3.5720 -2.0018 0.9828
0.4602 3.8306 -2.0015 0.9828
0.1163 3.8562 -2.0015 0.9828
-0.2286 3.8511 -2.0014 0.9828
-0.9100 3.7487 -2.0012 0.9828
-1.2411 3.6523 -2.0012 0.9828
-1.5623 3.5268 -2.0011 0.9828
-1.8710 3.3730 -2.0010 0.9828
-2.1647 3.1924 -2.0010 0.9828
-2.4411 2.9862 -2.0010 0.9828
-2.6980 2.7562 -2.0009 0.9828
-2.9334 2.5042 -2.0009 0.9828
-1.0403 0.4876 -0.5960 0.9948
-1.0587 0.3852 -0.5845 0.9949
-1.0671 0.2833 -0.5728 0.9950
-1.0923 0.1876 -0.5750 0.9950
-1.1062 -0.0098 -0.5739 0.9950
-1.0336 -0.5069 -0.5972 0.9948
-0.9858 -0.5981 -0.5982 0.9948
-3.1061 -2.2877 -2.0013 0.9828
-2.8895 -2.5561 -2.0013 0.9828
-1.1770 -3.6749 -2.0018 0.9828
-0.8441 -3.7654 -2.0019 0.9828
-0.1607 -3.8559 -2.0021 0.9828
0.1843 -3.8550 -2.0022 0.9828
0.5279 -3.8232 -2.0022 0.9828
1.5226 -3.5469 -2.0024 0.9828
2.1294 -3.2196 -2.0025 0.9828
-0.9140 0.5295 -0.5785 0.9952
-0.9552 0.4446 -0.5771 0.9952
-0.9756 0.3519 -0.5681 0.9953
-1.0261 0.0801 -0.5637 0.9953
-0.9721 -0.3762 -0.5709 0.9953
-0.9457 -0.4670 -0.5777 0.9952
-2.7303 -2.4286 -2.0014 0.9835
-2.2549 -2.8758 -2.0015 0.9835
-1.9891 -3.0658 -2.0016 0.9835
-1.1054 -3.4838 -2.0018 0.9835
-0.7898 -3.5687 -2.0019 0.9835
-0.1423 -3.6526 -2.0021 0.9835
0.8311 -3.5600 -2.0023 0.9835
1.7452 -3.2127 -2.0024 0.9835
2.0252 -3.0440 -2.0025 0.9835
2.2890 -2.8510 -2.0025 0.9835
2.5346 -2.6353 -2.0026 0.9835
2.7598 -2.3984 -2.0026 0.9835
3.1426 -1.8692 -2.0026 0.9835
3.2970 -1.5810 -2.0027 0.9835
3.4250 -1.2803 -2.0027 0.9835
3.5256 -0.9692 -2.0027 0.9835
3.6563 0.0000 -2.0026 0.9835
3.5979 0.6505 -2.0025 0.9835
3.1420 1.8689 -2.0023 0.9835
2.9625 2.1420 -2.0022 0.9835
2.7592 2.3979 -2.0022 0.9835
1.7447 3.2117 -2.0019 0.9835
1.4508 3.3546 -2.0018 0.9835
-0.4679 3.6240 -2.0013 0.9835
-0.7896 3.5676 -2.0013 0.9835
-1.4117 3.3700 -2.0011 0.9835
-1.7070 3.2303 -2.0011 0.9835
-1.9886 3.0649 -2.0010 0.9835
-2.9357 2.1745 -2.0009 0.9835
-0.9015 0.5503 -0.5785 0.9952
-0.9458 0.4670 -0.5777 0.9952
-1.0243 0.1037 -0.5639 0.9953
-1.0273 0.0118 -0.5627 0.9953
-0.9917 -0.2604 -0.5615 0.9953
-0.9756 -0.3520 -0.5681 0.9953
-2.3205 -2.8230 -2.0015 0.9835
-1.7814 -3.1911 -2.0016 0.9835
-0.2264 -3.6483 -2.0020 0.9835
0.1003 -3.6541 -2.0021 0.9835
0.4263 -3.6307 -2.0022 0.9835
0.7489 -3.5782 -2.0023 0.9835
1.0655 -3.4971 -2.0023 0.9835
1.3736 -3.3881 -2.0024 0.9835
2.2227 -2.9030 -2.0025 0.9835
2.4732 -2.6929 -2.0026 0.9835
2.9129 -2.2100 -2.0026 0.9835
3.2597 -1.6566 -2.0027 0.9835
3.3946 -1.3588 -2.0027 0.9835
3.5024 -1.0502 -2.0027 0.9835
3.6333 -0.4103 -2.0026 0.9835
3.6482 0.2426 -2.0026 0.9835
3.6119 0.5675 -2.0025 0.9835
3.3321 1.5045 -2.0024 0.9835
3.0110 2.0732 -2.0023 0.9835
2.5940 2.5756 -2.0021 0.9835
1.8182 3.1707 -2.0019 0.9835
1.2250 3.4434 -2.0017 0.9835
0.9125 3.5389 -2.0017 0.9835
0.2684 3.6445 -2.0015 0.9835
-0.3843 3.6338 -2.0014 0.9835
-0.7073 3.5849 -2.0013 0.9835
-1.0246 3.5073 -2.0012 0.9835
