ply
format ascii 1.0
element vertex 1594
property float32 x
property float32 y
property float32 z
property float32 I
end_header
9.6446 4.6624 -2.0135 0.9573
9.1871 5.5035 -2.0129 0.9573
8.6560 6.2997 -2.0123 0.9574
8.0559 7.0448 -2.0115 0.9574
7.3608 7.7006 -2.0023 0.9576
6.1683 7.7312 -1.8590 0.9605
5.4444 8.2377 -1.8560 0.9606
3.8881 9.0651 -1.8540 0.9606
2.2111 9.6011 -1.8519 0.9607
0.4674 9.8295 -1.8497 0.9607
-0.4119 9.8260 -1.8485 0.9608
-2.1506 9.5846 -1.8463 0.9608
-3.8168 9.0388 -1.8442 0.9609
-4.6062 8.6571 -1.8432 0.9609
-5.3581 8.2070 -1.8422 0.9609
-7.2798 7.7020 -1.9920 0.9578
-8.5269 6.2793 -1.9904 0.9578
-9.5019 4.6595 -1.9892 0.9578
-10.3911 1.9734 -1.9880 0.9579
-10.5249 1.0375 -1.9879 0.9579
-10.5752 0.0935 -1.9878 0.9579
-9.9427 -3.6160 -1.9886 0.9579
-7.4141 -7.5714 -1.9918 0.9578
-5.1497 -9.2790 -1.9947 0.9577
-4.3029 -9.7070 -1.9958 0.9577
-0.6338 -10.6239 -2.0004 0.9576
0.3176 -10.6445 -2.0016 0.9576
1.2676 -10.5800 -2.0028 0.9576
2.2086 -10.4308 -2.0040 0.9575
3.1331 -10.1979 -2.0052 0.9575
4.0335 -9.8830 -2.0064 0.9575
4.9026 -9.4886 -2.0075 0.9575
5.7333 -9.0176 -2.0085 0.9574
7.2529 -7.8616 -2.0105 0.9574
9.5601 -4.8320 -2.0134 0.9573
10.5051 -2.1267 -2.0146 0.9573
10.6944 0.7337 -2.0149 0.9573
10.5854 1.6856 -2.0147 0.9573
9.7550 4.4286 -2.0137 0.9573
9.3180 5.2805 -2.0131 0.9573
8.2244 6.8491 -2.0117 0.9574
7.5587 7.5349 -2.0061 0.9575
4.1064 8.9700 -1.8543 0.9606
0.7047 9.8170 -1.8500 0.9607
-0.1747 9.8347 -1.8488 0.9608
-1.9190 9.6352 -1.8466 0.9608
-2.7701 9.4199 -1.8455 0.9608
-3.5981 9.1297 -1.8445 0.9608
-4.3965 8.7671 -1.8435 0.9609
-5.1591 8.3351 -1.8425 0.9609
-6.3426 8.4540 -1.9865 0.9579
-7.7642 7.2085 -1.9914 0.9578
-8.3736 6.4839 -1.9906 0.9578
-10.1024 3.1387 -1.9884 0.9579
-10.3408 2.2237 -1.9881 0.9579
-10.4970 1.2913 -1.9879 0.9579
-10.0265 -3.3748 -1.9885 0.9579
-9.2708 -5.1070 -1.9894 0.9578
-8.7805 -5.9163 -1.9901 0.9578
-7.5939 -7.3893 -1.9916 0.9578
-4.5352 -9.5989 -1.9955 0.9577
-2.7586 -10.2642 -1.9977 0.9577
-1.8321 -10.4757 -1.9989 0.9576
-0.8899 -10.6038 -2.0001 0.9576
0.0606 -10.6473 -2.0013 0.9576
1.9559 -10.4794 -2.0037 0.9575
3.7932 -9.9760 -2.0061 0.9575
4.6714 -9.6027 -2.0072 0.9575
5.5132 -9.1521 -2.0082 0.9574
6.3116 -8.6276 -2.0093 0.9574
8.3835 -6.6550 -2.0119 0.9574
10.6223 -1.4370 -2.0148 0.9573
10.7087 -0.4828 -2.0149 0.9573
10.4520 2.3723 -2.0145 0.9573
9.4435 5.0545 -2.0133 0.9573
8.9517 5.8757 -2.0126 0.9574
8.3882 6.6492 -2.0119 0.9574
5.8372 7.9675 -1.8565 0.9606
5.0998 8.4527 -1.8555 0.9606
4.3223 8.8696 -1.8546 0.9606
1.8139 9.6813 -1.8514 0.9607
0.0628 9.8377 -1.8491 0.9608
-0.8154 9.7981 -1.8480 0.9608
-3.3772 9.2152 -1.8448 0.9608
-5.9432 8.3333 -1.9239 0.9592
-6.9012 8.0463 -1.9925 0.9578
-7.5888 7.3947 -1.9916 0.9578
-8.2155 6.6848 -1.9908 0.9578
-10.0242 3.3818 -1.9885 0.9579
-9.7865 -4.0223 -1.9888 0.9578
-9.3907 -4.8813 -1.9893 0.9578
-5.5327 7.6416 -1.9942 0.9622
-6.7983 6.5303 -1.9926 0.9622
-7.3516 5.8951 -1.9919 0.9622
-7.8462 5.2134 -1.9913 0.9622
-8.2781 4.4907 -1.9907 0.9622
-8.6440 3.7327 -1.9903 0.9622
-9.3202 1.3077 -1.9894 0.9623
-9.3992 0.4702 -1.9893 0.9623
-9.1889 -2.0381 -1.9896 0.9623
-8.9714 -2.8509 -1.9898 0.9622
-8.6826 -3.6413 -1.9902 0.9622
-8.3247 -4.4031 -1.9907 0.9622
-7.9004 -5.1302 -1.9912 0.9622
-6.2647 -7.0480 -1.9933 0.9622
-4.1782 -8.4676 -1.9959 0.9621
-3.4071 -8.8112 -1.9969 0.9621
-2.6080 -9.0849 -1.9979 0.9621
-0.1070 -9.4662 -2.0011 0.9620
0.7391 -9.4431 -2.0022 0.9620
2.4096 -9.1707 -2.0043 0.9620
3.2205 -8.9235 -2.0053 0.9620
5.4783 -7.7619 -2.0082 0.9619
6.7771 -6.6692 -2.0099 0.9619
9.0071 -3.0881 -2.0127 0.9618
9.2482 -2.2718 -2.0130 0.9618
9.4152 -1.4371 -2.0132 0.9618
9.5064 -0.5906 -2.0133 0.9618
9.3219 1.9498 -2.0131 0.9618
9.1093 2.7741 -2.0128 0.9618
8.8236 3.5758 -2.0125 0.9618
5.7306 7.5495 -2.0035 0.9620
3.2604 8.1384 -1.8532 0.9648
2.5193 8.3927 -1.8523 0.9648
0.2045 8.7464 -1.8493 0.9649
-0.5770 8.7250 -1.8483 0.9649
-1.3531 8.6340 -1.8473 0.9649
-2.1176 8.4742 -1.8464 0.9649
-3.5875 7.9544 -1.8445 0.9650
-5.3418 7.7658 -1.9924 0.9622
-6.6393 6.6932 -1.9928 0.9622
-8.1679 4.6896 -1.9909 0.9622
-8.5519 3.9405 -1.9904 0.9622
-9.4098 -0.1440 -1.9893 0.9623
-9.3596 -0.9837 -1.9893 0.9623
-9.2351 -1.8157 -1.9895 0.9623
-8.4280 -4.2006 -1.9905 0.9622
-8.0213 -4.9376 -1.9910 0.9622
-7.0196 -6.2897 -1.9923 0.9622
-6.4323 -6.8940 -1.9931 0.9622
-5.7934 -7.4439 -1.9939 0.9622
-5.1078 -7.9349 -1.9947 0.9622
-4.3808 -8.3632 -1.9957 0.9621
-2.0106 -9.2391 -1.9987 0.9621
-1.1782 -9.3867 -1.9997 0.9621
0.5109 -9.4568 -2.0019 0.9620
2.1872 -9.2249 -2.0040 0.9620
4.5608 -8.3278 -2.0070 0.9619
6.6135 -6.8301 -2.0097 0.9619
7.1997 -6.2146 -2.0104 0.9619
7.7284 -5.5487 -2.0111 0.9618
8.1954 -4.8378 -2.0117 0.9618
8.9294 -3.3044 -2.0126 0.9618
9.1904 -2.4943 -2.0129 0.9618
9.5248 0.0307 -2.0134 0.9618
9.3665 1.7243 -2.0132 0.9618
8.9079 3.3620 -2.0126 0.9618
8.1639 4.8906 -2.0116 0.9618
7.6923 5.5983 -2.0110 0.9619
7.1593 6.2608 -2.0104 0.9619
6.5692 6.8725 -2.0096 0.9619
4.1693 7.7308 -1.8566 0.9647
3.4563 8.0584 -1.8535 0.9648
2.7215 8.3306 -1.8525 0.9648
0.4156 8.7402 -1.8496 0.9649
-1.1445 8.6654 -1.8476 0.9649
-3.3949 8.0397 -1.8447 0.9649
-4.1674 7.8323 -1.8754 0.9644
-6.4765 6.8522 -1.9930 0.9622
-7.0599 6.2442 -1.9923 0.9622
-7.5867 5.5870 -1.9916 0.9622
-8.4548 4.1460 -1.9905 0.9622
-8.7894 3.3738 -1.9901 0.9622
-9.2466 1.7560 -1.9895 0.9623
-9.3658 0.9233 -1.9893 0.9623
-9.4105 0.0832 -1.9893 0.9623
-9.0979 -2.4144 -1.9897 0.9622
-8.5264 -3.9956 -1.9904 0.9622
-7.6838 -5.4515 -1.9915 0.9622
-5.2971 -7.8084 -1.9945 0.9622
-4.5808 -8.2540 -1.9954 0.9621
-3.8273 -8.6342 -1.9964 0.9621
-2.2327 -9.1866 -1.9984 0.9621
-1.4042 -9.3542 -1.9994 0.9621
-0.5636 -9.4473 -2.0005 0.9620
0.2824 -9.4650 -2.0016 0.9620
2.7853 -9.0660 -2.0048 0.9620
3.5856 -8.7856 -2.0058 0.9619
5.0960 -8.0153 -2.0077 0.9619
5.7940 -7.5316 -2.0086 0.9619
6.4460 -6.9870 -2.0094 0.9619
7.0469 -6.3859 -2.0102 0.9619
7.5916 -5.7331 -2.0109 0.9619
8.4952 -4.2938 -2.0120 0.9618
9.1271 -2.7153 -2.0129 0.9618
9.3344 -1.8897 -2.0131 0.9618
9.5024 0.6519 -2.0133 0.9618
9.2333 2.3314 -2.0130 0.9618
8.6683 3.9352 -2.0123 0.9618
7.8259 5.4115 -2.0112 0.9618
6.7338 6.7126 -2.0098 0.9619
6.1035 7.2823 -2.0085 0.9619
5.3628 7.7033 -1.9840 0.9624
4.4085 7.7223 -1.8796 0.9643
2.1715 8.4872 -1.8518 0.9648
-0.1553 8.7452 -1.8489 0.9649
-0.9351 8.6918 -1.8479 0.9649
-1.7066 8.5690 -1.8469 0.9649
-3.9148 7.8064 -1.8460 0.9649
-4.9380 7.9778 -1.9833 0.9624
-5.6613 7.5459 -1.9941 0.9622
-6.9078 6.4134 -1.9925 0.9622
-7.4503 5.7689 -1.9918 0.9622
-8.7059 3.5851 -1.9902 0.9622
-8.9896 2.7929 -1.9898 0.9622
-9.2018 1.9787 -1.9895 0.9623
-9.3960 -0.5308 -1.9893 0.9623
-9.3116 -1.3678 -1.9894 0.9623
-9.1532 -2.1940 -1.9896 0.9622
-8.9220 -3.0030 -1.9899 0.9622
-8.6199 -3.7885 -1.9903 0.9622
-6.1445 -7.1540 -1.9934 0.9622
-5.4834 -7.6773 -1.9943 0.9622
-4.0341 -8.5382 -1.9961 0.9621
-0.7913 -9.4296 -2.0002 0.9621
1.7390 -9.3171 -2.0034 0.9620
2.5653 -9.1293 -2.0045 0.9620
3.3720 -8.8683 -2.0055 0.9620
4.1525 -8.5360 -2.0065 0.9619
4.9005 -8.1350 -2.0075 0.9619
8.3885 -4.4973 -2.0119 0.9618
9.4384 -1.2769 -2.0133 0.9618
9.5154 0.4224 -2.0134 0.9618
9.0606 2.9284 -2.0128 0.9618
8.3917 4.4915 -2.0119 0.9618
7.9549 5.2214 -2.0114 0.9618
7.4545 5.9091 -2.0107 0.9619
6.8946 6.5488 -2.0100 0.9619
5.5967 7.6393 -2.0018 0.9620
4.6564 7.7176 -1.9053 0.9638
3.1213 8.1918 -1.8530 0.9648
1.6127 8.6075 -1.8511 0.9648
0.8372 8.7125 -1.8501 0.9648
-1.4995 8.6089 -1.8471 0.9649
-2.2611 8.4362 -1.8462 0.9649
-3.7219 7.8915 -1.8443 0.9650
-4.6379 7.9137 -1.9389 0.9632
-7.3095 5.9476 -1.9920 0.9622
-7.8089 5.2695 -1.9913 0.9622
-9.3106 1.3742 -1.9894 0.9623
-9.4060 -0.3038 -1.9893 0.9623
-9.3417 -1.1426 -1.9894 0.9623
-8.7083 -3.5791 -1.9902 0.9622
-4.9779 6.8753 -1.9949 0.9657
-5.5698 6.4009 -1.9942 0.9657
-6.1170 5.8759 -1.9935 0.9657
-6.6152 5.3046 -1.9928 0.9658
-7.4493 4.0411 -1.9918 0.9658
-8.3876 1.1768 -1.9906 0.9658
-8.4587 0.4231 -1.9905 0.9658
-8.3994 -1.0883 -1.9906 0.9658
-8.0736 -2.5656 -1.9910 0.9658
-7.4912 -3.9622 -1.9917 0.9658
-6.6705 -5.2343 -1.9928 0.9658
-6.1783 -5.8109 -1.9934 0.9657
-5.6367 -6.3415 -1.9941 0.9657
-5.0498 -6.8221 -1.9948 0.9657
-3.0650 -7.9265 -1.9973 0.9657
-1.6076 -8.3531 -1.9992 0.9657
-0.8557 -8.4673 -2.0001 0.9656
-0.0963 -8.5140 -2.0011 0.9656
1.4211 -8.4034 -2.0030 0.9656
3.6025 -7.7370 -2.0058 0.9655
6.0927 -5.9957 -2.0090 0.9655
6.6059 -5.4294 -2.0096 0.9655
7.4704 -4.1701 -2.0107 0.9655
8.3129 -2.0421 -2.0118 0.9654
8.4629 -1.2917 -2.0120 0.9654
8.5449 -0.5309 -2.0121 0.9654
8.5582 0.2343 -2.0121 0.9654
8.3791 1.7527 -2.0119 0.9654
7.2301 4.5718 -2.0104 0.9655
6.2978 5.7816 -2.0093 0.9655
5.7544 6.3187 -2.0086 0.9655
5.1653 6.8047 -2.0078 0.9655
4.5352 7.2359 -2.0070 0.9655
3.8583 7.5871 -2.0005 0.9656
1.5846 7.7294 -1.8544 0.9681
0.1839 7.8664 -1.8493 0.9682
-1.9296 7.7218 -1.8706 0.9678
-2.6787 7.7124 -1.9188 0.9670
-3.4804 7.7169 -1.9896 0.9658
-4.1680 7.3972 -1.9955 0.9657
-5.4143 6.5342 -1.9944 0.9657
-5.9740 6.0224 -1.9937 0.9657
-6.4858 5.4631 -1.9930 0.9658
-6.9456 4.8607 -1.9924 0.9658
-7.6958 3.5460 -1.9915 0.9658
-8.4461 0.6272 -1.9905 0.9658
-7.8900 -3.0871 -1.9912 0.9658
-7.2181 -4.4432 -1.9921 0.9658
-6.7943 -5.0714 -1.9926 0.9658
-6.3162 -5.6595 -1.9932 0.9658
-5.7876 -6.2030 -1.9939 0.9657
-5.2125 -6.6975 -1.9946 0.9657
-4.5954 -7.1390 -1.9954 0.9657
-3.2550 -7.8493 -1.9971 0.9657
-0.3017 -8.5081 -2.0009 0.9656
0.4595 -8.5051 -2.0018 0.9656
1.9669 -8.2957 -2.0037 0.9656
2.7011 -8.0907 -2.0047 0.9656
3.4143 -7.8207 -2.0056 0.9655
4.7550 -7.0947 -2.0073 0.9655
6.4724 -5.5868 -2.0095 0.9655
7.3671 -4.3489 -2.0106 0.9655
8.0266 -2.9703 -2.0115 0.9654
8.4291 -1.4956 -2.0120 0.9654
8.5295 -0.7370 -2.0121 0.9654
8.5614 0.0276 -2.0121 0.9654
8.4192 1.5499 -2.0120 0.9654
8.2463 2.2953 -2.0117 0.9654
8.0072 3.0220 -2.0114 0.9654
7.7038 3.7242 -2.0111 0.9655
7.3388 4.3963 -2.0106 0.9655
6.9151 5.0327 -2.0100 0.9655
5.3286 6.6788 -2.0080 0.9655
3.3048 7.7051 -1.9704 0.9661
2.5209 7.7164 -1.9078 0.9672
1.7789 7.7244 -1.8629 0.9680
1.0747 7.7997 -1.8504 0.9682
-1.0294 7.7943 -1.8477 0.9682
-1.7332 7.7241 -1.8605 0.9680
-2.4726 7.7153 -1.9041 0.9673
-3.2602 7.7206 -1.9697 0.9661
-5.8274 6.1654 -1.9938 0.9657
-6.8268 5.0273 -1.9926 0.9658
-7.6084 3.7310 -1.9916 0.9658
-7.9096 3.0361 -1.9912 0.9658
-8.1479 2.3173 -1.9909 0.9658
-8.4286 0.8309 -1.9905 0.9658
-8.4419 -0.6817 -1.9905 0.9658
-7.9618 -2.8956 -1.9911 0.9658
-7.6728 -3.5956 -1.9915 0.9658
-7.3227 -4.2674 -1.9919 0.9658
-6.9142 -4.9055 -1.9924 0.9658
-6.4505 -5.5050 -1.9930 0.9658
-5.9351 -6.0610 -1.9937 0.9657
-5.3721 -6.5691 -1.9944 0.9657
-4.7659 -7.0253 -1.9952 0.9657
-4.1212 -7.4258 -1.9960 0.9657
-3.4431 -7.7675 -1.9969 0.9657
-2.0084 -8.2636 -1.9987 0.9657
-1.2631 -8.4140 -1.9996 0.9656
-0.5069 -8.4972 -2.0006 0.9656
1.7659 -8.3397 -2.0035 0.9656
3.2241 -7.8999 -2.0053 0.9655
3.9184 -7.5838 -2.0062 0.9655
4.5819 -7.2066 -2.0071 0.9655
5.2092 -6.7714 -2.0079 0.9655
5.7952 -6.2815 -2.0086 0.9655
6.3351 -5.7409 -2.0093 0.9655
7.9522 -3.1631 -2.0114 0.9654
8.2041 -2.4407 -2.0117 0.9654
8.4544 1.3463 -2.0120 0.9654
8.2995 2.0956 -2.0118 0.9654
7.0351 4.8647 -2.0102 0.9655
6.5706 5.4718 -2.0096 0.9655
6.0538 6.0347 -2.0090 0.9655
4.2274 7.4052 -2.0040 0.9656
3.5257 7.7014 -1.9907 0.9658
2.7277 7.7137 -1.9229 0.9669
1.2629 7.7725 -1.8507 0.9682
-0.8411 7.8179 -1.8480 0.9682
-3.0402 7.7140 -1.9487 0.9665
-5.0936 6.7892 -1.9948 0.9657
-6.2156 5.7708 -1.9933 0.9657
-6.7040 5.1911 -1.9927 0.9658
-7.8344 3.2263 -1.9913 0.9658
-8.2810 1.7807 -1.9907 0.9658
-8.4558 -0.4777 -1.9905 0.9658
-8.3798 -1.2309 -1.9906 0.9658
-7.7570 -3.4092 -1.9914 0.9658
-7.4231 -4.0891 -1.9918 0.9658
-7.0301 -4.7368 -1.9923 0.9658
-6.5809 -5.3472 -1.9929 0.9658
-6.0791 -5.9154 -1.9935 0.9657
-4.9335 -6.9074 -1.9950 0.9657
-3.6292 -7.6812 -1.9966 0.9657
-1.4656 -8.3799 -1.9994 0.9656
-0.7118 -8.4814 -2.0003 0.9656
0.8090 -8.4809 -2.0023 0.9656
5.6413 -6.4189 -2.0084 0.9655
6.1941 -5.8916 -2.0091 0.9655
7.5406 -4.0427 -2.0108 0.9655
8.1425 -2.6379 -2.0116 0.9654
8.4837 -1.1477 -2.0120 0.9654
8.5527 -0.3856 -2.0121 0.9654
8.5530 0.3797 -2.0121 0.9654
8.1444 2.6323 -2.0116 0.9654
7.5434 4.0375 -2.0108 0.9655
7.1510 4.6938 -2.0103 0.9655
5.6458 6.4151 -2.0084 0.9655
5.0485 6.8910 -2.0077 0.9655
3.7266 7.6470 -1.9993 0.9656
2.9380 7.7107 -1.9393 0.9667
2.1752 7.7205 -1.8851 0.9676
1.4503 7.7407 -1.8509 0.9682
0.0502 7.8677 -1.8491 0.9682
-1.3488 7.7437 -1.8473 0.9682
-2.0691 7.7201 -1.8784 0.9677
-2.8257 7.7103 -1.9300 0.9668
-3.6127 7.6601 -1.9905 0.9658
-4.9288 6.9109 -1.9950 0.9657
-6.0750 5.9196 -1.9935 0.9657
-7.0269 4.7417 -1.9923 0.9658
-7.4203 4.0943 -1.9918 0.9658
-8.2358 1.9802 -1.9908 0.9658
-8.3790 1.2367 -1.9906 0.9658
-8.0916 -2.5078 -1.9909 0.9658
-7.5192 -3.9085 -1.9917 0.9658
-3.9458 6.6237 -1.9962 0.9686
-4.5198 6.2426 -1.9955 0.9687
-5.0575 5.8121 -1.9948 0.9687
-6.4115 4.2601 -1.9931 0.9687
-7.3071 2.4071 -1.9920 0.9687
-7.6172 1.0687 -1.9916 0.9687
-7.3319 -2.3299 -1.9919 0.9687
-7.0957 -2.9757 -1.9922 0.9687
-6.8029 -3.5981 -1.9926 0.9687
-6.4558 -4.1922 -1.9930 0.9687
-6.0572 -4.7531 -1.9935 0.9687
-5.1182 -5.7582 -1.9947 0.9687
-4.0152 -6.5814 -1.9961 0.9686
-3.4127 -6.9163 -1.9969 0.9686
-1.4594 -7.5829 -1.9994 0.9686
-0.0874 -7.7283 -2.0011 0.9686
1.2898 -7.6273 -2.0029 0.9685
1.9666 -7.4848 -2.0037 0.9685
2.6282 -7.2824 -2.0046 0.9685
3.2694 -7.0215 -2.0054 0.9685
3.8848 -6.7041 -2.0062 0.9685
4.4696 -6.3328 -2.0069 0.9685
5.0190 -5.9104 -2.0076 0.9685
5.9940 -4.9264 -2.0089 0.9685
7.3456 -2.5185 -2.0106 0.9684
7.6781 -1.1719 -2.0110 0.9684
7.7524 -0.4816 -2.0111 0.9684
7.6021 1.5901 -2.0109 0.9684
7.1962 2.9163 -2.0104 0.9684
5.2216 5.7336 -2.0079 0.9685
4.1156 6.5664 -2.0065 0.9685
3.5114 6.9050 -2.0057 0.9685
1.5497 7.5594 -1.9980 0.9686
0.8674 7.6579 -1.9954 0.9687
0.1800 7.6987 -1.9939 0.9687
-1.1922 7.6072 -1.9937 0.9687
-3.7851 6.7177 -1.9964 0.9686
-4.3682 6.3505 -1.9957 0.9687
-5.4245 5.4685 -1.9944 0.9687
-5.8894 4.9608 -1.9938 0.9687
-6.3072 4.4139 -1.9932 0.9687
-6.6746 3.8322 -1.9928 0.9687
-7.4479 1.9252 -1.9918 0.9687
-7.6705 0.5696 -1.9915 0.9687
-7.5477 -1.4839 -1.9916 0.9687
-7.3858 -2.1522 -1.9918 0.9687
-6.8874 -3.4327 -1.9925 0.9687
-6.5547 -4.0349 -1.9929 0.9687
-6.1698 -4.6052 -1.9934 0.9687
-5.7355 -5.1391 -1.9939 0.9687
-5.2553 -5.6325 -1.9946 0.9687
-4.1724 -6.4819 -1.9959 0.9687
-1.6418 -7.5446 -1.9991 0.9686
-0.9620 -7.6644 -2.0000 0.9686
-0.2739 -7.7230 -2.0009 0.9686
0.4170 -7.7200 -2.0018 0.9686
1.1052 -7.6553 -2.0026 0.9685
1.7852 -7.5293 -2.0035 0.9685
2.4514 -7.3429 -2.0044 0.9685
3.0986 -7.0976 -2.0052 0.9685
3.7215 -6.7952 -2.0060 0.9685
4.8744 -6.0293 -2.0074 0.9685
6.3038 -4.5259 -2.0093 0.9684
6.6844 -3.9458 -2.0097 0.9684
7.0114 -3.3339 -2.0102 0.9684
7.6474 -1.3569 -2.0110 0.9684
7.7674 0.0251 -2.0111 0.9684
7.6385 1.4062 -2.0110 0.9684
7.4816 2.0825 -2.0108 0.9684
7.2648 2.7418 -2.0105 0.9684
6.9897 3.3790 -2.0101 0.9684
6.6587 3.9888 -2.0097 0.9684
5.8399 5.1070 -2.0087 0.9685
4.8353 6.0605 -2.0074 0.9685
3.0527 7.1173 -2.0051 0.9685
2.4018 7.3521 -2.0026 0.9685
1.0523 7.6370 -1.9960 0.9686
0.3658 7.6934 -1.9942 0.9687
-1.0081 7.6330 -1.9935 0.9687
-1.6866 7.5166 -1.9946 0.9687
-2.3538 7.3444 -1.9969 0.9686
-4.2141 6.4548 -1.9959 0.9687
-5.2914 5.5984 -1.9945 0.9687
-5.7684 5.1019 -1.9939 0.9687
-6.5805 3.9924 -1.9929 0.9687
-7.1830 2.7572 -1.9921 0.9687
-7.6546 0.7546 -1.9915 0.9687
-7.6666 -0.6191 -1.9915 0.9687
-7.5811 -1.3012 -1.9916 0.9687
-6.9679 -3.2653 -1.9924 0.9687
-6.6498 -3.8752 -1.9928 0.9687
-6.2787 -4.4546 -1.9933 0.9687
-5.8574 -4.9988 -1.9938 0.9687
-4.8778 -5.9647 -1.9950 0.9687
-3.7418 -6.7421 -1.9965 0.9686
-2.4848 -7.3060 -1.9981 0.9686
-1.8232 -7.5019 -1.9989 0.9686
-1.1466 -7.6380 -1.9998 0.9686
-0.4601 -7.7133 -2.0007 0.9686
2.2732 -7.3991 -2.0041 0.9685
2.9260 -7.1695 -2.0050 0.9685
4.7270 -6.1446 -2.0073 0.9685
5.2586 -5.6999 -2.0079 0.9685
6.5868 -4.1058 -2.0096 0.9684
7.6123 -1.5410 -2.0109 0.9684
7.7657 -0.1624 -2.0111 0.9684
7.7491 0.5317 -2.0111 0.9684
7.6703 1.2214 -2.0110 0.9684
7.5299 1.9013 -2.0108 0.9684
7.3292 2.5658 -2.0106 0.9684
7.0696 3.2095 -2.0102 0.9684
6.7534 3.8272 -2.0098 0.9684
5.9620 4.9650 -2.0088 0.9685
5.4932 5.4759 -2.0082 0.9685
4.9806 5.9426 -2.0076 0.9685
3.8414 6.7289 -2.0061 0.9685
0.5515 7.6838 -1.9946 0.9687
-1.5044 7.5537 -1.9942 0.9687
-2.8289 7.1781 -1.9977 0.9686
-4.0575 6.5552 -1.9961 0.9686
-4.6249 6.1645 -1.9954 0.9687
-6.8259 3.5541 -1.9926 0.9687
-7.1147 2.9299 -1.9922 0.9687
-7.5204 1.6172 -1.9917 0.9687
-7.6342 0.9391 -1.9915 0.9687
-7.6873 0.2536 -1.9915 0.9687
-7.6793 -0.4338 -1.9915 0.9687
-7.2915 -2.4542 -1.9920 0.9687
-6.7410 -3.7134 -1.9927 0.9687
-5.5200 -5.3714 -1.9942 0.9687
-4.4795 -6.2718 -1.9955 0.9687
-3.2950 -6.9738 -1.9970 0.9686
0.0440 -7.7293 -2.0013 0.9686
1.4194 -7.6049 -2.0030 0.9685
3.3885 -6.9654 -2.0055 0.9685
4.5769 -6.2563 -2.0071 0.9685
5.1190 -5.8246 -2.0078 0.9685
5.6205 -5.3460 -2.0084 0.9685
6.0579 -4.8088 -2.0026 0.9685
6.4853 -4.2633 -2.0095 0.9684
7.1432 -3.0430 -2.0103 0.9684
7.3875 -2.3933 -2.0106 0.9684
7.5726 -1.7243 -2.0109 0.9684
6.4883 4.2588 -2.0095 0.9684
3.3933 6.9632 -2.0056 0.9685
1.4207 7.5826 -1.9974 0.9686
0.7370 7.6701 -1.9951 0.9687
0.0491 7.6996 -1.9936 0.9687
-0.6385 7.6720 -1.9933 0.9687
-1.3214 7.5865 -1.9939 0.9687
-1.9953 7.4447 -1.9956 0.9687
-2.6552 7.2450 -1.9979 0.9686
-4.4752 6.2749 -1.9956 0.9687
-5.5164 5.3753 -1.9942 0.9687
-5.9726 4.8598 -1.9937 0.9687
-6.3810 4.3059 -1.9931 0.9687
-6.7385 3.7181 -1.9927 0.9687
-7.6790 0.4391 -1.9915 0.9687
-7.6349 -0.9338 -1.9915 0.9687
-7.1167 -2.9249 -1.9922 0.9687
-3.6096 6.0594 -1.9967 0.9711
-4.6268 5.3172 -1.9954 0.9711
-5.0817 4.8814 -1.9948 0.9711
-5.4958 4.4070 -1.9943 0.9711
-5.8660 3.8977 -1.9938 0.9711
-6.4633 2.7910 -1.9930 0.9712
-6.6858 2.2024 -1.9927 0.9712
-6.9696 0.9779 -1.9924 0.9712
-7.0288 0.3516 -1.9923 0.9712
-7.0321 -0.2775 -1.9923 0.9712
-6.9795 -0.9043 -1.9924 0.9712
-6.8713 -1.5241 -1.9925 0.9712
-6.7085 -2.1318 -1.9927 0.9712
-6.4922 -2.7227 -1.9930 0.9712
-6.2242 -3.2921 -1.9933 0.9712
-5.5418 -4.3486 -1.9942 0.9711
-5.1327 -4.8274 -1.9947 0.9711
-4.6825 -5.2679 -1.9953 0.9711
-4.1946 -5.6668 -1.9959 0.9711
-1.9482 -6.7863 -1.9988 0.9711
-1.3349 -6.9359 -1.9995 0.9711
-0.7105 -7.0302 -2.0003 0.9711
-0.0799 -7.0684 -2.0011 0.9710
2.4035 -6.6596 -2.0043 0.9710
4.0869 -5.7906 -2.0064 0.9710
6.1969 -3.4592 -2.0091 0.9709
6.4823 -2.8925 -2.0095 0.9709
7.0195 -1.0714 -2.0102 0.9709
7.0874 -0.4403 -2.0103 0.9709
7.0525 0.8274 -2.0102 0.9709
6.9500 1.4537 -2.0101 0.9709
6.7918 2.0683 -2.0099 0.9709
6.5791 2.6662 -2.0096 0.9709
5.9977 3.7926 -2.0089 0.9709
5.6338 4.3120 -2.0084 0.9709
2.6333 6.5732 -2.0046 0.9710
1.4210 6.9315 -2.0031 0.9710
0.7961 7.0279 -2.0023 0.9710
0.1653 7.0681 -2.0015 0.9710
-1.0938 6.9791 -1.9999 0.9711
-1.7119 6.8509 -1.9991 0.9711
-2.3160 6.6681 -1.9983 0.9711
-2.9010 6.4323 -1.9976 0.9711
-5.3882 4.5387 -1.9944 0.9711
-5.7706 4.0384 -1.9939 0.9711
-6.1068 3.5062 -1.9935 0.9712
-6.3943 2.9463 -1.9931 0.9712
-6.9441 1.1458 -1.9924 0.9712
-7.0368 -0.1076 -1.9923 0.9712
-6.9992 -0.7356 -1.9923 0.9712
-6.9060 -1.3577 -1.9925 0.9712
-6.7578 -1.9692 -1.9926 0.9712
-5.6448 -4.2133 -1.9941 0.9711
-5.2473 -4.7017 -1.9946 0.9711
-4.8078 -5.1530 -1.9951 0.9711
-3.8170 -5.9297 -1.9964 0.9711
-0.8799 -7.0102 -2.0001 0.9711
-0.2505 -7.0636 -2.0009 0.9710
0.3814 -7.0606 -2.0017 0.9710
1.0108 -7.0011 -2.0025 0.9710
2.2418 -6.7149 -2.0041 0.9710
5.3696 -4.6349 -2.0081 0.9709
5.7635 -4.1380 -2.0086 0.9709
6.1113 -3.6076 -2.0090 0.9709
6.4103 -3.0480 -2.0094 0.9709
6.8521 -1.8597 -2.0100 0.9709
7.0746 -0.6113 -2.0102 0.9709
6.9833 1.2856 -2.0101 0.9709
6.8400 1.9038 -2.0099 0.9709
6.3904 3.0893 -2.0094 0.9709
6.0878 3.6469 -2.0090 0.9709
5.7366 4.1750 -2.0085 0.9709
4.4212 5.5415 -2.0069 0.9710
3.9075 5.9122 -2.0062 0.9710
2.7915 6.5084 -2.0048 0.9710
2.1983 6.7291 -2.0040 0.9710
1.5881 6.8959 -2.0033 0.9710
-0.2960 7.0617 -2.0009 0.9710
-2.1545 6.7227 -1.9985 0.9711
-3.3136 6.2277 -1.9970 0.9711
-3.8551 5.9049 -1.9963 0.9711
-4.3656 5.5352 -1.9957 0.9711
-6.0207 3.6528 -1.9936 0.9711
-6.3216 3.1000 -1.9932 0.9712
-6.5722 2.5227 -1.9929 0.9712
-6.7703 1.9255 -1.9926 0.9712
-6.9146 1.3131 -1.9925 0.9712
-7.0038 0.6904 -1.9923 0.9712
-7.0373 0.0622 -1.9923 0.9712
-6.9366 -1.1906 -1.9924 0.9712
-6.6156 -2.4060 -1.9928 0.9712
-6.0841 -3.5456 -1.9935 0.9711
-5.7445 -4.0756 -1.9939 0.9711
-5.3589 -4.5734 -1.9944 0.9711
-3.9587 -5.8354 -1.9962 0.9711
-2.2729 -6.6830 -1.9983 0.9711
-1.0487 -6.9862 -1.9999 0.9711
0.2109 -7.0670 -2.0015 0.9710
2.0788 -6.7664 -2.0039 0.9710
2.6757 -6.5562 -2.0046 0.9710
4.8081 -5.2117 -2.0074 0.9710
5.2558 -4.7628 -2.0079 0.9709
6.3345 -3.2017 -2.0093 0.9709
6.8050 -2.0245 -2.0099 0.9709
6.9593 -1.4089 -2.0101 0.9709
7.0996 -0.1485 -2.0103 0.9709
7.0124 1.1167 -2.0102 0.9709
6.7006 2.3458 -2.0098 0.9709
6.1744 3.4991 -2.0091 0.9709
5.8361 4.0356 -2.0087 0.9709
5.4511 4.5395 -2.0082 0.9709
2.3604 6.6748 -2.0043 0.9710
1.1345 6.9828 -2.0027 0.9710
0.5063 7.0534 -2.0019 0.9710
-0.1255 7.0676 -2.0011 0.9710
-1.9919 6.7735 -1.9987 0.9711
-2.5878 6.5661 -1.9980 0.9711
-3.7118 5.9968 -1.9965 0.9711
-4.7163 5.2375 -1.9953 0.9711
-5.1636 4.7941 -1.9947 0.9711
-5.5697 4.3127 -1.9942 0.9711
-5.9312 3.7973 -1.9937 0.9711
-6.2453 3.2518 -1.9933 0.9712
-6.5096 2.6807 -1.9930 0.9712
-6.8810 1.4797 -1.9925 0.9712
-7.0338 0.2321 -1.9923 0.9712
-6.8446 -1.6406 -1.9925 0.9712
-5.8408 -3.9355 -1.9938 0.9711
-5.0502 -4.9142 -1.9948 0.9711
-4.5925 -5.3471 -1.9954 0.9711
-4.0980 -5.7376 -1.9960 0.9711
-3.5705 -6.0827 -1.9967 0.9711
-2.4333 -6.6255 -1.9981 0.9711
-1.8327 -6.8190 -1.9989 0.9711
-1.2169 -6.9581 -1.9997 0.9711
0.0402 -7.0693 -2.0013 0.9710
0.6716 -7.0402 -2.0021 0.9710
1.9147 -6.8139 -2.0037 0.9710
3.0985 -6.3694 -2.0052 0.9710
3.6562 -6.0695 -2.0059 0.9710
4.1850 -5.7206 -2.0066 0.9710
4.6806 -5.3257 -2.0072 0.9710
5.1389 -4.8880 -2.0078 0.9709
5.5563 -4.4107 -2.0083 0.9709
5.9294 -3.8979 -2.0088 0.9709
6.2551 -3.3535 -2.0092 0.9709
6.5307 -2.7820 -2.0096 0.9709
6.9231 -1.5764 -2.0101 0.9709
7.0939 -0.3198 -2.0103 0.9709
7.0941 0.3149 -2.0103 0.9709
7.0374 0.9471 -2.0102 0.9709
6.9242 1.5716 -2.0101 0.9709
6.2574 3.3492 -2.0092 0.9709
5.9321 3.8938 -2.0088 0.9709
5.5594 4.4069 -2.0083 0.9709
4.6843 5.3226 -2.0072 0.9710
4.1890 5.7178 -2.0066 0.9710
3.1030 6.3673 -2.0052 0.9710
2.5211 6.6166 -2.0045 0.9710
1.9194 6.8126 -2.0037 0.9710
1.3029 6.9541 -2.0029 0.9710
-0.5861 7.0423 -2.0005 0.9711
-1.2121 6.9590 -1.9997 0.9711
-1.8280 6.8203 -1.9989 0.9711
-2.4288 6.6273 -1.9982 0.9711
-3.5663 6.0852 -1.9967 0.9711
-4.0941 5.7405 -1.9960 0.9711
-4.5889 5.3503 -1.9954 0.9711
-5.0468 4.9177 -1.9948 0.9711
-5.4643 4.4462 -1.9943 0.9711
-5.8381 3.9396 -1.9938 0.9711
-6.1653 3.4018 -1.9934 0.9712
-6.4433 2.8372 -1.9931 0.9712
-6.8434 1.6454 -1.9925 0.9712
-6.9625 1.0276 -1.9924 0.9712
-7.0262 0.4018 -1.9923 0.9712
-6.7235 -2.0838 -1.9927 0.9712
-6.5114 -2.6762 -1.9930 0.9712
-6.2475 -3.2475 -1.9933 0.9712
-4.2595 4.8951 -1.9958 0.9732
-5.4006 3.5885 -1.9944 0.9732
-5.9507 2.5697 -1.9937 0.9732
-6.3115 1.4699 -1.9932 0.9732
-5.7306 -3.0310 -1.9940 0.9732
-5.1020 -4.0036 -1.9948 0.9732
-4.7253 -4.4442 -1.9952 0.9732
-3.8615 -5.2168 -1.9963 0.9732
-2.8738 -5.8241 -1.9976 0.9732
-0.0735 -6.5057 -2.0011 0.9731
2.2119 -6.1287 -2.0041 0.9731
3.2689 -5.6413 -2.0054 0.9731
3.7608 -5.3285 -2.0060 0.9731
5.3938 -3.6785 -2.0081 0.9730
5.7018 -3.1828 -2.0085 0.9730
5.9643 -2.6614 -2.0088 0.9730
6.3441 -1.5584 -2.0093 0.9730
6.4584 -0.9858 -2.0095 0.9730
6.5208 -0.4051 -2.0095 0.9730
6.5310 0.1788 -2.0096 0.9730
6.4888 0.7612 -2.0095 0.9730
6.3945 1.3375 -2.0094 0.9730
6.2490 1.9030 -2.0092 0.9730
5.5186 3.4896 -2.0083 0.9730
5.1838 3.9676 -2.0078 0.9731
3.9438 5.1955 -2.0063 0.9731
3.4630 5.5252 -2.0057 0.9731
2.4234 6.0491 -2.0043 0.9731
1.8729 6.2392 -2.0036 0.9731
1.3078 6.3792 -2.0029 0.9731
0.7327 6.4681 -2.0022 0.9731
0.1521 6.5053 -2.0014 0.9731
-0.4293 6.4905 -2.0007 0.9731
-1.0068 6.4239 -2.0000 0.9732
-2.6705 5.9211 -1.9979 0.9732
-3.1875 5.6571 -1.9972 0.9732
-3.6788 5.3482 -1.9966 0.9732
-4.9606 4.1785 -1.9949 0.9732
-5.8872 2.7127 -1.9938 0.9732
-6.2743 1.6218 -1.9933 0.9732
-6.3936 1.0550 -1.9931 0.9732
-6.4619 0.4798 -1.9930 0.9732
-6.4443 -0.6773 -1.9930 0.9732
-6.3584 -1.2501 -1.9932 0.9732
-5.1969 -3.8790 -1.9946 0.9732
-4.8309 -4.3286 -1.9951 0.9732
-4.4262 -4.7439 -1.9956 0.9732
-3.9860 -5.1216 -1.9962 0.9732
-3.0133 -5.7525 -1.9974 0.9732
-1.9433 -6.2010 -1.9988 0.9732
-0.8099 -6.4525 -2.0002 0.9732
-0.2305 -6.5014 -2.0009 0.9731
0.3511 -6.4984 -2.0017 0.9731
0.9303 -6.4435 -2.0024 0.9731
2.0631 -6.1797 -2.0039 0.9731
2.6076 -5.9728 -2.0046 0.9731
3.1315 -5.7180 -2.0052 0.9731
4.1012 -5.0729 -2.0065 0.9731
4.9408 -4.2648 -2.0075 0.9731
6.1258 -2.2669 -2.0090 0.9730
6.5091 -0.5624 -2.0095 0.9730
6.5334 0.0211 -2.0096 0.9730
6.5053 0.6044 -2.0095 0.9730
6.4251 1.1828 -2.0094 0.9730
6.1110 2.3064 -2.0090 0.9730
5.8798 2.8424 -2.0087 0.9730
4.5087 4.7169 -2.0070 0.9731
2.5689 5.9894 -2.0045 0.9731
0.8887 6.4492 -2.0024 0.9731
0.3091 6.5004 -2.0016 0.9731
-1.4233 6.3429 -1.9994 0.9732
-2.5270 5.9844 -1.9980 0.9732
-3.0503 5.7329 -1.9974 0.9732
-4.0189 5.0957 -1.9961 0.9732
-5.5431 3.3630 -1.9942 0.9732
-5.8203 2.8541 -1.9938 0.9732
-6.0510 2.3226 -1.9936 0.9732
-6.4485 0.6357 -1.9930 0.9732
-5.8696 -2.7506 -1.9938 0.9732
-5.2887 -3.7522 -1.9945 0.9732
-4.9336 -4.2104 -1.9950 0.9732
-3.1510 -5.6776 -1.9972 0.9732
-2.6323 -5.9383 -1.9979 0.9732
-1.5351 -6.3162 -1.9993 0.9732
-0.9653 -6.4304 -2.0000 0.9732
-0.3874 -6.4933 -2.0007 0.9731
0.1941 -6.5043 -2.0015 0.9731
1.3490 -6.3708 -2.0030 0.9731
1.9131 -6.2271 -2.0037 0.9731
3.9773 -5.1700 -2.0063 0.9731
4.4243 -4.7956 -2.0069 0.9731
4.8361 -4.3825 -2.0074 0.9731
5.5410 -3.4539 -2.0083 0.9730
5.8284 -2.9459 -2.0087 0.9730
6.0691 -2.4140 -2.0090 0.9730
6.2611 -1.8627 -2.0092 0.9730
6.4030 -1.2963 -2.0094 0.9730
6.4936 -0.7193 -2.0095 0.9730
6.5320 -0.1366 -2.0096 0.9730
6.5181 0.4472 -2.0095 0.9730
6.1651 2.1583 -2.0091 0.9730
5.9469 2.6998 -2.0088 0.9730
5.6811 3.2195 -2.0085 0.9730
5.3699 3.7132 -2.0081 0.9730
5.0157 4.1770 -2.0076 0.9731
3.7263 5.3526 -2.0060 0.9731
3.2324 5.6622 -2.0054 0.9731
1.6145 6.3099 -2.0033 0.9731
1.0442 6.4265 -2.0026 0.9731
-0.1155 6.5050 -2.0011 0.9731
-0.6957 6.4663 -2.0004 0.9731
-1.2699 6.3760 -1.9996 0.9732
-2.3821 6.0442 -1.9982 0.9732
-2.9113 5.8054 -1.9975 0.9732
-3.4169 5.5204 -1.9969 0.9732
-3.8950 5.1917 -1.9963 0.9732
-5.1277 3.9705 -1.9947 0.9732
-5.4606 3.4960 -1.9943 0.9732
-5.7499 2.9939 -1.9939 0.9732
-5.9934 2.4681 -1.9936 0.9732
-6.4761 0.2137 -1.9930 0.9732
-6.4111 -0.9417 -1.9931 0.9732
-5.9341 -2.6080 -1.9937 0.9732
-5.6784 -3.1280 -1.9940 0.9732
-4.2279 -4.9225 -1.9959 0.9732
-3.7726 -5.2819 -1.9964 0.9732
-2.7746 -5.8725 -1.9977 0.9732
-2.2399 -6.0989 -1.9984 0.9732
-1.6869 -6.2767 -1.9991 0.9732
-1.1201 -6.4046 -1.9998 0.9732
-0.5439 -6.4814 -2.0005 0.9731
0.0370 -6.5065 -2.0013 0.9731
0.6181 -6.4796 -2.0020 0.9731
2.3158 -6.0906 -2.0042 0.9731
3.3645 -5.5852 -2.0055 0.9731
4.3069 -4.9006 -2.0067 0.9731
5.4557 -3.5865 -2.0082 0.9730
6.3698 -1.4504 -2.0093 0.9730
6.5268 -0.2943 -2.0095 0.9730
6.5270 0.2897 -2.0095 0.9730
6.4749 0.8714 -2.0095 0.9730
6.0106 2.5556 -2.0089 0.9730
5.7575 3.0816 -2.0086 0.9730
5.4583 3.5827 -2.0082 0.9730
5.1154 4.0549 -2.0078 0.9731
4.3104 4.8977 -2.0067 0.9731
3.3684 5.5830 -2.0055 0.9731
1.7665 6.2697 -2.0035 0.9731
0.6226 6.4792 -2.0020 0.9731
-1.6826 6.2779 -1.9991 0.9732
-2.2357 6.1005 -1.9984 0.9732
-2.7706 5.8745 -1.9977 0.9732
-3.2830 5.6018 -1.9971 0.9732
-5.0307 4.0934 -1.9948 0.9732
-5.3750 3.6270 -1.9944 0.9732
-5.9323 2.6122 -1.9937 0.9732
-6.3008 1.5149 -1.9932 0.9732
-6.4691 0.3699 -1.9930 0.9732
-6.4319 -0.7867 -1.9931 0.9732
-6.3364 -1.3580 -1.9932 0.9732
-6.1903 -1.9185 -1.9934 0.9732
-3.5228 4.8656 -1.9968 0.9750
-3.9422 4.5304 -1.9962 0.9750
-4.3299 4.1592 -1.9957 0.9750
-4.6829 3.7551 -1.9953 0.9750
-5.5078 2.3784 -1.9942 0.9750
-5.6975 1.8769 -1.9940 0.9750
-5.8418 1.3605 -1.9938 0.9750
-5.9396 0.8333 -1.9937 0.9750
-5.9901 0.2996 -1.9936 0.9750
-5.9929 -0.2365 -1.9936 0.9750
-5.8558 -1.2988 -1.9938 0.9750
-5.7169 -1.8167 -1.9940 0.9750
-5.5325 -2.3202 -1.9942 0.9750
-5.3040 -2.8053 -1.9945 0.9750
-5.0331 -3.2683 -1.9948 0.9750
-4.7221 -3.7054 -1.9952 0.9750
-3.9896 -4.4884 -1.9962 0.9750
-3.5738 -4.8280 -1.9967 0.9750
-2.1683 -5.6076 -1.9985 0.9750
-1.6594 -5.7807 -1.9991 0.9750
-1.1370 -5.9077 -1.9998 0.9750
-0.6051 -5.9877 -2.0005 0.9750
0.4699 -6.0039 -2.0018 0.9749
1.0045 -5.9400 -2.0025 0.9749
1.5314 -5.8285 -2.0032 0.9749
2.0464 -5.6703 -2.0038 0.9749
3.4793 -4.9296 -2.0057 0.9749
3.9066 -4.6005 -2.0062 0.9749
4.6649 -3.8341 -2.0072 0.9749
5.2746 -2.9443 -2.0080 0.9749
5.7158 -1.9597 -2.0085 0.9749
5.9742 -0.9119 -2.0088 0.9748
6.0319 -0.3748 -2.0089 0.9748
6.0023 0.7042 -2.0089 0.9748
5.9151 1.2373 -2.0088 0.9748
5.7805 1.7604 -2.0086 0.9749
4.4476 4.0830 -2.0069 0.9749
4.0642 4.4627 -2.0064 0.9749
3.6485 4.8066 -2.0059 0.9749
3.2038 5.1117 -2.0053 0.9749
2.7338 5.3758 -2.0047 0.9749
2.2421 5.5967 -2.0041 0.9749
1.7328 5.7727 -2.0035 0.9749
1.2100 5.9024 -2.0028 0.9749
0.1407 6.0194 -2.0014 0.9749
-0.3972 6.0059 -2.0007 0.9749
-1.4582 5.8355 -1.9994 0.9750
-1.9728 5.6801 -1.9987 0.9750
-2.4713 5.4795 -1.9981 0.9750
-3.8319 4.6245 -1.9964 0.9750
-4.5912 3.8673 -1.9954 0.9750
-4.9172 3.4412 -1.9950 0.9750
-5.2039 2.9878 -1.9946 0.9750
-5.6507 2.0139 -1.9941 0.9750
-5.9178 0.9765 -1.9937 0.9750
-5.8853 -1.1571 -1.9938 0.9750
-5.7589 -1.6781 -1.9939 0.9750
-4.4711 -4.0062 -1.9956 0.9750
-3.2519 -5.0519 -1.9971 0.9750
-2.3028 -5.5531 -1.9983 0.9750
-1.7983 -5.7384 -1.9990 0.9750
-1.2792 -5.8780 -1.9996 0.9750
-0.7494 -5.9708 -2.0003 0.9750
0.8608 -5.9620 -2.0023 0.9749
1.3902 -5.8632 -2.0030 0.9749
1.9088 -5.7176 -2.0037 0.9749
2.8972 -5.2902 -2.0049 0.9749
3.3590 -5.0118 -2.0055 0.9749
4.1992 -4.3367 -2.0066 0.9749
5.4560 -2.5943 -2.0082 0.9749
5.8318 -1.5828 -2.0087 0.9748
5.9503 -1.0558 -2.0088 0.9748
6.0436 0.0195 -2.0089 0.9748
5.4391 2.6294 -2.0082 0.9749
5.1817 3.1041 -2.0078 0.9749
4.8829 3.5537 -2.0075 0.9749
3.7638 4.7174 -2.0060 0.9749
3.3266 5.0333 -2.0055 0.9749
2.3768 5.5414 -2.0043 0.9749
1.8718 5.7297 -2.0036 0.9749
0.8223 5.9673 -2.0023 0.9749
-0.2521 6.0143 -2.0009 0.9749
-0.7879 5.9657 -2.0002 0.9750
-3.2844 5.0307 -1.9971 0.9750
-4.1247 4.3639 -1.9960 0.9750
-4.4968 3.9772 -1.9955 0.9750
-5.1305 3.1127 -1.9947 0.9750
-5.3870 2.6417 -1.9944 0.9750
-5.7696 1.6409 -1.9939 0.9750
-5.8926 1.1191 -1.9938 0.9750
-5.9687 0.5884 -1.9937 0.9750
-5.9973 0.0530 -1.9936 0.9750
-5.9781 -0.4827 -1.9936 0.9750
-5.9114 -1.0147 -1.9937 0.9750
-4.8949 -3.4728 -1.9950 0.9750
-4.5662 -3.8969 -1.9954 0.9750
-3.8021 -4.6492 -1.9964 0.9750
-3.3726 -4.9715 -1.9969 0.9750
-2.4360 -5.4954 -1.9981 0.9750
-1.9362 -5.6928 -1.9988 0.9750
-1.4205 -5.8449 -1.9994 0.9750
-0.8932 -5.9504 -2.0001 0.9750
3.2368 -5.0910 -2.0054 0.9749
3.6795 -4.7830 -2.0059 0.9749
4.4739 -4.0543 -2.0069 0.9749
4.8191 -3.6394 -2.0074 0.9749
5.1258 -3.1951 -2.0078 0.9749
5.3916 -2.7251 -2.0081 0.9749
5.6142 -2.2331 -2.0084 0.9749
5.9230 -1.1991 -2.0088 0.9748
6.0294 0.4137 -2.0089 0.9748
5.9681 0.9504 -2.0088 0.9748
5.8590 1.4794 -2.0087 0.9748
4.9675 3.4350 -2.0076 0.9749
3.8768 4.6256 -2.0062 0.9749
3.4473 4.9519 -2.0056 0.9749
2.9905 5.2384 -2.0051 0.9749
2.5100 5.4829 -2.0044 0.9749
2.0098 5.6833 -2.0038 0.9749
1.4938 5.8382 -2.0032 0.9749
0.4311 6.0067 -2.0018 0.9749
-0.6437 5.9835 -2.0004 0.9750
-1.1751 5.9001 -1.9998 0.9750
-3.1623 5.1089 -1.9972 0.9750
-4.3998 4.0849 -1.9957 0.9750
-5.0541 3.2358 -1.9948 0.9750
-5.3219 2.7710 -1.9945 0.9750
-5.5473 2.2844 -1.9942 0.9750
-5.7285 1.7797 -1.9940 0.9750
-5.9528 0.7323 -1.9937 0.9750
-5.9943 0.1978 -1.9936 0.9750
-5.9341 -0.8717 -1.9937 0.9750
-5.4924 -2.4139 -1.9943 0.9750
-5.2557 -2.8952 -1.9946 0.9750
-4.6587 -3.7853 -1.9953 0.9750
-3.9129 -4.5558 -1.9963 0.9750
-1.5611 -5.8084 -1.9993 0.9750
-0.5033 -5.9975 -2.0006 0.9749
0.0342 -6.0205 -2.0013 0.9749
0.5719 -5.9954 -2.0020 0.9749
1.1054 -5.9224 -2.0026 0.9749
1.6304 -5.8020 -2.0033 0.9749
3.1127 -5.1673 -2.0052 0.9749
5.5584 -2.3679 -2.0083 0.9749
5.7484 -1.8623 -2.0086 0.9749
5.9889 -0.8102 -2.0089 0.9748
6.0375 -0.2722 -2.0089 0.9748
5.9894 0.8061 -2.0089 0.9748
5.7497 1.8583 -2.0086 0.9749
5.3260 2.8506 -2.0080 0.9749
4.7322 3.7512 -2.0073 0.9749
3.5661 4.8676 -2.0058 0.9749
3.1163 5.1651 -2.0052 0.9749
1.6344 5.8009 -2.0033 0.9749
0.5761 5.9951 -2.0020 0.9749
0.0384 6.0205 -2.0013 0.9749
-0.4992 5.9979 -2.0006 0.9749
-1.5571 5.8095 -1.9993 0.9750
-2.0689 5.6454 -1.9986 0.9750
-2.5640 5.4364 -1.9980 0.9750
-3.0383 5.1842 -1.9974 0.9750
-3.4880 4.8908 -1.9968 0.9750
-3.9098 4.5585 -1.9963 0.9750
-4.3002 4.1901 -1.9958 0.9750
-4.6561 3.7886 -1.9953 0.9750
-5.4908 2.4177 -1.9943 0.9750
-5.6840 1.9175 -1.9940 0.9750
-5.8320 1.4022 -1.9938 0.9750
-5.9335 0.8758 -1.9937 0.9750
-5.9533 -0.7282 -1.9937 0.9750
-5.5489 -2.2806 -1.9942 0.9750
-3.2751 4.5234 -1.9971 0.9766
-3.6650 4.2119 -1.9966 0.9766
-4.0255 3.8669 -1.9961 0.9766
-4.6473 3.0879 -1.9953 0.9766
-5.1209 2.2114 -1.9947 0.9766
-5.5694 0.2786 -1.9942 0.9766
-5.5721 -0.2198 -1.9942 0.9766
-5.5303 -0.7166 -1.9942 0.9766
-5.3154 -1.6891 -1.9945 0.9766
-5.1439 -2.1572 -1.9947 0.9766
-4.9314 -2.6083 -1.9950 0.9766
-4.3903 -3.4450 -1.9957 0.9766
-4.0659 -3.8241 -1.9961 0.9766
-2.9091 -4.7685 -1.9975 0.9766
-2.4724 -5.0106 -1.9981 0.9765
-2.0157 -5.2129 -1.9987 0.9765
-1.0569 -5.4917 -1.9999 0.9765
-0.5625 -5.5658 -2.0005 0.9765
-0.0633 -5.5956 -2.0012 0.9765
0.4368 -5.5807 -2.0018 0.9765
1.9020 -5.2702 -2.0037 0.9765
2.8108 -4.8507 -2.0048 0.9765
3.2336 -4.5815 -2.0054 0.9765
3.6307 -4.2756 -2.0059 0.9765
4.3352 -3.5631 -2.0068 0.9764
4.9017 -2.7362 -2.0075 0.9764
5.3116 -1.8211 -2.0080 0.9764
5.6053 -0.3483 -2.0084 0.9764
5.4968 1.1498 -2.0082 0.9764
4.9939 2.5647 -2.0076 0.9764
4.1333 3.7945 -2.0065 0.9764
3.3909 4.4671 -2.0056 0.9765
2.5408 4.9963 -2.0045 0.9765
1.1247 5.4861 -2.0027 0.9765
-0.8660 5.5257 -2.0001 0.9765
-2.7424 4.8670 -1.9978 0.9765
-3.9313 3.9631 -1.9962 0.9766
-4.5717 3.1994 -1.9954 0.9766
-5.3995 1.3957 -1.9944 0.9766
-5.5022 0.9079 -1.9942 0.9766
-5.5611 0.4129 -1.9942 0.9766
-5.5459 -0.5829 -1.9942 0.9766
-4.7513 -2.9247 -1.9952 0.9766
-4.1568 -3.7246 -1.9960 0.9766
-3.8085 -4.0818 -1.9964 0.9766
-3.4296 -4.4067 -1.9969 0.9766
-3.0232 -4.6965 -1.9974 0.9766
-2.1408 -5.1623 -1.9985 0.9765
-0.6966 -5.5502 -2.0004 0.9765
0.8001 -5.5416 -2.0023 0.9765
1.7741 -5.3142 -2.0035 0.9765
2.2422 -5.1361 -2.0041 0.9765
2.6927 -4.9167 -2.0047 0.9765
3.1218 -4.6579 -2.0052 0.9765
3.9025 -4.0303 -2.0062 0.9764
4.2477 -3.6665 -2.0066 0.9764
4.5591 -3.2732 -2.0070 0.9764
5.2659 -1.9487 -2.0079 0.9764
5.4194 -1.4709 -2.0081 0.9764
5.4098 1.5058 -2.0081 0.9764
5.0546 2.4435 -2.0077 0.9764
4.8154 2.8847 -2.0074 0.9764
3.0917 4.6779 -2.0052 0.9765
2.2090 5.1503 -2.0041 0.9765
1.7398 5.3254 -2.0035 0.9765
1.2569 5.4578 -2.0029 0.9765
-0.2344 5.5905 -2.0010 0.9765
-1.2243 5.4562 -1.9997 0.9765
-2.6243 4.9322 -1.9979 0.9765
-3.0534 4.6769 -1.9974 0.9766
-3.8347 4.0571 -1.9964 0.9766
-4.1807 3.6977 -1.9959 0.9766
-4.4933 3.3089 -1.9955 0.9766
-4.7700 2.8940 -1.9952 0.9766
-5.2073 1.9988 -1.9946 0.9766
-5.4788 1.0405 -1.9943 0.9766
-5.5496 0.5471 -1.9942 0.9766
-5.5762 0.0493 -1.9942 0.9766
-5.5583 -0.4488 -1.9942 0.9766
-5.3904 -1.4305 -1.9944 0.9766
-4.8203 -2.8091 -1.9951 0.9766
-4.2453 -3.6230 -1.9958 0.9766
-3.5347 -4.3223 -1.9967 0.9766
-2.2646 -5.1087 -1.9984 0.9765
-1.7999 -5.2921 -1.9990 0.9765
1.1601 -5.4788 -2.0027 0.9765
1.6452 -5.3550 -2.0033 0.9765
3.4197 -4.4452 -2.0056 0.9765
3.8039 -4.1231 -2.0061 0.9765
4.1578 -3.7678 -2.0065 0.9764
4.4785 -3.3821 -2.0069 0.9764
5.0104 -2.5324 -2.0076 0.9764
5.2172 -2.0752 -2.0079 0.9764
5.5041 -1.1143 -2.0082 0.9764
5.5819 -0.6183 -2.0083 0.9764
5.6150 -0.1174 -2.0084 0.9764
5.5461 0.8832 -2.0083 0.9764
5.4447 1.3748 -2.0082 0.9764
5.2997 1.8553 -2.0080 0.9764
4.8839 2.7677 -2.0075 0.9764
4.6164 3.1922 -2.0071 0.9764
4.3121 3.5910 -2.0067 0.9764
2.7794 4.8686 -2.0048 0.9765
2.3329 5.0959 -2.0042 0.9765
1.8680 5.2823 -2.0036 0.9765
0.8980 5.5269 -2.0024 0.9765
0.4008 5.5833 -2.0018 0.9765
-0.0994 5.5950 -2.0011 0.9765
-0.5984 5.5620 -2.0005 0.9765
-1.0923 5.4846 -1.9999 0.9765
-2.5047 4.9945 -1.9981 0.9765
-2.9398 4.7496 -1.9975 0.9766
-3.3513 4.4669 -1.9970 0.9766
-3.7359 4.1488 -1.9965 0.9766
-4.6990 3.0084 -1.9953 0.9766
-4.9481 2.5764 -1.9950 0.9766
-5.5348 0.6809 -1.9942 0.9766
-5.5174 -0.8104 -1.9942 0.9766
-5.1066 -2.2444 -1.9947 0.9766
-4.6273 -3.1179 -1.9954 0.9766
-4.3313 -3.5193 -1.9957 0.9766
-4.0005 -3.8928 -1.9962 0.9766
-2.8278 -4.8175 -1.9976 0.9765
-1.9269 -5.2467 -1.9988 0.9765
-1.4512 -5.3994 -1.9994 0.9765
0.0318 -5.5962 -2.0013 0.9765
1.5154 -5.3927 -2.0032 0.9765
1.9914 -5.2375 -2.0038 0.9765
2.4519 -5.0402 -2.0044 0.9765
2.8930 -4.8024 -2.0049 0.9765
3.7030 -4.2134 -2.0060 0.9765
4.0654 -3.8668 -2.0064 0.9764
4.9476 -2.6525 -2.0075 0.9764
5.1654 -2.2004 -2.0078 0.9764
5.3419 -1.7306 -2.0080 0.9764
5.4755 -1.2468 -2.0082 0.9764
5.5653 -0.7529 -2.0083 0.9764
5.6106 0.2491 -2.0084 0.9764
5.5658 0.7490 -2.0083 0.9764
5.3431 1.7269 -2.0080 0.9764
5.1670 2.1969 -2.0078 0.9764
3.7059 4.2109 -2.0060 0.9765
3.3143 4.5239 -2.0055 0.9765
2.4554 5.0385 -2.0044 0.9765
1.9951 5.2361 -2.0038 0.9765
1.5191 5.3917 -2.0032 0.9765
-0.4640 5.5753 -2.0007 0.9765
-1.4474 5.4005 -1.9994 0.9765
-1.9233 5.2481 -1.9988 0.9765
-2.3835 5.0539 -1.9982 0.9765
-4.8846 2.6952 -1.9950 0.9766
-5.1051 2.2479 -1.9948 0.9766
-5.2848 1.7829 -1.9945 0.9766
-5.4224 1.3037 -1.9943 0.9766
-5.5353 -0.6770 -1.9942 0.9766
-5.4530 -1.1687 -1.9943 0.9766
-5.3273 -1.6511 -1.9945 0.9766
-4.9498 -2.5729 -1.9949 0.9766
-2.6681 4.4789 -1.9979 0.9779
-3.7571 3.6091 -1.9965 0.9779
-4.0636 3.2585 -1.9961 0.9779
-4.3376 2.8821 -1.9957 0.9779
-4.5769 2.4829 -1.9954 0.9779
-4.7797 2.0640 -1.9952 0.9779
-5.0697 1.1807 -1.9948 0.9779
-5.1546 0.7232 -1.9947 0.9779
-5.1984 0.2600 -1.9946 0.9780
-5.2009 -0.2052 -1.9946 0.9780
-5.1619 -0.6688 -1.9947 0.9780
-5.0818 -1.1271 -1.9948 0.9779
-4.9613 -1.5765 -1.9949 0.9779
-4.3676 -2.8362 -1.9957 0.9779
-3.4617 -3.8946 -1.9968 0.9779
-3.1008 -4.1891 -1.9973 0.9779
-1.8811 -4.8649 -1.9988 0.9779
-0.9863 -5.1249 -2.0000 0.9779
-0.5249 -5.1940 -2.0006 0.9779
-0.0590 -5.2217 -2.0012 0.9779
2.6226 -4.5260 -2.0046 0.9778
3.3875 -3.9892 -2.0056 0.9778
3.7310 -3.6716 -2.0060 0.9778
4.0448 -3.3244 -2.0064 0.9778
4.5731 -2.5528 -2.0071 0.9778
4.7835 -2.1345 -2.0073 0.9778
4.9555 -1.6990 -2.0075 0.9778
5.2295 -0.3249 -2.0079 0.9778
5.2376 0.1434 -2.0079 0.9778
5.1283 1.0727 -2.0078 0.9778
4.6592 2.3928 -2.0072 0.9778
4.1579 3.1824 -2.0065 0.9778
3.5241 3.8697 -2.0057 0.9778
1.9445 4.8537 -2.0037 0.9779
1.5029 5.0065 -2.0032 0.9779
1.0495 5.1192 -2.0026 0.9779
-1.7115 4.9278 -1.9991 0.9779
-3.3249 4.0126 -1.9970 0.9779
-4.2670 2.9861 -1.9958 0.9779
-5.0398 1.3027 -1.9948 0.9779
-5.1357 0.8474 -1.9947 0.9779
-5.1765 -0.5440 -1.9947 0.9780
-4.8482 -1.8969 -1.9951 0.9779
-3.8797 -3.4763 -1.9963 0.9779
-3.5545 -3.8097 -1.9967 0.9779
-3.2009 -4.1128 -1.9972 0.9779
-1.9979 -4.8177 -1.9987 0.9779
-1.5601 -4.9783 -1.9993 0.9779
-1.1097 -5.0992 -1.9998 0.9779
0.2817 -5.2155 -2.0016 0.9779
1.2057 -5.0852 -2.0028 0.9779
1.6554 -4.9587 -2.0033 0.9779
2.5124 -4.5876 -2.0044 0.9778
2.9128 -4.3460 -2.0049 0.9778
3.6411 -3.7603 -2.0059 0.9778
4.5100 -2.6623 -2.0070 0.9778
4.9129 -1.8181 -2.0075 0.9778
5.0561 -1.3722 -2.0077 0.9778
5.2201 -0.4510 -2.0079 0.9778
5.0471 1.4048 -2.0077 0.9778
4.9010 1.8497 -2.0075 0.9778
4.7157 2.2797 -2.0072 0.9778
3.9410 3.4464 -2.0063 0.9778
3.6167 3.7837 -2.0059 0.9778
2.8847 4.3647 -2.0049 0.9778
2.0612 4.8057 -2.0039 0.9778
1.6234 4.9692 -2.0033 0.9779
0.2481 5.2172 -2.0016 0.9779
-0.2187 5.2169 -2.0010 0.9779
-0.6835 5.1750 -2.0004 0.9779
-2.4492 4.6031 -1.9981 0.9779
-3.2273 4.0920 -1.9971 0.9779
-3.5790 3.7866 -1.9967 0.9779
-3.9020 3.4512 -1.9963 0.9779
-4.4521 2.7011 -1.9956 0.9779
-4.6749 2.2924 -1.9953 0.9779
-5.0070 1.4240 -1.9949 0.9779
-5.1799 0.5106 -1.9947 0.9780
-5.2047 0.0460 -1.9946 0.9780
-5.1302 -0.8806 -1.9947 0.9779
-5.0313 -1.3352 -1.9948 0.9779
-4.2476 -3.0136 -1.9958 0.9779
-3.9623 -3.3815 -1.9962 0.9779
-3.2990 -4.0341 -1.9970 0.9779
-2.9263 -4.3136 -1.9975 0.9779
-2.5300 -4.5588 -1.9980 0.9779
-2.1134 -4.7678 -1.9986 0.9779
-1.2323 -5.0705 -1.9997 0.9779
-0.7748 -5.1618 -2.0003 0.9779
-0.3109 -5.2119 -2.0008 0.9779
0.6215 -5.1872 -2.0020 0.9779
1.5351 -4.9968 -2.0032 0.9779
1.9758 -4.8411 -2.0038 0.9779
2.8069 -4.4148 -2.0048 0.9778
3.1906 -4.1475 -2.0053 0.9778
3.5491 -3.8469 -2.0058 0.9778
3.8792 -3.5154 -2.0062 0.9778
4.1784 -3.1555 -2.0066 0.9778
4.4442 -2.7703 -2.0069 0.9778
4.6746 -2.3627 -2.0072 0.9778
4.8674 -1.9361 -2.0074 0.9778
5.0214 -1.4939 -2.0076 0.9778
5.1351 -1.0396 -2.0078 0.9778
5.2076 -0.5769 -2.0079 0.9778
5.2385 -0.1096 -2.0079 0.9778
4.9444 1.7309 -2.0075 0.9778
4.7696 2.1653 -2.0073 0.9778
4.3071 2.9783 -2.0067 0.9778
3.3617 4.0109 -2.0055 0.9778
2.9894 4.2941 -2.0051 0.9778
2.1768 4.7549 -2.0040 0.9778
1.2955 5.0634 -2.0029 0.9779
0.8380 5.1574 -2.0023 0.9779
0.3740 5.2101 -2.0017 0.9779
-1.4719 5.0054 -1.9994 0.9779
-1.9125 4.8526 -1.9988 0.9779
-2.3375 4.6612 -1.9983 0.9779
-3.1278 4.1690 -1.9973 0.9779
-3.4868 3.8721 -1.9968 0.9779
-4.1183 3.1889 -1.9960 0.9779
-4.8140 1.9825 -1.9951 0.9779
-4.9713 1.5445 -1.9949 0.9779
-5.0890 1.0943 -1.9948 0.9779
-5.1661 0.6355 -1.9947 0.9780
-5.2021 0.1716 -1.9946 0.9780
-5.1967 -0.2936 -1.9946 0.9780
-4.9338 -1.6607 -1.9950 0.9779
-4.3189 -2.9101 -1.9957 0.9779
-3.3952 -3.9530 -1.9969 0.9779
-3.0294 -4.2414 -1.9974 0.9779
-2.6392 -4.4961 -1.9979 0.9779
-2.2277 -4.7150 -1.9984 0.9779
-1.3542 -5.0389 -1.9995 0.9779
-0.4366 -5.2025 -2.0007 0.9779
0.0297 -5.2222 -2.0013 0.9779
0.4961 -5.2002 -2.0019 0.9779
0.9587 -5.1367 -2.0025 0.9779
1.8582 -4.8870 -2.0036 0.9779
2.2878 -4.7028 -2.0042 0.9778
2.6993 -4.4809 -2.0047 0.9778
3.4550 -3.9312 -2.0056 0.9778
4.1008 -3.2553 -2.0065 0.9778
4.3759 -2.8766 -2.0068 0.9778
4.6160 -2.4747 -2.0071 0.9778
4.8192 -2.0529 -2.0074 0.9778
4.9837 -1.6146 -2.0076 0.9778
5.1084 -1.1632 -2.0077 0.9778
5.1921 -0.7024 -2.0079 0.9778
5.2343 -0.2360 -2.0079 0.9778
5.2344 0.2324 -2.0079 0.9778
5.1926 0.6988 -2.0079 0.9778
5.1092 1.1597 -2.0077 0.9778
4.9849 1.6111 -2.0076 0.9778
4.6177 2.4716 -2.0071 0.9778
4.1031 3.2525 -2.0065 0.9778
3.4577 3.9289 -2.0056 0.9778
3.0923 4.2209 -2.0052 0.9778
2.2911 4.7013 -2.0042 0.9778
1.8616 4.8858 -2.0036 0.9779
1.4175 5.0311 -2.0031 0.9779
0.9623 5.1361 -2.0025 0.9779
0.0333 5.2222 -2.0013 0.9779
-0.8956 5.1418 -2.0001 0.9779
-1.7949 4.8977 -1.9990 0.9779
-2.6361 4.4979 -1.9979 0.9779
-3.0264 4.2435 -1.9974 0.9779
-3.7313 3.6359 -1.9965 0.9779
-4.3170 2.9131 -1.9958 0.9779
-4.7649 2.0981 -1.9952 0.9779
-4.9327 1.6641 -1.9950 0.9779
-5.0897 -1.0908 -1.9948 0.9779
-4.9724 -1.5411 -1.9949 0.9779
-4.6200 -2.4015 -1.9954 0.9779
-2.8624 3.9534 -1.9976 0.9791
-3.2033 3.6812 -1.9972 0.9791
-3.8055 3.0516 -1.9964 0.9791
-4.6306 1.5254 -1.9954 0.9791
-4.7479 1.1057 -1.9952 0.9792
-1.9409 0.0971 -0.7954 0.9916
-1.9337 -0.0763 -0.7920 0.9917
-1.9512 -0.2528 -0.8053 0.9915
-4.7593 -1.0556 -1.9952 0.9792
-4.4964 -1.8857 -1.9955 0.9791
-4.0903 -2.6561 -1.9960 0.9791
-3.2418 -3.6471 -1.9971 0.9791
-2.9038 -3.9229 -1.9975 0.9791
-0.9236 -4.7988 -2.0001 0.9791
-0.4915 -4.8634 -2.0006 0.9791
0.8157 -4.8238 -2.0023 0.9791
1.6617 -4.6042 -2.0034 0.9791
2.0667 -4.4386 -2.0039 0.9791
2.4554 -4.2373 -2.0044 0.9791
2.8246 -4.0021 -2.0048 0.9791
3.1714 -3.7347 -2.0053 0.9790
3.4929 -3.4373 -2.0057 0.9790
4.0501 -2.7621 -2.0064 0.9790
4.4780 -1.9982 -2.0069 0.9790
4.8486 -0.7401 -2.0074 0.9790
4.8955 -0.3042 -2.0075 0.9790
4.8715 0.5715 -2.0074 0.9790
4.8008 1.0042 -2.0074 0.9790
4.1437 2.6202 -2.0065 0.9790
3.8925 2.9793 -2.0062 0.9790
2.9620 3.9021 -2.0050 0.9790
2.6011 4.1501 -2.0046 0.9791
2.2196 4.3647 -2.0041 0.9791
1.4071 4.6875 -2.0030 0.9791
0.9826 4.7931 -2.0025 0.9791
0.5506 4.8604 -2.0020 0.9791
-0.3226 4.8781 -2.0008 0.9791
-0.7567 4.8285 -2.0003 0.9791
-1.6027 4.6144 -1.9992 0.9791
-2.7663 4.0216 -1.9977 0.9791
-3.1136 3.7577 -1.9973 0.9791
-3.4361 3.4639 -1.9969 0.9791
-3.9960 2.7965 -1.9962 0.9791
-4.2291 2.4281 -1.9959 0.9791
-1.9536 0.1451 -0.8018 0.9916
-1.9132 -0.0293 -0.7831 0.9918
-4.7833 -0.9404 -1.9952 0.9792
-4.6805 -1.3639 -1.9953 0.9791
-4.5404 -1.7765 -1.9955 0.9791
-4.1530 -2.5565 -1.9960 0.9791
-3.9088 -2.9176 -1.9963 0.9791
-3.3287 -3.5676 -1.9970 0.9791
-2.9975 -3.8514 -1.9974 0.9791
-2.6422 -4.1046 -1.9979 0.9791
-1.4609 -4.6616 -1.9994 0.9791
-1.0391 -4.7747 -1.9999 0.9791
-0.6087 -4.8498 -2.0005 0.9791
0.2638 -4.8834 -2.0016 0.9791
0.6990 -4.8417 -2.0021 0.9791
1.5499 -4.6426 -2.0032 0.9791
2.3522 -4.2951 -2.0042 0.9791
3.0802 -3.8099 -2.0052 0.9790
3.7102 -3.2026 -2.0060 0.9790
3.9821 -2.8590 -2.0063 0.9790
4.4284 -2.1056 -2.0069 0.9790
4.5992 -1.7020 -2.0071 0.9790
4.8867 -0.4222 -2.0075 0.9790
4.8237 0.8880 -2.0074 0.9790
4.7248 1.3151 -2.0073 0.9790
3.6895 3.2264 -2.0059 0.9790
3.3860 3.5423 -2.0056 0.9790
1.9298 4.4994 -2.0037 0.9791
1.5199 4.6525 -2.0032 0.9791
1.0981 4.7683 -2.0026 0.9791
0.2323 4.8849 -2.0015 0.9791
-0.2048 4.8848 -2.0010 0.9791
-0.6400 4.8457 -2.0004 0.9791
-2.2935 4.3104 -1.9983 0.9791
-2.6686 4.0875 -1.9979 0.9791
-3.6542 3.2320 -1.9966 0.9791
-2.2087 0.4195 -0.9201 0.9903
-1.9560 -0.1579 -0.8032 0.9916
-2.1352 -0.3665 -0.8867 0.9907
-4.4152 -2.0691 -1.9956 0.9791
-4.2134 -2.4554 -1.9959 0.9791
-3.4137 -3.4861 -1.9969 0.9791
-3.0894 -3.7777 -1.9973 0.9791
-1.1539 -4.7479 -1.9998 0.9791
0.1458 -4.8880 -2.0014 0.9791
0.5819 -4.8568 -2.0020 0.9791
1.4373 -4.6784 -2.0031 0.9791
1.8498 -4.5325 -2.0036 0.9791
2.9871 -3.8830 -2.0050 0.9790
3.6317 -3.2910 -2.0059 0.9790
3.9117 -2.9541 -2.0062 0.9790
4.1606 -2.5934 -2.0065 0.9790
4.7007 -1.3985 -2.0072 0.9790
4.8072 -0.9732 -2.0074 0.9790
4.8751 -0.5400 -2.0074 0.9790
4.9039 -0.1026 -2.0075 0.9790
4.8438 0.7713 -2.0074 0.9790
4.6287 1.6204 -2.0071 0.9790
4.4650 2.0270 -2.0069 0.9790
4.2657 2.4173 -2.0067 0.9790
4.0322 2.7882 -2.0064 0.9790
3.7664 3.1366 -2.0060 0.9790
3.1472 3.7551 -2.0053 0.9790
2.7987 4.0202 -2.0048 0.9791
1.2130 4.7408 -2.0028 0.9791
0.3502 4.8783 -2.0017 0.9791
-0.5229 4.8601 -2.0006 0.9791
-0.9545 4.7927 -2.0000 0.9791
-1.3783 4.6870 -1.9995 0.9791
-1.7908 4.5440 -1.9990 0.9791
-2.1889 4.3648 -1.9985 0.9791
-2.9290 3.9040 -1.9975 0.9791
-4.3251 2.2520 -1.9957 0.9791
-4.5084 1.8566 -1.9955 0.9791
-4.6557 1.4465 -1.9953 0.9791
-1.9287 0.0636 -0.7898 0.9917
-1.9433 -0.2854 -0.8039 0.9915
-4.6207 -1.5552 -1.9954 0.9791
-4.4637 -1.9618 -1.9956 0.9791
-3.7858 -3.0761 -1.9964 0.9791
-1.6839 -4.5850 -1.9991 0.9791
-1.2681 -4.7183 -1.9996 0.9791
-0.8419 -4.8140 -2.0002 0.9791
-0.4088 -4.8713 -2.0007 0.9791
0.0278 -4.8897 -2.0013 0.9791
0.8977 -4.8095 -2.0024 0.9791
1.3239 -4.7114 -2.0029 0.9791
1.7398 -4.5755 -2.0035 0.9791
2.1419 -4.4030 -2.0040 0.9791
2.5272 -4.1952 -2.0045 0.9791
3.2346 -3.6804 -2.0054 0.9790
4.3213 -2.3168 -2.0067 0.9790
4.9000 -0.2209 -2.0075 0.9790
4.9001 0.2175 -2.0075 0.9790
4.6666 1.5082 -2.0072 0.9790
3.5534 3.3751 -2.0058 0.9790
3.2371 3.6782 -2.0054 0.9790
2.5301 4.1935 -2.0045 0.9791
2.1450 4.4016 -2.0040 0.9791
1.7429 4.5744 -2.0035 0.9791
1.3272 4.7105 -2.0029 0.9791
0.4678 4.8688 -2.0018 0.9791
-0.4054 4.8716 -2.0007 0.9791
-1.6808 4.5862 -1.9991 0.9791
-2.0830 4.4167 -1.9986 0.9791
-2.4685 4.2120 -1.9981 0.9791
-2.8341 3.9738 -1.9976 0.9791
-3.4943 3.4049 -1.9968 0.9791
-3.7837 3.0787 -1.9964 0.9791
-4.4624 1.9649 -1.9956 0.9791
-4.6196 1.5585 -1.9954 0.9791
-1.9452 0.1112 -0.7974 0.9916
-1.9537 -0.2390 -0.8055 0.9915
-4.7667 -1.0216 -1.9952 0.9792
-4.6567 -1.4432 -1.9953 0.9791
-3.0085 3.4575 -1.9974 0.9802
-3.3046 3.1744 -1.9970 0.9802
-3.5743 2.8661 -1.9967 0.9802
-4.2044 1.8156 -1.9959 0.9802
-1.5863 0.5226 -0.7279 0.9927
-1.5331 0.3570 -0.6860 0.9932
-1.5247 -0.3382 -0.6807 0.9932
-4.2233 -1.7711 -1.9959 0.9802
-3.8418 -2.4947 -1.9964 0.9802
-3.6042 -2.8282 -1.9967 0.9802
-3.3378 -3.1393 -1.9970 0.9802
-3.0447 -3.4255 -1.9974 0.9802
-2.7273 -3.6844 -1.9978 0.9802
