ply
format ascii 1.0
element vertex 1596
property float32 x
property float32 y
property float32 z
property float32 I
end_header
-7.0606 -0.5587 -2.0051 0.9710
-6.9823 -1.1876 -2.0050 0.9710
-6.4161 -2.9973 -2.0048 0.9710
-5.7790 -4.0913 -2.0045 0.9710
-4.9572 -5.0541 -2.0041 0.9710
-4.4851 -5.4764 -2.0039 0.9710
-3.9771 -5.8548 -2.0037 0.9710
-3.4374 -6.1862 -2.0035 0.9710
-2.2803 -6.6977 -2.0030 0.9710
-1.6722 -6.8738 -2.0027 0.9710
2.0481 -6.6574 -1.9718 0.9715
4.2974 -5.5773 -1.9932 0.9712
4.7894 -5.1823 -1.9977 0.9711
5.6410 -4.2506 -1.9995 0.9711
5.9979 -3.7290 -1.9994 0.9711
6.3068 -3.1777 -1.9992 0.9711
6.5653 -2.6010 -1.9991 0.9711
6.7712 -2.0036 -1.9990 0.9711
6.9230 -1.3903 -1.9990 0.9711
7.0194 -0.7658 -1.9989 0.9711
7.0597 -0.1352 -1.9989 0.9711
6.9711 1.1241 -1.9990 0.9711
6.8429 1.7428 -1.9990 0.9711
6.6600 2.3477 -1.9991 0.9711
6.1362 3.4965 -1.9993 0.9711
5.4164 4.5340 -1.9997 0.9711
4.9898 5.0005 -1.9998 0.9711
4.5233 5.4271 -2.0000 0.9711
4.0205 5.8104 -2.0003 0.9711
3.4853 6.1473 -2.0005 0.9711
2.3356 6.6713 -2.0010 0.9710
0.4820 7.0548 -2.0018 0.9710
-0.7822 7.0298 -2.0024 0.9710
-4.2720 5.6440 -2.0039 0.9710
-5.2098 4.7941 -2.0043 0.9710
-5.6180 4.3095 -2.0044 0.9710
-5.9812 3.7904 -2.0046 0.9710
-6.2965 3.2407 -2.0047 0.9710
-6.7736 2.0679 -2.0049 0.9710
-7.0340 0.8287 -2.0050 0.9710
-4.2799 4.9120 -2.0039 0.9731
-4.7023 4.5102 -2.0040 0.9731
-5.0870 4.0721 -2.0042 0.9731
-5.7316 3.1016 -2.0045 0.9731
-6.1929 2.0315 -2.0047 0.9731
-6.3500 1.4698 -2.0048 0.9731
-6.4561 0.8963 -2.0048 0.9731
-6.5126 -0.2677 -2.0048 0.9731
-6.4625 -0.8488 -2.0048 0.9731
-6.0051 -2.5328 -2.0046 0.9731
-5.7543 -3.0593 -2.0045 0.9731
-4.7353 -4.4754 -2.0040 0.9731
-2.3308 -6.0807 -2.0030 0.9731
-1.7777 -6.2639 -2.0027 0.9731
-1.2105 -6.3970 -2.0025 0.9731
-0.0520 -6.5087 -2.0020 0.9731
1.1076 -6.4123 -2.0015 0.9731
2.2296 -6.1066 -1.9995 0.9732
2.7650 -5.8796 -1.9984 0.9732
3.2802 -5.6100 -1.9988 0.9732
4.2295 -4.9394 -2.0001 0.9732
4.6537 -4.5411 -2.0000 0.9732
5.0406 -4.1066 -1.9998 0.9732
5.3872 -3.6393 -1.9996 0.9732
5.9484 -2.6215 -1.9994 0.9732
6.1587 -2.0791 -1.9993 0.9732
6.4963 0.2110 -1.9992 0.9732
6.4515 0.7909 -1.9992 0.9732
6.3551 1.3645 -1.9992 0.9732
6.2079 1.9272 -1.9993 0.9732
5.7660 3.0022 -1.9995 0.9732
5.4749 3.5058 -1.9996 0.9732
5.1400 3.9815 -1.9998 0.9732
4.7639 4.4254 -1.9999 0.9732
4.3496 4.8340 -2.0001 0.9732
3.4199 5.5324 -2.0005 0.9731
2.9120 5.8166 -2.0007 0.9731
1.2648 6.3831 -2.0015 0.9731
0.6892 6.4714 -2.0017 0.9731
-0.4743 6.4923 -2.0022 0.9731
-1.0529 6.4247 -2.0025 0.9731
-2.1807 6.1360 -2.0030 0.9731
-2.7208 5.9172 -2.0032 0.9731
-3.2392 5.6509 -2.0034 0.9731
-3.7318 5.3393 -2.0036 0.9731
-4.6239 4.5903 -2.0040 0.9731
-5.6774 3.1997 -2.0045 0.9731
-5.9410 2.6795 -2.0046 0.9731
-6.1570 2.1378 -2.0047 0.9731
-6.3237 1.5789 -2.0047 0.9731
-6.5040 0.4276 -2.0048 0.9731
-6.5162 -0.1556 -2.0048 0.9731
-6.3842 -1.3134 -2.0048 0.9731
-6.2410 -1.8788 -2.0047 0.9731
-6.0478 -2.4291 -2.0046 0.9731
-5.8061 -2.9598 -2.0045 0.9731
-5.5179 -3.4668 -2.0044 0.9731
-4.3993 -4.8054 -2.0039 0.9731
-1.3204 -6.3754 -2.0025 0.9731
-0.7451 -6.4671 -2.0023 0.9731
-0.1640 -6.5070 -2.0020 0.9731
0.4183 -6.4947 -2.0018 0.9731
0.9971 -6.4305 -2.0015 0.9731
1.5678 -6.3149 -2.0013 0.9731
3.1829 -5.6651 -1.9987 0.9732
3.6794 -5.3620 -2.0002 0.9732
4.5750 -4.6206 -2.0000 0.9732
4.9693 -4.1928 -1.9998 0.9732
5.6357 -3.2404 -1.9995 0.9732
5.9025 -2.7235 -1.9994 0.9732
6.1220 -2.1848 -1.9993 0.9732
6.2926 -1.6288 -1.9993 0.9732
6.4989 0.0992 -1.9992 0.9732
6.4641 0.6798 -1.9992 0.9732
6.2401 1.8201 -1.9993 0.9732
5.8168 2.9025 -1.9995 0.9732
5.5344 3.4110 -1.9996 0.9732
5.2076 3.8924 -1.9997 0.9732
4.8392 4.3427 -1.9999 0.9732
3.9893 5.1360 -2.0003 0.9732
3.0116 5.7655 -2.0007 0.9731
1.9372 6.2111 -2.0012 0.9731
1.3744 6.3602 -2.0014 0.9731
0.8004 6.4584 -2.0017 0.9731
-0.9422 6.4417 -2.0024 0.9731
-1.5145 6.3325 -2.0027 0.9731
-3.1415 5.7057 -2.0034 0.9731
-5.8939 2.7813 -2.0046 0.9731
-6.1193 2.2434 -2.0047 0.9731
-6.2956 1.6874 -2.0047 0.9731
-6.4214 1.1179 -2.0048 0.9731
-6.5179 -0.0434 -2.0048 0.9731
-6.4879 -0.6259 -2.0048 0.9731
-5.8563 -2.8595 -2.0045 0.9731
-5.5769 -3.3714 -2.0044 0.9731
-4.8866 -4.3099 -2.0041 0.9731
-4.4814 -4.7291 -2.0039 0.9731
-3.0651 -5.7468 -2.0033 0.9731
-1.9923 -6.1994 -2.0028 0.9731
-1.4299 -6.3519 -2.0026 0.9731
-0.2759 -6.5033 -2.0021 0.9731
0.3065 -6.5011 -2.0018 0.9731
0.8864 -6.4469 -2.0016 0.9731
1.4590 -6.3411 -2.0013 0.9731
2.5615 -5.9722 -1.9987 0.9732
5.2589 -3.8226 -1.9997 0.9732
5.5792 -3.3370 -1.9996 0.9732
5.8548 -2.8247 -1.9994 0.9732
6.0836 -2.2899 -1.9993 0.9732
6.2637 -1.7368 -1.9993 0.9732
6.3937 -1.1699 -1.9992 0.9732
6.4726 -0.5936 -1.9992 0.9732
6.4997 -0.0126 -1.9992 0.9732
6.0925 2.2662 -1.9994 0.9732
5.8658 2.8019 -1.9995 0.9732
4.9132 4.2587 -1.9999 0.9732
2.5875 5.9686 -2.0009 0.9731
2.0438 6.1767 -2.0011 0.9731
0.3318 6.5000 -2.0019 0.9731
-2.5155 6.0071 -2.0031 0.9731
-3.0427 5.7588 -2.0033 0.9731
-3.5458 5.4643 -2.0035 0.9731
-4.0205 5.1260 -2.0038 0.9731
-4.8699 4.3290 -2.0041 0.9731
-6.0797 2.3483 -2.0046 0.9731
-6.4012 1.2283 -2.0048 0.9731
-6.4854 0.6511 -2.0048 0.9731
-6.5177 0.0687 -2.0048 0.9731
-6.1279 -2.2196 -2.0046 0.9731
-4.5622 -4.6514 -2.0040 0.9731
-2.0987 -6.1643 -2.0029 0.9731
-1.5391 -6.3265 -2.0026 0.9731
0.7753 -6.4614 -2.0016 0.9731
1.9129 -6.2179 -2.0010 0.9731
3.9692 -5.1514 -2.0002 0.9732
4.8222 -4.3615 -1.9999 0.9732
5.1924 -3.9126 -1.9997 0.9732
5.5210 -3.4325 -1.9996 0.9732
5.8054 -2.9250 -1.9995 0.9732
6.0433 -2.3942 -1.9994 0.9732
6.2329 -1.8444 -1.9993 0.9732
6.4169 1.0347 -1.9992 0.9732
6.2989 1.6043 -1.9993 0.9732
6.1305 2.1610 -1.9993 0.9732
5.3384 3.7108 -1.9997 0.9732
4.9856 4.1735 -1.9998 0.9732
4.1635 4.9955 -2.0002 0.9732
3.7006 5.3482 -2.0004 0.9731
3.2081 5.6582 -2.0006 0.9731
1.5924 6.3088 -2.0013 0.9731
1.0222 6.4267 -2.0016 0.9731
0.4436 6.4932 -2.0018 0.9731
-0.1386 6.5077 -2.0021 0.9731
-3.9316 5.1943 -2.0037 0.9731
-4.3806 4.8226 -2.0039 0.9731
-4.7946 4.4120 -2.0041 0.9731
-5.5045 3.4883 -2.0044 0.9731
-5.7946 2.9824 -2.0045 0.9731
-6.2337 1.9030 -2.0047 0.9731
-6.3790 1.3382 -2.0048 0.9731
-6.5156 0.1809 -2.0048 0.9731
-5.9732 0.8293 -2.0046 0.9749
-6.0235 0.2920 -2.0046 0.9749
-6.0255 -0.2477 -2.0046 0.9749
-5.8849 -1.3166 -2.0045 0.9749
-5.7435 -1.8374 -2.0045 0.9749
-5.5560 -2.3434 -2.0044 0.9749
-5.3240 -2.8305 -2.0043 0.9749
-5.0493 -3.2949 -2.0042 0.9749
-4.7343 -3.7328 -2.0040 0.9749
-3.9932 -4.5155 -2.0037 0.9749
-3.5733 -4.8540 -2.0035 0.9749
-3.1247 -5.1534 -2.0033 0.9749
-1.6449 -5.7959 -2.0027 0.9749
-0.5863 -5.9948 -2.0022 0.9749
-0.0481 -6.0225 -2.0020 0.9749
1.5510 -5.8174 -2.0013 0.9749
3.4900 -4.9029 -2.0005 0.9750
4.3065 -4.2023 -2.0001 0.9750
4.9852 -3.3678 -1.9998 0.9750
5.5047 -2.4259 -1.9996 0.9750
5.6992 -1.9240 -1.9995 0.9750
5.8483 -1.4068 -1.9994 0.9750
5.9505 -0.8784 -1.9994 0.9750
6.0051 -0.3429 -1.9994 0.9750
6.0117 0.1953 -1.9994 0.9750
5.9702 0.7319 -1.9994 0.9750
5.8810 1.2627 -1.9994 0.9750
5.5626 2.2900 -1.9996 0.9750
5.3359 2.7782 -1.9997 0.9750
5.0664 3.2443 -1.9998 0.9750
3.6093 4.8156 -2.0004 0.9750
2.2029 5.6024 -2.0011 0.9749
1.6935 5.7775 -2.0013 0.9749
0.0999 6.0218 -2.0020 0.9749
-0.9743 5.9448 -2.0024 0.9749
-1.5020 5.8345 -2.0027 0.9749
-2.0178 5.6776 -2.0029 0.9749
-2.9971 5.2286 -2.0033 0.9749
-3.4529 4.9402 -2.0035 0.9749
-3.8811 4.6122 -2.0037 0.9749
-4.9669 3.4179 -2.0042 0.9749
-5.2528 2.9604 -2.0043 0.9749
-5.4967 2.4791 -2.0044 0.9749
-5.8508 1.4608 -2.0045 0.9749
-6.0289 -0.1439 -2.0046 0.9749
-5.7743 -1.7383 -2.0045 0.9749
-5.5956 -2.2474 -2.0044 0.9749
-5.3720 -2.7385 -2.0043 0.9749
-4.7979 -3.6509 -2.0041 0.9749
-4.4519 -4.0649 -2.0039 0.9749
-4.0704 -4.4462 -2.0037 0.9749
-3.6563 -4.7918 -2.0036 0.9749
-3.2130 -5.0990 -2.0034 0.9749
-1.7444 -5.7669 -2.0027 0.9749
-1.2217 -5.8991 -2.0025 0.9749
-0.6894 -5.9840 -2.0023 0.9749
1.4507 -5.8434 -2.0013 0.9749
1.9671 -5.6897 -2.0011 0.9749
2.4676 -5.4904 -2.0009 0.9749
2.9482 -5.2473 -2.0007 0.9749
3.4051 -4.9623 -2.0005 0.9750
4.2336 -4.2758 -2.0001 0.9750
4.9266 -3.4531 -1.9998 0.9750
5.2153 -2.9987 -1.9997 0.9750
5.6653 -2.0219 -1.9995 0.9750
5.9983 -0.4462 -1.9994 0.9750
5.9819 0.6291 -1.9994 0.9750
5.9019 1.1613 -1.9994 0.9750
5.6011 2.1939 -1.9996 0.9750
5.3828 2.6859 -1.9997 0.9750
5.1215 3.1566 -1.9998 0.9750
4.8191 3.6020 -1.9999 0.9750
4.4781 4.0187 -2.0001 0.9750
4.1013 4.4033 -2.0002 0.9750
3.6916 4.7527 -2.0004 0.9750
3.2522 5.0642 -2.0006 0.9749
2.7868 5.3352 -2.0008 0.9749
1.2718 5.8853 -2.0015 0.9749
-0.8718 5.9605 -2.0024 0.9749
-1.4013 5.8594 -2.0026 0.9749
-1.9197 5.7113 -2.0028 0.9749
-4.2044 4.3201 -2.0038 0.9749
-4.5741 3.9272 -2.0040 0.9749
-4.9072 3.5029 -2.0041 0.9749
-5.4532 2.5733 -2.0044 0.9749
-5.8248 1.5612 -2.0045 0.9749
-5.9411 1.0343 -2.0046 0.9749
-6.0305 -0.0402 -2.0046 0.9749
-6.0027 -0.5791 -2.0046 0.9749
-5.6334 -2.1508 -2.0044 0.9749
-5.1599 -3.1193 -2.0042 0.9749
-4.8600 -3.5678 -2.0041 0.9749
-4.5213 -3.9877 -2.0039 0.9749
-4.1464 -4.3756 -2.0038 0.9749
-3.7383 -4.7283 -2.0036 0.9749
-3.3003 -5.0431 -2.0034 0.9749
-2.3491 -5.5490 -2.0030 0.9749
-1.3231 -5.8773 -2.0025 0.9749
-0.7923 -5.9714 -2.0023 0.9749
-0.2553 -6.0176 -2.0021 0.9749
0.2836 -6.0156 -2.0018 0.9749
2.8575 -5.2974 -2.0007 0.9749
4.1595 -4.3481 -2.0002 0.9750
4.8665 -3.5374 -1.9999 0.9750
5.4180 -2.6140 -1.9996 0.9750
5.9168 -1.0826 -1.9994 0.9750
5.9898 -0.5494 -1.9994 0.9750
5.9919 0.5260 -1.9994 0.9750
5.9209 1.0596 -1.9994 0.9750
5.4282 2.5929 -1.9996 0.9750
5.1750 3.0679 -1.9998 0.9750
4.8803 3.5185 -1.9999 0.9750
4.5466 3.9410 -2.0000 0.9750
3.7728 4.6884 -2.0004 0.9750
2.8781 5.2863 -2.0008 0.9749
2.3943 5.5230 -2.0010 0.9749
1.8912 5.7156 -2.0012 0.9749
1.3728 5.8624 -2.0014 0.9749
0.3070 6.0146 -2.0019 0.9749
-0.2319 6.0186 -2.0021 0.9749
-0.7691 5.9745 -2.0023 0.9749
-1.3003 5.8825 -2.0026 0.9749
-1.8211 5.7434 -2.0028 0.9749
-2.3275 5.5582 -2.0030 0.9749
-2.8154 5.3284 -2.0032 0.9749
-3.2807 5.0559 -2.0034 0.9749
-3.7199 4.7429 -2.0036 0.9749
-4.8462 3.5867 -2.0041 0.9749
-5.7970 1.6612 -2.0045 0.9749
-6.0004 0.6024 -2.0046 0.9749
-6.0118 -0.4757 -2.0046 0.9749
-5.9451 -1.0112 -2.0046 0.9749
-5.6697 -2.0536 -2.0044 0.9749
-5.4631 -2.5521 -2.0044 0.9749
-5.2128 -3.0301 -2.0042 0.9749
-4.2211 -4.3036 -2.0038 0.9749
-1.9419 -5.7037 -2.0028 0.9749
-1.4241 -5.8538 -2.0026 0.9749
-0.8950 -5.9570 -2.0024 0.9749
-0.3588 -6.0124 -2.0021 0.9749
0.1801 -6.0197 -2.0019 0.9749
0.7174 -5.9788 -2.0017 0.9749
1.2489 -5.8901 -2.0014 0.9749
1.7702 -5.7542 -2.0012 0.9749
2.2773 -5.5723 -2.0010 0.9749
3.2325 -5.0767 -2.0006 0.9750
3.6730 -4.7670 -2.0004 0.9750
4.0841 -4.4191 -2.0002 0.9750
5.1091 -3.1764 -1.9998 0.9750
5.3723 -2.7068 -1.9996 0.9750
5.7680 -1.7068 -1.9995 0.9750
5.8973 -1.1843 -1.9994 0.9750
5.9794 -0.6523 -1.9994 0.9750
6.0138 -0.1152 -1.9994 0.9750
6.0000 0.4229 -1.9994 0.9750
5.9383 0.9576 -1.9994 0.9750
5.8290 1.4846 -1.9995 0.9750
5.6732 1.9998 -1.9995 0.9750
5.2269 2.9784 -1.9997 0.9750
4.6136 3.8621 -2.0000 0.9750
4.2503 4.2594 -2.0002 0.9750
3.8528 4.6227 -2.0003 0.9750
2.9686 5.2359 -2.0007 0.9749
2.4889 5.4809 -2.0009 0.9749
1.9892 5.6821 -2.0011 0.9749
1.4735 5.8378 -2.0014 0.9749
-0.1283 6.0216 -2.0021 0.9749
-0.6662 5.9867 -2.0023 0.9749
-1.7220 5.7737 -2.0028 0.9749
-2.7232 5.3760 -2.0032 0.9749
-3.1932 5.1115 -2.0034 0.9749
-4.0531 4.4620 -2.0038 0.9749
-4.4361 4.0822 -2.0039 0.9749
-5.0929 3.2274 -2.0042 0.9749
-5.3613 2.7594 -2.0043 0.9749
-5.9020 1.2381 -2.0046 0.9749
-5.9891 0.7056 -2.0046 0.9749
-4.3747 3.5019 -2.0039 0.9765
-4.6705 3.0970 -2.0040 0.9765
-5.3256 1.7470 -2.0043 0.9765
-5.4606 1.2640 -2.0044 0.9765
-5.5518 0.7708 -2.0044 0.9765
-5.6004 -0.2302 -2.0044 0.9765
-5.5573 -0.7299 -2.0044 0.9765
-5.1640 -2.1780 -2.0042 0.9765
-4.4003 -3.4695 -2.0039 0.9765
-4.0722 -3.8487 -2.0037 0.9765
-3.3213 -4.5116 -2.0034 0.9765
-2.9044 -4.7900 -2.0032 0.9765
-2.4643 -5.0300 -2.0030 0.9765
-2.0046 -5.2296 -2.0028 0.9765
-1.5289 -5.3873 -2.0026 0.9765
-1.0411 -5.5019 -2.0024 0.9765
-0.5450 -5.5723 -2.0022 0.9765
-0.0447 -5.5981 -2.0020 0.9765
1.4418 -5.4076 -2.0013 0.9765
1.9192 -5.2565 -2.0011 0.9765
2.3812 -5.0634 -2.0009 0.9765
3.2442 -4.5576 -2.0006 0.9765
5.2981 -1.7886 -1.9997 0.9765
5.4366 -1.3078 -1.9996 0.9765
5.5316 -0.8165 -1.9996 0.9765
5.4671 1.1738 -1.9996 0.9765
5.3404 1.6579 -1.9997 0.9765
5.1710 2.1288 -1.9998 0.9765
4.4216 3.4250 -2.0001 0.9765
4.0980 3.8069 -2.0002 0.9765
3.3551 4.4765 -2.0006 0.9765
2.5048 5.0033 -2.0009 0.9765
1.5742 5.3705 -2.0013 0.9765
0.0928 5.5975 -2.0020 0.9765
-0.4080 5.5840 -2.0022 0.9765
-1.3961 5.4232 -2.0026 0.9765
-1.8755 5.2773 -2.0028 0.9765
-2.3400 5.0890 -2.0030 0.9765
-3.2094 4.5918 -2.0034 0.9765
-3.6073 4.2869 -2.0036 0.9765
-4.3137 3.5766 -2.0039 0.9765
-4.6165 3.1768 -2.0040 0.9765
-4.8823 2.7516 -2.0041 0.9765
-5.5377 0.8662 -2.0044 0.9765
-5.5930 0.3677 -2.0044 0.9765
-5.6035 -0.1338 -2.0044 0.9765
-5.5691 -0.6342 -2.0044 0.9765
-5.4900 -1.1294 -2.0044 0.9765
-5.3669 -1.6156 -2.0043 0.9765
-5.2008 -2.0889 -2.0042 0.9765
-3.7833 -4.1326 -2.0036 0.9765
-3.3985 -4.4539 -2.0034 0.9765
-2.9864 -4.7394 -2.0033 0.9765
-2.5505 -4.9870 -2.0031 0.9765
-2.0943 -5.1945 -2.0029 0.9765
-0.6408 -5.5622 -2.0022 0.9765
-0.1410 -5.5966 -2.0020 0.9765
0.3598 -5.5862 -2.0018 0.9765
0.8577 -5.5311 -2.0016 0.9765
1.3485 -5.4317 -2.0014 0.9765
1.8285 -5.2889 -2.0012 0.9765
2.7405 -4.8778 -2.0008 0.9765
5.0776 -2.3429 -1.9998 0.9765
5.5761 -0.4148 -1.9996 0.9765
5.5909 0.0853 -1.9996 0.9765
5.5609 0.5848 -1.9996 0.9765
5.4864 1.0796 -1.9996 0.9765
5.3681 1.5658 -1.9997 0.9765
5.0039 2.4969 -1.9998 0.9765
4.7609 2.9343 -1.9999 0.9765
4.1628 3.7357 -2.0002 0.9765
3.8125 4.0932 -2.0004 0.9765
3.4316 4.4180 -2.0005 0.9765
3.0232 4.7075 -2.0007 0.9765
2.5905 4.9594 -2.0009 0.9765
2.1370 5.1716 -2.0011 0.9765
0.1892 5.5949 -2.0019 0.9765
-1.7844 5.3087 -2.0028 0.9765
-2.2520 5.1284 -2.0030 0.9765
-2.7017 4.9070 -2.0032 0.9765
-3.1299 4.6463 -2.0034 0.9765
-3.5330 4.3483 -2.0035 0.9765
-3.9079 4.0154 -2.0037 0.9765
-4.8341 2.8352 -2.0041 0.9765
-5.0685 2.3918 -2.0042 0.9765
-5.2622 1.9292 -2.0043 0.9765
-5.5220 0.9613 -2.0044 0.9765
-5.5858 0.4639 -2.0044 0.9765
-5.6050 -0.0373 -2.0044 0.9765
-5.5792 -0.5382 -2.0044 0.9765
-4.7959 -2.8992 -2.0041 0.9765
-4.5172 -3.3161 -2.0039 0.9765
-3.8539 -4.0669 -2.0036 0.9765
-0.7365 -5.5505 -2.0023 0.9765
-0.2373 -5.5935 -2.0021 0.9765
0.2636 -5.5917 -2.0019 0.9765
0.7624 -5.5451 -2.0016 0.9765
1.2549 -5.4542 -2.0014 0.9765
1.7373 -5.3196 -2.0012 0.9765
2.6562 -4.9243 -2.0008 0.9765
3.4900 -4.3718 -2.0005 0.9765
3.8666 -4.0420 -2.0003 0.9765
4.2121 -3.6799 -2.0001 0.9765
5.0366 -2.4300 -1.9998 0.9765
5.5915 -0.0109 -1.9996 0.9765
5.5701 0.4890 -1.9996 0.9765
5.5042 0.9850 -1.9996 0.9765
5.2411 1.9495 -1.9997 0.9765
4.8106 2.8519 -1.9999 0.9765
4.2264 3.6635 -2.0002 0.9765
3.5071 4.3582 -2.0005 0.9765
3.1037 4.6547 -2.0007 0.9765
2.2256 5.1340 -2.0010 0.9765
0.7839 5.5422 -2.0017 0.9765
0.2854 5.5907 -2.0019 0.9765
-1.6927 5.3385 -2.0027 0.9765
-2.6168 4.9527 -2.0031 0.9765
-4.1880 3.7228 -2.0038 0.9765
-5.2282 2.0194 -2.0043 0.9765
-5.3880 1.5440 -2.0043 0.9765
-5.5046 1.0562 -2.0044 0.9765
-5.5770 0.5599 -2.0044 0.9765
-5.6048 0.0591 -2.0044 0.9765
-5.5876 -0.4422 -2.0044 0.9765
-5.5256 -0.9399 -2.0044 0.9765
-5.0777 -2.3720 -2.0042 0.9765
-4.8451 -2.8163 -2.0041 0.9765
-3.5498 -4.3345 -2.0035 0.9765
-1.3237 -5.4411 -2.0025 0.9765
-0.3335 -5.5887 -2.0021 0.9765
0.1674 -5.5955 -2.0019 0.9765
1.1609 -5.4751 -2.0015 0.9765
1.6455 -5.3488 -2.0013 0.9765
2.1168 -5.1798 -2.0011 0.9765
2.5712 -4.9694 -2.0009 0.9765
3.0048 -4.7192 -2.0007 0.9765
3.4144 -4.4313 -2.0005 0.9765
3.7965 -4.1080 -2.0003 0.9765
4.4667 -3.3658 -2.0000 0.9765
4.7494 -2.9528 -1.9999 0.9765
4.9941 -2.5163 -1.9998 0.9765
5.3619 -1.5866 -1.9997 0.9765
5.4822 -1.1009 -1.9996 0.9765
5.5905 -0.1071 -1.9996 0.9765
5.5777 0.3931 -1.9996 0.9765
5.5203 0.8902 -1.9996 0.9765
5.4187 1.3801 -1.9996 0.9765
5.2738 1.8591 -1.9997 0.9765
4.8590 2.7687 -1.9999 0.9765
4.5923 3.1922 -2.0000 0.9765
3.9510 3.9595 -2.0003 0.9765
1.8491 5.2818 -2.0012 0.9765
1.3697 5.4265 -2.0014 0.9765
-0.6192 5.5648 -2.0023 0.9765
-2.9680 4.7511 -2.0033 0.9765
-3.3812 4.4671 -2.0035 0.9765
-3.7673 4.1473 -2.0036 0.9765
-4.7336 2.9998 -2.0041 0.9765
-4.9831 2.5647 -2.0042 0.9765
-5.3606 1.6365 -2.0043 0.9765
-5.4856 1.1508 -2.0044 0.9765
-5.6029 0.1556 -2.0044 0.9765
-3.4345 3.9417 -2.0035 0.9779
-3.7733 3.6192 -2.0036 0.9779
-4.0821 3.2676 -2.0038 0.9779
-4.3581 2.8898 -2.0039 0.9778
-4.9693 1.6301 -2.0042 0.9778
-5.0952 1.1794 -2.0042 0.9778
-5.1803 0.7192 -2.0042 0.9778
-5.2239 0.2532 -2.0043 0.9778
-5.2257 -0.2148 -2.0043 0.9778
-5.1855 -0.6811 -2.0042 0.9778
-4.9811 -1.5935 -2.0041 0.9778
-4.8185 -2.0323 -2.0041 0.9778
-4.6174 -2.4548 -2.0040 0.9778
-4.3792 -2.8576 -2.0039 0.9778
-4.1060 -3.2375 -2.0038 0.9779
-3.7999 -3.5913 -2.0036 0.9779
-3.4633 -3.9163 -2.0035 0.9779
-3.0991 -4.2099 -2.0033 0.9779
-1.4267 -5.0272 -2.0026 0.9779
-0.9715 -5.1341 -2.0024 0.9779
-0.5086 -5.1999 -2.0022 0.9779
0.4254 -5.2063 -2.0018 0.9779
1.7910 -4.9053 -2.0012 0.9779
2.2221 -4.7252 -2.0010 0.9779
2.6354 -4.5072 -2.0008 0.9779
3.0275 -4.2532 -2.0007 0.9779
4.0466 -3.2968 -2.0002 0.9779
4.9444 -1.6692 -1.9998 0.9779
5.0737 -1.2205 -1.9998 0.9779
5.1624 -0.7620 -1.9997 0.9779
5.1795 0.6350 -1.9997 0.9779
4.9839 1.5472 -1.9998 0.9779
4.8258 1.9866 -1.9999 0.9779
3.4917 3.8806 -2.0005 0.9779
3.1311 4.1775 -2.0006 0.9779
2.7453 4.4411 -2.0008 0.9779
2.3375 4.6691 -2.0010 0.9779
1.0152 5.1234 -2.0016 0.9779
0.5532 5.1942 -2.0018 0.9779
0.0866 5.2234 -2.0020 0.9779
-0.3807 5.2107 -2.0022 0.9779
-0.8451 5.1564 -2.0024 0.9779
-1.7501 4.9244 -2.0028 0.9779
-3.3661 4.0002 -2.0035 0.9779
-3.7105 3.6835 -2.0036 0.9779
-4.5556 2.5675 -2.0040 0.9778
-5.1672 0.8082 -2.0042 0.9778
-5.1227 -1.0539 -2.0042 0.9778
-5.0078 -1.5075 -2.0042 0.9778
-4.6590 -2.3750 -2.0040 0.9778
-4.1611 -3.1664 -2.0038 0.9779
-3.8612 -3.5254 -2.0037 0.9779
-3.5303 -3.8562 -2.0035 0.9779
-2.7867 -4.4225 -2.0032 0.9779
-1.5130 -5.0020 -2.0026 0.9779
0.8004 -5.1615 -2.0016 0.9779
1.2584 -5.0688 -2.0014 0.9779
2.1405 -4.7628 -2.0010 0.9779
3.3266 -4.0231 -2.0005 0.9779
3.9893 -3.3659 -2.0002 0.9779
4.2740 -2.9957 -2.0001 0.9779
4.5244 -2.6015 -2.0000 0.9779
5.0519 -1.3076 -1.9998 0.9779
5.2039 -0.3871 -1.9997 0.9779
5.1897 0.5458 -1.9997 0.9779
5.1202 1.0075 -1.9998 0.9779
5.0097 1.4612 -1.9998 0.9779
4.6698 2.3302 -2.0000 0.9779
3.5579 3.8199 -2.0005 0.9779
3.2024 4.1229 -2.0006 0.9779
2.4175 4.6281 -2.0010 0.9779
1.9943 4.8261 -2.0011 0.9779
1.1032 5.1051 -2.0015 0.9779
-0.7562 5.1701 -2.0023 0.9779
-1.2155 5.0823 -2.0025 0.9779
-2.1014 4.7855 -2.0029 0.9779
-2.5211 4.5789 -2.0031 0.9779
-2.9205 4.3356 -2.0033 0.9779
-3.2967 4.0575 -2.0034 0.9779
-3.9671 3.4061 -2.0037 0.9779
-4.2560 3.0380 -2.0038 0.9778
-4.5107 2.6455 -2.0040 0.9778
-4.7294 2.2318 -2.0041 0.9778
-4.9102 1.8001 -2.0041 0.9778
-5.2121 0.4328 -2.0043 0.9778
-5.1401 -0.9656 -2.0042 0.9778
-4.6992 -2.2945 -2.0040 0.9778
-4.4750 -2.7053 -2.0039 0.9778
-4.2150 -3.0943 -2.0038 0.9779
-3.9213 -3.4585 -2.0037 0.9779
-3.2423 -4.1009 -2.0034 0.9779
-2.4598 -4.6119 -2.0030 0.9779
-2.0374 -4.8129 -2.0029 0.9779
-1.1476 -5.0978 -2.0025 0.9779
-0.2214 -5.2197 -2.0021 0.9779
0.7114 -5.1746 -2.0017 0.9779
1.6212 -4.9643 -2.0013 0.9779
2.8795 -4.3550 -2.0007 0.9779
3.2570 -4.0798 -2.0006 0.9779
3.9309 -3.4341 -2.0003 0.9779
4.2218 -3.0688 -2.0001 0.9779
4.4790 -2.6790 -2.0000 0.9779
4.7004 -2.2677 -1.9999 0.9779
5.0287 -1.3944 -1.9998 0.9779
5.1964 -0.4766 -1.9997 0.9779
5.1367 0.9193 -1.9998 0.9779
4.8912 1.8194 -1.9999 0.9779
4.7092 2.2494 -2.0000 0.9779
3.9442 3.4188 -2.0003 0.9779
2.8964 4.3438 -2.0007 0.9779
2.4967 4.5857 -2.0009 0.9779
2.0770 4.7910 -2.0011 0.9779
1.1908 5.0853 -2.0015 0.9779
0.7316 5.1719 -2.0017 0.9779
-0.2011 5.2206 -2.0021 0.9779
-0.6671 5.1822 -2.0023 0.9779
-1.5796 4.9816 -2.0027 0.9779
-2.0187 4.8209 -2.0029 0.9779
-2.8455 4.3851 -2.0032 0.9779
-3.9078 3.4738 -2.0037 0.9779
-5.1363 0.9855 -2.0042 0.9778
-5.2039 0.5225 -2.0043 0.9778
-5.2298 0.0552 -2.0043 0.9778
-5.2138 -0.4126 -2.0043 0.9778
-5.1559 -0.8770 -2.0042 0.9778
-4.9171 -1.7810 -2.0041 0.9778
-4.7380 -2.2133 -2.0040 0.9778
-4.5210 -2.6279 -2.0039 0.9778
-4.2677 -3.0214 -2.0038 0.9778
-3.9803 -3.3906 -2.0037 0.9779
-3.6610 -3.7326 -2.0036 0.9779
-2.9373 -4.3241 -2.0032 0.9779
-2.5388 -4.5690 -2.0031 0.9779
-2.1200 -4.7772 -2.0029 0.9779
-1.2352 -5.0774 -2.0025 0.9779
-0.7763 -5.1670 -2.0023 0.9779
-0.3112 -5.2152 -2.0021 0.9779
0.6223 -5.1862 -2.0017 0.9779
1.5356 -4.9915 -2.0013 0.9779
1.9754 -4.8338 -2.0011 0.9779
2.3994 -4.6374 -2.0009 0.9779
2.8041 -4.4040 -2.0008 0.9779
3.1863 -4.1353 -2.0006 0.9779
3.5430 -3.8336 -2.0004 0.9779
3.8712 -3.5013 -2.0003 0.9779
4.1685 -3.1410 -2.0002 0.9779
4.6607 -2.3483 -2.0000 0.9779
4.8518 -1.9222 -1.9999 0.9779
5.0040 -1.4807 -1.9998 0.9779
5.1162 -1.0274 -1.9998 0.9779
5.2173 -0.0999 -1.9997 0.9779
5.2053 0.3669 -1.9997 0.9779
5.1518 0.8307 -1.9998 0.9779
5.0570 1.2880 -1.9998 0.9779
4.9218 1.7349 -1.9999 0.9779
4.7471 2.1681 -1.9999 0.9779
4.2856 2.9790 -2.0001 0.9779
4.0024 3.3504 -2.0003 0.9779
2.9707 4.2933 -2.0007 0.9779
1.7256 4.9289 -2.0013 0.9779
0.8204 5.1584 -2.0017 0.9779
0.3560 5.2117 -2.0019 0.9779
-1.0398 5.1209 -2.0025 0.9779
-1.9355 4.8548 -2.0028 0.9779
-2.3619 4.6628 -2.0030 0.9779
-2.7695 4.4334 -2.0032 0.9779
-3.5153 3.8700 -2.0035 0.9779
-3.8474 3.5405 -2.0037 0.9779
-4.4169 2.7991 -2.0039 0.9778
-4.8452 1.9680 -2.0041 0.9778
-5.0019 1.5270 -2.0042 0.9778
-5.1941 0.6119 -2.0042 0.9778
-3.2156 3.6906 -2.0034 0.9791
-3.5329 3.3886 -2.0035 0.9791
-3.8219 3.0594 -2.0037 0.9791
-4.0804 2.7056 -2.0038 0.9791
-4.3061 2.3302 -2.0039 0.9791
-4.6526 1.5262 -2.0040 0.9791
-4.7705 1.1042 -2.0041 0.9791
-1.9474 0.2704 -0.8046 0.9915
-4.6637 -1.4919 -2.0040 0.9791
-4.3231 -2.2984 -2.0039 0.9791
-3.2427 -3.6668 -2.0034 0.9791
-0.9096 -4.8072 -2.0024 0.9791
0.3983 -4.8748 -2.0018 0.9791
2.0807 -4.4245 -2.0011 0.9791
2.4677 -4.2204 -2.0009 0.9791
2.8349 -3.9826 -2.0007 0.9791
3.1793 -3.7129 -2.0006 0.9791
3.4983 -3.4136 -2.0005 0.9791
4.0497 -2.7358 -2.0002 0.9791
4.2779 -2.3627 -2.0001 0.9791
4.7510 -1.1429 -1.9999 0.9791
4.8340 -0.7136 -1.9999 0.9791
4.6669 1.4488 -2.0000 0.9791
4.5188 1.8603 -2.0000 0.9791
4.3346 2.2569 -2.0001 0.9791
4.1157 2.6355 -2.0002 0.9791
3.2696 3.6337 -2.0006 0.9791
2.5706 4.1585 -2.0009 0.9791
0.5180 4.8635 -2.0018 0.9791
-0.7912 4.8280 -2.0024 0.9791
-2.0444 4.4463 -2.0029 0.9791
-2.8040 4.0118 -2.0032 0.9791
-3.1516 3.7453 -2.0034 0.9791
-4.2653 2.4039 -2.0039 0.9791
-4.4633 2.0131 -2.0039 0.9791
-4.6256 1.6060 -2.0040 0.9791
-2.0088 0.3142 -0.8322 0.9913
-1.9498 0.1282 -0.7997 0.9916
-1.9558 -0.2227 -0.8056 0.9915
-4.7962 -0.9867 -2.0041 0.9791
-4.5436 -1.8249 -2.0040 0.9791
-4.3621 -2.2237 -2.0039 0.9791
-4.1456 -2.6046 -2.0038 0.9791
-3.3054 -3.6105 -2.0034 0.9791
-2.6092 -4.1408 -2.0031 0.9791
-1.4167 -4.6834 -2.0026 0.9791
-0.9922 -4.7909 -2.0024 0.9791
-0.5599 -4.8600 -2.0022 0.9791
-0.1232 -4.8901 -2.0020 0.9791
0.3144 -4.8811 -2.0018 0.9791
0.7494 -4.8330 -2.0016 0.9791
1.1783 -4.7462 -2.0015 0.9791
1.5977 -4.6214 -2.0013 0.9791
2.0043 -4.4597 -2.0011 0.9791
2.3948 -4.2623 -2.0009 0.9791
4.2366 -2.4360 -2.0001 0.9791
4.4372 -2.0474 -2.0001 0.9791
4.6023 -1.6425 -2.0000 0.9791
4.8210 -0.7967 -1.9999 0.9791
4.8729 -0.3625 -1.9999 0.9791
4.8858 0.0746 -1.9999 0.9791
4.8596 0.5110 -1.9999 0.9791
4.3728 2.1819 -2.0001 0.9791
3.3316 3.5768 -2.0006 0.9791
2.9987 3.8606 -2.0007 0.9791
2.6418 4.1136 -2.0009 0.9791
2.2636 4.3336 -2.0010 0.9791
1.0330 4.7802 -2.0016 0.9791
-1.1381 4.7586 -2.0025 0.9791
-1.5590 4.6382 -2.0027 0.9791
-1.9676 4.4807 -2.0029 0.9791
-2.3605 4.2872 -2.0030 0.9791
-2.7345 4.0594 -2.0032 0.9791
-3.9848 2.8444 -2.0037 0.9791
-4.2233 2.4769 -2.0038 0.9791
-4.4280 2.0895 -2.0039 0.9791
-4.5972 1.6854 -2.0040 0.9791
-4.7296 1.2677 -2.0040 0.9791
-1.9568 0.1625 -0.8036 0.9915
-1.9047 -0.0127 -0.7796 0.9918
-1.9579 -0.1889 -0.8050 0.9915
-2.2004 -0.4133 -0.9163 0.9904
-4.7123 -1.3306 -2.0040 0.9791
-4.5743 -1.7465 -2.0040 0.9791
-4.1899 -2.5329 -2.0038 0.9791
-3.9465 -2.8972 -2.0037 0.9791
-3.3670 -3.5532 -2.0034 0.9791
-2.3031 -4.3182 -2.0030 0.9791
-1.4971 -4.6585 -2.0026 0.9791
-1.0745 -4.7732 -2.0024 0.9791
-0.2073 -4.8873 -2.0021 0.9791
0.6661 -4.8452 -2.0017 0.9791
1.9273 -4.4936 -2.0011 0.9791
2.6962 -4.0779 -2.0008 0.9791
3.3788 -3.5321 -2.0005 0.9791
3.6808 -3.2157 -2.0004 0.9791
3.9533 -2.8736 -2.0003 0.9791
4.1941 -2.5085 -2.0002 0.9791
4.4014 -2.1235 -2.0001 0.9791
4.5734 -1.7215 -2.0000 0.9791
4.7089 -1.3057 -1.9999 0.9791
4.8660 -0.4463 -1.9999 0.9791
4.8864 -0.0095 -1.9999 0.9791
4.4096 2.1064 -2.0001 0.9791
3.9645 2.8582 -2.0003 0.9791
3.6933 3.2014 -2.0004 0.9791
1.9448 4.4861 -2.0012 0.9791
1.5361 4.6424 -2.0013 0.9791
1.1150 4.7616 -2.0015 0.9791
0.6850 4.8427 -2.0017 0.9791
-0.6246 4.8522 -2.0023 0.9791
-1.4790 4.6643 -2.0026 0.9791
-1.8902 4.5138 -2.0028 0.9791
-2.6642 4.1058 -2.0032 0.9791
-3.0208 3.8515 -2.0033 0.9791
-3.3532 3.5663 -2.0035 0.9791
-3.6589 3.2524 -2.0036 0.9791
-4.1800 2.5492 -2.0038 0.9791
-4.3914 2.1654 -2.0039 0.9791
-4.5675 1.7642 -2.0040 0.9791
-4.8089 0.9227 -2.0041 0.9791
-1.9577 0.1966 -0.8053 0.9915
-4.7345 -1.2493 -2.0040 0.9791
-3.9958 -2.8289 -2.0037 0.9791
-3.4277 -3.4947 -2.0035 0.9791
-2.7502 -4.0487 -2.0032 0.9791
-2.3771 -4.2780 -2.0030 0.9791
-1.5770 -4.6321 -2.0027 0.9791
-1.1565 -4.7541 -2.0025 0.9791
-0.7269 -4.8380 -2.0023 0.9791
-0.2914 -4.8831 -2.0021 0.9791
0.1463 -4.8892 -2.0019 0.9791
0.5827 -4.8561 -2.0017 0.9791
1.4378 -4.6738 -2.0013 0.9791
2.2467 -4.3423 -2.0010 0.9791
2.9836 -3.8722 -2.0007 0.9791
3.6250 -3.2786 -2.0004 0.9791
4.1504 -2.5804 -2.0002 0.9791
4.3642 -2.1989 -2.0001 0.9791
4.5432 -1.7999 -2.0000 0.9791
4.8855 -0.0936 -1.9999 0.9791
4.8743 0.3435 -1.9999 0.9791
4.6087 1.6246 -2.0000 0.9791
4.4452 2.0302 -2.0001 0.9791
4.2461 2.4195 -2.0002 0.9791
4.0130 2.7895 -2.0003 0.9791
3.1297 3.7550 -2.0006 0.9791
2.4113 4.2530 -2.0010 0.9791
2.0217 4.4519 -2.0011 0.9791
1.6157 4.6152 -2.0013 0.9791
-0.9736 4.7948 -2.0024 0.9791
-2.2115 4.3658 -2.0030 0.9791
-2.5931 4.1509 -2.0031 0.9791
-2.9540 3.9028 -2.0033 0.9791
-3.2913 3.6234 -2.0034 0.9791
-4.1355 2.6207 -2.0038 0.9791
-4.3534 2.2406 -2.0039 0.9791
-4.5365 1.8426 -2.0040 0.9791
-4.6832 1.4297 -2.0040 0.9791
-4.7923 1.0053 -2.0041 0.9791
-1.9244 0.0534 -0.7879 0.9917
-3.0197 3.4657 -2.0033 0.9801
-3.8317 2.5407 -2.0037 0.9801
-4.0436 2.1881 -2.0038 0.9801
-4.2232 1.8180 -2.0038 0.9801
-1.5858 0.5202 -0.7273 0.9927
-1.5321 0.3546 -0.6854 0.9932
-1.5168 0.2106 -0.6674 0.9933
-1.5293 0.0741 -0.6673 0.9933
-1.5191 -0.1995 -0.6677 0.9933
-1.5262 -0.3415 -0.6816 0.9932
-1.5826 -0.5063 -0.7242 0.9928
-3.8502 -2.5124 -2.0037 0.9801
-3.0451 -3.4433 -2.0033 0.9801
-2.7249 -3.7015 -2.0032 0.9801
-2.3829 -3.9300 -2.0030 0.9801
-1.2545 -4.4203 -2.0025 0.9802
-0.8542 -4.5144 -2.0023 0.9802
-0.4472 -4.5722 -2.0022 0.9802
1.1831 -4.4374 -2.0015 0.9802
2.3175 -3.9635 -2.0010 0.9802
3.2854 -3.2059 -2.0006 0.9802
3.5586 -2.8992 -2.0004 0.9802
4.3482 -1.4679 -2.0001 0.9802
4.5816 -0.2616 -2.0000 0.9802
4.5867 0.1490 -2.0000 0.9802
4.4869 0.9634 -2.0000 0.9802
4.3829 1.3607 -2.0001 0.9802
4.2439 1.7471 -2.0002 0.9802
3.6287 2.8109 -2.0004 0.9802
3.3631 3.1242 -2.0005 0.9802
3.0706 3.4125 -2.0007 0.9802
1.6804 4.2735 -2.0013 0.9802
0.8927 4.5052 -2.0016 0.9802
0.0762 4.5930 -2.0020 0.9802
-0.3347 4.5818 -2.0022 0.9802
-0.7430 4.5339 -2.0023 0.9802
-1.1455 4.4498 -2.0025 0.9802
-1.5388 4.3299 -2.0027 0.9801
-1.9199 4.1754 -2.0028 0.9801
-2.2856 3.9873 -2.0030 0.9801
-2.6331 3.7673 -2.0031 0.9801
-2.9596 3.5171 -2.0033 0.9801
-3.2623 3.2387 -2.0034 0.9801
-3.5390 2.9342 -2.0035 0.9801
-3.7873 2.6063 -2.0036 0.9801
-4.0053 2.2574 -2.0037 0.9801
-4.1913 1.8903 -2.0038 0.9801
-1.5448 0.3857 -0.6939 0.9931
-1.5105 0.2363 -0.6663 0.9934
-1.5295 0.1005 -0.6680 0.9933
-1.5236 -0.1735 -0.6683 0.9933
-1.5118 -0.3110 -0.6727 0.9933
-4.2666 -1.7137 -2.0038 0.9801
-4.0962 -2.0881 -2.0038 0.9801
-3.8929 -2.4458 -2.0037 0.9801
-3.6585 -2.7839 -2.0036 0.9801
-2.7882 -3.6541 -2.0032 0.9801
-2.4502 -3.8885 -2.0030 0.9801
-0.5258 -4.5639 -2.0022 0.9802
0.7038 -4.5387 -2.0017 0.9802
1.5005 -4.3401 -2.0013 0.9802
1.8823 -4.1882 -2.0012 0.9802
2.2490 -4.0028 -2.0010 0.9802
2.5976 -3.7855 -2.0008 0.9802
3.2298 -3.2620 -2.0006 0.9802
3.5082 -2.9600 -2.0005 0.9802
3.7586 -2.6344 -2.0003 0.9802
4.1673 -1.9228 -2.0002 0.9802
4.4428 -1.1500 -2.0001 0.9802
4.5764 -0.3404 -2.0000 0.9802
4.5639 0.4800 -2.0000 0.9802
4.4057 1.2850 -2.0001 0.9802
4.2733 1.6738 -2.0001 0.9802
4.1067 2.0492 -2.0002 0.9802
3.6765 2.7480 -2.0004 0.9802
3.4163 3.0658 -2.0005 0.9802
3.1288 3.3592 -2.0006 0.9802
2.8162 3.6256 -2.0008 0.9802
2.4810 3.8632 -2.0009 0.9802
2.1258 4.0698 -2.0011 0.9802
1.7537 4.2439 -2.0012 0.9802
1.3674 4.3840 -2.0014 0.9802
0.5649 4.5582 -2.0018 0.9802
0.1552 4.5909 -2.0019 0.9802
-0.2558 4.5868 -2.0021 0.9802
-1.0687 4.4687 -2.0025 0.9802
-1.4641 4.3557 -2.0026 0.9801
-2.5679 3.8120 -2.0031 0.9801
-2.8986 3.5675 -2.0033 0.9801
-3.2061 3.2943 -2.0034 0.9801
-3.9659 2.3259 -2.0037 0.9801
-4.1581 1.9622 -2.0038 0.9801
-1.5564 0.4172 -0.7023 0.9930
-1.5237 -0.0102 -0.6641 0.9934
-1.5268 -0.1473 -0.6685 0.9933
-1.4968 -0.2812 -0.6637 0.9934
-3.7059 -2.7206 -2.0036 0.9801
-3.4477 -3.0408 -2.0035 0.9801
-2.5168 -3.8458 -2.0031 0.9801
-2.1628 -4.0551 -2.0029 0.9801
-1.0091 -4.4824 -2.0024 0.9802
-0.6043 -4.5543 -2.0022 0.9802
0.6256 -4.5502 -2.0017 0.9802
1.8100 -4.2200 -2.0012 0.9802
3.7127 -2.6987 -2.0004 0.9802
3.9389 -2.3559 -2.0003 0.9802
4.2952 -1.6167 -2.0001 0.9802
4.5891 -0.0089 -2.0000 0.9802
4.5174 0.8084 -2.0000 0.9802
4.4271 1.2090 -2.0001 0.9802
4.3014 1.6000 -2.0001 0.9802
4.1413 1.9782 -2.0002 0.9802
1.8264 4.2130 -2.0012 0.9802
1.4426 4.3598 -2.0014 0.9802
1.0472 4.4717 -2.0016 0.9802
0.2342 4.5875 -2.0019 0.9802
-0.9917 4.4864 -2.0024 0.9802
-2.5019 3.8556 -2.0031 0.9801
-3.4359 3.0542 -2.0035 0.9801
-4.2891 1.6567 -2.0039 0.9801
-1.5670 0.4491 -0.7104 0.9929
-1.5000 0.2878 -0.6657 0.9934
-1.5262 0.1532 -0.6685 0.9933
-1.5245 0.0161 -0.6645 0.9934
-1.5049 -0.2560 -0.6653 0.9934
-1.5539 -0.4100 -0.7004 0.9930
-2.5826 -3.8020 -2.0031 0.9801
-1.0861 -4.4645 -2.0024 0.9802
-0.6826 -4.5433 -2.0023 0.9802
0.5472 -4.5604 -2.0017 0.9802
0.9526 -4.4928 -2.0016 0.9802
1.3503 -4.3893 -2.0014 0.9802
1.7371 -4.2506 -2.0012 0.9802
2.4659 -3.8727 -2.0009 0.9802
3.1157 -3.3713 -2.0006 0.9802
3.4044 -3.0791 -2.0005 0.9802
3.6658 -2.7622 -2.0004 0.9802
3.8978 -2.4234 -2.0003 0.9802
4.0987 -2.0651 -2.0002 0.9802
4.4006 -1.3022 -2.0001 0.9802
4.5620 -0.4977 -2.0000 0.9802
4.5777 0.3226 -2.0000 0.9802
4.4472 1.1327 -2.0001 0.9802
4.1747 1.9066 -2.0002 0.9802
3.9877 2.2723 -2.0003 0.9802
3.7688 2.6198 -2.0004 0.9802
3.2425 3.2494 -2.0006 0.9802
2.6123 3.7754 -2.0009 0.9802
2.2646 3.9941 -2.0010 0.9802
1.8986 4.1809 -2.0012 0.9802
-0.0979 4.5927 -2.0020 0.9802
-1.3133 4.4033 -2.0026 0.9801
-1.7018 4.2687 -2.0027 0.9801
-2.0767 4.0998 -2.0029 0.9801
-3.3828 3.1128 -2.0035 0.9801
-3.6477 2.7981 -2.0036 0.9801
-3.8834 2.4610 -2.0037 0.9801
-4.0881 2.1041 -2.0038 0.9801
-1.5763 0.4812 -0.7183 0.9928
-1.5152 0.3179 -0.6747 0.9933
-1.5275 0.0424 -0.6659 0.9934
-2.8430 3.2629 -2.0032 0.9811
-3.3790 2.7048 -2.0035 0.9811
-3.6074 2.3920 -2.0036 0.9811
-1.3226 0.5693 -0.6665 0.9937
-1.3316 0.4368 -0.6487 0.9938
-1.3019 0.3014 -0.6186 0.9941
-1.3379 -0.0550 -0.6198 0.9941
-1.3303 -0.1747 -0.6211 0.9941
-1.3302 -0.4255 -0.6464 0.9939
-3.3988 -2.6799 -2.0035 0.9811
-2.2435 -3.7001 -2.0030 0.9811
1.1139 -4.1780 -2.0015 0.9811
1.8398 -3.9122 -2.0012 0.9811
2.1820 -3.7318 -2.0010 0.9811
2.5067 -3.5216 -2.0009 0.9811
2.8113 -3.2832 -2.0008 0.9811
3.0934 -3.0185 -2.0006 0.9811
3.7828 -2.0893 -2.0003 0.9811
3.9543 -1.7427 -2.0003 0.9811
4.0942 -1.3822 -2.0002 0.9811
4.2747 -0.6310 -2.0001 0.9811
4.3139 -0.2463 -2.0001 0.9811
4.3187 0.1403 -2.0001 0.9811
4.2889 0.5258 -2.0001 0.9811
4.2248 0.9071 -2.0002 0.9811
3.9959 1.6450 -2.0003 0.9811
3.6394 2.3305 -2.0004 0.9811
3.4167 2.6466 -2.0005 0.9811
3.1666 2.9416 -2.0006 0.9811
2.2730 3.6771 -2.0010 0.9811
1.5822 4.0237 -2.0013 0.9811
0.8405 4.2418 -2.0016 0.9811
-0.3152 4.3139 -2.0021 0.9811
-1.0785 4.1895 -2.0025 0.9811
-1.4488 4.0766 -2.0026 0.9811
-3.5657 2.4537 -2.0035 0.9811
-1.3168 0.5939 -0.6687 0.9937
-1.3095 0.3270 -0.6248 0.9941
-1.3366 -0.0319 -0.6188 0.9941
-1.3063 -0.2687 -0.6173 0.9941
-1.3260 -0.3992 -0.6410 0.9939
-3.8564 -1.9659 -2.0037 0.9811
-2.3069 -3.6610 -2.0030 0.9811
-1.6178 -4.0126 -2.0027 0.9811
-0.8773 -4.2359 -2.0024 0.9811
-0.1089 -4.3237 -2.0020 0.9811
0.2780 -4.3158 -2.0019 0.9811
0.6626 -4.2733 -2.0017 0.9811
1.7723 -3.9434 -2.0012 0.9811
3.5390 -2.4805 -2.0004 0.9811
3.7464 -2.1541 -2.0004 0.9811
4.1832 -1.0828 -2.0002 0.9811
4.3091 -0.3205 -2.0001 0.9811
4.3205 0.0660 -2.0001 0.9811
4.0236 1.5760 -2.0002 0.9811
3.8668 1.9294 -2.0003 0.9811
3.6790 2.2675 -2.0004 0.9811
3.2167 2.8867 -2.0006 0.9811
2.6516 3.4138 -2.0009 0.9811
2.0016 3.8319 -2.0011 0.9811
1.2874 4.1277 -2.0014 0.9811
0.9134 4.2266 -2.0016 0.9811
0.1461 4.3225 -2.0019 0.9811
-0.6260 4.2801 -2.0023 0.9811
-1.0062 4.2074 -2.0024 0.9811
-1.3784 4.1009 -2.0026 0.9811
-1.7396 3.9616 -2.0028 0.9811
-2.0870 3.7905 -2.0029 0.9811
-2.7290 3.3587 -2.0032 0.9811
-3.2838 2.8194 -2.0034 0.9811
-3.9147 1.8473 -2.0037 0.9811
-1.3162 0.3528 -0.6308 0.9940
-1.3367 -0.1290 -0.6216 0.9941
-1.3208 -0.3730 -0.6353 0.9940
-1.3315 -0.5084 -0.6597 0.9937
-3.8897 -1.8993 -2.0037 0.9811
-3.7042 -2.2393 -2.0036 0.9811
-3.2459 -2.8629 -2.0034 0.9811
-2.9768 -3.1414 -2.0033 0.9811
-2.6839 -3.3947 -2.0031 0.9811
-2.3695 -3.6208 -2.0030 0.9811
-1.6867 -3.9843 -2.0027 0.9811
-1.3236 -4.1188 -2.0025 0.9811
-0.9501 -4.2203 -2.0024 0.9811
-0.5689 -4.2879 -2.0022 0.9811
-0.1833 -4.3213 -2.0021 0.9811
0.5890 -4.2841 -2.0017 0.9811
2.0524 -3.8048 -2.0011 0.9811
2.3841 -3.6058 -2.0009 0.9811
2.6967 -3.3781 -2.0008 0.9811
3.2548 -2.8435 -2.0006 0.9811
3.4958 -2.5410 -2.0005 0.9811
3.7088 -2.2183 -2.0004 0.9811
4.2505 -0.7777 -2.0001 0.9811
4.3210 -0.0084 -2.0001 0.9811
4.2535 0.7612 -2.0001 0.9811
4.1685 1.1384 -2.0002 0.9811
3.8994 1.8626 -2.0003 0.9811
3.5057 2.5274 -2.0005 0.9811
3.2659 2.8308 -2.0006 0.9811
2.9999 3.1117 -2.0007 0.9811
2.7099 3.3676 -2.0008 0.9811
1.7196 3.9667 -2.0013 0.9811
0.9859 4.2102 -2.0016 0.9811
0.6057 4.2819 -2.0017 0.9811
-0.1665 4.3220 -2.0021 0.9811
-0.5523 4.2902 -2.0022 0.9811
-0.9337 4.2240 -2.0024 0.9811
-1.3076 4.1239 -2.0026 0.9811
-1.6712 3.9908 -2.0027 0.9811
-2.0214 3.8258 -2.0029 0.9811
-2.6707 3.4051 -2.0032 0.9811
-3.2348 2.8755 -2.0034 0.9811
-3.8823 1.9144 -2.0037 0.9811
-1.3310 0.5141 -0.6604 0.9937
-1.3221 0.3789 -0.6366 0.9940
-1.3118 0.2517 -0.6183 0.9941
-1.3362 0.1341 -0.6216 0.9941
-1.3349 0.0141 -0.6180 0.9941
-1.3381 -0.1059 -0.6213 0.9941
-2.7420 -3.3481 -2.0032 0.9811
-2.1017 -3.7823 -2.0029 0.9811
-1.3943 -4.0954 -2.0026 0.9811
-1.0226 -4.2034 -2.0024 0.9811
-0.2577 -4.3176 -2.0021 0.9811
0.1293 -4.3229 -2.0019 0.9811
0.5152 -4.2937 -2.0018 0.9811
0.8969 -4.2301 -2.0016 0.9811
1.2714 -4.1327 -2.0014 0.9811
2.9336 -3.1743 -2.0007 0.9811
3.2054 -2.8991 -2.0006 0.9811
3.6701 -2.2818 -2.0004 0.9811
3.8592 -1.9445 -2.0003 0.9811
4.0174 -1.5916 -2.0002 0.9811
4.2365 -0.8508 -2.0001 0.9811
4.2955 -0.4686 -2.0001 0.9811
4.2659 0.6879 -2.0001 0.9811
4.1874 1.0665 -2.0002 0.9811
3.9308 1.7952 -2.0003 0.9811
3.5486 2.4667 -2.0005 0.9811
3.3141 2.7742 -2.0006 0.9811
2.7674 3.3204 -2.0008 0.9811
2.1322 3.7607 -2.0011 0.9811
1.7876 3.9365 -2.0012 0.9811
1.4287 4.0809 -2.0014 0.9811
1.0582 4.1926 -2.0015 0.9811
0.6793 4.2707 -2.0017 0.9811
-0.4784 4.2990 -2.0022 0.9811
-1.2365 4.1458 -2.0025 0.9811
-1.6022 4.0190 -2.0027 0.9811
-1.9552 3.8599 -2.0029 0.9811
-2.2926 3.6700 -2.0030 0.9811
-3.4342 2.6344 -2.0035 0.9811
-3.8488 1.9809 -2.0037 0.9811
-1.3279 0.5393 -0.6634 0.9937
-1.3270 0.4051 -0.6422 0.9939
-1.3046 0.2737 -0.6170 0.9941
-3.1885 2.5523 -2.0034 0.9820
-3.4040 2.2572 -2.0035 0.9820
-1.1455 0.4931 -0.6117 0.9945
-1.1581 0.3799 -0.5979 0.9946
-1.1875 0.1649 -0.5881 0.9947
-1.1964 -0.0492 -0.5874 0.9947
-1.1677 -0.2612 -0.5869 0.9947
-1.1585 -0.3706 -0.5966 0.9946
-3.4205 -2.2320 -2.0035 0.9820
-2.9681 -2.8052 -2.0033 0.9820
-2.7053 -3.0591 -2.0032 0.9820
-2.4208 -3.2885 -2.0030 0.9820
-1.7963 -3.6665 -2.0028 0.9820
-1.1145 -3.9272 -2.0025 0.9820
-0.7589 -4.0108 -2.0023 0.9820
-0.3973 -4.0623 -2.0021 0.9820
-0.0326 -4.0812 -2.0020 0.9820
0.3324 -4.0675 -2.0018 0.9820
1.0512 -3.9426 -2.0015 0.9820
1.3993 -3.8326 -2.0014 0.9820
2.0591 -3.5217 -2.0011 0.9820
2.9192 -2.8486 -2.0007 0.9820
3.1620 -2.5761 -2.0006 0.9820
3.3795 -2.2830 -2.0005 0.9820
4.0756 0.1324 -2.0002 0.9820
3.9869 0.8560 -2.0003 0.9820
3.8945 1.2091 -2.0003 0.9820
3.6172 1.8834 -2.0004 0.9820
3.4345 2.1993 -2.0005 0.9820
3.2243 2.4976 -2.0006 0.9820
2.9883 2.7760 -2.0007 0.9820
2.4465 3.2641 -2.0009 0.9820
1.1477 3.9156 -2.0015 0.9820
0.7931 4.0028 -2.0017 0.9820
0.4322 4.0580 -2.0018 0.9820
0.0677 4.0807 -2.0020 0.9820
-0.6602 4.0282 -2.0023 0.9820
-2.0306 3.5424 -2.0029 0.9820
-2.6293 3.1246 -2.0031 0.9820
-3.1440 2.6068 -2.0034 0.9820
-1.1413 0.5147 -0.6141 0.9944
-1.1569 0.4017 -0.6007 0.9946
-1.1594 0.2895 -0.5862 0.9947
-1.1957 0.0786 -0.5878 0.9947
-1.1964 -0.0286 -0.5870 0.9947
-1.1727 -0.2413 -0.5873 0.9947
-1.1505 -0.4621 -0.6081 0.9945
-3.2502 -2.4732 -2.0034 0.9820
-3.0160 -2.7537 -2.0033 0.9820
-2.1768 -3.4546 -2.0029 0.9820
-1.8592 -3.6351 -2.0028 0.9820
-1.5266 -3.7865 -2.0026 0.9820
-1.1820 -3.9075 -2.0025 0.9820
-0.8279 -3.9972 -2.0023 0.9820
0.6253 -4.0326 -2.0017 0.9820
0.9832 -3.9602 -2.0015 0.9820
2.5993 -3.1435 -2.0008 0.9820
3.7029 -1.7086 -2.0004 0.9820
3.8407 -1.3707 -2.0003 0.9820
3.9477 -1.0218 -2.0003 0.9820
4.0232 -0.6648 -2.0002 0.9820
4.0665 -0.3025 -2.0002 0.9820
4.0011 0.7873 -2.0003 0.9820
3.7971 1.4873 -2.0003 0.9820
3.6491 1.8208 -2.0004 0.9820
3.2668 2.4417 -2.0006 0.9820
3.0356 2.7241 -2.0007 0.9820
2.5023 3.2215 -2.0009 0.9820
2.2044 3.4325 -2.0010 0.9820
1.2149 3.8952 -2.0015 0.9820
0.5019 4.0499 -2.0018 0.9820
0.1379 4.0789 -2.0019 0.9820
-0.9495 3.9702 -2.0024 0.9820
-2.2813 3.3867 -2.0030 0.9820
-2.5751 3.1694 -2.0031 0.9820
-3.3243 2.3729 -2.0034 0.9820
-3.5232 2.0663 -2.0035 0.9820
-1.1551 0.4235 -0.6035 0.9945
-1.1773 -0.2212 -0.5876 0.9947
-1.1589 -0.3272 -0.5907 0.9946
-1.1533 -0.4403 -0.6055 0.9945
-3.2923 -2.4169 -2.0034 0.9820
-3.0629 -2.7014 -2.0033 0.9820
-2.8090 -2.9643 -2.0032 0.9820
-1.9215 -3.6026 -2.0028 0.9820
-1.2490 -3.8866 -2.0025 0.9820
-0.8965 -3.9824 -2.0024 0.9820
0.1922 -4.0766 -2.0019 0.9820
0.5558 -4.0428 -2.0017 0.9820
1.9368 -3.5905 -2.0011 0.9820
2.2499 -3.4028 -2.0010 0.9820
2.5449 -3.1878 -2.0009 0.9820
2.8195 -2.9474 -2.0008 0.9820
3.2990 -2.3980 -2.0005 0.9820
3.6729 -1.7720 -2.0004 0.9820
3.8165 -1.4366 -2.0003 0.9820
4.0607 -0.3724 -2.0002 0.9820
4.0777 -0.0079 -2.0002 0.9820
4.0140 0.7183 -2.0003 0.9820
3.9338 1.0743 -2.0003 0.9820
3.8221 1.4217 -2.0003 0.9820
3.5081 2.0797 -2.0005 0.9820
2.5573 3.1779 -2.0009 0.9820
1.2817 3.8737 -2.0014 0.9820
0.9304 3.9731 -2.0016 0.9820
0.5715 4.0406 -2.0018 0.9820
0.2081 4.0759 -2.0019 0.9820
-0.1571 4.0785 -2.0021 0.9820
-0.5211 4.0484 -2.0022 0.9820
-0.8810 3.9859 -2.0024 0.9820
-2.2227 3.4254 -2.0030 0.9820
-3.0524 2.7134 -2.0033 0.9820
-3.2829 2.4297 -2.0034 0.9820
-3.4871 2.1266 -2.0035 0.9820
-1.1527 0.4452 -0.6061 0.9945
-1.1764 0.2257 -0.5876 0.9947
-1.1929 0.1198 -0.5881 0.9947
-1.1960 0.0126 -0.5867 0.9947
-1.1814 -0.2010 -0.5879 0.9947
-1.1583 -0.3056 -0.5876 0.9947
-1.1376 -0.5314 -0.6159 0.9944
-3.5312 -2.0526 -2.0035 0.9820
-3.3334 -2.3600 -2.0034 0.9820
-2.8596 -2.9155 -2.0032 0.9820
-1.9832 -3.5691 -2.0028 0.9820
-1.6561 -3.7318 -2.0027 0.9820
-1.3158 -3.8646 -2.0025 0.9820
-0.2431 -4.0743 -2.0021 0.9820
0.1220 -4.0794 -2.0019 0.9820
0.8464 -3.9918 -2.0016 0.9820
1.1997 -3.8999 -2.0015 0.9820
1.5434 -3.7767 -2.0013 0.9820
3.2572 -2.4544 -2.0006 0.9820
3.4634 -2.1533 -2.0005 0.9820
3.9980 -0.8029 -2.0003 0.9820
4.0676 0.2867 -2.0002 0.9820
4.0258 0.6492 -2.0002 0.9820
3.5433 2.0191 -2.0005 0.9820
3.3488 2.3278 -2.0005 0.9820
2.6116 3.1334 -2.0009 0.9820
2.3211 3.3546 -2.0010 0.9820
1.6869 3.7148 -2.0013 0.9820
1.3482 3.8510 -2.0014 0.9820
0.6410 4.0301 -2.0017 0.9820
-0.0869 4.0805 -2.0020 0.9820
-0.4514 4.0567 -2.0022 0.9820
-0.8123 4.0004 -2.0024 0.9820
-1.1668 3.9121 -2.0025 0.9820
-1.8450 3.6424 -2.0028 0.9820
-3.0052 2.7655 -2.0033 0.9820
-3.2406 2.4859 -2.0034 0.9820
-3.4500 2.1863 -2.0035 0.9820
-1.1250 0.5790 -0.6206 0.9944
-1.1589 0.3538 -0.5944 0.9946
-1.1907 0.1403 -0.5881 0.9947
-1.1964 0.0332 -0.5871 0.9947
-2.7867 2.6729 -2.0032 0.9828
-1.0138 0.5486 -0.5980 0.9948
-1.0775 0.2494 -0.5738 0.9950
-1.1066 -0.0455 -0.5745 0.9950
-1.0626 -0.3399 -0.5787 0.9950
-1.0501 -0.4429 -0.5912 0.9949
-3.2341 -2.1104 -2.0034 0.9827
-3.0323 -2.3909 -2.0033 0.9827
-2.8063 -2.6523 -2.0032 0.9828
-2.5579 -2.8924 -2.0031 0.9828
-2.2889 -3.1093 -2.0030 0.9828
-1.6984 -3.4667 -2.0027 0.9828
-1.0538 -3.7133 -2.0024 0.9828
-0.7176 -3.7923 -2.0023 0.9828
-0.3757 -3.8410 -2.0021 0.9828
-0.0308 -3.8589 -2.0020 0.9828
0.3143 -3.8459 -2.0018 0.9828
0.6568 -3.8022 -2.0017 0.9828
0.9939 -3.7280 -2.0015 0.9828
1.6417 -3.4909 -2.0013 0.9828
1.9470 -3.3299 -2.0011 0.9828
2.2368 -3.1423 -2.0010 0.9828
2.5086 -2.9296 -2.0009 0.9828
2.7603 -2.6935 -2.0008 0.9828
2.9899 -2.4358 -2.0007 0.9828
3.3756 -1.8643 -2.0005 0.9828
3.6534 -1.2334 -2.0004 0.9828
3.7490 -0.9018 -2.0004 0.9828
3.8145 -0.5631 -2.0003 0.9828
3.8272 0.4692 -2.0003 0.9828
3.7700 0.8095 -2.0004 0.9828
3.6826 1.1433 -2.0004 0.9828
3.5657 1.4679 -2.0004 0.9828
3.0488 2.3617 -2.0007 0.9828
2.5798 2.8671 -2.0009 0.9828
2.3133 3.0864 -2.0010 0.9828
1.7269 3.4495 -2.0013 0.9828
1.4117 3.5903 -2.0014 0.9828
0.7500 3.7849 -2.0017 0.9828
0.4086 3.8370 -2.0018 0.9828
0.0640 3.8585 -2.0020 0.9828
-0.6242 3.8088 -2.0023 0.9828
-1.9200 3.3494 -2.0028 0.9828
-2.2118 3.1646 -2.0030 0.9828
-2.4860 2.9543 -2.0031 0.9828
-2.9727 2.4647 -2.0033 0.9827
-1.0045 0.5661 -0.5982 0.9948
-1.0605 0.3682 -0.5824 0.9950
-1.0952 0.1713 -0.5751 0.9950
-1.1065 -0.0264 -0.5742 0.9950
-1.1017 -0.1255 -0.5752 0.9950
-1.0845 -0.2231 -0.5744 0.9950
-1.0634 -0.3201 -0.5761 0.9950
-1.0535 -0.4231 -0.5890 0.9949
-1.0263 -0.5232 -0.5976 0.9948
-0.9761 -0.6133 -0.5980 0.9948
-3.0731 -2.3384 -2.0033 0.9827
-2.3421 -3.0695 -2.0030 0.9828
-1.4435 -3.5802 -2.0026 0.9828
-1.1176 -3.6946 -2.0025 0.9828
-0.7828 -3.7795 -2.0023 0.9828
-0.0972 -3.8579 -2.0020 0.9828
0.2480 -3.8508 -2.0019 0.9828
0.9297 -3.7446 -2.0016 0.9828
1.8895 -3.3630 -2.0012 0.9828
2.1824 -3.1804 -2.0010 0.9828
2.7136 -2.7406 -2.0008 0.9828
3.6316 -1.2961 -2.0004 0.9828
3.7329 -0.9662 -2.0004 0.9828
3.8452 -0.2860 -2.0003 0.9828
3.8554 0.0589 -2.0003 0.9828
3.7833 0.7445 -2.0004 0.9828
3.4505 1.7217 -2.0005 0.9828
3.2829 2.0234 -2.0006 0.9828
2.8703 2.5758 -2.0008 0.9828
2.3660 3.0461 -2.0010 0.9828
2.0844 3.2456 -2.0011 0.9828
1.7860 3.4192 -2.0012 0.9828
1.4733 3.5654 -2.0014 0.9828
0.8150 3.7713 -2.0017 0.9828
0.1304 3.8568 -2.0019 0.9828
-1.2299 3.6589 -2.0025 0.9828
-1.5521 3.5346 -2.0027 0.9828
-1.8620 3.3819 -2.0028 0.9828
-2.4348 2.9967 -2.0031 0.9828
-3.1431 2.2436 -2.0034 0.9827
-0.9947 0.5834 -0.5982 0.9948
-1.0584 0.3880 -0.5848 0.9949
-1.0918 0.1901 -0.5749 0.9950
-1.1047 0.0917 -0.5751 0.9950
-1.1061 -0.0074 -0.5738 0.9950
-1.0889 -0.2046 -0.5748 0.9950
-1.0638 -0.3004 -0.5735 0.9950
-2.8960 -2.5542 -2.0032 0.9827
-2.6559 -2.8027 -2.0031 0.9828
-2.3946 -3.0288 -2.0030 0.9828
-1.8168 -3.4063 -2.0028 0.9828
-1.5049 -3.5549 -2.0026 0.9828
-0.1636 -3.8557 -2.0020 0.9828
0.5255 -3.8226 -2.0017 0.9828
0.8651 -3.7601 -2.0016 0.9828
1.1977 -3.6674 -2.0015 0.9828
1.5206 -3.5454 -2.0013 0.9828
2.4063 -3.0143 -2.0009 0.9828
2.6660 -2.7870 -2.0008 0.9828
2.9043 -2.5373 -2.0007 0.9828
3.6088 -1.3584 -2.0004 0.9828
3.8397 -0.3522 -2.0003 0.9828
3.8558 -0.0075 -2.0003 0.9828
3.8410 0.3372 -2.0003 0.9828
3.7197 1.0158 -2.0004 0.9828
3.6141 1.3443 -2.0004 0.9828
3.3172 1.9665 -2.0006 0.9828
3.1282 2.2553 -2.0006 0.9828
2.9142 2.5260 -2.0007 0.9828
2.6769 2.7766 -2.0008 0.9828
2.4181 3.0049 -2.0010 0.9828
1.8446 3.3879 -2.0012 0.9828
1.5344 3.5395 -2.0013 0.9828
0.8797 3.7567 -2.0016 0.9828
0.5404 3.8206 -2.0018 0.9828
0.1967 3.8539 -2.0019 0.9828
-0.4928 3.8279 -2.0022 0.9828
-0.8330 3.7688 -2.0024 0.9828
-1.1667 3.6795 -2.0025 0.9828
-1.8035 3.4134 -2.0028 0.9828
-2.6450 2.8131 -2.0031 0.9828
-2.8861 2.5655 -2.0033 0.9827
-3.1040 2.2973 -2.0033 0.9827
-0.9844 0.6003 -0.5982 0.9948
-1.0326 0.5092 -0.5973 0.9948
-1.0558 0.4078 -0.5872 0.9949
-1.0638 0.3048 -0.5741 0.9950
-1.1050 -0.0874 -0.5750 0.9950
-1.0406 -0.4861 -0.5959 0.9948
-0.9969 -0.5795 -0.5982 0.9948
-2.9395 -2.5040 -2.0033 0.9827
-2.1694 -3.1937 -2.0029 0.9828
-1.8751 -3.3746 -2.0028 0.9828
-1.2441 -3.6541 -2.0025 0.9828
-0.9124 -3.7504 -2.0024 0.9828
-0.5734 -3.8167 -2.0022 0.9828
0.1154 -3.8572 -2.0019 0.9828
1.4594 -3.5711 -2.0013 0.9828
1.7727 -3.4261 -2.0012 0.9828
2.0717 -3.2537 -2.0011 0.9828
2.3541 -3.0553 -2.0010 0.9828
2.6177 -2.8324 -2.0008 0.9828
2.8603 -2.5870 -2.0007 0.9828
3.5849 -1.4203 -2.0004 0.9828
3.7804 -0.7592 -2.0003 0.9828
3.8551 -0.0738 -2.0003 0.9828
3.8463 0.2711 -2.0003 0.9828
3.7366 0.9517 -2.0004 0.9828
3.3505 1.9092 -2.0005 0.9828
3.1665 2.2011 -2.0006 0.9828
2.7242 2.7301 -2.0008 0.9828
2.1948 3.1719 -2.0010 0.9828
1.5951 3.5125 -2.0013 0.9828
0.9442 3.7410 -2.0016 0.9828
-0.0822 3.8583 -2.0020 0.9828
-0.4268 3.8358 -2.0022 0.9828
-0.7681 3.7825 -2.0023 0.9828
-1.1032 3.6990 -2.0025 0.9828
-1.7445 3.4439 -2.0028 0.9828
-3.0640 2.3504 -2.0033 0.9827
-0.9736 0.6170 -0.5980 0.9948
-1.0244 0.5272 -0.5977 0.9948
-1.0633 0.3246 -0.5767 0.9950
-1.0835 0.2273 -0.5743 0.9950
-1.1066 0.0307 -0.5743 0.9950
-2.4025 2.7573 -2.0030 0.9835
-2.6395 2.5317 -2.0031 0.9835
-0.8795 0.5832 -0.5780 0.9952
-1.0004 0.2316 -0.5624 0.9953
-1.0274 0.0498 -0.5634 0.9953
-1.0024 -0.2243 -0.5626 0.9953
-0.9322 -0.4956 -0.5783 0.9952
-0.8840 -0.5768 -0.5781 0.9952
-2.4227 -2.7396 -2.0030 0.9835
-1.3086 -3.4140 -2.0025 0.9835
-0.9981 -3.5171 -2.0024 0.9835
-0.0292 -3.6551 -2.0020 0.9835
0.6221 -3.6014 -2.0017 0.9835
1.2533 -3.4326 -2.0014 0.9835
1.5550 -3.3066 -2.0013 0.9835
2.3762 -2.7750 -2.0009 0.9835
2.6146 -2.5513 -2.0008 0.9835
3.0269 -2.0448 -2.0007 0.9835
3.1974 -1.7660 -2.0006 0.9835
3.3424 -1.4730 -2.0005 0.9835
3.6464 -0.2082 -2.0004 0.9835
3.6504 0.1186 -2.0004 0.9835
3.3776 1.3905 -2.0005 0.9835
3.2398 1.6869 -2.0006 0.9835
2.6765 2.4863 -2.0008 0.9835
2.1912 2.9235 -2.0010 0.9835
1.9212 3.1079 -2.0012 0.9835
1.0279 3.5069 -2.0016 0.9835
0.3871 3.6344 -2.0018 0.9835
0.0606 3.6547 -2.0020 0.9835
-0.2664 3.6458 -2.0021 0.9835
-0.5912 3.6076 -2.0023 0.9835
-0.9114 3.5406 -2.0024 0.9835
-1.2244 3.4451 -2.0025 0.9835
-2.5955 2.5767 -2.0031 0.9835
-2.8156 2.3344 -2.0032 0.9835
-0.9202 0.5186 -0.5785 0.9952
-0.9598 0.4329 -0.5767 0.9952
-0.9771 0.3393 -0.5665 0.9953
-0.9954 0.2485 -0.5619 0.9953
-1.0268 0.0675 -0.5636 0.9953
-1.0276 -0.0245 -0.5630 0.9953
-1.0229 -0.1165 -0.5639 0.9953
-0.9807 -0.2952 -0.5609 0.9953
-0.9699 -0.3895 -0.5724 0.9952
-2.9107 -2.2148 -2.0032 0.9835
-2.4695 -2.6975 -2.0031 0.9835
-2.2184 -2.9073 -2.0029 0.9835
-1.6650 -3.2555 -2.0027 0.9835
-0.7414 -3.5798 -2.0023 0.9835
-0.4184 -3.6315 -2.0022 0.9835
0.2349 -3.6475 -2.0019 0.9835
0.5600 -3.6116 -2.0017 0.9835
0.8806 -3.5468 -2.0016 0.9835
2.0672 -3.0125 -2.0011 0.9835
2.3281 -2.8155 -2.0010 0.9835
3.1666 -1.8207 -2.0006 0.9835
3.4400 -1.2277 -2.0005 0.9835
3.5359 -0.9152 -2.0005 0.9835
3.6035 -0.5955 -2.0004 0.9835
3.6423 -0.2709 -2.0004 0.9835
3.6519 0.0557 -2.0004 0.9835
3.1096 1.9166 -2.0006 0.9835
2.4900 2.6733 -2.0009 0.9835
1.9744 3.0743 -2.0011 0.9835
1.3955 3.3772 -2.0014 0.9835
1.0881 3.4887 -2.0015 0.9835
0.7719 3.5722 -2.0017 0.9835
0.4495 3.6272 -2.0018 0.9835
0.1235 3.6531 -2.0020 0.9835
-0.8504 3.5557 -2.0024 0.9835
-1.1649 3.4657 -2.0025 0.9835
-1.4701 3.3479 -2.0026 0.9835
-2.0431 3.0329 -2.0029 0.9835
-2.3061 2.8383 -2.0030 0.9835
-2.7750 2.3825 -2.0032 0.9835
-0.8577 0.6122 -0.5771 0.9952
-0.9749 0.3574 -0.5687 0.9953
