ply
format ascii 1.0
element vertex 1579
property float32 x
property float32 y
property float32 z
property float32 I
end_header
-3.6692 11.1276 -1.3918 0.9539
-4.6938 10.8612 -1.4055 0.9535
-5.7472 10.5873 -1.4310 0.9526
-6.8485 10.3010 -1.4694 0.9514
-8.0203 9.9964 -1.5224 0.9497
-9.2902 9.6663 -1.5925 0.9474
-10.6947 9.3012 -1.6836 0.9445
-13.2931 7.9142 -1.8377 0.9396
-14.5358 5.4412 -1.8437 0.9394
-14.9886 4.1285 -1.8467 0.9393
-16.9112 0.0092 -2.0088 0.9341
-16.8724 -1.5033 -2.0121 0.9340
-16.3879 -4.4947 -2.0185 0.9338
-15.3720 -7.3594 -2.0245 0.9337
-13.8535 -10.0019 -2.0297 0.9335
-12.9197 -11.2116 -2.0320 0.9334
-11.8789 -12.3329 -2.0340 0.9334
-9.5114 -14.2724 -2.0373 0.9332
-8.2040 -15.0738 -2.0386 0.9332
-3.6214 -15.4532 -1.8854 0.9381
-0.8149 -15.8487 -1.8851 0.9381
0.6033 -15.8534 -1.8845 0.9381
4.7748 -15.0997 -1.8812 0.9382
6.0987 -14.6003 -1.8795 0.9383
8.5802 -13.2547 -1.8756 0.9384
10.4982 -13.4182 -2.0238 0.9337
11.6598 -12.4330 -2.0247 0.9336
12.7054 -11.3261 -2.0218 0.9337
15.7664 -6.1230 -2.0091 0.9341
16.2230 -4.6829 -2.0057 0.9342
16.7406 -1.7169 -1.9990 0.9345
16.7990 -0.2149 -1.9956 0.9346
16.7236 1.2839 -1.9924 0.9347
16.5156 2.7676 -1.9892 0.9348
16.1774 4.2247 -1.9861 0.9349
15.1243 7.0145 -1.9804 0.9350
14.4185 8.3259 -1.9778 0.9351
12.6781 10.7327 -1.9732 0.9353
8.0927 14.4452 -1.9668 0.9355
6.7674 15.1031 -1.9659 0.9355
2.3297 15.1052 -1.8155 0.9403
-0.3943 15.2846 -1.8162 0.9403
-5.4548 10.6633 -1.4228 0.9529
-3.6338 5.7671 -0.8097 0.9729
-7.6909 10.0820 -1.5063 0.9502
-8.9307 9.7597 -1.5714 0.9481
-10.2941 9.4053 -1.6563 0.9454
-13.0454 8.2060 -1.8307 0.9398
-14.3917 5.7929 -1.8428 0.9394
-14.8762 4.4922 -1.8459 0.9393
-15.2435 3.1512 -1.8490 0.9392
-15.4902 1.7805 -1.8521 0.9391
-16.4861 -4.0903 -2.0177 0.9339
-15.5417 -6.9781 -2.0237 0.9337
-14.8768 -8.3493 -2.0264 0.9336
-14.0896 -9.6565 -2.0290 0.9335
-11.0610 -13.0861 -2.0353 0.9333
-8.5693 -14.8662 -2.0383 0.9332
-3.9986 -15.3595 -1.8853 0.9381
-1.2028 -15.8249 -1.8852 0.9381
1.6301 -15.7760 -1.8839 0.9381
3.0305 -15.5588 -1.8829 0.9381
4.4046 -15.2154 -1.8816 0.9382
5.7408 -14.7490 -1.8800 0.9382
8.2557 -13.4650 -1.8762 0.9384
9.9792 -13.4194 -1.9865 0.9349
-2.4758 11.4385 -1.6582 0.9538
-4.5097 10.9096 -1.6726 0.9534
-5.5567 10.6374 -1.7005 0.9527
-3.6946 5.7540 -0.9689 0.9728
-8.8120 9.4663 -1.8325 0.9491
-10.3800 7.7665 -1.8368 0.9490
-11.6263 5.8116 -1.8417 0.9488
-12.5092 3.6611 -1.8468 0.9487
-14.1643 0.2336 -2.0072 0.9444
-14.1482 -1.0335 -2.0100 0.9443
-14.0185 -2.2958 -2.0127 0.9442
-13.7756 -3.5430 -2.0154 0.9442
-13.4212 -4.7649 -2.0179 0.9441
-12.9578 -5.9515 -2.0204 0.9440
-12.3886 -7.0927 -2.0227 0.9440
-10.0948 -10.1515 -2.0285 0.9438
-9.1550 -11.0207 -2.0300 0.9438
-7.0571 -12.4880 -2.0324 0.9437
-5.9162 -13.0736 -2.0332 0.9437
3.8601 -12.9202 -1.9106 0.9470
7.5766 -12.1238 -2.0257 0.9439
8.6202 -11.3874 -2.0236 0.9439
10.4843 -9.6506 -2.0190 0.9441
11.2901 -8.6651 -2.0165 0.9441
13.5356 -4.1421 -2.0056 0.9444
13.8318 -2.9128 -2.0028 0.9445
14.0500 0.8535 -1.9944 0.9447
13.6378 3.3301 -1.9891 0.9449
12.7966 5.6888 -1.9842 0.9450
10.7977 8.8492 -1.9781 0.9452
9.0370 10.6116 -1.9749 0.9452
6.9972 12.0357 -1.9726 0.9453
5.8922 12.6072 -1.9718 0.9453
2.1612 12.6686 -1.8209 0.9494
1.0215 12.8120 -1.8211 0.9494
-0.1266 12.8547 -1.8215 0.9494
-2.1979 11.5108 -1.6604 0.9538
-3.2108 11.2474 -1.6573 0.9538
-5.2664 10.7129 -1.6914 0.9529
-6.3435 10.4328 -1.7300 0.9519
-7.4804 10.1373 -1.7851 0.9504
-9.4154 8.8821 -1.8340 0.9491
-10.1832 8.0156 -1.8362 0.9490
-10.8721 7.0833 -1.8386 0.9489
-11.4763 6.0923 -1.8410 0.9489
-13.9904 1.8346 -1.9993 0.9446
-14.1489 0.5801 -2.0064 0.9444
-14.0653 -1.9511 -2.0120 0.9442
-13.8533 -3.2035 -2.0147 0.9442
-13.5293 -4.4334 -2.0173 0.9441
-13.0954 -5.6306 -2.0197 0.9440
-12.5548 -6.7852 -2.0220 0.9440
-11.9115 -7.8876 -2.0242 0.9439
-10.3380 -9.8991 -2.0280 0.9438
-9.4202 -10.7911 -2.0296 0.9438
-3.8378 -13.8333 -2.0341 0.9437
-2.5869 -14.1186 -2.0338 0.9437
-0.0333 -13.9101 -1.9709 0.9454
2.3715 -13.3024 -1.9145 0.9469
3.5404 -13.0027 -1.9094 0.9470
4.7147 -12.7086 -1.9206 0.9467
9.3334 -10.7956 -2.0220 0.9440
11.8175 -7.9070 -2.0146 0.9442
13.0003 -5.6636 -2.0092 0.9443
14.0720 0.5094 -1.9952 0.9447
13.9513 1.7615 -1.9924 0.9448
13.3807 4.2040 -1.9873 0.9449
12.9362 5.3755 -1.9849 0.9450
10.1944 9.5251 -1.9768 0.9452
8.3256 11.1702 -1.9740 0.9453
7.2908 11.8623 -1.9728 0.9453
6.1997 12.4604 -1.9720 0.9453
3.5874 12.3419 -1.8211 0.9494
1.3349 12.7827 -1.8210 0.9494
0.1882 12.8530 -1.8213 0.9494
-0.8878 11.8515 -1.6839 0.9531
-1.9190 11.5833 -1.6636 0.9537
-3.9481 11.0556 -1.6634 0.9537
-6.0435 10.5108 -1.7179 0.9522
-7.1618 10.2201 -1.7682 0.9508
-8.3329 9.8804 -1.8313 0.9491
-9.9805 8.2597 -1.8356 0.9490
-11.3195 6.3691 -1.8403 0.9489
-11.8590 5.3402 -1.8428 0.9488
-12.6550 3.1545 -1.8479 0.9487
-14.1250 0.9261 -2.0057 0.9444
-13.6291 -4.0994 -2.0166 0.9441
-13.2250 -5.3065 -2.0191 0.9441
-12.7132 -6.4738 -2.0214 0.9440
-10.5748 -9.6407 -2.0275 0.9438
-7.6579 -12.1242 -2.0318 0.9437
-6.5478 -12.7656 -2.0328 0.9437
-5.3837 -13.3040 -2.0335 0.9437
-4.1752 -13.7347 -2.0340 0.9437
-2.9325 -14.0540 -2.0342 0.9436
-1.6608 -14.2169 -2.0281 0.9438
-0.3763 -13.9958 -1.9838 0.9450
0.8569 -13.6865 -1.9430 0.9461
2.0494 -13.3844 -1.9185 0.9468
3.2208 -13.0849 -1.9093 0.9470
8.0569 -11.8024 -2.0248 0.9439
9.0690 -11.0242 -2.0226 0.9440
10.0058 -10.1589 -2.0203 0.9440
12.8626 -5.9825 -2.0100 0.9443
13.3268 -4.8035 -2.0072 0.9444
14.0636 -1.0951 -1.9987 0.9446
13.9954 1.4199 -1.9932 0.9448
13.7943 2.6603 -1.9905 0.9448
13.4843 3.8764 -1.9880 0.9449
13.0682 5.0588 -1.9855 0.9450
12.5497 6.1982 -1.9832 0.9450
11.9332 7.2861 -1.9811 0.9451
9.5495 10.1605 -1.9757 0.9452
8.5981 10.9649 -1.9743 0.9453
7.5802 11.6819 -1.9731 0.9453
6.5037 12.3062 -1.9722 0.9453
5.3714 12.8199 -1.9694 0.9454
-2.6565 11.3915 -1.6574 0.9538
-3.6694 11.1281 -1.6602 0.9538
-5.7475 10.5878 -1.7070 0.9525
-6.8489 10.3015 -1.7528 0.9513
-8.0207 9.9969 -1.8160 0.9495
-8.9636 9.3264 -1.8328 0.9491
-9.7720 8.4988 -1.8350 0.9490
-10.5049 7.6017 -1.8373 0.9490
-11.1561 6.6420 -1.8396 0.9489
-12.5691 3.4620 -1.8472 0.9487
-14.0927 1.2711 -2.0049 0.9444
-14.1334 -1.2593 -2.0105 0.9443
-13.7206 -3.7631 -2.0158 0.9441
-13.3465 -4.9795 -2.0184 0.9441
-12.2763 -7.2908 -2.0230 0.9439
-11.5883 -8.3665 -2.0251 0.9439
-9.9331 -10.3127 -2.0288 0.9438
-8.9792 -11.1667 -2.0303 0.9438
-7.9513 -11.9313 -2.0315 0.9437
-5.7073 -13.1671 -2.0334 0.9437
-3.2756 -13.9778 -2.0342 0.9437
-0.7241 -14.0825 -1.9980 0.9446
2.9010 -13.1670 -1.9104 0.9470
4.0685 -12.8663 -1.9120 0.9469
5.2679 -12.6114 -1.9365 0.9463
9.7572 -10.4041 -2.0210 0.9440
12.1202 -7.4184 -2.0134 0.9442
13.8730 -2.6912 -2.0023 0.9445
14.0907 -0.1802 -1.9967 0.9447
13.8603 2.3226 -1.9912 0.9448
12.1115 6.9938 -1.9816 0.9451
11.4270 8.0390 -1.9796 0.9451
10.6536 9.0188 -1.9778 0.9452
9.7975 9.9257 -1.9761 0.9452
7.8651 11.4945 -1.9734 0.9453
6.8039 12.1447 -1.9724 0.9453
5.6900 12.6988 -1.9716 0.9453
4.1877 12.1526 -1.8213 0.9494
3.0854 12.4762 -1.8210 0.9494
1.9590 12.7015 -1.8210 0.9494
0.8171 12.8270 -1.8211 0.9494
-0.3316 12.8517 -1.8215 0.9494
-2.3789 11.4637 -1.6589 0.9538
-7.6913 10.0825 -1.7968 0.9501
-8.7298 9.5402 -1.8323 0.9491
-9.5579 8.7327 -1.8344 0.9490
-10.3120 7.8539 -1.8366 0.9490
-10.9862 6.9106 -1.8390 0.9489
-12.0727 4.8595 -1.8439 0.9488
-12.7804 2.6420 -1.8491 0.9486
-14.0451 1.6144 -2.0031 0.9445
-13.8037 -3.4248 -2.0151 0.9442
-12.4474 -6.9859 -2.0224 0.9440
-11.7864 -8.0780 -2.0246 0.9439
-9.2482 -10.9414 -2.0299 0.9438
-8.2397 -11.7311 -2.0312 0.9437
-7.1632 -12.4267 -2.0323 0.9437
-6.0275 -13.0222 -2.0332 0.9437
-4.8421 -13.5123 -2.0338 0.9437
-3.6168 -13.8931 -2.0341 0.9437
-2.3597 -14.1478 -2.0323 0.9437
0.1877 -13.8547 -1.9632 0.9456
1.4000 -13.5493 -1.9300 0.9465
2.5806 -13.2490 -1.9125 0.9469
3.7485 -12.9490 -1.9101 0.9470
6.2187 -12.5327 -1.9823 0.9450
-4.2410 10.2595 -1.8289 0.9560
-6.8243 8.7893 -1.8331 0.9559
-8.9364 6.6864 -1.8386 0.9558
-10.4246 4.0929 -1.8450 0.9556
-12.0968 1.2859 -2.0040 0.9519
-12.1780 0.2008 -2.0065 0.9518
-11.8371 -3.0444 -2.0135 0.9517
-9.4029 -7.9005 -2.0232 0.9514
-6.0568 -10.7180 -2.0281 0.9513
-4.0562 -11.6313 -2.0293 0.9513
-3.0019 -11.9486 -2.0296 0.9513
-0.8287 -12.2912 -2.0294 0.9513
0.2721 -12.3137 -2.0291 0.9513
1.3701 -12.2365 -2.0284 0.9513
2.4562 -12.0604 -2.0276 0.9513
3.5215 -11.7869 -2.0266 0.9514
4.5571 -11.4184 -2.0253 0.9514
8.2387 -9.0706 -2.0187 0.9515
9.0067 -8.2904 -2.0166 0.9516
9.7006 -7.4452 -2.0145 0.9516
10.3151 -6.5419 -2.0122 0.9517
10.8455 -5.5883 -2.0099 0.9517
11.2878 -4.5921 -2.0075 0.9518
11.6388 -3.5616 -2.0051 0.9519
12.0573 -1.4312 -2.0003 0.9520
12.1223 -0.3484 -1.9978 0.9520
12.0905 0.7345 -1.9955 0.9521
11.9628 1.8090 -1.9931 0.9521
11.7402 2.8667 -1.9909 0.9522
11.0198 4.8989 -1.9867 0.9523
10.5282 5.8576 -1.9848 0.9523
9.9542 6.7683 -1.9830 0.9524
9.3025 7.6238 -1.9814 0.9524
7.7873 9.1442 -1.9786 0.9525
3.7762 10.4163 -1.8253 0.9561
1.8629 10.9199 -1.8249 0.9561
-0.1091 11.0798 -1.8254 0.9561
-1.0983 11.0289 -1.8259 0.9561
-4.9001 9.9677 -1.8298 0.9560
-3.5892 5.9029 -1.1381 0.9724
-6.6054 8.9516 -1.8327 0.9559
-7.3851 8.3336 -1.8344 0.9559
-8.1077 7.6485 -1.8362 0.9558
-8.7674 6.9012 -1.8381 0.9558
-10.3179 4.3456 -1.8444 0.9556
-12.1760 -0.5902 -2.0082 0.9518
-12.0889 -1.6770 -2.0106 0.9517
-11.2492 -4.8368 -2.0172 0.9516
-8.8754 -8.4986 -2.0243 0.9514
-6.3167 -10.5652 -2.0279 0.9513
-4.3396 -11.5278 -2.0292 0.9513
-3.2935 -11.8712 -2.0295 0.9513
-2.2204 -12.1185 -2.0296 0.9513
-0.0295 -12.3175 -2.0292 0.9513
2.1605 -12.1184 -2.0279 0.9513
3.2323 -11.8714 -2.0269 0.9513
5.2857 -11.0932 -2.0243 0.9514
6.2503 -10.5688 -2.0228 0.9514
7.1629 -9.9600 -2.0211 0.9515
9.5182 -7.6827 -2.0151 0.9516
11.1757 -4.8687 -2.0082 0.9518
12.0226 -1.7265 -2.0009 0.9520
11.8105 2.5792 -1.9915 0.9522
11.5204 3.6195 -1.9893 0.9522
11.1396 4.6289 -1.9872 0.9523
9.4884 7.3953 -1.9818 0.9524
8.7835 8.2068 -1.9803 0.9524
8.0102 8.9523 -1.9790 0.9525
6.2835 10.2234 -1.9769 0.9525
5.3435 10.7395 -1.9761 0.9525
3.0922 10.6381 -1.8250 0.9561
2.1298 10.8710 -1.8249 0.9561
1.1506 11.0182 -1.8250 0.9561
0.1622 11.0785 -1.8253 0.9561
-2.7826 10.7368 -1.8272 0.9560
-3.7323 10.4513 -1.8282 0.9560
-4.6536 10.0828 -1.8294 0.9560
-6.3827 9.1084 -1.8323 0.9559
-9.2039 6.3228 -1.8396 0.9557
-10.2051 4.5954 -1.8438 0.9556
-10.5873 3.6702 -1.8460 0.9556
-12.1828 -0.2917 -2.0076 0.9518
-11.9646 -2.4598 -2.0123 0.9517
-11.7102 -3.5222 -2.0145 0.9516
-10.9196 -5.5604 -2.0187 0.9515
-10.3892 -6.5194 -2.0206 0.9515
-9.7741 -7.4274 -2.0223 0.9515
-7.4718 -9.7727 -2.0266 0.9514
-6.5727 -10.4061 -2.0276 0.9513
-3.5830 -11.7866 -2.0294 0.9513
-2.5165 -12.0605 -2.0296 0.9513
0.7695 -12.2912 -2.0288 0.9513
2.9411 -11.9486 -2.0272 0.9513
5.9909 -10.7210 -2.0232 0.9514
6.9186 -10.1349 -2.0215 0.9515
7.7888 -9.4681 -2.0197 0.9515
8.5948 -8.7263 -2.0178 0.9516
10.5657 -6.1165 -2.0112 0.9517
11.0567 -5.1426 -2.0089 0.9518
11.7667 -3.0865 -2.0040 0.9519
11.9808 -2.0211 -2.0016 0.9519
12.1199 0.1418 -1.9968 0.9521
11.6090 3.3373 -1.9899 0.9522
10.8080 5.3380 -1.9858 0.9523
10.2786 6.2759 -1.9840 0.9524
8.9836 7.9908 -1.9807 0.9524
7.4094 9.4490 -1.9781 0.9525
4.6192 11.0247 -1.9692 0.9527
1.4200 10.9865 -1.8250 0.9561
-0.5570 11.0676 -1.8256 0.9561
-1.5435 10.9773 -1.8262 0.9561
-2.5186 10.8003 -1.8270 0.9560
-3.4747 10.5378 -1.8279 0.9560
-4.4045 10.1918 -1.8291 0.9560
-5.3007 9.7648 -1.8304 0.9560
-6.1564 9.2599 -1.8318 0.9559
-6.9647 8.6808 -1.8334 0.9559
-7.7193 8.0318 -1.8352 0.9558
-8.4142 7.3179 -1.8370 0.9558
-9.0436 6.5443 -1.8390 0.9558
-10.4908 3.9271 -1.8454 0.9556
-10.8126 2.9782 -1.8476 0.9556
-11.9509 2.1669 -2.0009 0.9520
-12.1184 1.0931 -2.0045 0.9519
-12.1823 0.0066 -2.0069 0.9518
-12.1487 -1.0825 -2.0093 0.9518
-12.0175 -2.1654 -2.0116 0.9517
-11.7894 -3.2335 -2.0139 0.9516
-11.0495 -5.2900 -2.0181 0.9516
-10.5431 -6.2615 -2.0201 0.9515
-9.9507 -7.1842 -2.0219 0.9515
-8.5273 -8.8532 -2.0250 0.9514
-7.7076 -9.5853 -2.0263 0.9514
-4.8980 -11.3000 -2.0289 0.9513
-2.8110 -11.9951 -2.0296 0.9513
3.7086 -11.7280 -2.0264 0.9514
4.7380 -11.3430 -2.0251 0.9514
6.6699 -10.3037 -2.0220 0.9515
7.5566 -9.6584 -2.0202 0.9515
8.3808 -8.9366 -2.0183 0.9515
9.1360 -8.1442 -2.0163 0.9516
9.8161 -7.2881 -2.0141 0.9516
10.4160 -6.3754 -2.0118 0.9517
10.9310 -5.4135 -2.0095 0.9518
11.6915 -3.3749 -2.0047 0.9519
11.9317 -2.3146 -2.0023 0.9519
12.1237 -0.1551 -1.9974 0.9520
12.0748 0.9270 -1.9950 0.9521
11.9299 1.9992 -1.9927 0.9521
11.6907 3.0530 -1.9905 0.9522
10.4317 6.0238 -1.9845 0.9523
9.8435 6.9251 -1.9827 0.9524
9.1785 7.7701 -1.9811 0.9524
6.7782 9.9060 -1.9774 0.9525
4.9004 10.9364 -1.9742 0.9526
2.6595 10.7539 -1.8250 0.9561
1.6886 10.9483 -1.8249 0.9561
0.7043 11.0563 -1.8251 0.9561
-0.2858 11.0771 -1.8254 0.9561
-2.2531 10.8573 -1.8267 0.9560
-3.2151 10.6181 -1.8276 0.9560
-4.1529 10.2948 -1.8287 0.9560
-3.6330 5.7658 -1.1227 0.9728
-6.7484 8.8465 -1.8330 0.9559
-7.5183 8.2162 -1.8347 0.9559
-9.4568 5.9486 -1.8405 0.9557
-9.9615 5.0862 -1.8426 0.9557
-10.3881 4.1814 -1.8448 0.9556
-10.7329 3.2410 -1.8470 0.9556
-11.8646 2.4527 -1.9959 0.9521
-12.0840 1.3890 -2.0038 0.9519
-11.5639 -3.9946 -2.0155 0.9516
-11.1726 -5.0164 -2.0176 0.9516
-10.6905 -5.9999 -2.0196 0.9515
-10.1213 -6.9368 -2.0214 0.9515
-9.4694 -7.8193 -2.0231 0.9514
-8.7399 -8.6401 -2.0246 0.9514
-7.9387 -9.3922 -2.0259 0.9514
-5.1729 -11.1758 -2.0287 0.9513
-4.1554 -11.5960 -2.0293 0.9513
-3.1038 -11.9224 -2.0296 0.9513
-0.9336 -12.2839 -2.0295 0.9513
0.1669 -12.3159 -2.0291 0.9513
3.4209 -11.8172 -2.0267 0.9514
-2.0592 9.5137 -1.8296 0.9612
-3.7222 9.0046 -1.8314 0.9611
-5.9879 7.7120 -1.8352 0.9610
-6.6580 7.1524 -1.8367 0.9610
-7.2764 6.5351 -1.8383 0.9610
-7.8382 5.8647 -1.8400 0.9609
-8.3386 5.1464 -1.8418 0.9609
-8.7737 4.3857 -1.8437 0.9609
-10.1738 2.9776 -1.9925 0.9578
-10.4469 2.0667 -2.0017 0.9576
-10.3673 -2.6664 -2.0121 0.9574
-10.0974 -3.5849 -2.0140 0.9573
-9.3151 -5.3331 -2.0175 0.9573
-8.8087 -6.1484 -2.0191 0.9572
-8.2304 -6.9154 -2.0206 0.9572
-7.5850 -7.6276 -2.0219 0.9572
-6.8775 -8.2791 -2.0230 0.9571
-6.1138 -8.8645 -2.0240 0.9571
-4.4427 -9.8175 -2.0255 0.9571
-3.5491 -10.1771 -2.0259 0.9571
-1.6826 -10.6476 -2.0262 0.9571
0.2381 -10.7744 -2.0257 0.9571
1.1989 -10.7073 -2.0251 0.9571
3.0818 -10.3150 -2.0235 0.9571
4.8618 -9.5914 -2.0212 0.9572
7.2134 -7.9418 -2.0166 0.9573
7.8868 -7.2596 -2.0148 0.9573
8.4956 -6.5203 -2.0129 0.9573
9.5010 -4.8955 -2.0089 0.9574
10.1989 -3.1210 -2.0047 0.9575
10.4257 -2.1955 -2.0026 0.9576
10.4905 1.5864 -1.9942 0.9577
10.2968 2.5143 -1.9923 0.9578
10.0217 3.4204 -1.9904 0.9578
8.1636 6.6904 -1.9839 0.9580
4.4582 9.5390 -1.9791 0.9581
0.7730 9.6950 -1.8281 0.9612
-1.8254 9.5603 -1.8294 0.9612
-2.6729 9.3631 -1.8302 0.9611
-3.5001 9.0916 -1.8311 0.9611
-5.7960 7.8546 -1.8348 0.9610
-6.4794 7.3116 -1.8363 0.9610
-7.1125 6.7096 -1.8379 0.9610
-7.6902 6.0533 -1.8395 0.9610
-8.2079 5.3475 -1.8413 0.9609
-8.6612 4.5979 -1.8431 0.9609
-9.0465 3.8101 -1.8450 0.9608
-10.3901 2.3212 -2.0011 0.9576
-10.6600 0.4371 -2.0053 0.9575
-9.8501 -4.2352 -2.0153 0.9573
-9.4408 -5.1023 -2.0171 0.9573
-8.9547 -5.9296 -2.0187 0.9572
-7.7682 -7.4383 -2.0215 0.9572
-5.5275 -9.2452 -2.0246 0.9571
-4.6814 -9.7050 -2.0253 0.9571
-2.8817 -10.3869 -2.0261 0.9571
-1.9428 -10.6032 -2.0262 0.9571
-0.9796 -10.6403 -2.0084 0.9574
-0.0258 -10.7776 -2.0258 0.9571
0.9364 -10.7343 -2.0253 0.9571
4.6263 -9.7093 -2.0215 0.9572
5.4711 -9.2512 -2.0202 0.9572
6.2706 -8.7193 -2.0187 0.9572
7.0184 -8.1180 -2.0171 0.9573
7.7086 -7.4524 -2.0153 0.9573
8.3355 -6.7281 -2.0135 0.9573
8.8944 -5.9512 -2.0115 0.9574
9.3809 -5.1281 -2.0095 0.9574
9.7912 -4.2656 -2.0074 0.9575
10.6197 -0.5658 -1.9989 0.9576
10.5291 1.3294 -1.9948 0.9577
9.3625 4.9128 -1.9873 0.9579
8.8793 5.7246 -1.9857 0.9579
8.3265 6.4897 -1.9843 0.9579
7.7087 7.2025 -1.9830 0.9580
7.0306 7.8574 -1.9818 0.9580
6.2977 8.4495 -1.9808 0.9580
5.5157 8.9742 -1.9799 0.9580
4.6908 9.4277 -1.9793 0.9580
3.6057 9.2338 -1.8632 0.9605
2.7146 9.3393 -1.8281 0.9612
1.0101 9.6729 -1.8280 0.9612
-0.7267 9.7018 -1.8287 0.9612
-1.5906 9.6011 -1.8292 0.9612
-2.4425 9.4245 -1.8300 0.9611
-3.2759 9.1733 -1.8309 0.9611
-4.8612 8.4546 -1.8331 0.9611
-5.6007 7.9925 -1.8344 0.9611
-6.2970 7.4663 -1.8359 0.9610
-9.3585 3.2442 -1.8617 0.9605
-10.5269 1.6435 -2.0026 0.9576
-10.6740 -0.2556 -2.0069 0.9575
-10.6196 -1.2089 -2.0090 0.9574
-10.4798 -2.1545 -2.0110 0.9574
-9.5607 -4.8684 -2.0166 0.9573
-9.0953 -5.7074 -2.0183 0.9572
-7.2724 -7.9301 -2.0224 0.9572
-4.9173 -9.5867 -2.0251 0.9571
-3.1350 -10.3129 -2.0260 0.9571
-2.2018 -10.5524 -2.0262 0.9571
-1.2435 -10.6445 -2.0144 0.9573
-0.2897 -10.7743 -2.0259 0.9571
0.6733 -10.7548 -2.0254 0.9571
1.6305 -10.6485 -2.0248 0.9571
2.5737 -10.4562 -2.0240 0.9571
3.4954 -10.1797 -2.0230 0.9571
4.3879 -9.8213 -2.0219 0.9572
5.2439 -9.3842 -2.0206 0.9572
6.8191 -8.2893 -2.0175 0.9573
8.1704 -6.9320 -2.0140 0.9573
9.6866 -4.5053 -2.0080 0.9575
10.0397 -3.6186 -2.0059 0.9575
10.3117 -2.7049 -2.0038 0.9575
10.5009 -1.7714 -2.0016 0.9576
10.6058 -0.8258 -1.9995 0.9576
10.5615 1.0715 -1.9953 0.9577
10.4131 2.0082 -1.9933 0.9578
10.1823 2.9272 -1.9914 0.9578
9.8711 3.8212 -1.9895 0.9578
9.0187 5.5066 -1.9862 0.9579
8.4846 6.2852 -1.9847 0.9579
7.2220 7.6841 -1.9821 0.9580
4.0573 9.6835 -1.9734 0.9582
2.9425 9.2703 -1.8281 0.9612
1.2466 9.6451 -1.8280 0.9612
0.3805 9.7189 -1.8282 0.9612
-1.3549 9.6363 -1.8291 0.9612
-2.2108 9.4804 -1.8298 0.9612
-3.0499 9.2494 -1.8306 0.9611
-3.8657 8.9450 -1.8316 0.9611
-4.6519 8.5695 -1.8328 0.9611
-3.7601 5.6556 -1.2765 0.9727
-6.7722 7.0464 -1.8370 0.9610
-7.3809 6.4192 -1.8386 0.9610
-8.4211 5.0136 -1.8421 0.9609
-8.8441 4.2460 -1.8440 0.9609
-10.6196 0.9579 -2.0042 0.9575
-10.3253 -2.8319 -2.0124 0.9574
-10.0406 -3.7461 -2.0143 0.9573
-9.6747 -4.6318 -2.0161 0.9573
-9.2303 -5.4818 -2.0178 0.9572
-6.7453 -8.3885 -2.0232 0.9571
-5.9721 -8.9615 -2.0242 0.9571
-5.1501 -9.4626 -2.0250 0.9571
-4.2858 -9.8875 -2.0255 0.9571
0.4098 -10.7688 -2.0256 0.9571
3.2455 -10.2637 -2.0233 0.9571
5.0135 -9.5115 -2.0209 0.9572
8.5970 -6.3829 -2.0126 0.9574
10.2454 -2.9574 -2.0044 0.9575
10.4574 -2.0286 -2.0022 0.9576
10.4620 1.7532 -1.9939 0.9577
10.2536 2.6777 -1.9919 0.9578
9.9642 3.5792 -1.9900 0.9578
9.1529 5.2853 -1.9866 0.9579
8.0549 6.8189 -1.9837 0.9580
7.4092 7.5061 -1.9824 0.9580
6.7056 8.1332 -1.9813 0.9580
5.9498 8.6954 -1.9804 0.9580
5.1476 9.1884 -1.9796 0.9580
3.1688 9.1958 -1.8282 0.9612
0.6183 9.7063 -1.8281 0.9612
-0.2509 9.7244 -1.8284 0.9612
-1.1185 9.6657 -1.8289 0.9612
-1.9778 9.5306 -1.8295 0.9612
-2.8221 9.3201 -1.8304 0.9611
-4.4399 8.6793 -1.8324 0.9611
-5.9213 7.7623 -1.8350 0.9610
-7.7871 5.9309 -1.8398 0.9609
-9.1078 3.6660 -1.8454 0.9608
-10.5899 1.2173 -2.0036 0.9575
-10.6676 0.2671 -2.0057 0.9575
-10.3887 -2.5775 -2.0119 0.9574
-8.8602 -6.0725 -2.0190 0.9572
-6.9477 -8.2196 -2.0229 0.9571
-5.3797 -9.3327 -2.0248 0.9571
-3.6359 -10.1463 -2.0259 0.9571
-2.7157 -10.4317 -2.0261 0.9571
-0.8169 -10.7480 -2.0260 0.9571
0.1460 -10.7763 -2.0257 0.9571
1.1074 -10.7175 -2.0252 0.9571
2.0592 -10.5721 -2.0245 0.9571
3.9031 -10.0276 -2.0225 0.9571
4.7799 -9.6332 -2.0213 0.9572
6.4079 -8.6170 -2.0184 0.9572
-1.8333 8.4699 -1.8318 0.9652
-4.0181 7.6921 -1.8344 0.9651
-3.6453 5.6773 -1.4261 0.9728
-5.3291 6.8636 -1.8368 0.9651
-6.4747 5.8150 -1.8396 0.9650
-6.9738 5.2180 -1.8411 0.9650
-7.8045 3.9012 -1.8443 0.9650
-9.0798 2.6574 -1.9998 0.9621
-9.2896 1.8378 -2.0017 0.9620
-9.4863 0.1565 -2.0055 0.9620
-9.2136 -2.3697 -2.0109 0.9619
-8.2760 -4.7382 -2.0158 0.9618
-7.3111 -6.1429 -2.0185 0.9617
-6.1084 -7.3533 -2.0207 0.9617
-4.7068 -8.3291 -2.0223 0.9616
-3.9454 -8.7185 -2.0228 0.9616
-1.4941 -9.4553 -2.0235 0.9616
-0.6439 -9.5503 -2.0233 0.9616
0.2114 -9.5682 -2.0230 0.9616
1.0647 -9.5088 -2.0225 0.9616
1.9089 -9.3728 -2.0219 0.9616
2.7371 -9.1613 -2.0211 0.9617
3.5425 -8.8761 -2.0201 0.9617
4.3185 -8.5197 -2.0190 0.9617
8.0300 -5.0927 -2.0100 0.9619
9.0675 -2.7748 -2.0044 0.9620
9.3987 -1.1156 -2.0006 0.9620
9.3323 1.4112 -1.9951 0.9621
8.9171 3.0434 -1.9916 0.9622
8.6028 3.8244 -1.9901 0.9622
8.2208 4.5738 -1.9886 0.9623
7.7741 5.2859 -1.9872 0.9623
7.2664 5.9551 -1.9859 0.9623
6.7018 6.5764 -1.9847 0.9623
6.0847 7.1449 -1.9837 0.9624
5.4201 7.6563 -1.9829 0.9624
4.7131 8.1068 -1.9822 0.9624
3.9693 8.4929 -1.9816 0.9624
3.0794 8.4942 -1.9098 0.9637
2.2126 8.3719 -1.8304 0.9652
1.4562 8.5357 -1.8303 0.9652
0.6882 8.6321 -1.8304 0.9652
-0.8584 8.6200 -1.8311 0.9652
-3.1158 8.0934 -1.8332 0.9652
-3.8280 7.7870 -1.8341 0.9651
-3.4900 5.7399 -1.4200 0.9729
-5.1585 6.9907 -1.8364 0.9651
-5.7662 6.5068 -1.8378 0.9651
-6.8424 5.3859 -1.8407 0.9650
-9.0073 2.8774 -1.9988 0.9621
-9.4829 -0.4596 -2.0068 0.9619
-9.4126 -1.3057 -2.0087 0.9619
-8.3878 -4.5332 -2.0154 0.9618
-6.9001 -6.6071 -2.0194 0.9617
-6.2858 -7.2006 -2.0204 0.9617
-2.5590 -9.2238 -2.0234 0.9616
-1.7252 -9.4159 -2.0235 0.9616
-0.8775 -9.5319 -2.0234 0.9616
-0.0229 -9.5710 -2.0231 0.9616
1.6790 -9.4176 -2.0221 0.9616
2.5122 -9.2266 -2.0213 0.9617
5.5707 -7.7461 -2.0168 0.9617
7.4073 -5.9789 -2.0122 0.9618
8.3381 -4.5581 -2.0087 0.9619
8.7038 -3.7919 -2.0068 0.9619
9.2221 -2.1792 -2.0031 0.9620
9.3710 -1.3457 -2.0012 0.9620
9.4431 0.3419 -1.9974 0.9621
9.3663 1.1826 -1.9956 0.9621
8.6957 3.6134 -1.9905 0.9622
8.3320 4.3721 -1.9890 0.9623
7.4113 5.7764 -1.9862 0.9623
6.8618 6.4113 -1.9850 0.9623
6.2587 6.9947 -1.9840 0.9624
5.6066 7.5222 -1.9831 0.9624
1.6648 8.4975 -1.8303 0.9652
0.1268 8.6594 -1.8306 0.9652
-0.6471 8.6378 -1.8310 0.9652
-1.4161 8.5479 -1.8315 0.9652
-2.1745 8.3903 -1.8321 0.9652
-2.9163 8.1662 -1.8329 0.9652
-4.3270 7.5254 -1.8349 0.9651
-7.9872 3.5967 -1.8516 0.9648
-9.3603 1.4614 -2.0025 0.9620
-9.4624 0.6204 -2.0044 0.9620
-9.4889 -0.2272 -2.0063 0.9619
-9.4394 -1.0746 -2.0082 0.9619
-8.8399 -3.5470 -2.0134 0.9618
-7.0587 -6.4351 -2.0190 0.9617
-6.4594 -7.0435 -2.0201 0.9617
-5.1080 -8.0872 -2.0219 0.9616
-4.3669 -8.5137 -2.0225 0.9616
-1.9553 -9.3708 -2.0235 0.9616
-0.2573 -9.5680 -2.0232 0.9616
1.4480 -9.4568 -2.0223 0.9616
2.2858 -9.2864 -2.0216 0.9617
3.8975 -8.7236 -2.0197 0.9617
5.3804 -7.8816 -2.0172 0.9617
6.0584 -7.3646 -2.0158 0.9618
6.6867 -6.7890 -2.0143 0.9618
7.2604 -6.1599 -2.0126 0.9618
7.7748 -5.4824 -2.0109 0.9619
8.6105 -4.0049 -2.0073 0.9619
8.9254 -3.2170 -2.0055 0.9620
9.1684 -2.4050 -2.0036 0.9620
9.4511 0.1106 -1.9979 0.9621
9.3948 0.9531 -1.9961 0.9621
9.2639 1.7866 -1.9943 0.9622
9.0595 2.6044 -1.9926 0.9622
8.7835 3.4001 -1.9909 0.9622
7.0179 6.2423 -1.9854 0.9623
5.7897 7.3835 -1.9833 0.9624
5.1053 7.8678 -1.9825 0.9624
4.3810 8.2896 -1.9819 0.9624
3.6186 8.6365 -1.9794 0.9624
1.1100 8.5877 -1.8304 0.9652
0.3388 8.6533 -1.8305 0.9652
-0.4353 8.6505 -1.8309 0.9652
-1.9682 8.4402 -1.8319 0.9652
-3.4412 7.9627 -1.8336 0.9652
-3.7453 5.6334 -1.4299 0.9727
-7.4915 4.4602 -1.8430 0.9650
-8.8236 3.3029 -1.9915 0.9622
-9.4419 0.8517 -2.0039 0.9620
-9.4892 0.0052 -2.0058 0.9619
-5.9909 -7.4504 -2.0209 0.9617
-4.5737 -8.4035 -2.0224 0.9616
-1.3432 -9.4778 -2.0234 0.9616
0.3639 -9.5633 -2.0229 0.9616
1.2161 -9.4902 -2.0224 0.9616
2.0579 -9.3406 -2.0218 0.9617
2.8826 -9.1158 -2.0209 0.9617
3.6832 -8.8177 -2.0200 0.9617
5.8774 -7.5122 -2.0162 0.9618
6.5199 -6.9522 -2.0147 0.9618
8.1089 -4.9632 -2.0096 0.9619
8.8462 -3.4355 -2.0060 0.9619
9.4137 -0.9654 -2.0003 0.9621
9.4177 0.7230 -1.9966 0.9621
9.3071 1.5596 -1.9948 0.9622
8.8661 3.1847 -1.9914 0.9622
8.5396 3.9605 -1.9898 0.9622
8.1457 4.7037 -1.9883 0.9623
7.6879 5.4085 -1.9869 0.9623
5.9695 7.2404 -1.9836 0.9624
5.2970 7.7413 -1.9827 0.9624
4.5830 8.1805 -1.9821 0.9624
2.8294 8.2109 -1.8358 0.9651
2.0788 8.4060 -1.8304 0.9652
-0.2234 8.6581 -1.8308 0.9652
-6.9285 5.2769 -1.8409 0.9650
-7.7702 3.9674 -1.8442 0.9650
-8.5387 3.4369 -1.9456 0.9631
-9.4158 1.0823 -2.0034 0.9620
-9.4837 0.2375 -2.0053 0.9620
-9.4759 -0.6109 -2.0072 0.9619
-7.3628 -6.0799 -2.0184 0.9617
-6.7945 -6.7169 -2.0196 0.9617
-6.1708 -7.3005 -2.0206 0.9617
-5.4967 -7.8258 -2.0215 0.9617
-3.2288 -9.0102 -2.0232 0.9616
-2.4116 -9.2636 -2.0234 0.9616
-1.5749 -9.4422 -2.0235 0.9616
0.1297 -9.5698 -2.0231 0.9616
1.8288 -9.3891 -2.0220 0.9616
2.6588 -9.1847 -2.0212 0.9617
3.4667 -8.9065 -2.0202 0.9617
4.2458 -8.5567 -2.0191 0.9617
4.9899 -8.1385 -2.0179 0.9617
-2.9828 7.2158 -1.8351 0.9684
-3.6169 6.9241 -1.8360 0.9684
-3.6366 5.6636 -1.5818 0.9727
-4.7964 6.1775 -1.8381 0.9684
-5.8266 5.2329 -1.8406 0.9683
-6.2752 4.6953 -1.8420 0.9683
-6.6746 4.1194 -1.8434 0.9683
-7.9145 3.1074 -1.9983 0.9657
-8.1673 2.3903 -2.0000 0.9656
-8.4766 0.9010 -2.0034 0.9656
-8.5161 -0.6221 -2.0068 0.9655
-8.4334 -1.3811 -2.0084 0.9655
-8.0658 -2.8636 -2.0116 0.9654
-7.4383 -4.2586 -2.0144 0.9654
-6.5701 -5.5203 -2.0168 0.9654
-6.0541 -6.0881 -2.0179 0.9653
-5.4888 -6.6073 -2.0188 0.9653
-4.2290 -7.4835 -2.0202 0.9653
-1.3424 -8.4949 -2.0213 0.9653
-0.5785 -8.5803 -2.0212 0.9653
0.1899 -8.5965 -2.0209 0.9653
0.9566 -8.5434 -2.0205 0.9653
1.7151 -8.4215 -2.0199 0.9653
4.5464 -7.2750 -2.0162 0.9654
5.1747 -6.8358 -2.0150 0.9654
6.2994 -5.7985 -2.0122 0.9654
6.7869 -5.2089 -2.0107 0.9655
7.9056 -3.2162 -2.0059 0.9655
8.4537 -1.0034 -2.0008 0.9656
8.5024 -0.2444 -1.9991 0.9657
8.4831 0.5153 -1.9974 0.9657
8.3964 1.2697 -1.9958 0.9657
7.7420 3.4417 -1.9912 0.9658
7.3987 4.1165 -1.9899 0.9658
1.9921 7.5376 -1.8323 0.9685
1.3111 7.6852 -1.8323 0.9685
0.6197 7.7719 -1.8324 0.9685
-0.7729 7.7607 -1.8330 0.9685
-2.8049 7.2858 -1.8348 0.9684
-3.4747 5.7146 -1.5718 0.9729
-5.1895 5.8560 -1.8390 0.9684
-5.6956 5.3730 -1.8402 0.9683
-6.1571 4.8465 -1.8416 0.9683
-6.5703 4.2807 -1.8430 0.9683
-7.1564 3.7990 -1.9042 0.9673
-8.3103 1.8566 -2.0013 0.9656
-8.4501 1.1081 -2.0030 0.9656
-8.5225 0.3494 -2.0047 0.9656
-8.5268 -0.4133 -2.0063 0.9655
-8.3308 -1.9265 -2.0096 0.9655
-8.1318 -2.6647 -2.0112 0.9654
-7.5389 -4.0744 -2.0140 0.9654
-7.1496 -4.7343 -2.0153 0.9654
-5.0500 -6.9515 -2.0194 0.9653
-3.0295 -8.0477 -2.0210 0.9653
-2.2990 -8.2870 -2.0212 0.9653
-1.5500 -8.4595 -2.0213 0.9653
-0.7884 -8.5638 -2.0212 0.9653
0.7472 -8.5649 -2.0206 0.9653
1.5085 -8.4617 -2.0200 0.9653
2.2573 -8.2904 -2.0194 0.9653
2.9873 -8.0524 -2.0185 0.9653
5.0066 -6.9616 -2.0153 0.9654
6.6587 -5.3747 -2.0111 0.9654
7.8263 -3.4096 -2.0063 0.9655
8.0927 -2.6949 -2.0046 0.9656
8.4286 -1.2104 -2.0012 0.9656
8.4958 -0.4526 -1.9995 0.9656
8.4951 0.3075 -1.9979 0.9657
8.2915 1.8107 -1.9946 0.9657
8.0905 2.5419 -1.9931 0.9658
7.8255 3.2518 -1.9916 0.9658
7.1128 4.5857 -1.9890 0.9658
6.6710 5.1994 -1.9878 0.9658
6.1768 5.7712 -1.9867 0.9659
5.0473 6.7719 -1.9850 0.9659
4.4210 7.1931 -1.9843 0.9659
3.0679 7.8565 -1.9822 0.9659
1.4989 7.6508 -1.8323 0.9685
0.8098 7.7542 -1.8323 0.9685
0.1142 7.7964 -1.8325 0.9685
-1.2750 7.6957 -1.8333 0.9685
-1.9576 7.5535 -1.8339 0.9684
-2.6253 7.3514 -1.8346 0.9684
-3.8948 6.7738 -1.8364 0.9684
-5.0436 5.9803 -1.8386 0.9684
-5.5613 5.5098 -1.8399 0.9683
-6.0354 4.9948 -1.8412 0.9683
-6.8893 3.8764 -1.8579 0.9680
-7.7297 3.4807 -1.9924 0.9658
-8.0367 2.7860 -1.9991 0.9657
-8.2604 2.0590 -2.0008 0.9656
-8.4184 1.3143 -2.0025 0.9656
-8.4871 -0.9662 -2.0076 0.9655
-8.3737 -1.7215 -2.0092 0.9655
-6.3431 -5.7828 -2.0173 0.9653
-5.8043 -6.3292 -2.0183 0.9653
-4.5895 -7.2663 -2.0199 0.9653
-3.9235 -7.6493 -2.0205 0.9653
-3.2255 -7.9708 -2.0209 0.9653
-2.5013 -8.2280 -2.0212 0.9653
2.0538 -8.3440 -2.0196 0.9653
2.7896 -8.1241 -2.0188 0.9653
3.5023 -7.8390 -2.0179 0.9653
4.1861 -7.4911 -2.0168 0.9654
4.8354 -7.0833 -2.0157 0.9654
5.4451 -6.6191 -2.0144 0.9654
7.3958 -4.2814 -2.0084 0.9655
7.7422 -3.6010 -2.0068 0.9655
8.2454 -2.1628 -2.0034 0.9656
8.3984 -1.4168 -2.0017 0.9656
8.5021 0.0995 -1.9983 0.9657
8.4522 0.8575 -1.9967 0.9657
8.3352 1.6075 -1.9951 0.9657
8.1520 2.3435 -1.9935 0.9657
7.9043 3.0598 -1.9920 0.9658
5.2122 6.6470 -1.9852 0.9659
4.5962 7.0833 -1.9845 0.9659
3.9442 7.4632 -1.9839 0.9659
3.2613 7.7839 -1.9835 0.9659
-1.0860 7.7240 -1.8332 0.9685
-1.7719 7.5985 -1.8337 0.9684
-2.4442 7.4127 -1.8344 0.9684
-3.7272 6.8662 -1.8361 0.9684
-3.7357 5.6189 -1.5858 0.9727
-5.4237 5.6432 -1.8395 0.9684
-6.3502 4.5952 -1.8422 0.9683
-7.6277 3.6620 -1.9886 0.9658
-7.9643 2.9813 -1.9986 0.9657
-8.2056 2.2601 -2.0003 0.9656
-8.3818 1.5197 -2.0020 0.9656
-8.2491 -2.2625 -2.0103 0.9655
-5.3831 -6.6945 -2.0189 0.9653
-4.7656 -7.1511 -2.0197 0.9653
-1.9623 -8.3734 -2.0213 0.9653
0.3270 -8.5921 -2.0208 0.9653
4.0020 -7.5925 -2.0171 0.9653
4.6613 -7.2008 -2.0160 0.9654
5.8602 -6.2488 -2.0134 0.9654
6.3902 -5.6965 -2.0120 0.9654
7.2904 -4.4622 -2.0089 0.9655
7.6535 -3.7904 -2.0072 0.9655
8.1919 -2.3646 -2.0039 0.9656
8.4674 -0.8684 -2.0005 0.9656
8.5039 -0.1088 -1.9988 0.9657
7.9785 2.8659 -1.9924 0.9658
7.6852 3.5643 -1.9910 0.9658
6.9197 4.8681 -1.9884 0.9658
5.3740 6.5181 -1.9854 0.9659
2.7405 7.9530 -1.9770 0.9660
1.8717 7.5683 -1.8323 0.9685
0.4957 7.7809 -1.8324 0.9685
-0.2011 7.7952 -1.8327 0.9685
-0.8965 7.7477 -1.8330 0.9685
-1.5852 7.6389 -1.8336 0.9685
-2.2618 7.4695 -1.8342 0.9684
-2.9209 7.2407 -1.8350 0.9684
-4.7432 6.2178 -1.8380 0.9684
-5.2829 5.7732 -1.8392 0.9684
-5.7813 5.2822 -1.8405 0.9683
-6.2345 4.7483 -1.8418 0.9683
-6.6387 4.1759 -1.8433 0.9683
-7.3375 3.7464 -1.9363 0.9667
-8.5283 0.2135 -2.0050 0.9656
-8.5204 -0.5493 -2.0066 0.9655
-8.4442 -1.3090 -2.0083 0.9655
-8.3002 -2.0594 -2.0099 0.9655
-7.4739 -4.1946 -2.0143 0.9654
-6.6167 -5.4637 -2.0167 0.9654
-5.5448 -6.5599 -2.0187 0.9653
-4.2927 -7.4469 -2.0202 0.9653
-2.1667 -8.3227 -2.0212 0.9653
0.8836 -8.5515 -2.0205 0.9653
1.6432 -8.4361 -2.0199 0.9653
2.3890 -8.2528 -2.0192 0.9653
3.1151 -8.0031 -2.0184 0.9653
4.4843 -7.3139 -2.0163 0.9654
5.1164 -6.8802 -2.0151 0.9654
-2.1126 6.7678 -1.8357 0.9711
-3.2854 6.2894 -1.8372 0.9711
-3.6277 5.6499 -1.7385 0.9726
-4.3563 5.6106 -1.8392 0.9711
-5.6983 4.2636 -1.8427 0.9710
-7.1853 2.8211 -1.9987 0.9686
-7.4142 2.1699 -2.0002 0.9686
-7.5842 1.5004 -2.0017 0.9686
-7.6528 -1.2533 -2.0078 0.9685
-7.5158 -1.9330 -2.0093 0.9684
-7.3182 -2.5982 -2.0107 0.9684
-6.7479 -3.8633 -2.0132 0.9684
-6.3797 -4.4530 -2.0144 0.9684
-5.9597 -5.0075 -2.0154 0.9683
-5.4913 -5.5222 -2.0164 0.9683
-4.9784 -5.9929 -2.0172 0.9683
-3.8355 -6.7872 -2.0185 0.9683
-2.5681 -7.3640 -2.0193 0.9683
-1.2174 -7.7041 -2.0195 0.9683
-0.5246 -7.7816 -2.0194 0.9683
0.1723 -7.7964 -2.0191 0.9683
0.8676 -7.7484 -2.0187 0.9683
2.8873 -7.2344 -2.0168 0.9683
3.5201 -6.9446 -2.0159 0.9683
4.6943 -6.2012 -2.0138 0.9684
6.5509 -4.1546 -2.0085 0.9685
6.8906 -3.5505 -2.0070 0.9685
7.1748 -2.9188 -2.0055 0.9685
7.5679 -1.5937 -2.0024 0.9685
7.6740 -0.9109 -2.0009 0.9686
7.7187 -0.2219 -1.9993 0.9686
7.7019 0.4679 -1.9978 0.9686
7.6237 1.1529 -1.9963 0.9686
7.4849 1.8277 -1.9949 0.9687
6.7197 3.7387 -1.9910 0.9687
6.3554 4.3213 -1.9899 0.9687
5.4800 5.3774 -1.9879 0.9688
4.9759 5.8429 -1.9871 0.9688
3.2466 6.9466 -1.9853 0.9688
2.6129 7.2076 -1.9850 0.9688
1.9193 7.2622 -1.9449 0.9694
1.1911 6.9820 -1.8339 0.9712
-0.0698 7.0837 -1.8342 0.9712
-0.7021 7.0504 -1.8345 0.9711
-1.3292 6.9613 -1.8350 0.9711
-1.9460 6.8169 -1.8355 0.9711
-3.1300 6.3671 -1.8370 0.9711
-7.3573 2.3503 -1.9998 0.9686
-7.5436 1.6853 -2.0013 0.9686
-7.7383 -0.3751 -2.0059 0.9685
-7.1376 -3.0690 -2.0116 0.9684
-6.4858 -4.2948 -2.0141 0.9684
-6.0797 -4.8594 -2.0152 0.9684
-5.1231 -5.8686 -2.0170 0.9683
-2.7475 -7.2986 -2.0192 0.9683
-1.4057 -7.6720 -2.0195 0.9683
-0.0187 -7.7986 -2.0192 0.9683
1.3682 -7.6744 -2.0184 0.9683
2.0473 -7.5193 -2.0177 0.9683
3.9618 -6.6992 -2.0152 0.9684
4.5417 -6.3153 -2.0141 0.9684
5.5858 -5.4002 -2.0116 0.9684
6.0417 -4.8766 -2.0103 0.9684
6.4485 -4.3146 -2.0089 0.9684
6.8030 -3.7189 -2.0074 0.9685
7.1026 -3.0943 -2.0059 0.9685
7.5282 -1.7789 -2.0029 0.9685
7.6510 -1.0987 -2.0013 0.9686
7.1067 2.9531 -1.9926 0.9687
6.8103 3.5736 -1.9913 0.9687
5.1180 5.7199 -1.9873 0.9688
4.5851 6.1517 -1.9865 0.9688
4.0163 6.5346 -1.9859 0.9688
3.4159 6.8654 -1.9854 0.9688
2.1329 7.3382 -1.9786 0.9689
0.1037 7.0830 -1.8341 0.9712
-0.5292 7.0651 -1.8344 0.9712
-1.1582 6.9912 -1.8348 0.9711
-2.3848 6.6780 -1.8360 0.9711
-3.5377 6.1528 -1.8376 0.9711
-4.0751 5.8154 -1.8386 0.9711
-5.0505 5.0038 -1.8408 0.9711
-6.7013 3.7706 -1.9909 0.9687
-7.0357 3.1682 -1.9978 0.9686
-7.2960 2.5292 -1.9994 0.9686
-7.7436 -0.1854 -2.0055 0.9685
-6.9267 -3.5272 -2.0126 0.9684
-6.5880 -4.1340 -2.0138 0.9684
-4.7328 -6.1903 -2.0176 0.9683
-4.1626 -6.5903 -2.0182 0.9683
-2.9253 -7.2289 -2.0191 0.9683
-1.5931 -7.6353 -2.0195 0.9683
0.4872 -7.7825 -2.0190 0.9683
1.1799 -7.7061 -2.0185 0.9683
1.8628 -7.5678 -2.0179 0.9683
3.1767 -7.1104 -2.0164 0.9683
3.7972 -6.7951 -2.0154 0.9683
4.9398 -6.0048 -2.0132 0.9684
5.4529 -5.5363 -2.0120 0.9684
5.9216 -5.0240 -2.0107 0.9684
6.3421 -4.4721 -2.0093 0.9684
6.7113 -3.8852 -2.0078 0.9685
7.2844 -2.6255 -2.0048 0.9685
7.4839 -1.9631 -2.0033 0.9685
7.6741 0.7786 -1.9972 0.9686
7.5684 1.4596 -1.9957 0.9687
7.1781 2.7787 -1.9929 0.9687
6.5613 4.0062 -1.9905 0.9687
5.2571 5.5935 -1.9875 0.9688
4.7348 6.0382 -1.9867 0.9688
2.9629 7.0716 -1.9852 0.9688
2.3151 7.2934 -1.9812 0.9689
0.2771 7.0781 -1.8340 0.9712
-0.9866 7.0170 -1.8347 0.9711
-2.8139 6.5112 -1.8365 0.9711
-4.4457 5.5410 -1.8394 0.9711
-4.9256 5.1250 -1.8405 0.9711
-5.3670 4.6677 -1.8417 0.9710
-5.7673 4.1735 -1.8432 0.9710
-6.5962 3.9271 -1.9876 0.9688
-7.2304 2.7066 -1.9989 0.9686
-7.6082 1.3795 -2.0020 0.9686
-7.7070 0.6952 -2.0036 0.9685
-7.7195 -0.6878 -2.0066 0.9685
-7.4849 -2.0529 -2.0095 0.9684
-7.0098 -3.3559 -2.0122 0.9684
-6.6862 -3.9709 -2.0135 0.9684
-5.8796 -5.1023 -2.0156 0.9683
-5.4030 -5.6095 -2.0166 0.9683
-3.1013 -7.1547 -2.0190 0.9683
-1.7796 -7.5939 -2.0195 0.9683
-1.0944 -7.7225 -2.0195 0.9683
0.2966 -7.7924 -2.0191 0.9683
2.3492 -7.4292 -2.0174 0.9683
4.7921 -6.1249 -2.0136 0.9684
6.6155 -4.0491 -2.0082 0.9685
6.9455 -3.4397 -2.0068 0.9685
7.2194 -2.8037 -2.0052 0.9685
7.5913 -1.4726 -2.0022 0.9686
7.7202 -0.0987 -1.9991 0.9686
7.6033 1.2741 -1.9961 0.9686
7.4539 1.9466 -1.9947 0.9687
7.2453 2.6026 -1.9933 0.9687
6.6585 3.8449 -1.9908 0.9687
5.8621 4.9626 -1.9887 0.9688
5.3931 5.4637 -1.9877 0.9688
4.8817 5.9210 -1.9869 0.9688
3.7484 6.6908 -1.9857 0.9688
2.4964 7.2446 -1.9840 0.9688
-0.1827 7.0818 -1.8342 0.9712
-0.8145 7.0386 -1.8346 0.9711
-1.4401 6.9395 -1.8350 0.9711
-2.6533 6.5774 -1.8363 0.9711
-3.2314 6.3169 -1.8371 0.9711
-3.5698 5.6654 -1.7338 0.9727
-6.3549 3.9974 -1.9438 0.9695
-6.8631 3.5042 -1.9952 0.9687
-7.3949 2.2330 -2.0000 0.9686
-7.5705 1.5650 -2.0016 0.9686
-7.6627 -1.1878 -2.0077 0.9685
-7.0886 -3.1827 -2.0119 0.9684
-6.7803 -3.8053 -2.0131 0.9684
-6.0020 -4.9561 -2.0154 0.9683
-5.5381 -5.4749 -2.0163 0.9683
-5.0292 -5.9500 -2.0172 0.9683
-3.8932 -6.7540 -2.0185 0.9683
-3.2753 -7.0763 -2.0189 0.9683
-2.6308 -7.3417 -2.0193 0.9683
-0.5911 -7.7769 -2.0194 0.9683
0.8014 -7.7557 -2.0188 0.9683
1.4903 -7.6512 -2.0183 0.9683
3.4608 -6.9747 -2.0160 0.9683
4.6414 -6.2414 -2.0139 0.9684
-2.4796 5.9987 -1.8375 0.9734
-4.4311 4.7602 -1.8411 0.9733
-4.8881 4.3900 -1.8599 0.9731
-6.3116 3.1550 -1.9976 0.9711
-6.5727 2.5806 -1.9989 0.9711
-6.9976 -1.1460 -2.0073 0.9710
-6.4558 -2.9651 -2.0111 0.9709
-6.1687 -3.5317 -2.0123 0.9709
-5.8318 -4.0705 -2.0133 0.9709
-5.4476 -4.5772 -2.0143 0.9709
1.4217 -6.9809 -2.0168 0.9708
2.0388 -6.8241 -2.0162 0.9708
2.6390 -6.6124 -2.0155 0.9708
3.2176 -6.3478 -2.0147 0.9708
4.2913 -5.6688 -2.0128 0.9709
4.7777 -5.2601 -2.0117 0.9709
5.2252 -4.8097 -2.0105 0.9709
5.6303 -4.3212 -2.0092 0.9709
5.9898 -3.7988 -2.0079 0.9709
6.3009 -3.2466 -2.0066 0.9710
6.5611 -2.6692 -2.0052 0.9710
6.9215 -1.4576 -2.0024 0.9710
7.0190 -0.8331 -2.0010 0.9710
7.0454 0.4280 -1.9982 0.9711
6.1487 3.4210 -1.9919 0.9712
5.8157 3.9543 -1.9909 0.9712
4.0569 5.7307 -1.9877 0.9712
2.9715 6.3579 -1.9867 0.9712
2.3916 6.5968 -1.9865 0.9713
0.5153 6.4626 -1.8353 0.9734
-0.0638 6.4834 -1.8355 0.9734
-0.6426 6.4529 -1.8358 0.9734
-1.2165 6.3712 -1.8362 0.9734
-1.7810 6.2388 -1.8367 0.9734
-3.3748 5.5503 -1.8389 0.9734
-4.7326 4.4646 -1.8418 0.9733
-5.3927 4.2448 -1.9428 0.9719
-6.2313 3.3080 -1.9972 0.9711
-6.5063 2.7402 -1.9986 0.9711
-6.7296 2.1498 -2.0000 0.9711
-6.8996 1.5414 -2.0014 0.9710
-7.0146 0.9198 -2.0028 0.9710
-7.0737 0.2900 -2.0042 0.9710
-6.9118 -1.5983 -2.0083 0.9709
-6.5254 -2.8057 -2.0108 0.9709
-5.5574 -4.4419 -2.0140 0.9709
-4.6826 -5.3640 -2.0157 0.9708
-3.6561 -6.1151 -2.0170 0.9708
-2.5110 -6.6704 -2.0177 0.9708
-0.0171 -7.1274 -2.0177 0.9708
1.2505 -7.0141 -2.0170 0.9708
3.0616 -6.4254 -2.0149 0.9708
3.6215 -6.1237 -2.0140 0.9709
5.5238 -4.4586 -2.0096 0.9709
5.8961 -3.9450 -2.0083 0.9709
6.2206 -3.4005 -2.0070 0.9710
6.7170 -2.2368 -2.0042 0.9710
6.8850 -1.6269 -2.0028 0.9710
7.0551 0.2554 -1.9986 0.9711
6.9993 0.8837 -1.9972 0.9711
6.2316 3.2699 -1.9922 0.9712
5.5449 4.3217 -1.9902 0.9712
3.1264 6.2835 -1.9868 0.9712
0.6733 6.4479 -1.8353 0.9734
-0.4844 6.4663 -1.8357 0.9734
-1.0601 6.3986 -1.8361 0.9734
-4.1915 4.9699 -1.8405 0.9733
-5.1973 4.3012 -1.9098 0.9723
-5.7952 3.9811 -1.9904 0.9712
-6.1473 3.4589 -1.9968 0.9711
-6.6737 2.3135 -1.9996 0.9711
-6.8584 1.7096 -2.0010 0.9710
-6.9886 1.0911 -2.0024 0.9710
-7.0632 0.4631 -2.0038 0.9710
-7.0812 -0.1696 -2.0052 0.9710
-7.0427 -0.8017 -2.0066 0.9710
-6.3323 -3.2245 -2.0117 0.9709
-6.0224 -3.7791 -2.0128 0.9709
-4.3258 -5.6579 -2.0162 0.9708
-3.8044 -6.0233 -2.0168 0.9708
-3.2522 -6.3405 -2.0173 0.9708
-2.6735 -6.6067 -2.0176 0.9708
-0.8271 -7.0801 -2.0179 0.9708
-0.1916 -7.1251 -2.0178 0.9708
2.3126 -6.7350 -2.0159 0.9708
3.4709 -6.2113 -2.0143 0.9709
4.9851 -5.0614 -2.0111 0.9709
5.4139 -4.5933 -2.0099 0.9709
5.7987 -4.0889 -2.0087 0.9709
6.4250 -2.9883 -2.0060 0.9710
6.6615 -2.4010 -2.0046 0.9710
7.0447 -0.5486 -2.0003 0.9711
7.0606 0.0826 -1.9989 0.9711
7.0202 0.7122 -1.9976 0.9711
6.9239 1.3353 -1.9962 0.9711
6.3108 3.1168 -1.9925 0.9712
5.6498 4.1852 -1.9905 0.9712
3.2795 6.2054 -1.9870 0.9712
2.7118 6.4723 -1.9866 0.9712
-0.3259 6.4760 -1.8356 0.9734
-0.9030 6.4222 -1.8360 0.9734
-1.4732 6.3175 -1.8364 0.9734
-2.5752 5.9588 -1.8377 0.9734
-3.0982 5.7074 -1.8384 0.9734
-4.0680 5.0703 -1.8402 0.9733
-4.5070 4.6894 -1.8413 0.9733
-5.0081 4.3556 -1.8790 0.9728
-5.6899 4.1174 -1.9883 0.9712
-6.0594 3.6075 -1.9964 0.9711
-6.3619 3.0543 -1.9978 0.9711
-6.6138 2.4758 -1.9992 0.9711
-7.0483 0.6358 -2.0034 0.9710
-7.0819 0.0039 -2.0048 0.9710
-6.4084 -3.0680 -2.0114 0.9709
-5.7667 -4.1634 -2.0135 0.9709
-5.3744 -4.6639 -2.0145 0.9709
-4.4626 -5.5498 -2.0160 0.9708
-3.9505 -5.9279 -2.0167 0.9708
-2.8344 -6.5390 -2.0176 0.9708
-1.6264 -6.9402 -2.0180 0.9708
-0.3660 -7.1184 -2.0178 0.9708
0.9057 -7.0678 -2.0172 0.9708
1.5328 -6.9570 -2.0167 0.9708
2.7439 -6.5690 -2.0154 0.9708
3.3182 -6.2952 -2.0145 0.9709
3.8652 -5.9710 -2.0136 0.9709
4.8605 -5.1827 -2.0115 0.9709
5.6979 -4.2304 -2.0090 0.9709
6.0489 -3.7024 -2.0077 0.9709
6.7998 -1.9628 -2.0036 0.9710
6.9429 -1.3469 -2.0021 0.9710
7.0305 -0.7210 -2.0007 0.9710
7.0618 -0.0903 -1.9993 0.9711
7.0368 0.5402 -1.9979 0.9711
6.6291 2.3812 -1.9940 0.9711
6.3862 2.9618 -1.9929 0.9712
5.7514 4.0462 -1.9907 0.9712
5.3646 4.5414 -1.9898 0.9712
4.9356 5.0002 -1.9889 0.9712
4.4677 5.4189 -1.9882 0.9712
3.9648 5.7944 -1.9876 0.9712
1.6807 6.7960 -1.9819 0.9713
-0.7454 6.4420 -1.8359 0.9734
-2.4282 6.0194 -1.8375 0.9734
-2.9572 5.7809 -1.8382 0.9734
-3.4631 5.4962 -1.8391 0.9734
-3.9420 5.1676 -1.8400 0.9733
-4.3901 4.7976 -1.8410 0.9733
-4.8247 4.4082 -1.8501 0.9732
-5.9624 3.7505 -1.9941 0.9711
-6.7639 2.0425 -2.0002 0.9711
-6.9242 1.4314 -2.0016 0.9710
-7.0783 0.1772 -2.0045 0.9710
-6.7104 -2.3180 -2.0098 0.9709
-6.1983 -3.4787 -2.0122 0.9709
-5.0621 -5.0043 -2.0151 0.9708
-4.5968 -5.4383 -2.0158 0.9708
-4.0941 -5.8290 -2.0165 0.9708
-2.9935 -6.4673 -2.0175 0.9708
-1.7958 -6.8982 -2.0179 0.9708
-1.1727 -7.0312 -2.0180 0.9708
1.3621 -6.9930 -2.0169 0.9708
1.9805 -6.8414 -2.0163 0.9708
3.1634 -6.3753 -2.0148 0.9708
4.2429 -5.7055 -2.0129 0.9709
-1.2637 5.8386 -1.8374 0.9753
-1.7805 5.7040 -1.8379 0.9753
-2.2835 5.5240 -1.8385 0.9753
-2.7686 5.3001 -1.8392 0.9753
-3.2322 5.0338 -1.8400 0.9753
-5.1921 3.8848 -1.9945 0.9732
-5.5243 3.4094 -1.9967 0.9732
-5.8102 2.9043 -1.9979 0.9732
-6.2421 1.8269 -2.0005 0.9731
-6.4760 0.6884 -2.0031 0.9731
-6.5035 -0.4751 -2.0057 0.9731
-6.3231 -1.6263 -2.0081 0.9730
-6.1562 -2.1856 -2.0093 0.9730
-5.6753 -3.2492 -2.0115 0.9730
-5.0115 -4.2108 -2.0133 0.9730
-4.1857 -5.0387 -2.0148 0.9730
-3.7202 -5.3940 -2.0154 0.9730
-2.1588 -6.1905 -2.0165 0.9729
-1.5976 -6.3590 -2.0167 0.9729
-1.0234 -6.4763 -2.0167 0.9729
1.3078 -6.4214 -2.0156 0.9729
1.8754 -6.2773 -2.0151 0.9730
2.9600 -5.8395 -2.0137 0.9730
3.4681 -5.5495 -2.0128 0.9730
3.9480 -5.2153 -2.0119 0.9730
5.1806 -3.9761 -2.0087 0.9730
5.5117 -3.4956 -2.0075 0.9731
6.2292 -1.9062 -2.0037 0.9731
6.4605 -0.7668 -2.0011 0.9731
6.4855 0.3940 -1.9985 0.9732
6.1381 2.0949 -1.9949 0.9732
5.9232 2.6332 -1.9938 0.9732
5.6615 3.1499 -1.9927 0.9733
5.3550 3.6411 -1.9918 0.9733
5.0063 4.1029 -1.9909 0.9733
4.6181 4.5317 -1.9901 0.9733
4.1936 4.9243 -1.9894 0.9733
3.7360 5.2775 -1.9888 0.9733
1.0842 6.3556 -1.9831 0.9734
0.4956 6.2156 -1.9179 0.9742
-0.0588 5.9710 -1.8366 0.9753
-1.1203 5.8674 -1.8373 0.9753
-2.1473 5.5778 -1.8383 0.9753
-2.6377 5.3657 -1.8390 0.9753
-3.1076 5.1108 -1.8398 0.9753
-3.5531 4.8151 -1.8406 0.9753
-4.0715 4.5945 -1.8882 0.9746
-4.6848 4.4194 -1.9809 0.9734
-5.0906 4.0070 -1.9926 0.9733
-5.4382 3.5431 -1.9964 0.9732
-5.9891 2.5224 -1.9988 0.9732
-6.3505 1.4187 -2.0014 0.9731
-6.4619 -0.8964 -2.0066 0.9731
-6.3599 -1.4707 -2.0078 0.9731
-6.2069 -2.0339 -2.0090 0.9730
-6.0038 -2.5815 -2.0101 0.9730
-3.8509 -5.3009 -2.0152 0.9730
-2.8479 -5.9040 -2.0162 0.9729
-2.3097 -6.1356 -2.0165 0.9729
-0.6011 -6.5289 -2.0166 0.9729
-0.0157 -6.5559 -2.0165 0.9729
0.5697 -6.5302 -2.0162 0.9729
1.7213 -6.3218 -2.0152 0.9730
2.8164 -5.9109 -2.0139 0.9730
3.8196 -5.3111 -2.0122 0.9730
4.2764 -4.9464 -2.0112 0.9730
5.4253 -3.6301 -2.0078 0.9731
5.7243 -3.1292 -2.0066 0.9731
5.9771 -2.6039 -2.0053 0.9731
6.1817 -2.0585 -2.0040 0.9731
6.3367 -1.4974 -2.0027 0.9731
6.4434 0.8135 -1.9976 0.9732
5.9868 2.4877 -1.9941 0.9732
5.7377 3.0108 -1.9930 0.9732
5.1059 3.9796 -1.9911 0.9733
3.3852 5.5077 -1.9885 0.9733
2.8793 5.7868 -1.9880 0.9733
1.8036 6.2051 -1.9876 0.9733
1.2407 6.3331 -1.9849 0.9734
-0.4461 5.9552 -1.8368 0.9753
-2.0099 5.6282 -1.8382 0.9753
-2.5053 5.4281 -1.8388 0.9753
-3.9127 4.6393 -1.8667 0.9749
-5.3490 3.6746 -1.9960 0.9732
-5.6591 3.1842 -1.9972 0.9732
-6.1430 2.1295 -1.9998 0.9732
-6.3127 1.5735 -2.0011 0.9731
-6.4322 1.0042 -2.0024 0.9731
-6.5167 -0.1560 -2.0050 0.9731
-6.4808 -0.7378 -2.0062 0.9731
-5.8260 -2.9667 -2.0109 0.9730
-3.9792 -5.2046 -2.0151 0.9730
-2.4592 -6.0770 -2.0164 0.9729
-1.3392 -6.4184 -2.0167 0.9729
-0.1762 -6.5537 -2.0165 0.9729
0.9920 -6.4785 -2.0159 0.9729
1.5661 -6.3625 -2.0154 0.9730
2.1273 -6.1954 -2.0148 0.9730
3.6888 -5.4037 -2.0124 0.9730
4.1546 -5.0503 -2.0114 0.9730
4.9813 -4.2263 -2.0093 0.9730
5.3357 -3.7624 -2.0081 0.9730
5.6469 -3.2690 -2.0069 0.9731
5.9126 -2.7500 -2.0057 0.9731
6.2993 -1.6524 -2.0031 0.9731
6.4843 -0.5049 -2.0005 0.9731
6.4993 0.0760 -1.9992 0.9732
6.3742 1.2293 -1.9967 0.9732
6.0468 2.3408 -1.9944 0.9732
4.8355 4.3011 -1.9905 0.9733
3.5192 5.4236 -1.9886 0.9733
3.0202 5.7149 -1.9881 0.9733
2.4975 5.9607 -1.9878 0.9733
1.9550 6.1592 -1.9876 0.9733
1.3968 6.3069 -1.9869 0.9733
0.8253 6.3849 -1.9802 0.9734
0.2376 6.0686 -1.8680 0.9749
-0.8316 5.9145 -1.8371 0.9753
-1.8713 5.6752 -1.8380 0.9753
-4.3419 4.5176 -1.9272 0.9741
-5.5785 3.3213 -1.9969 0.9732
-6.0880 2.2789 -1.9994 0.9732
-6.2712 1.7273 -2.0007 0.9731
-6.5174 0.0036 -2.0046 0.9731
-6.4958 -0.5788 -2.0059 0.9731
-6.4222 -1.1572 -2.0071 0.9731
-5.6233 -3.3396 -2.0116 0.9730
-5.3051 -3.8302 -2.0126 0.9730
-4.9441 -4.2905 -2.0135 0.9730
-4.5430 -4.7166 -2.0142 0.9730
-4.1051 -5.1051 -2.0149 0.9730
-3.6339 -5.4528 -2.0155 0.9729
-3.1332 -5.7569 -2.0160 0.9729
-2.6071 -6.0147 -2.0163 0.9729
-2.0599 -6.2242 -2.0166 0.9729
-1.4960 -6.3837 -2.0167 0.9729
-0.9200 -6.4918 -2.0167 0.9729
0.2493 -6.5508 -2.0163 0.9729
0.8331 -6.5012 -2.0160 0.9729
1.9752 -6.2462 -2.0150 0.9730
3.0525 -5.7912 -2.0135 0.9730
3.5559 -5.4931 -2.0127 0.9730
4.0303 -5.1512 -2.0117 0.9730
4.4718 -4.7684 -2.0107 0.9730
4.8771 -4.3477 -2.0096 0.9730
5.2428 -3.8926 -2.0084 0.9730
5.8445 -2.8944 -2.0060 0.9731
6.0757 -2.3595 -2.0047 0.9731
6.4777 0.4973 -1.9983 0.9732
6.4034 1.0731 -1.9970 0.9732
6.2783 1.6395 -1.9958 0.9732
5.8799 2.7270 -1.9936 0.9732
5.6101 3.2395 -1.9926 0.9733
4.9399 4.1819 -1.9907 0.9733
4.5450 4.6045 -1.9900 0.9733
3.6512 5.3361 -1.9887 0.9733
2.6428 5.8980 -1.9879 0.9733
1.5513 6.2728 -1.9875 0.9733
0.9822 6.3682 -1.9819 0.9734
0.3922 6.1568 -1.8975 0.9745
-0.1540 5.9694 -1.8367 0.9753
-1.2138 5.8490 -1.8374 0.9753
-1.7317 5.7188 -1.8379 0.9753
-4.1769 4.5646 -1.9031 0.9744
-4.7700 4.3581 -1.9873 0.9733
-5.1570 3.9277 -1.9938 0.9732
-5.4946 3.4563 -1.9966 0.9732
-5.7848 2.9537 -1.9978 0.9732
-6.0293 2.4269 -1.9991 0.9732
-6.2259 1.8800 -2.0004 0.9732
-6.3730 1.3175 -2.0017 0.9731
-6.5142 0.1631 -2.0043 0.9731
-6.5069 -0.4195 -2.0055 0.9731
-6.3364 -1.5721 -2.0080 0.9730
-6.1743 -2.1328 -2.0092 0.9730
-5.7026 -3.2005 -2.0114 0.9730
-5.0471 -4.1676 -2.0132 0.9730
-3.7660 -5.3618 -2.0153 0.9730
-1.0787 -6.4673 -2.0167 0.9729
0.0888 -6.5552 -2.0164 0.9729
1.2529 -6.4325 -2.0157 0.9729
1.8218 -6.2932 -2.0151 0.9730
2.3757 -6.1035 -2.0145 0.9730
3.4207 -5.5792 -2.0129 0.9730
3.9034 -5.2491 -2.0120 0.9730
-1.1729 5.4192 -1.8431 0.9769
-2.1146 5.1157 -1.8400 0.9769
-2.5997 4.9766 -1.8664 0.9766
-3.6407 4.6890 -1.9733 0.9753
-4.0781 4.3809 -1.9895 0.9751
-4.4651 4.0101 -1.9949 0.9750
-4.8079 3.5973 -1.9960 0.9750
-5.1127 3.1554 -1.9971 0.9750
-5.3771 2.6878 -1.9982 0.9750
-5.5989 2.1982 -1.9994 0.9750
-5.7762 1.6905 -2.0006 0.9749
-5.9077 1.1687 -2.0018 0.9749
-6.0286 0.0994 -2.0042 0.9749
-6.0169 -0.4395 -2.0054 0.9749
-5.9571 -0.9756 -2.0065 0.9749
-5.6948 -2.0218 -2.0088 0.9748
-5.4943 -2.5235 -2.0098 0.9748
-5.2496 -3.0055 -2.0107 0.9748
-4.9625 -3.4638 -2.0116 0.9748
-4.6352 -3.8946 -2.0125 0.9748
-4.2705 -4.2945 -2.0132 0.9748
-3.8712 -4.6602 -2.0138 0.9748
-2.9821 -5.2771 -2.0148 0.9748
-1.4774 -5.8808 -2.0156 0.9748
-0.9464 -5.9893 -2.0156 0.9748
2.2453 -5.6258 -2.0135 0.9748
2.7377 -5.4010 -2.0128 0.9748
3.6517 -4.8240 -2.0111 0.9748
4.4473 -4.0936 -2.0092 0.9748
5.5864 -2.2727 -2.0047 0.9749
5.7636 -1.7637 -2.0035 0.9749
5.8945 -1.2413 -2.0023 0.9749
5.9782 -0.7096 -2.0011 0.9749
6.0019 0.3646 -1.9987 0.9750
5.9419 0.8986 -1.9976 0.9750
5.6811 1.9390 -1.9954 0.9750
5.4825 2.4373 -1.9944 0.9750
4.9570 3.3704 -1.9925 0.9750
3.4587 4.8857 -1.9898 0.9751
2.0391 5.6247 -1.9887 0.9751
1.5286 5.7838 -1.9886 0.9751
1.0060 5.8971 -1.9886 0.9751
0.4745 5.9512 -1.9845 0.9751
-0.5630 5.6534 -1.8885 0.9763
-1.0435 5.4651 -1.8494 0.9768
-1.5184 5.3189 -1.8387 0.9770
-1.9878 5.1635 -1.8392 0.9769
-2.4644 5.0132 -1.8569 0.9767
-2.9653 4.8769 -1.8973 0.9762
-3.4911 4.7310 -1.9544 0.9755
-3.9669 4.4764 -1.9882 0.9751
-4.3622 4.1151 -1.9934 0.9750
-5.0331 3.2791 -1.9968 0.9750
-5.3088 2.8182 -1.9979 0.9750
-5.5425 2.3343 -1.9991 0.9750
-5.7322 1.8312 -2.0003 0.9750
-5.9736 0.7833 -2.0027 0.9749
-6.0233 0.2470 -2.0039 0.9749
-5.0452 -3.3408 -2.0114 0.9748
-4.3740 -4.1883 -2.0130 0.9748
-3.9839 -4.5636 -2.0137 0.9748
-3.1103 -5.2022 -2.0147 0.9748
-2.6338 -5.4601 -2.0151 0.9748
-1.6210 -5.8428 -2.0155 0.9748
-1.0928 -5.9643 -2.0156 0.9748
-0.5559 -6.0379 -2.0155 0.9748
-0.0145 -6.0630 -2.0154 0.9748
0.5268 -6.0392 -2.0151 0.9748
1.0638 -5.9669 -2.0147 0.9748
1.5919 -5.8467 -2.0142 0.9748
2.6049 -5.4670 -2.0130 0.9748
3.5329 -4.9126 -2.0114 0.9748
5.0190 -3.3582 -2.0074 0.9749
5.7196 -1.9046 -2.0039 0.9749
5.9600 -0.8559 -2.0015 0.9749
6.0100 0.2176 -1.9991 0.9750
5.5413 2.3026 -1.9947 0.9750
3.9930 4.4626 -1.9905 0.9751
3.5775 4.7999 -1.9899 0.9751
3.1339 5.0989 -1.9895 0.9751
-1.8607 5.2102 -1.8390 0.9769
-4.2569 4.2175 -1.9919 0.9751
-4.6246 3.8273 -1.9954 0.9750
-5.6847 1.9706 -1.9999 0.9750
-5.8414 1.4561 -2.0011 0.9749
-5.9517 0.9292 -2.0023 0.9749
-6.0293 -0.1444 -2.0047 0.9749
-5.9958 -0.6826 -2.0059 0.9749
-5.9143 -1.2159 -2.0071 0.9749
-5.6097 -2.2509 -2.0092 0.9748
-5.3890 -2.7442 -2.0102 0.9748
