ply
format ascii 1.0
element vertex 1590
property float32 x
property float32 y
property float32 z
property float32 I
end_header
-10.8631 -5.5131 -2.0068 0.9518
-10.3273 -6.4581 -2.0066 0.9518
-9.7093 -7.3514 -2.0063 0.9518
-5.5821 -10.8100 -2.0043 0.9519
-4.5957 -11.2618 -2.0038 0.9519
-3.5732 -11.6236 -2.0033 0.9519
-1.3423 -11.1499 -1.8501 0.9555
-0.3434 -11.2223 -1.8496 0.9555
2.6347 -10.9056 -1.8483 0.9555
3.5950 -10.6249 -1.8478 0.9555
4.5263 -10.2601 -1.8474 0.9556
5.4213 -9.8139 -1.8470 0.9556
7.0742 -8.6925 -1.8463 0.9556
7.8192 -8.0262 -1.8460 0.9556
10.4537 -6.1365 -1.9969 0.9520
10.9581 -5.1804 -1.9968 0.9521
11.7019 -3.1528 -1.9965 0.9521
11.9358 -2.0976 -1.9964 0.9521
12.1185 0.0541 -1.9964 0.9521
12.0658 1.1336 -1.9965 0.9521
11.6745 3.2575 -1.9967 0.9521
10.9132 5.2789 -1.9971 0.9520
10.4009 6.2311 -1.9974 0.9520
8.3870 8.7642 -1.9984 0.9520
7.5742 9.4785 -1.9988 0.9520
6.7010 10.1178 -1.9992 0.9520
5.7742 10.6769 -1.9997 0.9520
3.7894 11.5377 -2.0006 0.9520
2.7470 11.8323 -2.0011 0.9519
1.6823 12.0330 -2.0016 0.9519
-1.5610 12.0585 -2.0031 0.9519
-2.6298 11.8743 -2.0036 0.9519
-9.7768 7.2661 -2.0067 0.9518
-10.3866 6.3669 -2.0070 0.9518
-11.3540 4.4232 -2.0074 0.9518
-11.7036 3.3943 -2.0075 0.9518
-12.1211 1.2633 -2.0076 0.9518
-12.1854 0.1783 -2.0076 0.9518
-11.0662 -5.0945 -2.0070 0.9518
-10.5670 -6.0594 -2.0067 0.9518
-9.9836 -6.9758 -2.0064 0.9518
-8.5841 -8.6339 -2.0057 0.9518
-7.7792 -9.3626 -2.0053 0.9519
-6.9126 -10.0163 -2.0049 0.9519
-5.0229 -11.0792 -2.0040 0.9519
-4.0148 -11.4799 -2.0035 0.9519
0.2293 -11.2236 -1.8494 0.9555
1.2280 -11.1558 -1.8489 0.9555
2.2166 -10.9993 -1.8484 0.9555
10.0256 -6.4122 -1.9605 0.9529
11.5733 -3.5974 -1.9966 0.9521
11.8472 -2.5519 -1.9965 0.9521
12.0271 -1.4862 -1.9964 0.9521
12.1117 -0.4087 -1.9964 0.9521
12.1001 0.6721 -1.9964 0.9521
11.9926 1.7475 -1.9965 0.9521
11.4938 3.8488 -1.9968 0.9520
11.1063 4.8581 -1.9970 0.9520
9.4302 7.6255 -1.9979 0.9520
6.1771 10.4476 -1.9995 0.9520
3.1965 11.7176 -2.0009 0.9520
-0.0161 12.1548 -2.0024 0.9519
-1.0993 12.1080 -2.0029 0.9519
-2.1742 11.9649 -2.0034 0.9519
-3.2324 11.7264 -2.0038 0.9519
-5.2647 10.9715 -2.0048 0.9519
-6.2226 10.4610 -2.0052 0.9519
-9.4917 7.6337 -2.0066 0.9518
-10.6985 5.8293 -2.0071 0.9518
-11.1764 4.8534 -2.0073 0.9518
-11.5652 3.8386 -2.0074 0.9518
-12.1785 -0.4433 -2.0076 0.9518
-11.9053 -2.5975 -2.0074 0.9518
-11.2533 -4.6684 -2.0071 0.9518
-10.7913 -5.6518 -2.0068 0.9518
-9.6140 -7.4751 -2.0062 0.9518
-8.1317 -9.0594 -2.0055 0.9518
-7.2907 -9.7460 -2.0051 0.9519
-6.3920 -10.3545 -2.0046 0.9519
-5.4428 -10.8804 -2.0042 0.9519
-4.4507 -11.3194 -2.0037 0.9519
-3.4237 -11.6681 -2.0032 0.9519
-1.1992 -11.1658 -1.8500 0.9555
1.7951 -11.0771 -1.8486 0.9555
2.7742 -10.8705 -1.8482 0.9555
6.3912 -9.2085 -1.8466 0.9556
7.1849 -8.6008 -1.8462 0.9556
7.9213 -7.9250 -1.8459 0.9556
12.1168 0.2095 -1.9964 0.9521
12.0504 1.2883 -1.9965 0.9521
11.8883 2.3569 -1.9966 0.9521
11.6319 3.4070 -1.9967 0.9521
11.2832 4.4302 -1.9969 0.9520
10.8448 5.4185 -1.9972 0.9520
9.0299 8.0973 -1.9981 0.9520
5.6370 10.7505 -1.9997 0.9520
4.6578 11.2126 -2.0002 0.9520
3.6412 11.5857 -2.0007 0.9520
0.4480 12.1452 -2.0022 0.9519
-0.6361 12.1399 -2.0027 0.9519
-1.7156 12.0379 -2.0031 0.9519
-2.7820 11.8400 -2.0036 0.9519
-3.8267 11.5478 -2.0041 0.9519
-4.8414 11.1635 -2.0046 0.9519
-8.4429 8.7759 -2.0062 0.9518
-9.8694 7.1403 -2.0068 0.9518
-10.4676 6.2333 -2.0070 0.9518
-10.9825 5.2764 -2.0072 0.9518
-11.4099 4.2773 -2.0074 0.9518
-11.9891 2.1846 -2.0076 0.9518
-12.1363 1.1077 -2.0076 0.9518
-11.9962 -2.1411 -2.0075 0.9518
-11.7569 -3.2011 -2.0073 0.9518
-10.6568 -0.6590 -2.0069 0.9575
-10.5553 -1.6058 -2.0068 0.9575
-10.1015 -3.4532 -2.0066 0.9575
-6.9215 -8.1163 -2.0049 0.9575
-4.5261 -9.6522 -2.0038 0.9575
-3.6473 -10.0150 -2.0034 0.9575
-2.7400 -10.2980 -2.0030 0.9576
0.9509 -9.7914 -1.8491 0.9608
1.8191 -9.6657 -1.8487 0.9608
3.5043 -9.1856 -1.8479 0.9608
4.3079 -8.8351 -1.8475 0.9608
5.0770 -8.4146 -1.8472 0.9608
4.4382 -6.0603 -1.4119 0.9699
6.4877 -7.3775 -1.8466 0.9608
7.6919 -6.1072 -1.8461 0.9608
9.3637 -5.0261 -1.9975 0.9577
9.7735 -4.1715 -1.9974 0.9577
10.1056 -3.2839 -1.9972 0.9577
10.3576 -2.3704 -1.9972 0.9577
10.1193 3.2449 -1.9974 0.9577
8.3521 6.5784 -1.9983 0.9577
7.7340 7.2975 -1.9986 0.9576
5.5317 9.0879 -1.9997 0.9576
4.7009 9.5465 -2.0001 0.9576
-0.8272 10.6227 -2.0027 0.9576
-1.7708 10.5090 -2.0031 0.9576
-4.4897 9.6725 -2.0044 0.9575
-8.2300 6.7946 -2.0060 0.9575
-9.3074 5.2272 -2.0064 0.9575
-9.7370 4.3776 -2.0066 0.9575
-10.0889 3.4929 -2.0068 0.9575
-10.6743 -0.2516 -2.0069 0.9575
-10.6092 -1.2016 -2.0069 0.9575
-10.2263 -3.0651 -2.0066 0.9575
-9.9117 -3.9637 -2.0065 0.9575
-9.5182 -4.8305 -2.0062 0.9575
-9.0488 -5.6586 -2.0060 0.9575
-8.5075 -6.4415 -2.0057 0.9575
-7.8986 -7.1727 -2.0054 0.9575
-7.2269 -7.8467 -2.0051 0.9575
-5.7175 -9.0015 -2.0044 0.9575
-4.8918 -9.4732 -2.0040 0.9575
-2.2109 -10.4230 -2.0027 0.9576
0.5764 -9.8215 -1.8492 0.9607
2.3094 -9.5592 -1.8484 0.9608
3.9677 -8.9939 -1.8477 0.9608
4.7524 -8.6030 -1.8474 0.9608
6.2017 -7.6203 -1.8467 0.9608
7.4535 -6.3968 -1.8462 0.9608
7.9928 -5.7066 -1.8459 0.9608
9.9731 -3.6675 -1.9973 0.9577
10.5788 0.9939 -1.9971 0.9577
10.4486 1.9326 -1.9972 0.9577
10.2355 2.8560 -1.9974 0.9577
9.9412 3.7569 -1.9975 0.9577
9.1185 5.4628 -1.9980 0.9577
8.0064 6.9964 -1.9985 0.9576
7.3524 7.6832 -1.9988 0.9576
5.8742 8.8693 -1.9996 0.9576
0.5291 10.6384 -2.0021 0.9576
-9.1006 5.5786 -2.0064 0.9575
-9.5624 4.7460 -2.0066 0.9575
-10.4788 2.0486 -2.0069 0.9575
-9.6961 -4.4637 -2.0063 0.9575
-8.7478 -6.1123 -2.0059 0.9575
-8.1673 -6.8664 -2.0056 0.9575
-7.5218 -7.5655 -2.0052 0.9575
-5.2504 -9.2803 -2.0041 0.9575
-4.4018 -9.7092 -2.0037 0.9575
-1.6587 -10.4103 -1.9814 0.9580
-0.6765 -9.8182 -1.8498 0.9607
3.6217 -9.1396 -1.8479 0.9608
4.4208 -8.7789 -1.8475 0.9608
5.1844 -8.3486 -1.8472 0.9608
6.5816 -7.2935 -1.8465 0.9608
7.2042 -6.6771 -1.8463 0.9608
10.5449 -1.3030 -1.9971 0.9577
10.6089 0.5892 -1.9971 0.9577
9.3200 5.1104 -1.9979 0.9577
8.2672 6.6851 -1.9984 0.9577
7.6399 7.3963 -1.9987 0.9576
6.9517 8.0489 -1.9990 0.9576
6.2081 8.6378 -1.9994 0.9576
4.5782 9.6063 -2.0002 0.9576
3.7049 9.9780 -2.0006 0.9576
2.8018 10.2706 -2.0010 0.9576
-0.9634 10.6116 -2.0028 0.9576
-3.7378 9.9852 -2.0040 0.9575
-5.4528 9.1668 -2.0048 0.9575
-6.2489 8.6461 -2.0051 0.9575
-8.3166 6.6887 -2.0060 0.9575
-8.8806 5.9218 -2.0063 0.9575
-10.1330 3.3632 -2.0068 0.9575
-10.5928 -1.3375 -2.0068 0.9575
-9.8599 -4.0904 -2.0064 0.9575
-9.4553 -4.9521 -2.0062 0.9575
-8.9753 -5.7741 -2.0060 0.9575
-7.8058 -7.2733 -2.0054 0.9575
-7.1255 -7.9385 -2.0050 0.9575
-4.7697 -9.5349 -2.0039 0.9575
-3.9004 -9.9199 -2.0035 0.9575
-1.0509 -9.7862 -1.8500 0.9607
1.5735 -9.7093 -1.8488 0.9608
2.4317 -9.5285 -1.8484 0.9608
4.0827 -8.9420 -1.8476 0.9608
5.6028 -8.0725 -1.8470 0.9608
6.2987 -7.5400 -1.8467 0.9608
6.9444 -6.9477 -1.8464 0.9608
7.5348 -6.3005 -1.8461 0.9608
8.1250 -5.6450 -1.8596 0.9605
9.2335 -5.2622 -1.9976 0.9577
9.6647 -4.4182 -1.9974 0.9577
10.0193 -3.5393 -1.9973 0.9577
10.4230 2.0664 -1.9973 0.9577
10.1981 2.9871 -1.9974 0.9577
9.8923 3.8841 -1.9976 0.9577
9.5079 4.7505 -1.9978 0.9577
5.7601 8.9441 -1.9996 0.9576
2.2746 10.4014 -2.0013 0.9576
1.3391 10.5650 -2.0017 0.9576
-2.4380 10.3762 -2.0034 0.9575
-3.3535 10.1198 -2.0038 0.9575
-7.3979 7.6897 -2.0056 0.9575
-8.0547 7.0010 -2.0059 0.9575
-8.6475 6.2563 -2.0062 0.9575
-9.9969 3.7476 -2.0067 0.9575
-10.2916 2.8422 -2.0068 0.9575
-10.5043 1.9140 -2.0069 0.9575
-10.6332 0.9705 -2.0069 0.9575
-10.6773 0.0193 -2.0069 0.9575
-10.5106 -1.8759 -2.0068 0.9575
-9.4736 -0.5858 -2.0064 0.9619
-9.2184 -2.2577 -2.0062 0.9619
-8.6701 -3.8574 -2.0059 0.9619
-7.8462 -5.3338 -2.0055 0.9620
-6.7731 -6.6399 -2.0049 0.9620
-6.1537 -7.2159 -2.0046 0.9620
-5.4854 -7.7342 -2.0043 0.9620
-4.0242 -8.5820 -2.0036 0.9620
-3.2430 -8.9048 -2.0032 0.9620
-1.6104 -9.3354 -2.0025 0.9620
0.0665 -8.7494 -1.8495 0.9649
0.8456 -8.7070 -1.8491 0.9649
1.6177 -8.5954 -1.8488 0.9649
3.8312 -7.8573 -1.8478 0.9649
5.7700 -6.5614 -1.8469 0.9649
6.3308 -6.0204 -1.8467 0.9649
6.8412 -5.4318 -1.8465 0.9649
8.3284 -4.4704 -1.9980 0.9621
8.6929 -3.7103 -1.9979 0.9621
9.4402 -0.4398 -1.9976 0.9621
9.2212 2.0726 -1.9978 0.9621
9.0005 2.8861 -1.9979 0.9621
7.9190 5.1650 -1.9985 0.9621
7.4283 5.8508 -1.9987 0.9621
6.2737 7.0783 -1.9993 0.9621
5.6190 7.6103 -1.9996 0.9621
4.9194 8.0820 -2.0000 0.9621
3.4081 8.8300 -2.0007 0.9620
0.9522 9.4224 -2.0018 0.9620
-0.7356 9.4454 -2.0026 0.9620
-1.5745 9.3441 -2.0030 0.9620
-2.4012 9.1684 -2.0034 0.9620
-3.2091 8.9196 -2.0037 0.9620
-3.9917 8.5998 -2.0041 0.9620
-6.7485 6.6676 -2.0053 0.9620
-7.3166 6.0405 -2.0056 0.9620
-8.6560 3.8916 -2.0061 0.9619
-8.9688 3.1051 -2.0062 0.9619
-9.3782 1.4641 -2.0064 0.9619
-9.4714 0.6227 -2.0064 0.9619
-9.4312 -1.0681 -2.0063 0.9619
-9.2982 -1.9041 -2.0062 0.9619
-9.0910 -2.7248 -2.0061 0.9619
-8.0445 -5.0306 -2.0056 0.9620
-7.5634 -5.7266 -2.0053 0.9620
-7.0222 -6.3768 -2.0050 0.9620
-6.4251 -6.9761 -2.0048 0.9620
-5.7771 -7.5196 -2.0044 0.9620
-5.0833 -8.0031 -2.0041 0.9620
-3.5809 -8.7751 -2.0034 0.9620
-2.7844 -9.0576 -2.0030 0.9620
-0.2677 -8.7463 -1.8497 0.9649
1.2884 -8.6516 -1.8489 0.9649
2.8024 -8.2825 -1.8483 0.9649
3.5286 -7.9985 -1.8479 0.9649
4.8906 -7.2429 -1.8473 0.9649
5.5156 -6.7773 -1.8471 0.9649
6.0967 -6.2581 -1.8468 0.9649
6.6292 -5.6893 -1.8466 0.9649
8.5451 -4.0397 -1.9979 0.9621
8.8705 -3.2621 -1.9978 0.9621
9.3079 -1.6358 -1.9977 0.9621
9.4165 -0.8000 -1.9976 0.9621
9.4093 0.8840 -1.9977 0.9621
9.2934 1.7189 -1.9978 0.9621
8.1101 4.8587 -1.9984 0.9621
6.5390 6.8331 -1.9992 0.9621
5.9051 7.3897 -1.9995 0.9621
4.5013 8.3232 -2.0002 0.9621
2.9537 8.9933 -2.0009 0.9620
2.1411 9.2224 -2.0013 0.9620
-6.4886 6.9200 -2.0052 0.9620
-7.0802 6.3152 -2.0055 0.9620
-8.5008 4.2192 -2.0060 0.9619
-8.8435 3.4452 -2.0062 0.9619
-9.3153 1.8211 -2.0064 0.9619
-8.9398 -3.1847 -2.0060 0.9619
-8.6198 -3.9682 -2.0059 0.9619
-8.2311 -4.7200 -2.0057 0.9620
-7.7770 -5.4339 -2.0054 0.9620
-7.2610 -6.1044 -2.0052 0.9620
-6.6873 -6.7261 -2.0049 0.9620
-4.6681 -8.2511 -2.0039 0.9620
-3.9137 -8.6327 -2.0035 0.9620
-1.4898 -9.3501 -2.0014 0.9620
-0.6015 -8.7305 -1.8498 0.9649
0.1787 -8.7476 -1.8495 0.9649
0.9572 -8.6952 -1.8491 0.9649
1.7278 -8.5737 -1.8487 0.9649
2.4843 -8.3841 -1.8484 0.9649
3.2208 -8.1280 -1.8481 0.9649
4.6107 -7.4248 -1.8475 0.9649
4.5072 -5.9918 -1.5849 0.9698
5.8536 -6.4867 -1.8469 0.9649
6.4074 -5.9386 -1.8467 0.9649
6.9986 -5.4118 -1.8701 0.9645
7.9635 -5.0933 -1.9982 0.9621
8.7397 -3.5985 -1.9979 0.9621
9.0251 -2.8053 -1.9978 0.9621
9.2388 -1.9900 -1.9977 0.9621
9.4451 -0.3187 -1.9976 0.9621
9.3521 1.3628 -1.9977 0.9621
8.9628 3.0013 -1.9980 0.9621
8.2893 4.5452 -1.9983 0.9621
6.1825 7.1583 -1.9994 0.9621
5.5210 7.6819 -1.9997 0.9621
4.0714 8.5428 -2.0004 0.9620
3.2947 8.8732 -2.0007 0.9620
0.8313 9.4341 -2.0019 0.9620
-1.6942 9.3234 -2.0031 0.9620
-2.5186 9.1371 -2.0034 0.9620
-4.8479 8.1500 -2.0045 0.9620
-5.5556 7.6868 -2.0048 0.9620
-6.2193 7.1623 -2.0051 0.9620
-6.8336 6.5806 -2.0053 0.9620
-7.3936 5.9463 -2.0056 0.9620
-8.3332 4.5405 -2.0060 0.9619
-8.7052 3.7803 -2.0061 0.9619
-9.0080 2.9898 -2.0062 0.9619
-9.2389 2.1755 -2.0063 0.9619
-9.4167 -1.1890 -2.0063 0.9619
-9.0552 -2.8411 -2.0061 0.9619
-8.7654 -3.6363 -2.0059 0.9619
-7.4892 -5.8230 -2.0053 0.9620
-6.9397 -6.4663 -2.0050 0.9620
-4.2408 -8.4776 -2.0037 0.9620
-3.4680 -8.8201 -2.0033 0.9620
-2.6679 -9.0923 -2.0030 0.9620
-1.8468 -9.2921 -2.0026 0.9620
-0.1555 -8.7488 -1.8496 0.9649
2.1625 -8.4736 -1.8485 0.9649
4.3242 -7.5960 -1.8476 0.9649
4.9829 -7.1794 -1.8473 0.9649
5.6020 -6.7059 -1.8470 0.9649
6.1763 -6.1793 -1.8468 0.9649
8.9115 -3.1480 -1.9978 0.9621
9.3281 -1.5163 -1.9977 0.9621
9.4260 -0.6791 -1.9976 0.9621
9.3972 1.0046 -1.9977 0.9621
9.2707 1.8380 -1.9978 0.9621
8.7985 3.4546 -1.9980 0.9621
8.4564 4.2252 -1.9982 0.9621
8.0472 4.9623 -1.9984 0.9621
7.0405 6.3134 -1.9989 0.9621
5.1226 7.9543 -1.9999 0.9621
4.3943 8.3805 -2.0002 0.9621
3.6308 8.7403 -2.0006 0.9620
2.8382 9.0307 -2.0010 0.9620
2.0227 9.2494 -2.0013 0.9620
-0.4957 9.4605 -2.0025 0.9620
-2.1677 9.2259 -2.0033 0.9620
-2.9817 8.9977 -2.0036 0.9620
-4.5328 8.3286 -2.0043 0.9620
-5.9409 7.3941 -2.0050 0.9620
-8.1534 4.8553 -2.0059 0.9619
-8.8870 3.3315 -2.0062 0.9619
-9.1489 2.5266 -2.0063 0.9619
-9.4554 -0.8286 -2.0063 0.9619
-9.3436 -1.6677 -2.0063 0.9619
-9.1574 -2.4934 -2.0061 0.9619
-8.5187 -0.5267 -2.0059 0.9655
-8.4376 -1.2836 -2.0059 0.9655
-8.2893 -2.0302 -2.0058 0.9655
-7.0556 -4.7964 -2.0051 0.9656
-5.5339 -6.4891 -2.0044 0.9656
-4.9330 -6.9554 -2.0041 0.9656
-1.4484 -8.3961 -2.0024 0.9656
1.4550 -7.7311 -1.8489 0.9682
2.1377 -7.5695 -1.8486 0.9682
3.4461 -7.0677 -1.8480 0.9682
4.0615 -6.7315 -1.8477 0.9682
4.4023 -6.0113 -1.7511 0.9698
5.6949 -5.4157 -1.8470 0.9682
6.6399 -5.2719 -1.9926 0.9658
7.8200 -3.3377 -1.9983 0.9657
8.0859 -2.6276 -1.9982 0.9657
8.2875 -1.8967 -1.9981 0.9657
8.2953 1.8645 -1.9982 0.9657
8.0967 2.5963 -1.9983 0.9657
7.1236 4.6463 -1.9989 0.9657
6.6821 5.2631 -1.9991 0.9657
6.1873 5.8382 -1.9993 0.9656
5.6433 6.3671 -1.9996 0.9656
4.4250 7.2697 -2.0002 0.9656
3.0655 7.9422 -2.0008 0.9656
2.3461 8.1852 -2.0012 0.9656
0.0979 8.5186 -2.0022 0.9656
-2.1595 8.2455 -2.0032 0.9656
-4.9068 6.9759 -2.0045 0.9656
-5.5096 6.5119 -2.0047 0.9656
-6.5794 5.4319 -2.0052 0.9655
-8.0648 2.7921 -2.0058 0.9655
-8.2818 2.0626 -2.0059 0.9655
-8.5327 -0.2011 -2.0059 0.9655
-8.1747 -2.4502 -2.0057 0.9655
-7.6090 -3.8616 -2.0054 0.9655
-6.8014 -5.1497 -2.0050 0.9656
-6.3148 -5.7345 -2.0047 0.9656
-4.5715 -7.1973 -2.0039 0.9656
-3.9114 -7.5747 -2.0036 0.9656
-3.2205 -7.8918 -2.0032 0.9656
-1.7681 -8.3353 -2.0026 0.9656
-1.0182 -8.4582 -2.0022 0.9656
-0.2519 -8.2299 -1.9351 0.9667
0.4610 -7.8553 -1.8494 0.9682
1.8472 -7.6461 -1.8487 0.9682
2.5207 -7.4499 -1.8484 0.9682
3.8017 -6.8821 -1.8478 0.9682
4.9615 -6.0964 -1.8473 0.9682
5.4842 -5.6295 -1.8471 0.9682
7.3332 -4.3048 -1.9985 0.9657
7.6871 -3.6340 -1.9983 0.9657
7.9798 -2.9345 -1.9982 0.9657
8.3734 -1.4715 -1.9981 0.9657
8.4711 -0.7197 -1.9981 0.9657
8.5015 0.0380 -1.9981 0.9657
8.4645 0.7953 -1.9981 0.9657
6.8778 5.0038 -1.9990 0.9657
6.4054 5.5974 -1.9992 0.9657
5.8820 6.1466 -1.9995 0.9656
4.6990 7.0950 -2.0000 0.9656
4.0488 7.4866 -2.0004 0.9656
3.3663 7.8188 -2.0007 0.9656
2.6567 8.0890 -2.0010 0.9656
1.1793 8.4350 -2.0017 0.9656
0.4231 8.5080 -2.0021 0.9656
-0.3366 8.5134 -2.0024 0.9656
-1.0940 8.4510 -2.0028 0.9656
-1.8429 8.3213 -2.0031 0.9656
-2.5774 8.1254 -2.0034 0.9656
-3.2916 7.8647 -2.0038 0.9656
-4.6366 7.1578 -2.0044 0.9656
-5.8349 6.2229 -2.0049 0.9656
-7.2751 4.4596 -2.0055 0.9655
-8.1969 2.3773 -2.0059 0.9655
-8.3764 1.6375 -2.0059 0.9655
-8.5112 -0.6360 -2.0059 0.9655
-8.0389 -2.8638 -2.0056 0.9655
-7.7511 -3.5683 -2.0055 0.9655
-7.4017 -4.2444 -2.0053 0.9655
-6.5295 -5.4894 -2.0048 0.9656
-6.0137 -6.0486 -2.0046 0.9656
-5.4501 -6.5594 -2.0043 0.9656
-3.5197 -7.7636 -2.0034 0.9656
-2.8135 -8.0450 -2.0031 0.9656
0.1607 -7.8678 -1.8495 0.9682
0.8609 -7.8208 -1.8492 0.9682
2.8971 -7.3110 -1.8482 0.9682
3.5364 -7.0227 -1.8480 0.9682
4.1474 -6.6787 -1.8477 0.9682
5.2655 -5.8351 -1.8472 0.9682
5.7768 -5.3542 -1.8512 0.9682
6.7119 -5.1901 -1.9941 0.9657
7.1638 -4.5818 -1.9986 0.9657
7.5429 -3.9250 -1.9984 0.9657
7.8621 -3.2371 -1.9983 0.9657
8.1189 -2.5237 -1.9982 0.9657
8.4968 -0.2867 -1.9981 0.9657
8.4131 1.2259 -1.9982 0.9657
8.2708 1.9707 -1.9982 0.9657
7.7907 3.4078 -1.9985 0.9657
6.6141 5.3484 -1.9991 0.9657
6.1121 5.9172 -1.9994 0.9656
4.3315 7.3260 -2.0002 0.9656
3.6621 7.6841 -2.0005 0.9656
2.9634 7.9811 -2.0009 0.9656
0.7476 8.4850 -2.0019 0.9656
-0.0113 8.5194 -2.0023 0.9656
-2.2651 8.2173 -2.0033 0.9656
-5.5928 6.4408 -2.0048 0.9656
-7.0992 4.7340 -2.0054 0.9655
-7.4934 4.0829 -2.0056 0.9655
-7.8279 3.3993 -2.0057 0.9655
-8.3077 1.9562 -2.0059 0.9655
-8.5294 -0.3105 -2.0059 0.9655
-7.1752 -4.6160 -2.0052 0.9656
-5.1081 -6.8283 -2.0042 0.9656
-4.4787 -7.2551 -2.0038 0.9656
-3.8139 -7.6241 -2.0035 0.9656
-2.3994 -8.1772 -2.0029 0.9656
-1.6610 -8.3570 -2.0025 0.9656
-0.9090 -8.4646 -2.0008 0.9656
-0.1442 -8.1140 -1.9073 0.9672
1.9451 -7.6216 -1.8487 0.9682
2.6160 -7.4168 -1.8484 0.9682
3.8896 -6.8327 -1.8478 0.9682
4.4823 -6.4580 -1.8475 0.9682
5.5559 -5.5585 -1.8471 0.9682
6.3867 -5.3405 -1.9566 0.9664
6.9838 -4.8522 -1.9986 0.9657
7.3878 -4.2103 -1.9985 0.9657
8.0167 -2.8319 -1.9982 0.9657
8.2368 -2.1063 -1.9981 0.9657
8.3915 -1.3640 -1.9981 0.9657
8.4796 -0.6109 -1.9981 0.9657
8.4537 0.9038 -1.9981 0.9657
8.3398 1.6534 -1.9982 0.9657
7.2390 4.4639 -1.9988 0.9657
6.8132 5.0917 -1.9990 0.9657
5.8028 6.2216 -1.9995 0.9656
3.2658 7.8616 -2.0007 0.9656
2.5528 8.1226 -2.0011 0.9656
1.8193 8.3192 -2.0014 0.9656
1.0710 8.4497 -2.0018 0.9656
-1.2023 8.4365 -2.0028 0.9656
-2.6815 8.0919 -2.0035 0.9656
-3.3923 7.8220 -2.0038 0.9656
-4.0763 7.4898 -2.0041 0.9656
-4.7281 7.0979 -2.0044 0.9656
-5.3424 6.6493 -2.0047 0.9656
-6.4393 5.5969 -2.0051 0.9656
-6.9130 5.0014 -2.0053 0.9655
-7.3318 4.3660 -2.0055 0.9655
-7.6922 3.6956 -2.0057 0.9655
-7.9913 2.9958 -2.0058 0.9655
-8.2268 2.2720 -2.0059 0.9655
-8.3967 1.5300 -2.0059 0.9655
-8.4998 0.7758 -2.0059 0.9655
-8.5023 -0.7451 -2.0059 0.9655
-8.4018 -1.4996 -2.0058 0.9655
-8.2344 -2.2421 -2.0057 0.9655
-7.5230 -1.8425 -2.0054 0.9685
-7.0757 -3.1480 -2.0052 0.9685
-6.7666 -3.7656 -2.0050 0.9685
-5.5281 -5.4194 -2.0044 0.9685
-5.0226 -5.8896 -2.0041 0.9685
-3.8965 -6.6857 -2.0036 0.9685
-2.6473 -7.2690 -2.0030 0.9685
0.0586 -7.7085 -1.9959 0.9687
1.3208 -7.0180 -1.8490 0.9709
3.6871 -6.1109 -1.8479 0.9709
4.7772 -5.4324 -1.8730 0.9706
5.5757 -5.3023 -1.9922 0.9687
6.8017 -3.6509 -1.9988 0.9686
7.5240 -1.7219 -1.9985 0.9686
7.7100 -0.3592 -1.9984 0.9686
7.7115 0.3292 -1.9985 0.9686
7.6516 1.0149 -1.9985 0.9686
7.5311 1.6927 -1.9986 0.9686
7.3507 2.3571 -1.9987 0.9686
7.1119 3.0028 -1.9988 0.9686
6.4671 4.2181 -1.9991 0.9686
5.6170 5.3000 -1.9996 0.9686
5.1231 5.7801 -1.9998 0.9686
4.5883 6.2144 -2.0001 0.9686
4.0169 6.5994 -2.0003 0.9686
2.1296 7.4301 -2.0012 0.9686
0.0889 7.7324 -2.0022 0.9686
-2.6195 7.2808 -2.0034 0.9685
-5.0005 5.9102 -2.0045 0.9685
-7.0640 3.1759 -2.0054 0.9685
-7.3193 2.5340 -2.0055 0.9685
-7.6532 1.1948 -2.0056 0.9685
-7.7438 -0.1825 -2.0056 0.9685
-7.6966 -0.8717 -2.0055 0.9685
-7.5880 -1.5539 -2.0055 0.9685
-6.9057 -3.5046 -2.0051 0.9685
-6.5654 -4.1056 -2.0049 0.9685
-5.7313 -5.2046 -2.0045 0.9685
-4.1492 -6.5325 -2.0037 0.9685
-3.5502 -6.8752 -2.0034 0.9685
-2.9231 -7.1631 -2.0031 0.9685
-0.9243 -7.6775 -2.0022 0.9686
-0.2362 -7.7191 -1.9996 0.9686
1.0519 -7.0638 -1.8491 0.9709
2.2882 -6.7629 -1.8485 0.9709
3.4512 -6.2476 -1.8480 0.9709
3.9936 -5.9145 -1.8478 0.9709
4.5042 -5.5345 -1.8476 0.9709
5.2288 -5.3672 -1.9401 0.9695
5.8520 -5.0223 -1.9967 0.9686
6.6576 -3.9081 -1.9988 0.9686
7.2446 -2.6642 -1.9986 0.9686
7.6847 0.7220 -1.9985 0.9686
7.5901 1.4039 -1.9985 0.9686
6.9498 3.3617 -1.9989 0.9686
6.2440 4.5427 -1.9993 0.9686
5.8150 5.0814 -1.9995 0.9686
5.3398 5.5800 -1.9997 0.9686
4.8220 6.0343 -2.0000 0.9686
3.0558 7.0977 -2.0008 0.9686
1.0705 7.6567 -2.0017 0.9686
0.3841 7.7228 -2.0021 0.9686
-1.6728 7.5530 -2.0030 0.9685
-3.6122 6.8447 -2.0039 0.9685
-4.2083 6.4965 -2.0041 0.9685
-4.7709 6.0965 -2.0044 0.9685
-5.2957 5.6478 -2.0046 0.9685
-5.7785 5.1541 -2.0048 0.9685
-6.2153 4.6192 -2.0050 0.9685
-6.6026 4.0474 -2.0052 0.9685
-6.9374 3.4432 -2.0053 0.9685
-7.4391 2.1575 -2.0055 0.9685
-7.7043 0.8030 -2.0056 0.9685
-7.7452 0.1133 -2.0056 0.9685
-7.6420 -1.2630 -2.0055 0.9685
-7.0347 -3.2385 -2.0051 0.9685
-6.7176 -3.8521 -2.0050 0.9685
-5.9261 -4.9822 -2.0046 0.9685
-5.4580 -5.4897 -2.0044 0.9685
-3.8104 -6.7350 -2.0036 0.9685
-3.1947 -7.0467 -2.0033 0.9685
1.4107 -7.0003 -1.8489 0.9709
2.0285 -6.8457 -1.8487 0.9709
3.2103 -6.3752 -1.8481 0.9709
3.7651 -6.0630 -1.8479 0.9709
4.2898 -5.7027 -1.8477 0.9709
4.8856 -5.4140 -1.8882 0.9703
6.5037 -4.1596 -1.9989 0.9686
7.1378 -2.9389 -1.9986 0.9686
7.3709 -2.2912 -1.9985 0.9686
7.5455 -1.6253 -1.9985 0.9686
7.6602 -0.9465 -1.9984 0.9686
7.7140 -0.2603 -1.9984 0.9686
7.7066 0.4280 -1.9985 0.9686
7.6380 1.1130 -1.9985 0.9686
7.5088 1.7892 -1.9986 0.9686
7.3199 2.4512 -1.9987 0.9686
6.7697 3.7120 -1.9990 0.9686
5.5487 5.3717 -1.9996 0.9686
5.0486 5.8455 -1.9998 0.9686
4.5083 6.2728 -2.0001 0.9686
3.3244 6.9754 -2.0007 0.9686
2.0342 7.4569 -2.0013 0.9686
-0.0103 7.7331 -2.0022 0.9686
-1.3830 7.6109 -2.0029 0.9685
-3.3480 6.9772 -2.0038 0.9685
-4.5344 6.2739 -2.0043 0.9685
-5.0760 5.8456 -2.0045 0.9685
-5.5772 5.3707 -2.0047 0.9685
-6.0341 4.8529 -2.0049 0.9685
-6.4430 4.2964 -2.0051 0.9685
-7.3512 2.4399 -2.0055 0.9685
-7.5396 1.7753 -2.0055 0.9685
-7.6680 1.0966 -2.0056 0.9685
-7.7352 0.4090 -2.0056 0.9685
-7.6847 -0.9703 -2.0055 0.9685
-6.8601 -3.5929 -2.0051 0.9685
-6.1123 -4.7525 -2.0047 0.9685
-5.1706 -5.7605 -2.0042 0.9685
-3.4617 -6.9200 -2.0034 0.9685
-2.8309 -7.1998 -2.0031 0.9685
-0.1371 -7.7167 -1.9983 0.9686
0.5307 -7.4153 -1.9249 0.9697
2.3748 -6.7328 -1.8485 0.9709
2.9647 -6.4935 -1.8482 0.9709
3.5310 -6.2027 -1.8480 0.9709
5.9195 -4.9499 -1.9979 0.9686
6.3403 -4.4051 -1.9989 0.9686
6.7071 -3.8224 -1.9988 0.9686
7.0205 -3.2094 -1.9987 0.9686
7.2782 -2.5710 -1.9986 0.9686
7.6185 -1.2384 -1.9984 0.9686
7.6984 -0.5547 -1.9984 0.9686
7.6749 0.8205 -1.9985 0.9686
7.1857 2.8214 -1.9988 0.9686
6.5719 4.0526 -1.9991 0.9686
6.1853 4.6224 -1.9993 0.9686
5.2679 5.6481 -1.9997 0.9686
4.1829 6.4951 -2.0003 0.9686
2.9646 7.1365 -2.0008 0.9686
0.9722 7.6700 -2.0018 0.9686
0.2850 7.7273 -2.0021 0.9686
-0.4047 7.7232 -2.0024 0.9685
-1.0913 7.6576 -2.0027 0.9685
-1.7695 7.5311 -2.0030 0.9685
-4.8488 6.0349 -2.0044 0.9685
-5.3678 5.5795 -2.0046 0.9685
-6.2741 4.5391 -2.0050 0.9685
-6.6541 3.9624 -2.0052 0.9685
-6.9811 3.3540 -2.0053 0.9685
-7.2525 2.7188 -2.0054 0.9685
-7.4662 2.0619 -2.0055 0.9685
-7.7139 0.7041 -2.0056 0.9685
-7.7460 0.0140 -2.0056 0.9685
-7.4732 -2.0348 -2.0054 0.9685
-7.0026 -1.0653 -2.0052 0.9710
-6.7018 -2.2910 -2.0050 0.9710
-6.4706 -2.8788 -2.0049 0.9710
-6.1879 -3.4436 -2.0048 0.9710
-5.4775 -4.4864 -2.0044 0.9710
-3.5635 -6.1144 -2.0035 0.9710
-1.8189 -6.8363 -2.0026 0.9710
-1.2024 -6.9701 -2.0023 0.9710
1.2801 -6.8018 -1.9594 0.9716
1.8250 -6.4622 -1.9010 0.9725
2.3581 -6.1810 -1.8728 0.9729
2.8970 -5.9415 -1.8713 0.9729
3.4595 -5.7337 -1.8957 0.9725
4.0657 -5.5516 -1.9480 0.9718
5.5310 -4.3915 -1.9993 0.9711
6.2217 -3.3396 -1.9990 0.9711
6.4942 -2.7719 -1.9989 0.9711
6.7150 -2.1821 -1.9988 0.9711
6.8826 -1.5751 -1.9988 0.9711
7.0527 -0.3286 -1.9987 0.9711
6.9993 0.9284 -1.9988 0.9711
6.8890 1.5484 -1.9989 0.9711
6.5055 2.7467 -1.9991 0.9711
5.1379 4.8479 -1.9998 0.9711
4.1968 5.6842 -2.0002 0.9711
3.6742 6.0362 -2.0005 0.9711
1.3348 6.9433 -2.0016 0.9710
0.7110 7.0356 -2.0019 0.9710
-0.5492 7.0522 -2.0025 0.9710
-1.7926 6.8447 -2.0030 0.9710
-2.3956 6.6586 -2.0033 0.9710
-2.9798 6.4196 -2.0036 0.9710
-3.5403 6.1293 -2.0038 0.9710
-4.0728 5.7902 -2.0041 0.9710
-4.5730 5.4049 -2.0043 0.9710
-5.0369 4.9765 -2.0045 0.9710
-6.4599 2.9043 -2.0051 0.9710
-6.6932 2.3173 -2.0052 0.9710
-7.0682 0.4647 -2.0053 0.9710
-7.0814 -0.1669 -2.0053 0.9710
-6.9390 -1.4210 -2.0052 0.9710
-6.7845 -2.0335 -2.0051 0.9710
-6.3151 -3.2049 -2.0048 0.9710
-6.0040 -3.7546 -2.0047 0.9710
-5.6451 -4.2742 -2.0045 0.9710
-5.2413 -4.7596 -2.0043 0.9710
-4.3123 -5.6130 -2.0038 0.9710
-3.2468 -6.2877 -2.0033 0.9710
-2.0787 -6.7623 -2.0028 0.9710
-1.4678 -6.9196 -2.0025 0.9710
-0.8453 -7.0218 -2.0022 0.9710
-0.2163 -7.0682 -2.0019 0.9710
1.0374 -6.9662 -1.9938 0.9711
1.5957 -6.6051 -1.9237 0.9721
2.6650 -6.0408 -1.8691 0.9729
4.9239 -5.0543 -1.9976 0.9711
5.7475 -4.1035 -1.9992 0.9711
6.3838 -3.0179 -1.9990 0.9711
6.9539 -1.2221 -1.9988 0.9711
7.0603 0.0315 -1.9987 0.9711
7.0295 0.6605 -1.9988 0.9711
6.8012 1.8977 -1.9989 0.9711
6.3572 3.0751 -1.9992 0.9711
6.0584 3.6295 -1.9993 0.9711
5.7114 4.1552 -1.9995 0.9711
5.3190 4.6480 -1.9997 0.9711
4.8843 5.1040 -1.9999 0.9711
3.9018 5.8912 -2.0004 0.9711
2.7950 6.4919 -2.0009 0.9710
1.5989 6.8868 -2.0015 0.9710
0.3513 7.0633 -2.0020 0.9710
-0.9082 7.0156 -2.0026 0.9710
-2.1395 6.7449 -2.0032 0.9710
-3.3035 6.2597 -2.0037 0.9710
-4.3631 5.5753 -2.0042 0.9710
-4.8430 5.1649 -2.0044 0.9710
-5.2844 4.7134 -2.0046 0.9710
-5.6838 4.2242 -2.0047 0.9710
-6.0380 3.7012 -2.0049 0.9710
-6.3441 3.1487 -2.0050 0.9710
-6.5998 2.5711 -2.0051 0.9710
-6.8028 1.9730 -2.0052 0.9710
-6.9518 1.3590 -2.0052 0.9710
-7.0453 0.7343 -2.0053 0.9710
-7.0827 0.1037 -2.0053 0.9710
-7.0636 -0.5278 -2.0052 0.9710
-6.9883 -1.1550 -2.0052 0.9710
-6.6718 -2.3768 -2.0050 0.9710
-6.4331 -2.9615 -2.0049 0.9710
-6.1432 -3.5227 -2.0047 0.9710
-4.9914 -5.0204 -2.0042 0.9710
-3.4848 -6.1595 -2.0034 0.9710
-1.1129 -6.9848 -2.0023 0.9710
1.3605 -6.7512 -1.9496 0.9718
1.9019 -6.4188 -1.8952 0.9726
2.4336 -6.1414 -1.8701 0.9729
2.9751 -5.9080 -1.8726 0.9729
3.5430 -5.7053 -1.9012 0.9725
5.5868 -4.3201 -1.9993 0.9711
6.2640 -3.2595 -1.9990 0.9711
6.5292 -2.6883 -1.9989 0.9711
6.7424 -2.0958 -1.9988 0.9711
6.9022 -1.4867 -1.9988 0.9711
7.0071 -0.8658 -1.9987 0.9711
7.0496 0.3915 -1.9988 0.9711
6.9868 1.0181 -1.9988 0.9711
6.6958 2.2422 -1.9990 0.9711
6.4698 2.8300 -1.9991 0.9711
5.4924 4.4413 -1.9996 0.9711
5.0754 4.9135 -1.9998 0.9711
4.6179 5.3468 -2.0000 0.9711
3.5965 6.0830 -2.0005 0.9710
1.2457 6.9600 -2.0016 0.9710
0.6207 7.0443 -2.0019 0.9710
-1.2649 6.9607 -2.0028 0.9710
-1.8803 6.8213 -2.0031 0.9710
-4.1468 5.7376 -2.0041 0.9710
-4.6420 5.3459 -2.0043 0.9710
-5.5181 4.4380 -2.0047 0.9710
-6.2191 3.3886 -2.0050 0.9710
-6.4966 2.8212 -2.0051 0.9710
-6.7225 2.2313 -2.0052 0.9710
-7.0787 -0.2577 -2.0053 0.9710
-6.9202 -1.5099 -2.0051 0.9710
-6.5417 -2.7138 -2.0049 0.9710
-5.9553 -3.8312 -2.0046 0.9710
-5.5897 -4.3461 -2.0044 0.9710
-5.1797 -4.8264 -2.0042 0.9710
-4.7286 -5.2681 -2.0040 0.9710
-4.2399 -5.6678 -2.0038 0.9710
-3.7176 -6.0222 -2.0035 0.9710
-2.5891 -6.5847 -2.0030 0.9710
-1.9918 -6.7882 -2.0027 0.9710
-0.7552 -7.0319 -2.0021 0.9710
4.5132 -5.4026 -1.9929 0.9712
4.9904 -4.9928 -1.9984 0.9711
6.1351 -3.4964 -1.9991 0.9711
6.6576 -2.3518 -1.9989 0.9711
6.8404 -1.7492 -1.9988 0.9711
6.9689 -1.1328 -1.9988 0.9711
7.0421 -0.5074 -1.9987 0.9711
7.0593 0.1221 -1.9987 0.9711
6.9259 1.3731 -1.9988 0.9711
6.7764 1.9848 -1.9989 0.9711
4.8185 5.1663 -1.9999 0.9711
4.3395 5.5757 -2.0002 0.9711
3.8260 5.9409 -2.0004 0.9711
1.5104 6.9069 -2.0015 0.9710
0.2607 7.0674 -2.0021 0.9710
-0.9981 7.0035 -2.0027 0.9710
-1.6183 6.8877 -2.0030 0.9710
-2.2259 6.7170 -2.0032 0.9710
-2.8159 6.4928 -2.0035 0.9710
-3.9245 5.8914 -2.0040 0.9710
-4.9089 5.1025 -2.0044 0.9710
-5.3444 4.6453 -2.0046 0.9710
-5.7375 4.1510 -2.0048 0.9710
-6.0850 3.6235 -2.0049 0.9710
-6.3840 3.0671 -2.0050 0.9710
-6.6322 2.4863 -2.0051 0.9710
-6.8276 1.8856 -2.0052 0.9710
-6.9686 1.2698 -2.0053 0.9710
-7.0541 0.6439 -2.0053 0.9710
-6.8340 -1.8608 -2.0051 0.9710
-6.1675 -2.1084 -2.0048 0.9731
-5.9548 -2.6493 -2.0047 0.9731
-5.3893 -3.6636 -2.0044 0.9731
-5.0410 -4.1289 -2.0042 0.9731
-3.7684 -5.3133 -2.0036 0.9731
-1.1067 -6.4152 -2.0023 0.9731
0.0495 -6.5080 -2.0018 0.9731
1.2027 -6.3905 -2.0001 0.9732
1.7643 -6.2474 -1.9967 0.9732
2.3119 -6.0599 -1.9949 0.9732
3.3521 -5.5558 -1.9958 0.9732
4.2937 -4.8826 -1.9999 0.9732
5.4308 -3.5724 -1.9994 0.9732
5.7271 -3.0741 -1.9993 0.9732
5.9779 -2.5515 -1.9992 0.9732
6.1813 -2.0087 -1.9991 0.9732
6.4394 -0.8797 -1.9990 0.9732
6.4921 -0.3025 -1.9990 0.9732
6.4429 0.8546 -1.9991 0.9732
6.3413 1.4253 -1.9991 0.9732
5.9883 2.5284 -1.9993 0.9732
5.4452 3.5516 -1.9996 0.9732
5.1076 4.0229 -1.9998 0.9732
4.7293 4.4624 -2.0000 0.9732
3.3819 5.5560 -2.0006 0.9731
2.8738 5.8360 -2.0008 0.9731
2.3427 6.0696 -2.0011 0.9731
0.6544 6.4756 -2.0019 0.9731
-0.5055 6.4906 -2.0024 0.9731
-3.2582 5.6410 -2.0037 0.9731
-3.7483 5.3288 -2.0039 0.9731
-5.6828 3.1916 -2.0047 0.9731
-5.9449 2.6727 -2.0048 0.9731
-6.3253 1.5753 -2.0050 0.9731
-6.5047 0.4277 -2.0050 0.9731
-6.5169 -0.1536 -2.0050 0.9731
-6.4771 -0.7336 -2.0050 0.9731
-6.2437 -1.8714 -2.0048 0.9731
-6.0518 -2.4201 -2.0047 0.9731
-5.8117 -2.9495 -2.0046 0.9731
-5.5254 -3.4553 -2.0044 0.9731
-4.4137 -4.7922 -2.0039 0.9731
-3.9688 -5.1658 -2.0037 0.9731
-2.9882 -5.7868 -2.0032 0.9731
-2.4604 -6.0293 -2.0030 0.9731
-1.9132 -6.2237 -2.0027 0.9731
0.9584 -6.4359 -2.0014 0.9731
3.6333 -5.3809 -1.9970 0.9732
4.1043 -5.0432 -2.0000 0.9732
4.9334 -4.2339 -1.9996 0.9732
5.2906 -3.7773 -1.9994 0.9732
5.6057 -3.2907 -1.9993 0.9732
6.1001 -2.2433 -1.9991 0.9732
6.4758 -0.5501 -1.9990 0.9732
6.4991 0.0290 -1.9990 0.9732
6.3910 1.1821 -1.9991 0.9732
5.8518 2.8306 -1.9994 0.9732
5.5767 3.3409 -1.9995 0.9732
5.2573 3.8248 -1.9997 0.9732
4.8960 4.2784 -1.9999 0.9732
4.0598 5.0805 -2.0003 0.9732
3.0944 5.7217 -2.0007 0.9731
0.9011 6.4455 -2.0018 0.9731
-0.2572 6.5048 -2.0023 0.9731
-0.8359 6.4569 -2.0026 0.9731
-2.5146 6.0083 -2.0033 0.9731
-3.5419 5.4678 -2.0038 0.9731
-4.0154 5.1310 -2.0040 0.9731
-4.4570 4.7533 -2.0042 0.9731
-5.2307 3.8875 -2.0045 0.9731
-5.5567 3.4062 -2.0047 0.9731
-6.0736 2.3661 -2.0049 0.9731
-6.3975 1.2507 -2.0050 0.9731
-6.4836 0.6757 -2.0050 0.9731
-6.5005 -0.4857 -2.0050 0.9731
-6.4312 -1.0629 -2.0049 0.9731
-6.1399 -2.1873 -2.0048 0.9731
-5.9203 -2.7255 -2.0046 0.9731
-5.3418 -3.7324 -2.0044 0.9731
-4.1633 -5.0107 -2.0038 0.9731
-3.6999 -5.3612 -2.0035 0.9731
1.2842 -6.3728 -1.9996 0.9732
1.8440 -6.2233 -1.9964 0.9732
2.9167 -5.7922 -1.9947 0.9732
3.4236 -5.5131 -1.9961 0.9732
4.3559 -4.8271 -1.9998 0.9732
4.7683 -4.4194 -1.9997 0.9732
6.0101 -2.4746 -1.9992 0.9732
6.2065 -1.9292 -1.9991 0.9732
6.4501 -0.7970 -1.9990 0.9732
6.4954 -0.2192 -1.9990 0.9732
6.4892 0.3604 -1.9990 0.9732
5.9554 2.6050 -1.9993 0.9732
5.3993 3.6211 -1.9996 0.9732
3.3104 5.5991 -2.0006 0.9731
1.7125 6.2776 -2.0014 0.9731
1.1465 6.4060 -2.0017 0.9731
0.5713 6.4836 -2.0019 0.9731
-0.0087 6.5095 -2.0022 0.9731
-0.5887 6.4838 -2.0025 0.9731
-1.1642 6.4064 -2.0027 0.9731
-1.7305 6.2780 -2.0030 0.9731
-2.2833 6.0996 -2.0032 0.9731
-2.8180 5.8726 -2.0035 0.9731
-3.3304 5.5988 -2.0037 0.9731
-3.8164 5.2804 -2.0039 0.9731
-4.2721 4.9199 -2.0041 0.9731
-4.6938 4.5201 -2.0043 0.9731
-5.0783 4.0842 -2.0045 0.9731
-5.9787 2.5963 -2.0048 0.9731
-6.1865 2.0534 -2.0049 0.9731
-6.3450 1.4941 -2.0050 0.9731
-6.4530 0.9228 -2.0050 0.9731
-6.5096 0.3442 -2.0050 0.9731
-6.5143 -0.2371 -2.0050 0.9731
-6.4672 -0.8166 -2.0050 0.9731
-6.3685 -1.3895 -2.0049 0.9731
-6.0202 -2.4975 -2.0047 0.9731
-5.7734 -3.0237 -2.0046 0.9731
-4.7670 -4.4418 -2.0041 0.9731
-4.3518 -4.8483 -2.0039 0.9731
-2.9137 -5.8246 -2.0032 0.9731
-1.8332 -6.2477 -2.0027 0.9731
-1.2691 -6.3853 -2.0024 0.9731
-0.6951 -6.4721 -2.0021 0.9731
1.0408 -6.4225 -2.0012 0.9731
2.6933 -5.8991 -1.9946 0.9732
4.1686 -4.9901 -1.9999 0.9732
5.6474 -3.2185 -1.9993 0.9732
5.9114 -2.7024 -1.9992 0.9732
6.1284 -2.1649 -1.9991 0.9732
6.2967 -1.6102 -1.9990 0.9732
6.4150 -1.0427 -1.9990 0.9732
6.4982 0.1124 -1.9990 0.9732
6.3754 1.2640 -1.9991 0.9732
6.2377 1.8270 -1.9992 0.9732
6.0504 2.3756 -1.9993 0.9732
5.5334 3.4122 -1.9995 0.9732
3.0208 5.7610 -2.0008 0.9731
2.4958 6.0080 -2.0010 0.9731
1.3902 6.3572 -2.0015 0.9731
0.8184 6.4566 -2.0018 0.9731
-0.3406 6.5011 -2.0024 0.9731
-0.9186 6.4458 -2.0026 0.9731
-1.4895 6.3391 -2.0029 0.9731
-3.1140 5.7216 -2.0036 0.9731
-3.6118 5.4220 -2.0038 0.9731
-4.0809 5.0792 -2.0040 0.9731
-4.5177 4.6958 -2.0042 0.9731
-5.2802 3.8201 -2.0045 0.9731
-5.5999 3.3347 -2.0047 0.9731
-5.8751 2.8226 -2.0048 0.9731
-6.1035 2.2881 -2.0049 0.9731
-6.5187 0.0118 -2.0050 0.9731
-6.4170 -1.1453 -2.0049 0.9731
-6.2892 -1.7124 -2.0048 0.9731
-6.0196 -0.3722 -2.0048 0.9749
-5.7063 -1.9507 -2.0046 0.9749
-5.2689 -2.9322 -2.0043 0.9749
-4.9863 -3.3897 -2.0042 0.9749
-4.6641 -3.8202 -2.0040 0.9749
-4.3048 -4.2202 -2.0039 0.9749
-3.4868 -4.9162 -2.0035 0.9749
-2.5583 -5.4558 -2.0030 0.9749
0.0458 -6.0220 -2.0018 0.9749
0.5820 -5.9932 -2.0016 0.9749
2.1455 -5.6239 -2.0008 0.9749
3.1089 -5.1527 -2.0004 0.9750
3.5553 -4.8548 -2.0002 0.9750
4.3597 -4.1460 -1.9999 0.9750
4.7114 -3.7408 -1.9997 0.9750
5.0257 -3.3059 -1.9996 0.9750
5.2999 -2.8448 -1.9995 0.9750
5.7202 -1.8589 -1.9993 0.9750
5.8629 -1.3418 -1.9993 0.9750
6.0090 0.2565 -1.9992 0.9750
5.5416 2.3398 -1.9995 0.9750
5.3114 2.8244 -1.9996 0.9750
5.0390 3.2866 -1.9998 0.9750
4.7265 3.7228 -1.9999 0.9750
3.9915 4.5034 -2.0003 0.9750
3.1295 5.1413 -2.0007 0.9749
1.1368 5.9134 -2.0017 0.9749
0.6055 5.9919 -2.0019 0.9749
0.0692 6.0228 -2.0021 0.9749
-2.0400 5.6703 -2.0031 0.9749
-2.5374 5.4666 -2.0033 0.9749
-3.4681 4.9305 -2.0037 0.9749
-4.9736 3.4094 -2.0044 0.9749
-5.2579 2.9529 -2.0045 0.9749
-5.6990 1.9730 -2.0047 0.9749
-5.8523 1.4575 -2.0047 0.9749
-6.0294 -0.1421 -2.0048 0.9749
-5.9927 -0.6787 -2.0047 0.9749
-5.9082 -1.2099 -2.0047 0.9749
-5.7767 -1.7314 -2.0046 0.9749
-5.1123 -3.1969 -2.0043 0.9749
-4.8067 -3.6394 -2.0041 0.9749
-4.0838 -4.4340 -2.0038 0.9749
-3.2313 -5.0873 -2.0033 0.9749
-2.2766 -5.5788 -2.0029 0.9749
-1.7703 -5.7587 -2.0026 0.9749
-0.7199 -5.9800 -2.0022 0.9749
0.3528 -6.0114 -2.0017 0.9749
1.9293 -5.7020 -2.0009 0.9749
2.9100 -5.2679 -2.0005 0.9750
4.5653 -3.9181 -1.9998 0.9750
4.8959 -3.4955 -1.9996 0.9750
5.6451 -2.0759 -1.9993 0.9750
5.8075 -1.5647 -1.9993 0.9750
5.9237 -1.0410 -1.9992 0.9750
5.9928 -0.5091 -1.9992 0.9750
6.0144 0.0269 -1.9992 0.9750
5.9143 1.0939 -1.9993 0.9750
5.7936 1.6166 -1.9994 0.9750
5.6268 2.1264 -1.9995 0.9750
5.4152 2.6194 -1.9996 0.9750
5.1606 3.0917 -1.9997 0.9750
4.8650 3.5394 -1.9999 0.9750
4.1603 4.3475 -2.0002 0.9750
2.3805 5.5293 -2.0011 0.9749
1.3617 5.8654 -2.0015 0.9749
0.8338 5.9641 -2.0018 0.9749
0.2992 6.0155 -2.0020 0.9749
-0.2380 6.0189 -2.0023 0.9749
-0.7734 5.9745 -2.0025 0.9749
-1.8219 5.7438 -2.0030 0.9749
-2.3267 5.5592 -2.0032 0.9749
-4.1238 4.3979 -2.0040 0.9749
-4.4996 4.0134 -2.0042 0.9749
-4.8396 3.5968 -2.0043 0.9749
-5.1411 3.1515 -2.0045 0.9749
-5.4018 2.6810 -2.0046 0.9749
-5.7923 1.6799 -2.0047 0.9749
-5.9986 0.6252 -2.0048 0.9749
-6.0305 0.0883 -2.0048 0.9749
-5.8387 -1.5096 -2.0046 0.9749
-5.6808 -2.0237 -2.0046 0.9749
-4.6147 -3.8796 -2.0040 0.9749
-3.4234 -4.9604 -2.0034 0.9749
-1.4742 -5.8411 -2.0025 0.9749
-0.9478 -5.9485 -2.0023 0.9749
0.1230 -6.0208 -2.0018 0.9749
0.6588 -5.9852 -2.0015 0.9749
1.7102 -5.7718 -2.0010 0.9749
2.2174 -5.5958 -2.0008 0.9749
2.7069 -5.3754 -2.0006 0.9749
3.1747 -5.1124 -2.0004 0.9750
3.6172 -4.8087 -2.0002 0.9750
4.7590 -3.6800 -1.9997 0.9750
5.0676 -3.2411 -1.9996 0.9750
5.3359 -2.7766 -1.9995 0.9750
5.5618 -2.2900 -1.9994 0.9750
5.7435 -1.7853 -1.9993 0.9750
5.9690 -0.7376 -1.9992 0.9750
5.9517 0.8673 -1.9993 0.9750
5.8510 1.3941 -1.9993 0.9750
5.7037 1.9100 -1.9994 0.9750
3.9334 4.5542 -2.0003 0.9750
3.5124 4.8871 -2.0005 0.9750
3.0633 5.1811 -2.0007 0.9749
2.5898 5.4341 -2.0010 0.9749
2.0956 5.6439 -2.0012 0.9749
0.5286 5.9993 -2.0019 0.9749
-1.0772 5.9277 -2.0027 0.9749
-2.1126 5.6437 -2.0031 0.9749
-2.6074 5.4337 -2.0034 0.9749
-3.0814 5.1803 -2.0036 0.9749
-3.5311 4.8857 -2.0038 0.9749
-4.3429 4.1821 -2.0041 0.9749
-5.0169 3.3454 -2.0044 0.9749
-5.2953 2.8853 -2.0045 0.9749
-5.5316 2.4021 -2.0046 0.9749
-5.8705 1.3823 -2.0047 0.9749
-5.9704 0.8538 -2.0048 0.9749
-5.9835 -0.7555 -2.0047 0.9749
-5.5700 -2.3107 -2.0045 0.9749
-5.3416 -2.7976 -2.0044 0.9749
-4.4106 -4.1097 -2.0039 0.9749
-4.0265 -4.4859 -2.0037 0.9749
-3.1658 -5.1283 -2.0033 0.9749
-2.6960 -5.3893 -2.0031 0.9749
-1.6962 -5.7809 -2.0026 0.9749
0.9632 -5.9434 -2.0014 0.9749
1.4887 -5.8332 -2.0011 0.9749
2.4998 -5.4751 -2.0007 0.9749
2.9773 -5.2301 -2.0005 0.9750
3.8576 -4.6177 -2.0001 0.9750
4.2533 -4.2553 -1.9999 0.9750
4.6151 -3.8591 -1.9998 0.9750
4.9403 -3.4324 -1.9996 0.9750
5.2261 -2.9784 -1.9995 0.9750
5.4704 -2.5008 -1.9994 0.9750
5.8270 -1.4901 -1.9993 0.9750
5.9365 -0.9650 -1.9992 0.9750
5.9988 -0.4322 -1.9992 0.9750
6.0135 0.1040 -1.9992 0.9750
5.9804 0.6394 -1.9993 0.9750
5.8998 1.1697 -1.9993 0.9750
5.3812 2.6887 -1.9996 0.9750
5.1206 3.1577 -1.9997 0.9750
4.8193 3.6016 -1.9999 0.9750
4.4796 4.0170 -2.0001 0.9750
4.1043 4.4005 -2.0002 0.9750
2.7953 5.3310 -2.0009 0.9749
2.3095 5.5595 -2.0011 0.9749
-2.3979 5.5290 -2.0033 0.9749
-4.1799 4.3448 -2.0041 0.9749
-4.5507 3.9554 -2.0042 0.9749
-4.8854 3.5344 -2.0044 0.9749
-5.4357 2.6115 -2.0046 0.9749
-5.6470 2.1169 -2.0047 0.9749
-5.8134 1.6054 -2.0047 0.9749
-6.0062 0.5482 -2.0048 0.9749
-6.0311 0.0109 -2.0048 0.9749
-5.4443 -1.3334 -2.0045 0.9765
-4.8971 -2.7253 -2.0042 0.9765
-4.6346 -3.1506 -2.0040 0.9765
-4.0012 -3.9225 -2.0037 0.9765
-3.6355 -4.2630 -2.0035 0.9765
-3.2409 -4.5695 -2.0034 0.9765
-2.3779 -5.0711 -2.0029 0.9765
-1.9164 -5.2622 -2.0027 0.9765
-1.4398 -5.4115 -2.0025 0.9765
-0.4564 -5.5798 -2.0020 0.9765
0.5410 -5.5709 -2.0016 0.9765
2.4520 -5.0288 -2.0007 0.9765
2.8900 -4.7899 -2.0005 0.9765
3.3050 -4.5129 -2.0003 0.9765
3.6936 -4.2002 -2.0002 0.9765
4.0528 -3.8541 -2.0000 0.9765
5.1427 -2.1950 -1.9996 0.9765
5.3176 -1.7280 -1.9995 0.9765
5.4503 -1.2473 -1.9994 0.9765
5.5397 -0.7568 -1.9994 0.9765
5.5860 0.2384 -1.9994 0.9765
4.6842 3.0552 -1.9999 0.9765
4.3937 3.4607 -2.0001 0.9765
4.0682 3.8387 -2.0002 0.9765
3.7104 4.1862 -2.0004 0.9765
3.3230 4.5006 -2.0006 0.9765
2.9091 4.7792 -2.0008 0.9765
2.0151 5.2208 -2.0012 0.9765
1.0567 5.4968 -2.0017 0.9765
0.5628 5.5697 -2.0019 0.9765
0.0644 5.5983 -2.0021 0.9765
-0.4347 5.5824 -2.0024 0.9765
-0.9305 5.5221 -2.0026 0.9765
-1.8962 5.2705 -2.0030 0.9765
-3.9863 3.9385 -2.0040 0.9765
-4.3217 3.5679 -2.0041 0.9765
-4.6227 3.1689 -2.0042 0.9765
-5.2968 1.8338 -2.0045 0.9765
-5.5384 0.8646 -2.0046 0.9765
-5.5698 -0.6308 -2.0045 0.9765
-5.3691 -1.6093 -2.0044 0.9765
-5.2042 -2.0811 -2.0043 0.9765
-4.7516 -2.9714 -2.0041 0.9765
-4.4677 -3.3827 -2.0040 0.9765
-4.1482 -3.7670 -2.0038 0.9765
-3.7957 -4.1212 -2.0036 0.9765
-3.4131 -4.4426 -2.0034 0.9765
-3.0035 -4.7286 -2.0032 0.9765
-2.5699 -4.9768 -2.0030 0.9765
-2.1161 -5.1855 -2.0028 0.9765
-1.6455 -5.3528 -2.0026 0.9765
-1.1619 -5.4775 -2.0024 0.9765
-0.6692 -5.5586 -2.0021 0.9765
-0.1712 -5.5955 -2.0019 0.9765
1.3142 -5.4397 -2.0012 0.9765
2.2583 -5.1190 -2.0008 0.9765
3.1304 -4.6360 -2.0004 0.9765
3.9028 -4.0061 -2.0001 0.9765
4.2439 -3.6422 -1.9999 0.9765
4.5512 -3.2494 -1.9998 0.9765
4.8224 -2.8308 -1.9997 0.9765
5.2478 -1.9298 -1.9995 0.9765
5.3987 -1.4546 -1.9995 0.9765
5.5710 -0.4733 -1.9994 0.9765
5.5667 0.5230 -1.9994 0.9765
5.2307 1.9767 -1.9996 0.9765
4.2117 3.6804 -2.0002 0.9765
3.8674 4.0413 -2.0003 0.9765
3.4923 4.3702 -2.0005 0.9765
2.6617 4.9217 -2.0009 0.9765
2.2128 5.1398 -2.0011 0.9765
1.7463 5.3171 -2.0014 0.9765
0.7751 5.5439 -2.0018 0.9765
-0.7189 5.5534 -2.0025 0.9765
-2.6147 4.9545 -2.0034 0.9765
-3.0460 4.7023 -2.0035 0.9765
-4.4982 3.3430 -2.0042 0.9765
-4.7784 2.9291 -2.0043 0.9765
-5.0206 2.4919 -2.0044 0.9765
-5.5014 1.0755 -2.0046 0.9765
-5.6050 0.0820 -2.0046 0.9765
-5.5304 -0.9140 -2.0045 0.9765
-5.0911 -2.3438 -2.0043 0.9765
-4.8617 -2.7879 -2.0042 0.9765
-4.5937 -3.2097 -2.0040 0.9765
-4.2891 -3.6060 -2.0039 0.9765
-3.9505 -3.9734 -2.0037 0.9765
-3.1820 -4.6106 -2.0033 0.9765
-2.7582 -4.8753 -2.0031 0.9765
-2.3126 -5.1011 -2.0029 0.9765
-1.8488 -5.2863 -2.0027 0.9765
-1.3703 -5.4294 -2.0025 0.9765
-0.3848 -5.5851 -2.0020 0.9765
0.1143 -5.5965 -2.0018 0.9765
0.6124 -5.5635 -2.0016 0.9765
1.1056 -5.4861 -2.0013 0.9765
2.5162 -4.9969 -2.0007 0.9765
2.9512 -4.7523 -2.0005 0.9765
4.1019 -3.8017 -2.0000 0.9765
4.9603 -2.5811 -1.9996 0.9765
5.5489 -0.6857 -1.9994 0.9765
5.5879 -0.1886 -1.9994 0.9765
5.5328 0.8062 -1.9995 0.9765
5.4391 1.2960 -1.9995 0.9765
5.3022 1.7755 -1.9996 0.9765
4.9035 2.6887 -1.9998 0.9765
4.3490 3.5168 -2.0001 0.9765
4.0187 3.8906 -2.0003 0.9765
3.2650 4.5429 -2.0006 0.9765
1.9480 5.2463 -2.0013 0.9765
0.9861 5.5100 -2.0017 0.9765
0.4914 5.5765 -2.0019 0.9765
-0.5063 5.5765 -2.0024 0.9765
-1.0012 5.5098 -2.0026 0.9765
-1.4883 5.3993 -2.0028 0.9765
-1.9637 5.2458 -2.0031 0.9765
-2.4235 5.0505 -2.0033 0.9765
-2.8641 4.8150 -2.0035 0.9765
-3.2820 4.5411 -2.0036 0.9765
-4.6630 3.1094 -2.0042 0.9765
-4.9217 2.6817 -2.0043 0.9765
-5.4562 1.2848 -2.0046 0.9765
-5.5491 0.7935 -2.0046 0.9765
-5.5977 0.2960 -2.0046 0.9765
-5.5613 -0.7022 -2.0045 0.9765
-5.3480 -1.6780 -2.0044 0.9765
-5.1770 -2.1477 -2.0043 0.9765
-4.9648 -2.6003 -2.0042 0.9765
-4.0995 -3.8198 -2.0038 0.9765
-3.7425 -4.1695 -2.0036 0.9765
-2.9425 -4.7666 -2.0032 0.9765
-2.0494 -5.2121 -2.0028 0.9765
-1.5767 -5.3734 -2.0026 0.9765
-1.0915 -5.4918 -2.0023 0.9765
-0.5978 -5.5666 -2.0021 0.9765
-0.0995 -5.5971 -2.0019 0.9765
0.8953 -5.5246 -2.0014 0.9765
1.8612 -5.2769 -2.0010 0.9765
2.3237 -5.0895 -2.0008 0.9765
3.5859 -4.2926 -2.0002 0.9765
3.9538 -3.9557 -2.0001 0.9765
4.2902 -3.5875 -1.9999 0.9765
4.5925 -3.1907 -1.9998 0.9765
5.2721 -1.8624 -1.9995 0.9765
5.5187 -0.8970 -1.9994 0.9765
5.5766 -0.4018 -1.9994 0.9765
5.5903 0.0967 -1.9994 0.9765
5.4846 1.0874 -1.9995 0.9765
5.3661 1.5717 -1.9996 0.9765
5.0024 2.4994 -1.9998 0.9765
4.7601 2.9354 -1.9999 0.9765
4.4800 3.3480 -2.0000 0.9765
3.8153 4.0907 -2.0004 0.9765
3.4360 4.4147 -2.0005 0.9765
2.5984 4.9555 -2.0009 0.9765
1.6780 5.3391 -2.0014 0.9765
1.1958 5.4680 -2.0016 0.9765
0.7039 5.5534 -2.0018 0.9765
-1.2810 5.4520 -2.0028 0.9765
-1.7618 5.3167 -2.0030 0.9765
-2.6781 4.9206 -2.0034 0.9765
-3.1061 4.6629 -2.0036 0.9765
-3.8850 4.0383 -2.0039 0.9765
-4.5407 3.2851 -2.0042 0.9765
-4.8156 2.8676 -2.0043 0.9765
-5.0522 2.4273 -2.0044 0.9765
-5.2486 1.9676 -2.0045 0.9765
-5.4032 1.4922 -2.0045 0.9765
-5.5824 0.5095 -2.0046 0.9765
-5.6055 0.0101 -2.0046 0.9765
-5.5181 -0.9849 -2.0045 0.9765
-5.4083 -1.4726 -2.0045 0.9765
-5.2205 -0.3228 -2.0044 0.9778
-4.7782 -2.1259 -2.0041 0.9778
-4.5695 -2.5430 -2.0040 0.9778
-4.3245 -2.9398 -2.0039 0.9778
-4.0451 -3.3132 -2.0038 0.9779
-3.7336 -3.6601 -2.0036 0.9779
-3.3923 -3.9779 -2.0034 0.9779
-3.0241 -4.2639 -2.0033 0.9779
-2.2189 -4.7321 -2.0029 0.9779
-1.3436 -5.0497 -2.0025 0.9779
0.0397 -5.2236 -2.0018 0.9779
0.9660 -5.1325 -2.0014 0.9779
2.6970 -4.4700 -2.0006 0.9779
3.7822 -3.5967 -2.0001 0.9779
4.0873 -3.2452 -2.0000 0.9779
4.9626 -1.6127 -1.9997 0.9779
5.0865 -1.1641 -1.9996 0.9779
5.2132 0.2225 -1.9996 0.9779
5.1727 0.6861 -1.9996 0.9779
4.8076 2.0299 -1.9998 0.9779
4.3715 2.8512 -2.0001 0.9779
3.7966 3.5823 -2.0004 0.9779
3.4626 3.9067 -2.0005 0.9779
3.1010 4.2000 -2.0007 0.9779
2.3068 4.6846 -2.0011 0.9779
1.8804 4.8720 -2.0013 0.9779
1.4390 5.0207 -2.0015 0.9779
0.0601 5.2242 -2.0021 0.9779
-2.6147 4.5268 -2.0033 0.9779
-4.0326 3.3292 -2.0040 0.9778
-4.7702 2.1446 -2.0043 0.9778
-4.9424 1.7111 -2.0043 0.9778
-5.0754 1.2640 -2.0044 0.9778
-5.1972 -0.5886 -2.0044 0.9778
-5.0099 -1.5016 -2.0043 0.9778
-4.1688 -3.1564 -2.0038 0.9779
-3.8707 -3.5150 -2.0037 0.9779
-3.5419 -3.8456 -2.0035 0.9779
-3.1849 -4.1455 -2.0033 0.9779
-1.9746 -4.8388 -2.0028 0.9779
-1.5355 -4.9950 -2.0026 0.9779
-1.0842 -5.1114 -2.0023 0.9779
2.1074 -4.7771 -2.0009 0.9779
2.9213 -4.3264 -2.0005 0.9779
3.2949 -4.0486 -2.0004 0.9779
3.6422 -3.7386 -2.0002 0.9779
3.9606 -3.3990 -2.0001 0.9779
4.7177 -2.2303 -1.9998 0.9779
4.8975 -1.8010 -1.9997 0.9779
5.0383 -1.3575 -1.9996 0.9779
5.1992 -0.4417 -1.9996 0.9779
4.8815 1.8448 -1.9998 0.9779
4.6979 2.2725 -1.9999 0.9779
4.4771 2.6822 -2.0000 0.9779
4.2206 3.0706 -2.0001 0.9779
3.9305 3.4346 -2.0003 0.9779
3.6091 3.7715 -2.0004 0.9779
3.2590 4.0784 -2.0006 0.9779
2.8829 4.3529 -2.0008 0.9779
2.4839 4.5929 -2.0010 0.9779
2.0650 4.7964 -2.0012 0.9779
1.6296 4.9618 -2.0014 0.9779
1.1812 5.0878 -2.0016 0.9779
0.7233 5.1734 -2.0018 0.9779
0.2595 5.2178 -2.0020 0.9779
-0.2065 5.2208 -2.0023 0.9779
-1.1300 5.1023 -2.0027 0.9779
-2.0180 4.8217 -2.0031 0.9779
-2.4398 4.6232 -2.0033 0.9779
-2.8423 4.3878 -2.0034 0.9779
-3.5765 3.8143 -2.0038 0.9779
-4.1972 3.1194 -2.0040 0.9778
-4.6847 2.3251 -2.0042 0.9778
-5.0233 1.4569 -2.0044 0.9778
-5.1333 1.0035 -2.0044 0.9778
-5.2023 0.5422 -2.0044 0.9778
-5.2159 -0.3897 -2.0044 0.9778
-5.1603 -0.8529 -2.0044 0.9778
-5.0637 -1.3092 -2.0043 0.9778
-4.9267 -1.7551 -2.0042 0.9778
-4.7505 -2.1870 -2.0041 0.9778
-4.5365 -2.6014 -2.0040 0.9778
-4.0022 -3.3648 -2.0037 0.9779
-3.6863 -3.7077 -2.0036 0.9779
-3.3410 -4.0210 -2.0034 0.9779
-2.9692 -4.3023 -2.0032 0.9779
-2.5738 -4.5493 -2.0031 0.9779
-2.1580 -4.7601 -2.0029 0.9779
-1.7252 -4.9329 -2.0026 0.9779
-1.2787 -5.0665 -2.0024 0.9779
-0.8221 -5.1597 -2.0022 0.9779
-0.3591 -5.2118 -2.0020 0.9779
0.1067 -5.2225 -2.0018 0.9779
0.5715 -5.1917 -2.0016 0.9779
1.0317 -5.1196 -2.0014 0.9779
1.4836 -5.0068 -2.0012 0.9779
1.9236 -4.8543 -2.0010 0.9779
2.3482 -4.6631 -2.0008 0.9779
3.4969 -3.8751 -2.0003 0.9779
4.1286 -3.1925 -2.0000 0.9779
4.8252 -1.9867 -1.9997 0.9779
5.1785 -0.6399 -1.9996 0.9779
5.2149 -0.1760 -1.9996 0.9779
5.2099 0.2894 -1.9996 0.9779
5.1635 0.7524 -1.9996 0.9779
4.9483 1.6570 -1.9998 0.9779
3.4123 3.9508 -2.0005 0.9779
2.6574 4.4945 -2.0009 0.9779
1.8178 4.8958 -2.0013 0.9779
1.3745 5.0388 -2.0015 0.9779
0.9202 5.1418 -2.0017 0.9779
0.4585 5.2039 -2.0019 0.9779
-0.0069 5.2246 -2.0022 0.9779
-1.3888 5.0383 -2.0028 0.9779
-3.4281 3.9480 -2.0037 0.9779
-4.0750 3.2773 -2.0040 0.9778
-4.3510 2.9014 -2.0041 0.9778
-4.5924 2.5023 -2.0042 0.9778
-4.7973 2.0833 -2.0043 0.9778
-4.9640 1.6476 -2.0043 0.9778
-5.0912 1.1988 -2.0044 0.9778
-5.1778 0.7405 -2.0044 0.9778
-5.2270 -0.1903 -2.0044 0.9778
-5.1892 -0.6552 -2.0044 0.9778
-5.1100 -1.1149 -2.0043 0.9778
-4.9902 -1.5657 -2.0043 0.9778
-4.8306 -2.0040 -2.0042 0.9778
-4.6326 -2.4263 -2.0041 0.9778
-4.1279 -3.2096 -2.0038 0.9779
-3.1314 -4.1860 -2.0033 0.9779
-2.7457 -4.4479 -2.0031 0.9779
-2.3383 -4.6744 -2.0029 0.9779
-1.9124 -4.8636 -2.0027 0.9779
-1.4713 -5.0142 -2.0025 0.9779
-0.0928 -5.2231 -2.0019 0.9779
0.8355 -5.1555 -2.0015 0.9779
1.2914 -5.0600 -2.0013 0.9779
2.1685 -4.7496 -2.0009 0.9779
2.5828 -4.5371 -2.0007 0.9779
3.6898 -3.6916 -2.0002 0.9779
4.2859 -2.9777 -1.9999 0.9779
4.9202 -1.7380 -1.9997 0.9779
5.2171 0.0902 -1.9996 0.9779
5.1884 0.5547 -1.9996 0.9779
5.1185 1.0148 -1.9997 0.9779
5.0079 1.4668 -1.9997 0.9779
4.4423 2.7394 -2.0000 0.9779
4.1809 3.1245 -2.0002 0.9779
3.8861 3.4848 -2.0003 0.9779
3.5605 3.8175 -2.0005 0.9779
2.8269 4.3896 -2.0008 0.9779
2.4248 4.6244 -2.0010 0.9779
2.0034 4.8226 -2.0012 0.9779
1.1159 5.1026 -2.0016 0.9779
0.6569 5.1823 -2.0019 0.9779
-0.2734 5.2178 -2.0023 0.9779
-0.7373 5.1732 -2.0025 0.9779
-3.2748 4.0758 -2.0036 0.9779
-3.6252 3.7681 -2.0038 0.9779
-3.9467 3.4304 -2.0039 0.9778
-4.2369 3.0653 -2.0040 0.9778
-4.4934 2.6758 -2.0042 0.9778
-4.8974 1.8359 -2.0043 0.9778
-5.0416 1.3923 -2.0044 0.9778
-5.1489 -0.9190 -2.0043 0.9778
-5.0464 -1.3740 -2.0043 0.9778
-1.9753 -0.3005 -0.8178 0.9914
-4.7563 -1.1649 -2.0042 0.9791
-4.6334 -1.5839 -2.0041 0.9791
-4.2783 -2.3809 -2.0039 0.9791
-3.7874 -3.1021 -2.0037 0.9791
-3.1762 -3.7245 -2.0034 0.9791
-2.8315 -3.9923 -2.0032 0.9791
-2.4643 -4.2283 -2.0030 0.9791
-2.0776 -4.4307 -2.0028 0.9791
-1.2580 -4.7282 -2.0024 0.9791
-0.8317 -4.8209 -2.0022 0.9791
-0.3988 -4.8754 -2.0020 0.9791
0.0372 -4.8910 -2.0018 0.9791
0.4727 -4.8678 -2.0016 0.9791
1.3289 -4.7057 -2.0012 0.9791
2.5254 -4.1856 -2.0007 0.9791
3.2277 -3.6703 -2.0004 0.9791
3.5416 -3.3679 -2.0003 0.9791
4.0827 -2.6856 -2.0000 0.9791
4.3055 -2.3111 -1.9999 0.9791
4.4941 -1.9182 -1.9999 0.9791
4.6470 -1.5101 -1.9998 0.9791
4.7630 -1.0900 -1.9998 0.9791
4.8816 0.2084 -1.9998 0.9791
4.8437 0.6425 -1.9998 0.9791
4.7673 1.0715 -1.9998 0.9791
4.6531 1.4921 -1.9999 0.9791
4.5018 1.9008 -2.0000 0.9791
4.3148 2.2944 -2.0001 0.9791
3.8395 3.0242 -2.0003 0.9791
1.7608 4.5619 -2.0013 0.9791
0.4918 4.8666 -2.0019 0.9791
-0.3798 4.8776 -2.0023 0.9791
-0.8130 4.8248 -2.0025 0.9791
-2.4481 4.2384 -2.0033 0.9791
-3.1620 3.7372 -2.0036 0.9791
-3.4826 3.4409 -2.0037 0.9791
-3.7756 3.1171 -2.0038 0.9791
-4.0385 2.7685 -2.0039 0.9791
-4.4661 2.0079 -2.0041 0.9791
-4.6274 1.6021 -2.0042 0.9791
-4.7519 1.1834 -2.0042 0.9791
-1.9208 -0.0453 -0.7864 0.9917
-1.9559 -0.2215 -0.8056 0.9915
-4.7973 -0.9824 -2.0042 0.9791
-4.6906 -1.4059 -2.0041 0.9791
-4.5465 -1.8181 -2.0040 0.9791
-4.3662 -2.2159 -2.0039 0.9791
-4.1512 -2.5959 -2.0038 0.9791
-3.9032 -2.9553 -2.0037 0.9791
-3.3162 -3.6006 -2.0034 0.9791
-2.9820 -3.8814 -2.0033 0.9791
-2.6241 -4.1313 -2.0031 0.9791
