ply
format ascii 1.0
element vertex 1597
property float32 x
property float32 y
property float32 z
property float32 I
end_header
6.3345 4.4314 -2.0016 0.9686
5.4452 5.4875 -2.0016 0.9686
4.9334 5.9519 -2.0016 0.9686
4.3821 6.3687 -2.0016 0.9686
2.5363 7.2993 -2.0008 0.9686
0.5092 7.6853 -1.9942 0.9687
-0.1791 7.6992 -1.9940 0.9687
-1.5477 7.5538 -1.9965 0.9686
-2.8742 7.1765 -2.0016 0.9686
-3.5036 6.8911 -2.0016 0.9686
-4.6735 6.1580 -2.0016 0.9686
-6.8766 3.5321 -2.0016 0.9686
-7.1645 2.9039 -2.0016 0.9686
-7.3952 2.2525 -2.0016 0.9686
-7.5668 1.5831 -2.0016 0.9686
-7.5075 -1.8441 -2.0016 0.9686
-7.3128 -2.5071 -2.0016 0.9686
-6.7502 -3.7680 -2.0016 0.9686
-6.3867 -4.3557 -2.0016 0.9686
-5.9723 -4.9087 -2.0016 0.9686
-5.5100 -5.4224 -2.0016 0.9686
-4.4576 -6.3161 -2.0016 0.9686
-1.9642 -7.4770 -2.0016 0.9686
2.1336 -7.4304 -2.0016 0.9686
2.7886 -7.2102 -2.0016 0.9686
3.4214 -6.9323 -2.0016 0.9686
4.0267 -6.5991 -2.0016 0.9686
4.6000 -6.2132 -2.0016 0.9686
5.6318 -5.2958 -2.0016 0.9686
6.4841 -4.2095 -2.0016 0.9686
7.1295 -2.9889 -2.0016 0.9686
7.6667 -0.9923 -2.0016 0.9686
7.7247 -0.3037 -2.0016 0.9686
7.7209 0.3873 -2.0016 0.9686
7.3421 2.4199 -2.0016 0.9686
6.0302 4.8373 -2.0016 0.9686
5.5742 5.3564 -2.0016 0.9686
5.0736 5.8328 -2.0016 0.9686
4.5324 6.2626 -2.0016 0.9686
3.9551 6.6423 -2.0016 0.9686
0.6920 7.6719 -1.9945 0.9687
0.0041 7.6997 -1.9936 0.9687
-0.6838 7.6726 -1.9944 0.9687
-1.3672 7.5864 -1.9959 0.9687
-2.0419 7.4438 -1.9985 0.9686
-2.7026 7.2428 -2.0016 0.9686
-3.3386 6.9726 -2.0016 0.9686
-3.9479 6.6465 -2.0016 0.9686
-4.5257 6.2674 -2.0016 0.9686
-5.0673 5.8382 -2.0016 0.9686
1.8384 6.8273 -2.0016 0.9710
1.2214 6.9642 -2.0016 0.9710
-0.0369 7.0704 -2.0016 0.9710
-3.6457 6.0581 -2.0016 0.9710
-4.6652 5.3129 -2.0016 0.9710
-5.1210 4.8751 -2.0016 0.9710
-6.2300 3.3434 -2.0016 0.9710
-6.5037 2.7737 -2.0016 0.9710
-6.7254 2.1818 -2.0016 0.9710
-7.0063 0.9506 -2.0016 0.9710
-7.0636 -0.3109 -2.0016 0.9710
-7.0077 -0.9404 -2.0016 0.9710
-6.8957 -1.5624 -2.0016 0.9710
-6.5078 -2.7642 -2.0016 0.9710
-6.2349 -3.3343 -2.0016 0.9710
-5.9122 -3.8778 -2.0016 0.9710
-5.5423 -4.3902 -2.0016 0.9710
-4.6730 -5.3061 -2.0016 0.9710
-3.6546 -6.0528 -2.0016 0.9710
-2.5196 -6.6063 -2.0016 0.9710
-1.9195 -6.8049 -2.0016 0.9710
-1.3042 -6.9492 -2.0016 0.9710
-0.6784 -7.0378 -2.0016 0.9710
-0.0472 -7.0703 -2.0016 0.9710
0.5844 -7.0463 -2.0016 0.9710
1.2113 -6.9659 -2.0016 0.9710
1.8285 -6.8300 -2.0016 0.9710
2.4311 -6.6394 -2.0016 0.9710
3.0143 -6.3958 -2.0016 0.9710
4.6017 -5.3681 -2.0016 0.9710
5.0627 -4.9357 -2.0016 0.9710
5.4832 -4.4638 -2.0016 0.9710
5.8599 -3.9564 -2.0016 0.9710
6.1898 -3.4173 -2.0016 0.9710
6.4703 -2.8508 -2.0016 0.9710
6.6990 -2.2617 -2.0016 0.9710
6.8742 -1.6544 -2.0016 0.9710
6.9945 -1.0339 -2.0016 0.9710
7.0589 -0.4052 -2.0016 0.9710
7.0668 0.2268 -2.0016 0.9710
7.0184 0.8570 -2.0016 0.9710
6.9138 1.4803 -2.0016 0.9710
6.5402 2.6866 -2.0016 0.9710
5.9580 3.8071 -2.0016 0.9710
5.5942 4.3240 -2.0016 0.9710
5.1857 4.8063 -2.0016 0.9710
4.7358 5.2501 -2.0016 0.9710
3.7263 6.0088 -2.0016 0.9710
3.1748 6.3176 -2.0016 0.9710
2.0004 6.7816 -2.0016 0.9710
-1.1283 6.9799 -2.0016 0.9710
-2.3519 6.6678 -2.0016 0.9710
-2.9380 6.4312 -2.0016 0.9710
-4.5375 5.4224 -2.0016 0.9710
-5.0036 4.9955 -2.0016 0.9710
-5.4297 4.5288 -2.0016 0.9710
-6.1487 3.4906 -2.0016 0.9710
-6.6716 2.3412 -2.0016 0.9710
-6.8540 1.7361 -2.0016 0.9710
-7.0280 -0.7734 -2.0016 0.9710
-6.7784 -2.0113 -2.0016 0.9710
-6.5717 -2.6086 -2.0016 0.9710
-6.0028 -3.7360 -2.0016 0.9710
-5.2425 -4.7442 -2.0016 0.9710
-4.7979 -5.1934 -2.0016 0.9710
-3.7975 -5.9641 -2.0016 0.9710
-2.0809 -6.7573 -2.0016 0.9710
-1.4692 -6.9162 -2.0016 0.9710
1.0452 -6.9928 -2.0016 0.9710
1.6655 -6.8715 -2.0016 0.9710
3.9658 -5.8535 -2.0016 0.9710
4.4727 -5.4760 -2.0016 0.9710
4.9438 -5.0547 -2.0016 0.9710
5.3755 -4.5930 -2.0016 0.9710
5.7642 -4.0947 -2.0016 0.9710
6.1068 -3.5636 -2.0016 0.9710
6.4006 -3.0040 -2.0016 0.9710
6.6433 -2.4204 -2.0016 0.9710
6.8329 -1.8175 -2.0016 0.9710
7.0702 0.0586 -2.0016 0.9710
7.0368 0.6898 -2.0016 0.9710
6.9470 1.3154 -2.0016 0.9710
6.3499 3.1097 -2.0016 0.9710
6.0469 3.6643 -2.0016 0.9710
4.8593 5.1360 -2.0016 0.9710
4.3813 5.5494 -2.0016 0.9710
3.8682 5.9185 -2.0016 0.9710
2.7537 6.5122 -2.0016 0.9710
2.1611 6.7321 -2.0016 0.9710
0.2995 7.0641 -2.0016 0.9710
-0.3326 7.0626 -2.0016 0.9710
-2.1926 6.7219 -2.0016 0.9710
-3.3534 6.2247 -2.0016 0.9710
-4.4072 5.5288 -2.0016 0.9710
-6.3644 3.0799 -2.0016 0.9710
-6.6140 2.4993 -2.0016 0.9710
-6.8108 1.8986 -2.0016 0.9710
-6.9531 1.2828 -2.0016 0.9710
-7.0399 0.6568 -2.0016 0.9710
-7.0704 0.0255 -2.0016 0.9710
-6.9622 -1.2327 -2.0016 0.9710
-6.8243 -1.8494 -2.0016 0.9710
-6.3865 -3.0339 -2.0016 0.9710
-5.3539 -4.6182 -2.0016 0.9710
-4.9201 -5.0778 -2.0016 0.9710
-4.4470 -5.4969 -2.0016 0.9710
-3.3982 -6.2003 -2.0016 0.9710
-1.0124 -6.9976 -2.0016 0.9710
-0.3835 -7.0601 -2.0016 0.9710
0.2485 -7.0661 -2.0016 0.9710
0.8785 -7.0157 -2.0016 0.9710
1.5015 -6.9092 -2.0016 0.9710
3.2791 -6.2641 -2.0016 0.9710
3.8254 -5.9462 -2.0016 0.9710
4.3411 -5.5809 -2.0016 0.9710
4.8222 -5.1709 -2.0016 0.9710
5.2647 -4.7196 -2.0016 0.9710
5.6651 -4.2306 -2.0016 0.9710
6.9374 -1.3655 -2.0016 0.9710
7.0316 -0.7405 -2.0016 0.9710
6.9764 1.1497 -2.0016 0.9710
6.1323 3.5194 -2.0016 0.9710
4.9802 5.0189 -2.0016 0.9710
4.0079 5.8248 -2.0016 0.9710
3.4718 6.1594 -2.0016 0.9710
1.0956 6.9851 -2.0016 0.9710
-0.1644 7.0686 -2.0016 0.9710
-0.7950 7.0256 -2.0016 0.9710
-3.7544 5.9913 -2.0016 0.9710
-4.2745 5.6321 -2.0016 0.9710
-4.7603 5.2279 -2.0016 0.9710
-5.2082 4.7819 -2.0016 0.9710
-5.6144 4.2977 -2.0016 0.9710
-6.7637 2.0601 -2.0016 0.9710
-7.0223 0.8241 -2.0016 0.9710
-7.0678 0.1937 -2.0016 0.9710
-6.9895 -1.0667 -2.0016 0.9710
-6.6883 -2.2930 -2.0016 0.9710
-5.8413 -3.9838 -2.0016 0.9710
-5.4623 -4.4895 -2.0016 0.9710
-4.0769 -5.7767 -2.0016 0.9710
-2.9843 -6.4098 -2.0016 0.9710
-0.5513 -7.0489 -2.0016 0.9710
0.7114 -7.0346 -2.0016 0.9710
1.9514 -6.7959 -2.0016 0.9710
3.1292 -6.3403 -2.0016 0.9710
3.6829 -6.0356 -2.0016 0.9710
5.1509 -4.8435 -2.0016 0.9710
5.5628 -4.3642 -2.0016 0.9710
5.9303 -3.8500 -2.0016 0.9710
6.2505 -3.3050 -2.0016 0.9710
6.5206 -2.7337 -2.0016 0.9710
6.7387 -2.1405 -2.0016 0.9710
6.9029 -1.5301 -2.0016 0.9710
7.0616 0.3542 -2.0016 0.9710
7.0018 0.9834 -2.0016 0.9710
6.7151 2.2133 -2.0016 0.9710
5.8883 3.9140 -2.0016 0.9710
5.5153 4.4242 -2.0016 0.9710
4.6403 5.3347 -2.0016 0.9710
4.1454 5.7278 -2.0016 0.9710
3.0603 6.3738 -2.0016 0.9710
2.4789 6.6217 -2.0016 0.9710
0.6352 7.0419 -2.0016 0.9710
0.0038 7.0705 -2.0016 0.9710
-0.6276 7.0426 -2.0016 0.9710
-1.2540 6.9584 -2.0016 0.9710
-2.4718 6.6243 -2.0016 0.9710
-3.6108 6.0790 -2.0016 0.9710
-5.0929 4.9045 -2.0016 0.9710
1.6921 6.2838 -2.0016 0.9731
1.1242 6.4098 -2.0016 0.9731
-0.0340 6.5075 -2.0016 0.9731
-0.6150 6.4785 -2.0016 0.9731
-1.1910 6.3977 -2.0016 0.9731
-1.7576 6.2658 -2.0016 0.9731
-3.8400 5.2539 -2.0016 0.9731
-4.7134 4.4870 -2.0016 0.9731
-5.0952 4.0482 -2.0016 0.9731
-5.7341 3.0772 -2.0016 0.9731
-6.1900 2.0081 -2.0016 0.9731
-6.3446 1.4473 -2.0016 0.9731
-6.4485 0.8749 -2.0016 0.9731
-6.3467 -1.4381 -2.0016 0.9731
-5.9897 -2.5441 -2.0016 0.9731
-5.4416 -3.5690 -2.0016 0.9731
-5.1011 -4.0407 -2.0016 0.9731
-4.7199 -4.4801 -2.0016 0.9731
-3.8477 -5.2483 -2.0016 0.9731
-2.3190 -6.0804 -2.0016 0.9731
-1.7667 -6.2632 -2.0016 0.9731
-0.6244 -6.4776 -2.0016 0.9731
0.5378 -6.4853 -2.0016 0.9731
2.2376 -6.1108 -2.0016 0.9731
2.7743 -5.8866 -2.0016 0.9731
3.2889 -5.6153 -2.0016 0.9731
4.6597 -4.5428 -2.0016 0.9731
5.0467 -4.1085 -2.0016 0.9731
5.3934 -3.6414 -2.0016 0.9731
5.6971 -3.1452 -2.0016 0.9731
5.9552 -2.6239 -2.0016 0.9731
6.3270 -1.5227 -2.0016 0.9731
6.4377 -0.9516 -2.0016 0.9731
6.4969 -0.3729 -2.0016 0.9731
6.4596 0.7888 -2.0016 0.9731
6.0195 2.4727 -2.0016 0.9731
5.7747 3.0004 -2.0016 0.9731
5.4837 3.5041 -2.0016 0.9731
5.1488 3.9797 -2.0016 0.9731
4.7729 4.4237 -2.0016 0.9731
3.9098 5.2021 -2.0016 0.9731
3.4297 5.5305 -2.0016 0.9731
2.9221 5.8147 -2.0016 0.9731
2.3911 6.0524 -2.0016 0.9731
1.8411 6.2417 -2.0016 0.9731
0.7014 6.4697 -2.0016 0.9731
0.1209 6.5065 -2.0016 0.9731
-2.1647 6.1370 -2.0016 0.9731
-2.7041 5.9192 -2.0016 0.9731
-3.2219 5.6541 -2.0016 0.9731
-3.7139 5.3438 -2.0016 0.9731
-4.1763 4.9908 -2.0016 0.9731
-6.1405 2.1548 -2.0016 0.9731
-6.4259 1.0281 -2.0016 0.9731
-6.4920 0.4502 -2.0016 0.9731
-6.4686 -0.7119 -2.0016 0.9731
-6.3791 -1.2867 -2.0016 0.9731
-6.2388 -1.8512 -2.0016 0.9731
-5.5250 -3.4386 -2.0016 0.9731
-5.1958 -3.9182 -2.0016 0.9731
-4.8252 -4.3666 -2.0016 0.9731
-4.4160 -4.7800 -2.0016 0.9731
-3.9715 -5.1553 -2.0016 0.9731
-2.4630 -6.0235 -2.0016 0.9731
-1.9152 -6.2194 -2.0016 0.9731
-0.7783 -6.4609 -2.0016 0.9731
-0.1983 -6.5046 -2.0016 0.9731
0.3834 -6.4963 -2.0016 0.9731
3.6501 -5.3876 -2.0016 0.9731
4.1166 -5.0401 -2.0016 0.9731
4.5503 -4.6523 -2.0016 0.9731
5.3053 -3.7687 -2.0016 0.9731
6.2889 -1.6728 -2.0016 0.9731
6.4132 -1.1045 -2.0016 0.9731
6.5074 0.0539 -2.0016 0.9731
6.4766 0.6348 -2.0016 0.9731
6.2604 1.7768 -2.0016 0.9731
5.8444 2.8621 -2.0016 0.9731
4.8768 4.3088 -2.0016 0.9731
4.4725 4.7271 -2.0016 0.9731
4.0325 5.1076 -2.0016 0.9731
3.5603 5.4473 -2.0016 0.9731
2.5345 5.9938 -2.0016 0.9731
0.2756 6.5018 -2.0016 0.9731
-0.8853 6.4471 -2.0016 0.9731
-1.4575 6.3423 -2.0016 0.9731
-2.5625 5.9818 -2.0016 0.9731
-3.5858 5.4306 -2.0016 0.9731
-4.8969 4.2860 -2.0016 0.9731
-6.2686 1.7475 -2.0016 0.9731
-6.4795 0.6045 -2.0016 0.9731
-6.4837 -0.5578 -2.0016 0.9731
-6.4079 -1.1345 -2.0016 0.9731
-6.2810 -1.7022 -2.0016 0.9731
-5.8781 -2.7924 -2.0016 0.9731
-5.6052 -3.3062 -2.0016 0.9731
-4.9277 -4.2505 -2.0016 0.9731
-4.0930 -5.0593 -2.0016 0.9731
-3.6248 -5.4046 -2.0016 0.9731
-2.6056 -5.9632 -2.0016 0.9731
-2.0627 -6.1721 -2.0016 0.9731
-1.5033 -6.3316 -2.0016 0.9731
-0.9318 -6.4406 -2.0016 0.9731
-0.3530 -6.4980 -2.0016 0.9731
1.3820 -6.3592 -2.0016 0.9731
3.5209 -5.4729 -2.0016 0.9731
4.4383 -4.7593 -2.0016 0.9731
5.2141 -3.8938 -2.0016 0.9731
5.5410 -3.4127 -2.0016 0.9731
5.8236 -2.9042 -2.0016 0.9731
6.0597 -2.3726 -2.0016 0.9731
6.2474 -1.8219 -2.0016 0.9731
6.3851 -1.2568 -2.0016 0.9731
6.4210 1.0582 -2.0016 0.9731
6.3008 1.6274 -2.0016 0.9731
6.1303 2.1835 -2.0016 0.9731
5.6441 3.2392 -2.0016 0.9731
5.3323 3.7303 -2.0016 0.9731
4.9779 4.1916 -2.0016 0.9731
4.5837 4.6194 -2.0016 0.9731
4.1529 5.0103 -2.0016 0.9731
2.6764 5.9318 -2.0016 0.9731
-0.7317 6.4663 -2.0016 0.9731
-1.8703 6.2330 -2.0016 0.9731
-3.4555 5.5144 -2.0016 0.9731
-4.3814 4.8117 -2.0016 0.9731
-4.7936 4.4012 -2.0016 0.9731
-5.5000 3.4783 -2.0016 0.9731
-5.7887 2.9733 -2.0016 0.9731
-6.3697 1.3326 -2.0016 0.9731
-6.4633 0.7585 -2.0016 0.9731
-6.5052 0.1783 -2.0016 0.9731
-6.4951 -0.4033 -2.0016 0.9731
-6.1559 -2.1105 -2.0016 0.9731
-5.9428 -2.6518 -2.0016 0.9731
-5.6823 -3.1719 -2.0016 0.9731
-5.0274 -4.1321 -2.0016 0.9731
-4.2122 -4.9605 -2.0016 0.9731
-3.7524 -5.3168 -2.0016 0.9731
-3.2626 -5.6307 -2.0016 0.9731
0.0739 -6.5072 -2.0016 0.9731
1.2303 -6.3903 -2.0016 0.9731
1.7961 -6.2549 -2.0016 0.9731
4.3238 -4.8635 -2.0016 0.9731
4.7408 -4.4580 -2.0016 0.9731
5.7529 -3.0419 -2.0016 0.9731
6.0015 -2.5161 -2.0016 0.9731
6.2023 -1.9701 -2.0016 0.9731
6.3534 -1.4083 -2.0016 0.9731
6.4538 -0.8353 -2.0016 0.9731
6.4994 0.3260 -2.0016 0.9731
6.3378 1.4770 -2.0016 0.9731
6.1806 2.0371 -2.0016 0.9731
5.9740 2.5809 -2.0016 0.9731
5.7196 3.1040 -2.0016 0.9731
5.4196 3.6024 -2.0016 0.9731
5.0762 4.0720 -2.0016 0.9731
4.6923 4.5090 -2.0016 0.9731
3.8154 5.2718 -2.0016 0.9731
1.7282 6.2739 -2.0016 0.9731
1.1611 6.4032 -2.0016 0.9731
0.5846 6.4813 -2.0016 0.9731
0.0035 6.5076 -2.0016 0.9731
-0.5777 6.4819 -2.0016 0.9731
-1.7215 6.2758 -2.0016 0.9731
-2.2751 6.0970 -2.0016 0.9731
-3.3234 5.5950 -2.0016 0.9731
1.5657 5.8144 -2.0016 0.9749
-0.0314 6.0215 -2.0016 0.9749
-0.5690 5.9946 -2.0016 0.9749
-1.6263 5.7978 -2.0016 0.9749
-2.1376 5.6294 -2.0016 0.9749
-3.1049 5.1594 -2.0016 0.9749
-3.9731 4.5247 -2.0016 0.9749
-4.3613 4.1519 -2.0016 0.9749
-5.5389 2.3622 -2.0016 0.9749
-5.7277 1.8581 -2.0016 0.9749
-5.8708 1.3392 -2.0016 0.9749
-5.9681 -0.8009 -2.0016 0.9749
-5.8727 -1.3307 -2.0016 0.9749
-4.7201 -3.7389 -2.0016 0.9749
-4.3674 -4.1455 -2.0016 0.9749
-3.9797 -4.5190 -2.0016 0.9749
-3.1124 -5.1548 -2.0016 0.9749
-2.6396 -5.4122 -2.0016 0.9749
-2.1458 -5.6263 -2.0016 0.9749
-1.6348 -5.7954 -2.0016 0.9749
-1.1107 -5.9182 -2.0016 0.9749
-0.5778 -5.9938 -2.0016 0.9749
-0.0402 -6.0214 -2.0016 0.9749
1.0316 -5.9325 -2.0016 0.9749
1.5572 -5.8167 -2.0016 0.9749
2.0705 -5.6544 -2.0016 0.9749
2.5671 -5.4469 -2.0016 0.9749
3.0433 -5.1959 -2.0016 0.9749
4.9906 -3.3694 -2.0016 0.9749
5.2716 -2.9103 -2.0016 0.9749
5.8544 -1.4090 -2.0016 0.9749
5.9568 -0.8805 -2.0016 0.9749
5.9772 0.7298 -2.0016 0.9749
5.8881 1.2607 -2.0016 0.9749
5.0741 3.2424 -2.0016 0.9749
4.7643 3.6825 -2.0016 0.9749
4.4164 4.0933 -2.0016 0.9749
4.0332 4.4713 -2.0016 0.9749
3.1735 5.1174 -2.0016 0.9749
2.7038 5.3804 -2.0016 0.9749
2.2126 5.6003 -2.0016 0.9749
1.7036 5.7755 -2.0016 0.9749
1.1810 5.9046 -2.0016 0.9749
0.6490 5.9865 -2.0016 0.9749
-0.9609 5.9444 -2.0016 0.9749
-2.9813 5.2318 -2.0016 0.9749
-3.8644 4.6180 -2.0016 0.9749
-4.9502 3.4286 -2.0016 0.9749
-6.0203 -0.1215 -2.0016 0.9749
-5.9027 -1.1906 -2.0016 0.9749
-5.1123 -3.1818 -2.0016 0.9749
-4.4648 -4.0404 -2.0016 0.9749
-3.6748 -4.7702 -2.0016 0.9749
-3.2342 -5.0793 -2.0016 0.9749
-1.7722 -5.7549 -2.0016 0.9749
-0.1835 -6.0188 -2.0016 0.9749
0.3548 -6.0111 -2.0016 0.9749
0.8901 -5.9554 -2.0016 0.9749
1.9353 -5.7021 -2.0016 0.9749
2.4368 -5.5065 -2.0016 0.9749
4.9090 -3.4872 -2.0016 0.9749
5.2008 -3.0349 -2.0016 0.9749
5.4511 -2.5583 -2.0016 0.9749
5.9342 -1.0220 -2.0016 0.9749
6.0018 -0.4880 -2.0016 0.9749
5.7928 1.6441 -2.0016 0.9749
5.6228 2.1548 -2.0016 0.9749
5.4079 2.6484 -2.0016 0.9749
4.8506 3.5681 -2.0016 0.9749
4.5125 3.9870 -2.0016 0.9749
4.1385 4.3741 -2.0016 0.9749
3.7313 4.7262 -2.0016 0.9749
2.8311 5.3145 -2.0016 0.9749
2.3452 5.5461 -2.0016 0.9749
1.3212 5.8748 -2.0016 0.9749
-0.2832 6.0149 -2.0016 0.9749
-0.8192 5.9656 -2.0016 0.9749
-1.8674 5.7247 -2.0016 0.9749
-2.3711 5.5351 -2.0016 0.9749
-3.7534 4.7086 -2.0016 0.9749
-4.5311 3.9658 -2.0016 0.9749
-5.1644 3.0966 -2.0016 0.9749
-5.6328 2.1285 -2.0016 0.9749
-5.8119 -1.5751 -2.0016 0.9749
-4.5596 -3.9331 -2.0016 0.9749
-4.1902 -4.3245 -2.0016 0.9749
-3.7873 -4.6814 -2.0016 0.9749
-2.8941 -5.2805 -2.0016 0.9749
1.2788 -5.8842 -2.0016 0.9749
2.3051 -5.5629 -2.0016 0.9749
2.7927 -5.3348 -2.0016 0.9749
3.2579 -5.0641 -2.0016 0.9749
4.1068 -4.4038 -2.0016 0.9749
4.8247 -3.6030 -2.0016 0.9749
5.6071 -2.1954 -2.0016 0.9749
5.7808 -1.6859 -2.0016 0.9749
5.9082 -1.1629 -2.0016 0.9749
5.9884 -0.6307 -2.0016 0.9749
6.0208 -0.0934 -2.0016 0.9749
6.0051 0.4447 -2.0016 0.9749
5.9414 0.9792 -2.0016 0.9749
5.8302 1.5058 -2.0016 0.9749
5.6725 2.0205 -2.0016 0.9749
3.8427 4.6361 -2.0016 0.9749
3.4133 4.9607 -2.0016 0.9749
2.9567 5.2457 -2.0016 0.9749
1.9764 5.6880 -2.0016 0.9749
1.4606 5.8417 -2.0016 0.9749
0.9331 5.9488 -2.0016 0.9749
0.3981 6.0084 -2.0016 0.9749
-0.6771 5.9834 -2.0016 0.9749
-3.1974 5.1025 -2.0016 0.9749
-3.6403 4.7966 -2.0016 0.9749
-4.7815 3.6601 -2.0016 0.9749
-5.8939 1.2331 -2.0016 0.9749
-5.9805 0.7018 -2.0016 0.9749
-6.0193 0.1650 -2.0016 0.9749
-6.0100 -0.3732 -2.0016 0.9749
-5.9527 -0.9084 -2.0016 0.9749
-5.4990 -2.4537 -2.0016 0.9749
-5.2579 -2.9350 -2.0016 0.9749
-4.9748 -3.3928 -2.0016 0.9749
-4.6519 -3.8235 -2.0016 0.9749
-4.2919 -4.2236 -2.0016 0.9749
-3.8976 -4.5900 -2.0016 0.9749
-3.0189 -5.2101 -2.0016 0.9749
-2.5416 -5.4589 -2.0016 0.9749
-2.0439 -5.6641 -2.0016 0.9749
-1.5300 -5.8240 -2.0016 0.9749
-1.0038 -5.9373 -2.0016 0.9749
0.6058 -5.9910 -2.0016 0.9749
1.6619 -5.7877 -2.0016 0.9749
2.1721 -5.6161 -2.0016 0.9749
4.3868 -4.1250 -2.0016 0.9749
4.7376 -3.7168 -2.0016 0.9749
5.0506 -3.2789 -2.0016 0.9749
5.7390 -1.8229 -2.0016 0.9749
6.0169 -0.2366 -2.0016 0.9749
6.0140 0.3017 -2.0016 0.9749
5.7190 1.8849 -2.0016 0.9749
5.5278 2.3881 -2.0016 0.9749
4.6971 3.7678 -2.0016 0.9749
4.3418 4.1722 -2.0016 0.9749
3.0807 5.1738 -2.0016 0.9749
2.6063 5.4283 -2.0016 0.9749
0.5409 5.9972 -2.0016 0.9749
0.0032 6.0216 -2.0016 0.9749
-2.1051 5.6416 -2.0016 0.9749
-3.0751 5.1771 -2.0016 0.9749
-3.5252 4.8818 -2.0016 0.9749
0.9669 5.5131 -2.0016 0.9765
-0.5289 5.5722 -2.0016 0.9765
-1.0244 5.5027 -2.0016 0.9765
-2.4463 5.0343 -2.0016 0.9765
-3.3028 4.5189 -2.0016 0.9765
-3.6931 4.2059 -2.0016 0.9765
-4.0540 3.8593 -2.0016 0.9765
-4.3824 3.4818 -2.0016 0.9765
-4.6758 3.0766 -2.0016 0.9765
-5.3241 1.7272 -2.0016 0.9765
-5.4570 1.2448 -2.0016 0.9765
-5.5464 0.7525 -2.0016 0.9765
-5.5914 0.2542 -2.0016 0.9765
-5.5918 -0.2461 -2.0016 0.9765
-5.5475 -0.7445 -2.0016 0.9765
-5.3266 -1.7194 -2.0016 0.9765
-5.1517 -2.1882 -2.0016 0.9765
-4.9358 -2.6395 -2.0016 0.9765
-4.0596 -3.8534 -2.0016 0.9765
-3.3094 -4.5141 -2.0016 0.9765
-2.8931 -4.7915 -2.0016 0.9765
-1.0324 -5.5012 -2.0016 0.9765
-0.5371 -5.5714 -2.0016 0.9765
0.4626 -5.5781 -2.0016 0.9765
0.9589 -5.5145 -2.0016 0.9765
3.2488 -4.5579 -2.0016 0.9765
4.0078 -3.9072 -2.0016 0.9765
4.3407 -3.5337 -2.0016 0.9765
5.1221 -2.2568 -2.0016 0.9765
5.3031 -1.7904 -2.0016 0.9765
5.4418 -1.3097 -2.0016 0.9765
5.5370 -0.8185 -2.0016 0.9765
5.5880 -0.3207 -2.0016 0.9765
5.5943 0.1796 -2.0016 0.9765
5.5559 0.6784 -2.0016 0.9765
5.4732 1.1719 -2.0016 0.9765
5.3466 1.6559 -2.0016 0.9765
5.1774 2.1268 -2.0016 0.9765
4.1052 3.8048 -2.0016 0.9765
3.3629 4.4744 -2.0016 0.9765
2.9499 4.7568 -2.0016 0.9765
2.5133 5.0012 -2.0016 0.9765
2.0566 5.2057 -2.0016 0.9765
0.6033 5.5646 -2.0016 0.9765
0.1040 5.5962 -2.0016 0.9765
-0.3962 5.5832 -2.0016 0.9765
-0.8932 5.5255 -2.0016 0.9765
-1.3831 5.4236 -2.0016 0.9765
-1.8619 5.2785 -2.0016 0.9765
-3.1944 4.5962 -2.0016 0.9765
-3.9610 3.9546 -2.0016 0.9765
-4.2983 3.5851 -2.0016 0.9765
-4.6013 3.1869 -2.0016 0.9765
-4.8675 2.7633 -2.0016 0.9765
-5.0948 2.3176 -2.0016 0.9765
-5.4259 1.3743 -2.0016 0.9765
-5.5269 0.8843 -2.0016 0.9765
-5.5838 0.3872 -2.0016 0.9765
-5.5961 -0.1130 -2.0016 0.9765
-5.5636 -0.6123 -2.0016 0.9765
-5.4867 -1.1067 -2.0016 0.9765
-5.3660 -1.5922 -2.0016 0.9765
-4.9971 -2.5213 -2.0016 0.9765
-4.4689 -3.3701 -2.0016 0.9765
-4.1501 -3.7557 -2.0016 0.9765
-3.7982 -4.1113 -2.0016 0.9765
-2.5726 -4.9710 -2.0016 0.9765
-1.1630 -5.4750 -2.0016 0.9765
0.8274 -5.5357 -2.0016 0.9765
1.3184 -5.4397 -2.0016 0.9765
1.7989 -5.3002 -2.0016 0.9765
2.7131 -4.8957 -2.0016 0.9765
3.1395 -4.6338 -2.0016 0.9765
3.9137 -4.0015 -2.0016 0.9765
4.2554 -3.6360 -2.0016 0.9765
5.0669 -2.3780 -2.0016 0.9765
5.2590 -1.9161 -2.0016 0.9765
5.4091 -1.4388 -2.0016 0.9765
5.5160 -0.9500 -2.0016 0.9765
5.5788 -0.4536 -2.0016 0.9765
5.5970 0.0464 -2.0016 0.9765
5.5705 0.5460 -2.0016 0.9765
5.3845 1.5282 -2.0016 0.9765
5.2266 2.0030 -2.0016 0.9765
5.0268 2.4617 -2.0016 0.9765
4.7869 2.9008 -2.0016 0.9765
4.5087 3.3167 -2.0016 0.9765
3.0622 4.6853 -2.0016 0.9765
2.6316 4.9400 -2.0016 0.9765
1.7108 5.3293 -2.0016 0.9765
1.2281 5.4608 -2.0016 0.9765
-0.7615 5.5452 -2.0016 0.9765
-1.7358 5.3213 -2.0016 0.9765
-2.6547 4.9276 -2.0016 0.9765
-3.0841 4.6709 -2.0016 0.9765
-4.5242 3.2955 -2.0016 0.9765
-4.8004 2.8783 -2.0016 0.9765
-5.3916 1.5030 -2.0016 0.9765
-5.5043 1.0155 -2.0016 0.9765
-5.5972 0.0202 -2.0016 0.9765
-5.5766 -0.4797 -2.0016 0.9765
-5.4023 -1.4641 -2.0016 0.9765
-4.8210 -2.8436 -2.0016 0.9765
-0.8015 -5.5395 -2.0016 0.9765
0.1967 -5.5938 -2.0016 0.9765
0.6955 -5.5538 -2.0016 0.9765
2.1427 -5.1709 -2.0016 0.9765
2.5959 -4.9589 -2.0016 0.9765
3.8174 -4.0934 -2.0016 0.9765
4.1677 -3.7362 -2.0016 0.9765
5.2120 -2.0406 -2.0016 0.9765
5.3734 -1.5671 -2.0016 0.9765
5.5664 -0.5862 -2.0016 0.9765
5.5965 -0.0868 -2.0016 0.9765
5.5819 0.4133 -2.0016 0.9765
5.2727 1.8781 -2.0016 0.9765
4.5863 3.2085 -2.0016 0.9765
3.9424 3.9731 -2.0016 0.9765
2.7483 4.8760 -2.0016 0.9765
1.8371 5.2871 -2.0016 0.9765
0.8673 5.5296 -2.0016 0.9765
0.3700 5.5850 -2.0016 0.9765
-2.0810 5.1960 -2.0016 0.9765
-3.7684 4.1386 -2.0016 0.9765
-4.4445 3.4022 -2.0016 0.9765
-4.7306 2.9917 -2.0016 0.9765
-5.1873 2.1025 -2.0016 0.9765
-5.3543 1.6309 -2.0016 0.9765
-5.5591 0.6524 -2.0016 0.9765
-5.5951 0.1533 -2.0016 0.9765
-5.5332 -0.8444 -2.0016 0.9765
-5.4356 -1.3352 -2.0016 0.9765
-5.2947 -1.8152 -2.0016 0.9765
-4.6242 -3.1537 -2.0016 0.9765
-2.8062 -4.8430 -2.0016 0.9765
-1.8999 -5.2649 -2.0016 0.9765
-0.4365 -5.5802 -2.0016 0.9765
0.0636 -5.5968 -2.0016 0.9765
1.0582 -5.4963 -2.0016 0.9765
2.0190 -5.2204 -2.0016 0.9765
2.4772 -5.0192 -2.0016 0.9765
4.6947 -3.0478 -2.0016 0.9765
4.9481 -2.6164 -2.0016 0.9765
5.1619 -2.1641 -2.0016 0.9765
5.3346 -1.6945 -2.0016 0.9765
5.5509 -0.7185 -2.0016 0.9765
5.5929 -0.2199 -2.0016 0.9765
5.5902 0.2804 -2.0016 0.9765
5.5428 0.7785 -2.0016 0.9765
4.9194 2.6698 -2.0016 0.9765
3.6734 4.2231 -2.0016 0.9765
3.2816 4.5343 -2.0016 0.9765
2.4227 5.0457 -2.0016 0.9765
0.9986 5.5074 -2.0016 0.9765
0.5028 5.5746 -2.0016 0.9765
-1.4807 5.3978 -2.0016 0.9765
-1.9568 5.2440 -2.0016 0.9765
-2.8584 4.8123 -2.0016 0.9765
-3.2767 4.5378 -2.0016 0.9765
1.3581 5.0435 -2.0016 0.9779
0.9023 5.1446 -2.0016 0.9779
-0.4936 5.1998 -2.0016 0.9779
-0.9559 5.1349 -2.0016 0.9779
-1.4107 5.0290 -2.0016 0.9779
-2.6932 4.4753 -2.0016 0.9779
-3.0821 4.2169 -2.0016 0.9779
-3.4463 3.9248 -2.0016 0.9779
-3.7830 3.6014 -2.0016 0.9779
-4.0895 3.2491 -2.0016 0.9779
-4.8045 2.0490 -2.0016 0.9779
-5.2177 0.2373 -2.0016 0.9779
-5.0940 -1.1542 -2.0016 0.9779
-4.8074 -2.0420 -2.0016 0.9779
-4.0943 -3.2432 -2.0016 0.9779
-3.4520 -3.9198 -2.0016 0.9779
-3.0882 -4.2124 -2.0016 0.9779
-2.2896 -4.6946 -2.0016 0.9779
-1.8612 -4.8803 -2.0016 0.9779
-0.9634 -5.1335 -2.0016 0.9779
-0.5012 -5.1990 -2.0016 0.9779
-0.0349 -5.2230 -2.0016 0.9779
2.2267 -4.7247 -2.0016 0.9779
2.6398 -4.5070 -2.0016 0.9779
3.0317 -4.2532 -2.0016 0.9779
3.7399 -3.6461 -2.0016 0.9779
4.5726 -2.5244 -2.0016 0.9779
4.7798 -2.1060 -2.0016 0.9779
4.9487 -1.6708 -2.0016 0.9779
5.0781 -1.2221 -2.0016 0.9779
5.1670 -0.7638 -2.0016 0.9779
5.2146 -0.2993 -2.0016 0.9779
5.2204 0.1675 -2.0016 0.9779
5.1846 0.6331 -2.0016 0.9779
5.1074 1.0935 -2.0016 0.9779
4.9893 1.5453 -2.0016 0.9779
4.8314 1.9846 -2.0016 0.9779
4.6349 2.4082 -2.0016 0.9779
4.4013 2.8124 -2.0016 0.9779
3.8308 3.5505 -2.0016 0.9779
2.3453 4.6670 -2.0016 0.9779
1.9192 4.8578 -2.0016 0.9779
0.5630 5.1927 -2.0016 0.9779
-0.8335 5.1562 -2.0016 0.9779
-1.2906 5.0612 -2.0016 0.9779
-1.7375 4.9257 -2.0016 0.9779
-2.1704 4.7509 -2.0016 0.9779
-2.5860 4.5381 -2.0016 0.9779
-2.9809 4.2890 -2.0016 0.9779
-3.3520 4.0057 -2.0016 0.9779
-3.6963 3.6903 -2.0016 0.9779
-4.2938 2.9740 -2.0016 0.9779
-4.5422 2.5786 -2.0016 0.9779
-4.9285 1.7295 -2.0016 0.9779
-5.0632 1.2825 -2.0016 0.9779
-5.1575 0.8252 -2.0016 0.9779
-5.2221 -0.1054 -2.0016 0.9779
-5.0074 -1.4858 -2.0016 0.9779
-4.8547 -1.9270 -2.0016 0.9779
-3.5443 -3.8365 -2.0016 0.9779
-2.4007 -4.6387 -2.0016 0.9779
-1.5372 -4.9918 -2.0016 0.9779
-0.1591 -5.2207 -2.0016 0.9779
0.3077 -5.2141 -2.0016 0.9779
0.7721 -5.1658 -2.0016 0.9779
1.6787 -4.9460 -2.0016 0.9779
3.6521 -3.7341 -2.0016 0.9779
3.9710 -3.3930 -2.0016 0.9779
4.5112 -2.6325 -2.0016 0.9779
4.9076 -1.7880 -2.0016 0.9779
5.2060 -0.4233 -2.0016 0.9779
5.2230 0.0433 -2.0016 0.9779
5.1982 0.5095 -2.0016 0.9779
4.6909 2.2972 -2.0016 0.9779
4.4670 2.7069 -2.0016 0.9779
3.9142 3.4584 -2.0016 0.9779
3.5897 3.7941 -2.0016 0.9779
2.8575 4.3721 -2.0016 0.9779
2.4557 4.6099 -2.0016 0.9779
-0.7106 5.1746 -2.0016 0.9779
-1.6198 4.9656 -2.0016 0.9779
-2.4773 4.5983 -2.0016 0.9779
-3.6075 3.7772 -2.0016 0.9779
-3.9303 3.4400 -2.0016 0.9779
-4.4796 2.6860 -2.0016 0.9779
-4.7015 2.2752 -2.0016 0.9779
-4.8859 1.8463 -2.0016 0.9779
-5.1364 0.9477 -2.0016 0.9779
-5.2039 -0.4477 -2.0016 0.9779
-5.0413 -1.3662 -2.0016 0.9779
-4.7178 -2.2412 -2.0016 0.9779
-4.4988 -2.6536 -2.0016 0.9779
-4.2439 -3.0447 -2.0016 0.9779
-3.9551 -3.4116 -2.0016 0.9779
-3.6346 -3.7511 -2.0016 0.9779
-2.5104 -4.5803 -2.0016 0.9779
-2.0913 -4.7862 -2.0016 0.9779
-1.6555 -4.9538 -2.0016 0.9779
0.6490 -5.1827 -2.0016 0.9779
1.1092 -5.1040 -2.0016 0.9779
1.9995 -4.8253 -2.0016 0.9779
4.1850 -3.1253 -2.0016 0.9779
4.4473 -2.7391 -2.0016 0.9779
4.6742 -2.3310 -2.0016 0.9779
4.8636 -1.9043 -2.0016 0.9779
5.0143 -1.4623 -2.0016 0.9779
5.1248 -1.0087 -2.0016 0.9779
5.2225 -0.0810 -2.0016 0.9779
5.1536 0.8493 -2.0016 0.9779
5.0572 1.3062 -2.0016 0.9779
4.9203 1.7526 -2.0016 0.9779
4.7442 2.1849 -2.0016 0.9779
4.2798 2.9940 -2.0016 0.9779
3.6790 3.7076 -2.0016 0.9779
3.3332 4.0213 -2.0016 0.9779
2.9608 4.3029 -2.0016 0.9779
2.5647 4.5501 -2.0016 0.9779
1.7144 4.9338 -2.0016 0.9779
0.8094 5.1600 -2.0016 0.9779
-0.1215 5.2217 -2.0016 0.9779
-1.0484 5.1168 -2.0016 0.9779
-1.5012 5.0028 -2.0016 0.9779
-1.9419 4.8487 -2.0016 0.9779
-2.7735 4.4259 -2.0016 0.9779
-3.1576 4.1606 -2.0016 0.9779
-4.1475 3.1748 -2.0016 0.9779
-4.4144 2.7918 -2.0016 0.9779
-4.6461 2.3864 -2.0016 0.9779
-4.8406 1.9620 -2.0016 0.9779
-4.9965 1.5219 -2.0016 0.9779
-5.1124 1.0696 -2.0016 0.9779
-5.0724 -1.2459 -2.0016 0.9779
-4.9408 -1.6939 -2.0016 0.9779
-4.0351 -3.3165 -2.0016 0.9779
-3.7228 -3.6636 -2.0016 0.9779
-3.0117 -4.2674 -2.0016 0.9779
-2.2046 -4.7351 -2.0016 0.9779
-1.7729 -4.9130 -2.0016 0.9779
0.0593 -5.2228 -2.0016 0.9779
0.5255 -5.1966 -2.0016 0.9779
1.4415 -5.0203 -2.0016 0.9779
2.3116 -4.6838 -2.0016 0.9779
2.7206 -4.4586 -2.0016 0.9779
3.1079 -4.1979 -2.0016 0.9779
3.4704 -3.9036 -2.0016 0.9779
3.8051 -3.5781 -2.0016 0.9779
4.1094 -3.2240 -2.0016 0.9779
4.6174 -2.4415 -2.0016 0.9779
4.8170 -2.0194 -2.0016 0.9779
4.9780 -1.5812 -2.0016 0.9779
5.1799 -0.6704 -2.0016 0.9779
5.2191 -0.2052 -2.0016 0.9779
5.1724 0.7265 -2.0016 0.9779
5.0868 1.1855 -2.0016 0.9779
4.9606 1.6350 -2.0016 0.9779
4.7948 2.0715 -2.0016 0.9779
4.5907 2.4914 -2.0016 0.9779
4.3499 2.8914 -2.0016 0.9779
4.0743 3.2683 -2.0016 0.9779
3.7661 3.6190 -2.0016 0.9779
3.4279 3.9409 -2.0016 0.9779
3.0623 4.2313 -2.0016 0.9779
2.2608 4.7085 -2.0016 0.9779
1.8312 4.8916 -2.0016 0.9779
1.3871 5.0356 -2.0016 0.9779
0.9319 5.1393 -2.0016 0.9779
-0.4637 5.2025 -2.0016 0.9779
-0.9264 5.1403 -2.0016 0.9779
-1.3817 5.0371 -2.0016 0.9779
-1.8260 4.8936 -2.0016 0.9779
-2.6674 4.4907 -2.0016 0.9779
-3.0578 4.2345 -2.0016 0.9779
-4.0708 3.2726 -2.0016 0.9779
1.2716 4.7224 -2.0016 0.9791
0.4113 4.8733 -2.0016 0.9791
-0.4621 4.8687 -2.0016 0.9791
-0.8951 4.8080 -2.0016 0.9791
-1.3209 4.7089 -2.0016 0.9791
-2.5217 4.1903 -2.0016 0.9791
-3.2269 3.6749 -2.0016 0.9791
-4.4986 1.9185 -2.0016 0.9791
-4.6519 1.5091 -2.0016 0.9791
-4.7681 1.0877 -2.0016 0.9791
-1.9488 0.2644 -0.8049 0.9915
-1.9369 -0.0852 -0.7935 0.9917
-1.9494 -0.2616 -0.8050 0.9915
-4.6541 -1.5024 -2.0016 0.9791
-4.5014 -1.9120 -2.0016 0.9791
-4.3127 -2.3063 -2.0016 0.9791
-3.2323 -3.6702 -2.0016 0.9791
-2.8916 -3.9442 -2.0016 0.9791
-2.5278 -4.1867 -2.0016 0.9791
-0.0326 -4.8905 -2.0016 0.9791
0.8378 -4.8183 -2.0016 0.9791
1.2648 -4.7242 -2.0016 0.9791
2.4717 -4.2200 -2.0016 0.9791
2.8387 -3.9825 -2.0016 0.9791
3.1830 -3.7131 -2.0016 0.9791
3.5018 -3.4140 -2.0016 0.9791
3.7927 -3.0876 -2.0016 0.9791
4.4754 -1.9719 -2.0016 0.9791
4.8881 0.1569 -2.0016 0.9791
4.8546 0.5928 -2.0016 0.9791
4.6717 1.4469 -2.0016 0.9791
4.1211 2.6334 -2.0016 0.9791
3.2757 3.6315 -2.0016 0.9791
2.9383 3.9095 -2.0016 0.9791
1.7970 4.5485 -2.0016 0.9791
0.9592 4.7956 -2.0016 0.9791
0.5271 4.8621 -2.0016 0.9791
-0.3462 4.8783 -2.0016 0.9791
-0.7804 4.8279 -2.0016 0.9791
-1.2085 4.7389 -2.0016 0.9791
-2.0322 4.4484 -2.0016 0.9791
-2.4213 4.2491 -2.0016 0.9791
-2.0373 0.3260 -0.8444 0.9911
-1.9565 -0.2153 -0.8056 0.9915
-4.6885 -1.3912 -2.0016 0.9791
-4.3663 -2.2030 -2.0016 0.9791
-4.1521 -2.5842 -2.0016 0.9791
-3.3187 -3.5923 -2.0016 0.9791
-2.9846 -3.8743 -2.0016 0.9791
-2.6267 -4.1253 -2.0016 0.9791
-2.2478 -4.3434 -2.0016 0.9791
-1.8510 -4.5268 -2.0016 0.9791
-1.0162 -4.7839 -2.0016 0.9791
-0.5849 -4.8555 -2.0016 0.9791
0.2881 -4.8821 -2.0016 0.9791
0.7230 -4.8369 -2.0016 0.9791
1.1520 -4.7530 -2.0016 0.9791
1.5718 -4.6311 -2.0016 0.9791
1.9791 -4.4723 -2.0016 0.9791
2.7431 -4.0489 -2.0016 0.9791
3.0937 -3.7877 -2.0016 0.9791
4.4273 -2.0778 -2.0016 0.9791
4.8197 -0.8300 -2.0016 0.9791
4.8904 0.0405 -2.0016 0.9791
4.8673 0.4771 -2.0016 0.9791
4.8052 0.9098 -2.0016 0.9791
4.7048 1.3353 -2.0016 0.9791
4.5667 1.7501 -2.0016 0.9791
4.3922 2.1509 -2.0016 0.9791
4.1826 2.5346 -2.0016 0.9791
3.9395 2.8980 -2.0016 0.9791
3.6650 3.2382 -2.0016 0.9791
3.0305 3.8385 -2.0016 0.9791
2.6756 4.0938 -2.0016 0.9791
1.9047 4.5045 -2.0016 0.9791
1.4948 4.6566 -2.0016 0.9791
0.6427 4.8482 -2.0016 0.9791
0.2071 4.8862 -2.0016 0.9791
-1.0954 4.7664 -2.0016 0.9791
-1.9258 4.4955 -2.0016 0.9791
-2.6948 4.0812 -2.0016 0.9791
-3.3778 3.5368 -2.0016 0.9791
-3.6801 3.2210 -2.0016 0.9791
-4.4022 2.1304 -2.0016 0.9791
-4.5749 1.7287 -2.0016 0.9791
-4.7110 1.3133 -2.0016 0.9791
-2.1868 0.4035 -0.9101 0.9904
-1.9579 0.1827 -0.8048 0.9915
-1.9576 -0.1684 -0.8042 0.9915
-4.7203 -1.2793 -2.0016 0.9791
-4.5872 -1.6957 -2.0016 0.9791
-4.4175 -2.0985 -2.0016 0.9791
-4.2124 -2.4846 -2.0016 0.9791
-3.7032 -3.1944 -2.0016 0.9791
-2.7241 -4.0617 -2.0016 0.9791
-1.9582 -4.4815 -2.0016 0.9791
-1.1297 -4.7583 -2.0016 0.9791
0.1719 -4.8876 -2.0016 0.9791
1.0386 -4.7790 -2.0016 0.9791
1.4612 -4.6672 -2.0016 0.9791
2.2682 -4.3328 -2.0016 0.9791
2.6460 -4.1130 -2.0016 0.9791
3.0027 -3.8603 -2.0016 0.9791
4.7985 -0.9445 -2.0016 0.9791
4.8900 -0.0758 -2.0016 0.9791
4.8255 0.7953 -2.0016 0.9791
4.0074 2.8034 -2.0016 0.9791
3.7410 3.1501 -2.0016 0.9791
3.1210 3.7653 -2.0016 0.9791
2.7723 4.0290 -2.0016 0.9791
2.4014 4.2604 -2.0016 0.9791
2.0113 4.4579 -2.0016 0.9791
1.6052 4.6197 -2.0016 0.9791
-0.1137 4.8893 -2.0016 0.9791
-0.5499 4.8596 -2.0016 0.9791
-0.9817 4.7911 -2.0016 0.9791
-1.8183 4.5400 -2.0016 0.9791
-2.5969 4.1442 -2.0016 0.9791
-2.9566 3.8957 -2.0016 0.9791
-3.2927 3.6161 -2.0016 0.9791
-3.6024 3.3076 -2.0016 0.9791
-3.8834 2.9727 -2.0016 0.9791
-4.1334 2.6140 -2.0016 0.9791
-4.3503 2.2345 -2.0016 0.9791
-4.5324 1.8371 -2.0016 0.9791
-4.6784 1.4250 -2.0016 0.9791
-4.7870 1.0015 -2.0016 0.9791
-1.9790 -0.3020 -0.8193 0.9914
-4.7494 -1.1666 -2.0016 0.9791
-4.6263 -1.5861 -2.0016 0.9791
-4.2703 -2.3837 -2.0016 0.9791
-3.4858 -3.4303 -2.0016 0.9791
-2.4519 -4.2316 -2.0016 0.9791
0.4921 -4.8658 -2.0016 0.9791
0.9246 -4.8024 -2.0016 0.9791
1.3498 -4.7006 -2.0016 0.9791
1.7642 -4.5613 -2.0016 0.9791
2.1644 -4.3856 -2.0016 0.9791
2.9100 -3.9306 -2.0016 0.9791
3.2494 -3.6550 -2.0016 0.9791
3.5628 -3.3503 -2.0016 0.9791
4.1020 -2.6630 -2.0016 0.9791
4.5103 -1.8909 -2.0016 0.9791
4.7747 -1.0584 -2.0016 0.9791
4.8868 -0.1921 -2.0016 0.9791
4.8431 0.6802 -2.0016 0.9791
4.2984 2.3328 -2.0016 0.9791
3.8149 3.0602 -2.0016 0.9791
3.2097 3.6900 -2.0016 0.9791
2.8673 3.9619 -2.0016 0.9791
2.5021 4.2021 -2.0016 0.9791
1.2988 4.7150 -2.0016 0.9791
0.8726 4.8121 -2.0016 0.9791
0.0026 4.8906 -2.0016 0.9791
-1.2938 4.7164 -2.0016 0.9791
-1.7098 4.5820 -2.0016 0.9791
-2.1121 4.4110 -2.0016 0.9791
-2.4976 4.2048 -2.0016 0.9791
-2.8631 3.9649 -2.0016 0.9791
-3.2057 3.6934 -2.0016 0.9791
-3.5227 3.3924 -2.0016 0.9791
-0.0240 4.5927 -2.0016 0.9802
-0.4340 4.5722 -2.0016 0.9802
-1.2404 4.4221 -2.0016 0.9802
-2.0073 4.1309 -2.0016 0.9802
-2.3682 3.9351 -2.0016 0.9802
-3.8367 2.5245 -2.0016 0.9802
-4.0468 2.1717 -2.0016 0.9802
-1.5844 0.5140 -0.7259 0.9928
-1.5177 0.2059 -0.6675 0.9933
-1.5292 0.0695 -0.6671 0.9933
-1.5291 -0.0673 -0.6670 0.9933
-1.5838 -0.5112 -0.7253 0.9928
-4.2272 -1.7955 -2.0016 0.9802
-3.0354 -3.4467 -2.0016 0.9802
-2.7155 -3.7040 -2.0016 0.9802
-2.3739 -3.9317 -2.0016 0.9802
-1.2469 -4.4203 -2.0016 0.9802
-0.8472 -4.5139 -2.0016 0.9802
-0.4407 -4.5716 -2.0016 0.9802
-0.0307 -4.5927 -2.0016 0.9802
0.3796 -4.5770 -2.0016 0.9802
0.7868 -4.5249 -2.0016 0.9802
1.1877 -4.4365 -2.0016 0.9802
2.6658 -3.7399 -2.0016 0.9802
3.2886 -3.2061 -2.0016 0.9802
3.5617 -2.8996 -2.0016 0.9802
3.8064 -2.5699 -2.0016 0.9802
4.3515 -1.4691 -2.0016 0.9802
4.4653 -1.0746 -2.0016 0.9802
4.5904 0.1473 -2.0016 0.9802
4.5589 0.5567 -2.0016 0.9802
4.4910 0.9616 -2.0016 0.9802
4.3872 1.3588 -2.0016 0.9802
4.0755 2.1175 -2.0016 0.9802
3.6338 2.8087 -2.0016 0.9802
3.3685 3.1220 -2.0016 0.9802
2.7594 3.6714 -2.0016 0.9802
2.4205 3.9032 -2.0016 0.9802
1.6876 4.2715 -2.0016 0.9802
0.9008 4.5036 -2.0016 0.9802
0.0853 4.5920 -2.0016 0.9802
-1.1349 4.4503 -2.0016 0.9802
-1.5278 4.3312 -2.0016 0.9802
-2.2739 3.9904 -2.0016 0.9802
-2.6211 3.7714 -2.0016 0.9802
-3.2502 3.2450 -2.0016 0.9802
-3.5270 2.9417 -2.0016 0.9802
-3.7756 2.6150 -2.0016 0.9802
-3.9940 2.2674 -2.0016 0.9802
-1.5932 0.5591 -0.7359 0.9927
-1.5091 0.2415 -0.6661 0.9934
-1.5294 0.1060 -0.6681 0.9933
-1.5244 -0.1678 -0.6684 0.9933
-1.5084 -0.3042 -0.6706 0.9933
-1.5722 -0.4665 -0.7147 0.9929
-4.2688 -1.6944 -2.0016 0.9802
-4.1004 -2.0689 -2.0016 0.9802
-3.6670 -2.7653 -2.0016 0.9802
-2.8028 -3.6383 -2.0016 0.9802
-2.4668 -3.8741 -2.0016 0.9802
-2.1109 -4.0789 -2.0016 0.9802
-1.7382 -4.2511 -2.0016 0.9802
-0.9543 -4.4925 -2.0016 0.9802
-0.1399 -4.5906 -2.0016 0.9802
1.0818 -4.4635 -2.0016 0.9802
1.4761 -4.3491 -2.0016 0.9802
1.8586 -4.1999 -2.0016 0.9802
4.1576 -1.9513 -2.0016 0.9802
4.3153 -1.5722 -2.0016 0.9802
4.4384 -1.1806 -2.0016 0.9802
4.5261 -0.7795 -2.0016 0.9802
4.5777 -0.3722 -2.0016 0.9802
4.4183 1.2540 -2.0016 0.9802
3.9279 2.3802 -2.0016 0.9802
3.6996 2.7215 -2.0016 0.9802
3.4418 3.0410 -2.0016 0.9802
3.1565 3.3362 -2.0016 0.9802
2.8459 3.6047 -2.0016 0.9802
2.5127 3.8445 -2.0016 0.9802
1.7887 4.2301 -2.0016 0.9802
1.4038 4.3730 -2.0016 0.9802
1.0077 4.4808 -2.0016 0.9802
0.6035 4.5529 -2.0016 0.9802
0.1945 4.5886 -2.0016 0.9802
-0.2160 4.5877 -2.0016 0.9802
-1.4243 4.3663 -2.0016 0.9802
-2.1783 4.0433 -2.0016 0.9802
-3.1721 3.3214 -2.0016 0.9802
-3.7123 2.7041 -2.0016 0.9802
-3.9389 2.3618 -2.0016 0.9802
-1.5627 0.4356 -0.7070 0.9929
-1.4982 0.2764 -0.6640 0.9934
-1.5282 -0.1315 -0.6685 0.9933
-1.5017 -0.2659 -0.6647 0.9934
-4.1484 -1.9707 -2.0016 0.9802
-3.9559 -2.3333 -2.0016 0.9802
-3.4777 -2.9998 -2.0016 0.9802
-2.8886 -3.5706 -2.0016 0.9802
-0.6576 -4.5454 -2.0016 0.9802
0.1614 -4.5899 -2.0016 0.9802
0.9753 -4.4880 -2.0016 0.9802
1.7582 -4.2429 -2.0016 0.9802
2.1300 -4.0690 -2.0016 0.9802
2.8199 -3.6252 -2.0016 0.9802
3.4198 -3.0657 -2.0016 0.9802
3.6799 -2.7481 -2.0016 0.9802
3.9106 -2.4085 -2.0016 0.9802
4.2766 -1.6744 -2.0016 0.9802
4.4091 -1.2858 -2.0016 0.9802
4.5675 -0.4810 -2.0016 0.9802
4.5802 0.3392 -2.0016 0.9802
4.5316 0.7468 -2.0016 0.9802
3.9834 2.2861 -2.0016 0.9802
2.6034 3.7836 -2.0016 0.9802
1.8888 4.1864 -2.0016 0.9802
1.5075 4.3383 -2.0016 0.9802
0.7117 4.5373 -2.0016 0.9802
-1.3200 4.3990 -2.0016 0.9802
-1.7075 4.2635 -2.0016 0.9802
-2.4388 3.8918 -2.0016 0.9802
-2.7765 3.6585 -2.0016 0.9802
-3.6469 2.7917 -2.0016 0.9802
-3.8816 2.4548 -2.0016 0.9802
-4.0854 2.0984 -2.0016 0.9802
-4.2564 1.7252 -2.0016 0.9802
-1.5147 0.3169 -0.6744 0.9933
-1.5227 0.1787 -0.6682 0.9933
-1.5274 0.0419 -0.6659 0.9934
-1.5296 -0.0950 -0.6679 0.9933
-1.5120 -0.2307 -0.6666 0.9933
-1.5421 -0.3788 -0.6921 0.9931
-4.1942 -1.8715 -2.0016 0.9802
-3.2735 -3.2214 -2.0016 0.9802
-2.6482 -3.7524 -2.0016 0.9802
-1.5589 -4.3201 -2.0016 0.9802
-1.1669 -4.4420 -2.0016 0.9802
-0.7656 -4.5285 -2.0016 0.9802
-0.3581 -4.5788 -2.0016 0.9802
0.0522 -4.5925 -2.0016 0.9802
0.8683 -4.5099 -2.0016 0.9802
1.6567 -4.2835 -2.0016 0.9802
2.0326 -4.1185 -2.0016 0.9802
2.3923 -3.9205 -2.0016 0.9802
2.7328 -3.6912 -2.0016 0.9802
3.0515 -3.4324 -2.0016 0.9802
3.3459 -3.1462 -2.0016 0.9802
4.0601 -2.1469 -2.0016 0.9802
4.2356 -1.7757 -2.0016 0.9802
4.3773 -1.3904 -2.0016 0.9802
4.5892 -0.1804 -2.0016 0.9802
4.5481 0.6388 -2.0016 0.9802
4.3619 1.4377 -2.0016 0.9802
4.0366 2.1907 -2.0016 0.9802
3.0142 3.4653 -2.0016 0.9802
2.6927 3.7206 -2.0016 0.9802
1.9879 4.1402 -2.0016 0.9802
0.0025 4.5928 -2.0016 0.9802
-2.3455 3.9487 -2.0016 0.9802
-3.0105 3.4685 -2.0016 0.9802
-3.3082 3.1858 -2.0016 0.9802
1.1244 4.1754 -2.0016 0.9811
0.7470 4.2592 -2.0016 0.9811
-0.4086 4.3048 -2.0016 0.9811
-0.7914 4.2511 -2.0016 0.9811
-1.1679 4.1635 -2.0016 0.9811
-1.8899 3.8893 -2.0016 0.9811
-2.2297 3.7050 -2.0016 0.9811
-2.5516 3.4911 -2.0016 0.9811
-2.8532 3.2493 -2.0016 0.9811
-3.3857 2.6899 -2.0016 0.9811
-3.6124 2.3768 -2.0016 0.9811
-3.8102 2.0447 -2.0016 0.9811
-1.3235 0.5645 -0.6660 0.9937
-1.3293 0.1804 -0.6210 0.9941
-1.3382 0.0608 -0.6201 0.9941
-1.3381 -0.0589 -0.6200 0.9941
-1.2997 -0.2945 -0.6169 0.9941
-1.3307 -0.4296 -0.6473 0.9939
-1.3240 -0.5623 -0.6658 0.9937
-3.8132 -2.0392 -2.0016 0.9811
-3.3896 -2.6850 -2.0016 0.9811
-3.1363 -2.9770 -2.0016 0.9811
-2.2351 -3.7018 -2.0016 0.9811
-0.7976 -4.2500 -2.0016 0.9811
0.3574 -4.3094 -2.0016 0.9811
0.7376 -4.2421 -1.9931 0.9812
1.1183 -4.1771 -2.0016 0.9811
2.8143 -3.2830 -2.0016 0.9811
3.3534 -2.7300 -2.0016 0.9811
4.2042 -1.0118 -2.0016 0.9811
4.2777 -0.6323 -2.0016 0.9811
4.3220 0.1387 -2.0016 0.9811
4.2923 0.5241 -2.0016 0.9811
3.9999 1.6431 -2.0016 0.9811
3.8372 1.9937 -2.0016 0.9811
3.6438 2.3284 -2.0016 0.9811
3.4213 2.6445 -2.0016 0.9811
2.8963 3.2109 -2.0016 0.9811
2.5980 3.4567 -2.0016 0.9811
2.2790 3.6749 -2.0016 0.9811
1.5889 4.0217 -2.0016 0.9811
1.2234 4.1475 -2.0016 0.9811
0.8481 4.2402 -2.0016 0.9811
0.4661 4.2990 -2.0016 0.9811
-0.6900 4.2688 -2.0016 0.9811
-1.0685 4.1901 -2.0016 0.9811
-2.1409 3.7570 -2.0016 0.9811
-2.4678 3.5508 -2.0016 0.9811
-3.0601 3.0552 -2.0016 0.9811
-3.5548 2.4621 -2.0016 0.9811
-3.7605 2.1348 -2.0016 0.9811
-1.3156 0.5985 -0.6690 0.9936
-1.3336 0.4680 -0.6542 0.9938
-1.3346 -0.1469 -0.6215 0.9941
-1.3249 -0.3931 -0.6397 0.9939
-1.3294 -0.5277 -0.6621 0.9937
-3.8606 -1.9479 -2.0016 0.9811
-3.4525 -2.6036 -2.0016 0.9811
-2.6389 -3.4256 -2.0016 0.9811
-2.3225 -3.6475 -2.0016 0.9811
-1.6366 -4.0025 -2.0016 0.9811
-1.2726 -4.1327 -2.0016 0.9811
-0.8985 -4.2298 -2.0016 0.9811
0.2548 -4.3167 -2.0016 0.9811
1.3898 -4.0948 -2.0016 0.9811
1.7499 -3.9543 -2.0016 0.9811
2.0960 -3.7822 -2.0016 0.9811
2.4254 -3.5799 -2.0016 0.9811
3.0236 -3.0914 -2.0016 0.9811
3.2876 -2.8090 -2.0016 0.9811
4.0629 -1.4803 -2.0016 0.9811
4.1789 -1.1115 -2.0016 0.9811
4.2615 -0.7339 -2.0016 0.9811
4.3100 -0.3504 -2.0016 0.9811
4.2487 0.8045 -2.0016 0.9811
4.1599 1.1807 -2.0016 0.9811
4.0378 1.5474 -2.0016 0.9811
3.8835 1.9018 -2.0016 0.9811
3.6982 2.2410 -2.0016 0.9811
3.4833 2.5623 -2.0016 0.9811
2.9719 3.1411 -2.0016 0.9811
2.6795 3.3939 -2.0016 0.9811
2.3657 3.6197 -2.0016 0.9811
2.0331 3.8165 -2.0016 0.9811
1.6841 3.9828 -2.0016 0.9811
1.3217 4.1172 -2.0016 0.9811
0.9488 4.2188 -2.0016 0.9811
0.5682 4.2867 -2.0016 0.9811
0.1831 4.3203 -2.0016 0.9811
-0.2034 4.3194 -2.0016 0.9811
-0.9685 4.2143 -2.0016 0.9811
-1.3410 4.1110 -2.0016 0.9811
-2.0509 3.8069 -2.0016 0.9811
-2.6954 3.3813 -2.0016 0.9811
-2.9866 3.1271 -2.0016 0.9811
-3.7086 2.2237 -2.0016 0.9811
-1.3197 0.3679 -0.6342 0.9940
-1.3145 0.2425 -0.6187 0.9941
-1.3371 0.1248 -0.6216 0.9941
-1.3378 -0.1151 -0.6215 0.9941
-1.3172 -0.3570 -0.6317 0.9940
-1.3327 -0.4926 -0.6577 0.9938
-3.2744 -2.8244 -2.0016 0.9811
-2.7197 -3.3618 -2.0016 0.9811
-2.4086 -3.5912 -2.0016 0.9811
-2.0783 -3.7920 -2.0016 0.9811
-1.7314 -3.9624 -2.0016 0.9811
-0.6192 -4.2796 -2.0016 0.9811
-0.2345 -4.3178 -2.0016 0.9811
0.1520 -4.3215 -2.0016 0.9811
0.5373 -4.2907 -2.0016 0.9811
0.9183 -4.2256 -2.0016 0.9811
2.6550 -3.4132 -2.0016 0.9811
3.2198 -2.8865 -2.0016 0.9811
3.4647 -2.5874 -2.0016 0.9811
4.1513 -1.2106 -2.0016 0.9811
4.3004 -0.4529 -2.0016 0.9811
4.3124 0.3193 -2.0016 0.9811
3.9277 1.8089 -2.0016 0.9811
3.7504 2.1524 -2.0016 0.9811
3.5432 2.4787 -2.0016 0.9811
3.0458 3.0695 -2.0016 0.9811
1.4193 4.0846 -2.0016 0.9811
-0.1006 4.3230 -2.0016 0.9811
-1.2428 4.1417 -2.0016 0.9811
-1.6077 4.0142 -2.0016 0.9811
-1.9597 3.8546 -2.0016 0.9811
-3.4337 2.6284 -2.0016 0.9811
-3.6547 2.3113 -2.0016 0.9811
-1.3048 0.2730 -0.6171 0.9941
-1.3333 0.1565 -0.6214 0.9941
-1.3385 -0.0831 -0.6208 0.9941
-1.3249 -0.2022 -0.6204 0.9941
-1.3079 -0.3213 -0.6234 0.9941
-3.3406 -2.7457 -2.0016 0.9811
-1.8251 -3.9201 -2.0016 0.9811
-0.7208 -4.2637 -2.0016 0.9811
-0.3372 -4.3110 -2.0016 0.9811
0.4351 -4.3022 -2.0016 0.9811
0.8119 -4.2171 -1.9879 0.9812
1.1934 -4.1562 -2.0016 0.9811
1.5598 -4.0331 -2.0016 0.9811
1.9138 -3.8777 -2.0016 0.9811
2.2524 -3.6913 -2.0016 0.9811
2.5730 -3.4754 -2.0016 0.9811
3.4022 -2.6691 -2.0016 0.9811
3.9879 -1.6719 -2.0016 0.9811
4.1213 -1.3091 -2.0016 0.9811
4.2884 -0.5551 -2.0016 0.9811
4.3209 -0.1699 -2.0016 0.9811
4.3188 0.2167 -2.0016 0.9811
4.2822 0.6015 -2.0016 0.9811
4.2113 0.9815 -2.0016 0.9811
3.9696 1.7149 -2.0016 0.9811
3.8006 2.0626 -2.0016 0.9811
3.6012 2.3937 -2.0016 0.9811
3.3731 2.7058 -2.0016 0.9811
2.5352 3.5030 -2.0016 0.9811
1.1484 4.1689 -2.0016 0.9811
-0.3839 4.3071 -2.0016 0.9811
-1.1439 4.1701 -2.0016 0.9811
-1.8675 3.9002 -2.0016 0.9811
-2.2083 3.7178 -2.0016 0.9811
-0.0213 4.0805 -2.0016 0.9820
-0.3856 4.0623 -2.0016 0.9820
-0.7468 4.0116 -2.0016 0.9820
-2.9555 2.8135 -2.0016 0.9820
-3.1949 2.5384 -2.0016 0.9820
-1.1155 0.5986 -0.6210 0.9944
-1.1462 0.4888 -0.6112 0.9945
-1.1964 0.0544 -0.5875 0.9947
-1.1465 -0.4870 -0.6110 0.9945
-3.4121 -2.2379 -2.0016 0.9820
-3.1986 -2.5337 -2.0016 0.9820
-2.9596 -2.8092 -2.0016 0.9820
-2.6969 -3.0623 -2.0016 0.9820
-1.7887 -3.6676 -2.0016 0.9820
-1.1078 -3.9273 -2.0016 0.9820
-0.7527 -4.0105 -2.0016 0.9820
-0.3915 -4.0617 -2.0016 0.9820
-0.0272 -4.0804 -2.0016 0.9820
0.3373 -4.0666 -2.0016 0.9820
1.4031 -3.8317 -2.0016 0.9820
2.3685 -3.3228 -2.0016 0.9820
2.9218 -2.8485 -2.0016 0.9820
3.5723 -1.9722 -2.0016 0.9820
3.7342 -1.6453 -2.0016 0.9820
4.0367 -0.5967 -2.0016 0.9820
4.0505 0.4946 -2.0016 0.9820
3.8979 1.2072 -2.0016 0.9820
3.7745 1.5505 -2.0016 0.9820
3.6210 1.8814 -2.0016 0.9820
3.2285 2.4955 -2.0016 0.9820
2.7331 3.0300 -2.0016 0.9820
2.4516 3.2620 -2.0016 0.9820
2.1505 3.4679 -2.0016 0.9820
0.8003 4.0013 -2.0016 0.9820
0.4398 4.0568 -2.0016 0.9820
-1.6956 3.7116 -2.0016 0.9820
-3.3545 2.3234 -2.0016 0.9820
-3.5486 2.0145 -2.0016 0.9820
-1.1404 0.5188 -0.6146 0.9944
-1.1566 0.4059 -0.6012 0.9946
-1.1955 0.0829 -0.5878 0.9947
-1.1590 -0.3439 -0.5930 0.9946
-1.1512 -0.4570 -0.6075 0.9945
-3.2580 -2.4569 -2.0016 0.9820
-2.1916 -3.4420 -2.0016 0.9820
-1.8755 -3.6240 -2.0016 0.9820
-1.2009 -3.8998 -2.0016 0.9820
-0.8479 -3.9915 -2.0016 0.9820
-0.4881 -4.0512 -2.0016 0.9820
0.6032 -4.0357 -2.0016 0.9820
1.3115 -3.8640 -2.0016 0.9820
1.6513 -3.7315 -2.0016 0.9820
2.2888 -3.3782 -2.0016 0.9820
2.8532 -2.9172 -2.0016 0.9820
3.5244 -2.0566 -2.0016 0.9820
3.6940 -1.7337 -2.0016 0.9820
3.8340 -1.3969 -2.0016 0.9820
4.0804 0.0338 -2.0016 0.9820
3.9255 1.1141 -2.0016 0.9820
3.8103 1.4602 -2.0016 0.9820
3.6647 1.7947 -2.0016 0.9820
2.8044 2.9641 -2.0016 0.9820
2.5285 3.2027 -2.0016 0.9820
2.2324 3.4157 -2.0016 0.9820
1.9185 3.6014 -2.0016 0.9820
0.5362 4.0452 -2.0016 0.9820
0.1728 4.0769 -2.0016 0.9820
-0.9139 3.9769 -2.0016 0.9820
-1.6068 3.7509 -2.0016 0.9820
-1.9353 3.5924 -2.0016 0.9820
-2.5435 3.1908 -2.0016 0.9820
-2.8183 2.9509 -2.0016 0.9820
-3.2983 2.4025 -2.0016 0.9820
-3.4996 2.0984 -2.0016 0.9820
-1.1335 0.5485 -0.6177 0.9944
-1.1781 0.2174 -0.5877 0.9947
-1.1936 0.1114 -0.5880 0.9947
-1.1799 -0.2089 -0.5878 0.9947
-1.1547 -0.4268 -0.6039 0.9945
-3.5147 -2.0731 -2.0016 0.9820
-3.3155 -2.3787 -2.0016 0.9820
-3.0899 -2.6653 -2.0016 0.9820
-2.5665 -3.1724 -2.0016 0.9820
-2.2729 -3.3889 -2.0016 0.9820
-1.9612 -3.5783 -2.0016 0.9820
-0.5843 -4.0385 -2.0016 0.9820
-0.2213 -4.0745 -2.0016 0.9820
0.5070 -4.0489 -2.0016 0.9820
1.2192 -3.8942 -2.0016 0.9820
2.2077 -3.4317 -2.0016 0.9820
2.5054 -3.2209 -2.0016 0.9820
2.7830 -2.9843 -2.0016 0.9820
3.0384 -2.7238 -2.0016 0.9820
3.4744 -2.1399 -2.0016 0.9820
3.7997 -1.4877 -2.0016 0.9820
4.0037 -0.7880 -2.0016 0.9820
4.0801 -0.0633 -2.0016 0.9820
4.0262 0.6635 -2.0016 0.9820
3.9509 1.0204 -2.0016 0.9820
3.8440 1.3692 -2.0016 0.9820
3.7064 1.7070 -2.0016 0.9820
3.5391 2.0311 -2.0016 0.9820
3.3436 2.3391 -2.0016 0.9820
3.1214 2.6283 -2.0016 0.9820
2.6040 3.1416 -2.0016 0.9820
2.3131 3.3616 -2.0016 0.9820
-0.0949 4.0794 -2.0016 0.9820
-0.8191 3.9975 -2.0016 0.9820
-1.5171 3.7880 -2.0016 0.9820
-2.7473 3.0171 -2.0016 0.9820
-1.1718 0.2452 -0.5872 0.9947
-1.1908 0.1397 -0.5881 0.9947
-1.1964 0.0328 -0.5871 0.9947
-1.1958 -0.0743 -0.5877 0.9947
-1.1850 -0.1808 -0.5880 0.9947
-1.1607 -0.2851 -0.5863 0.9947
-1.1423 -0.5097 -0.6136 0.9944
-2.6412 -3.1104 -2.0016 0.9820
-1.7223 -3.6993 -2.0016 0.9820
-1.0368 -3.9466 -2.0016 0.9820
-0.6802 -4.0235 -2.0016 0.9820
0.0464 -4.0803 -2.0016 0.9820
1.1262 -3.9221 -2.0016 0.9820
1.8059 -3.6592 -2.0016 0.9820
2.4280 -3.2796 -2.0016 0.9820
2.7112 -3.0496 -2.0016 0.9820
2.9727 -2.7953 -2.0016 0.9820
3.6073 -1.9074 -2.0016 0.9820
3.7632 -1.5777 -2.0016 0.9820
4.0468 -0.5238 -2.0016 0.9820
4.0774 -0.1603 -2.0016 0.9820
4.0754 0.2044 -2.0016 0.9820
3.9741 0.9261 -2.0016 0.9820
3.7459 1.6183 -2.0016 0.9820
3.3983 2.2589 -2.0016 0.9820
3.1830 2.5533 -2.0016 0.9820
1.7662 3.6785 -2.0016 0.9820
1.4306 3.8215 -2.0016 0.9820
0.7280 4.0151 -2.0016 0.9820
-0.3622 4.0644 -2.0016 0.9820
-0.7237 4.0159 -2.0016 0.9820
-1.0795 3.9352 -2.0016 0.9820
-1.7623 3.6804 -2.0016 0.9820
-2.0839 3.5083 -2.0016 0.9820
-2.9392 2.8305 -2.0016 0.9820
0.6665 3.8003 -2.0016 0.9828
0.3245 3.8446 -2.0016 0.9828
-0.7061 3.7931 -2.0016 0.9828
-1.3696 3.6070 -2.0016 0.9828
-1.6863 3.4703 -2.0016 0.9828
-2.7945 2.6603 -2.0016 0.9828
-3.2232 2.1208 -2.0016 0.9828
-1.0156 0.5450 -0.5980 0.9948
-1.0623 0.3446 -0.5794 0.9950
-1.1065 0.0503 -0.5746 0.9950
-1.1065 -0.0487 -0.5746 0.9950
-1.0989 -0.1475 -0.5752 0.9950
-1.0624 -0.3429 -0.5791 0.9950
-1.0164 -0.5435 -0.5979 0.9948
-3.0244 -2.3957 -2.0016 0.9828
-2.7984 -2.6562 -2.0016 0.9828
-2.5500 -2.8955 -2.0016 0.9828
-2.2812 -3.1117 -2.0016 0.9828
-1.9943 -3.3029 -2.0016 0.9828
-1.6913 -3.4678 -2.0016 0.9828
-1.0475 -3.7134 -2.0016 0.9828
-0.3702 -3.8405 -2.0016 0.9828
-0.0258 -3.8582 -2.0016 0.9828
0.6610 -3.8012 -2.0016 0.9828
1.6449 -3.4901 -2.0016 0.9828
1.9500 -3.3293 -2.0016 0.9828
2.2395 -3.1418 -2.0016 0.9828
3.1977 -2.1590 -2.0016 0.9828
3.3777 -1.8648 -2.0016 0.9828
3.6556 -1.2342 -2.0016 0.9828
3.7512 -0.9028 -2.0016 0.9828
3.8168 -0.5642 -2.0016 0.9828
3.6856 1.1415 -2.0016 0.9828
3.5689 1.4660 -2.0016 0.9828
3.2512 2.0775 -2.0016 0.9828
3.0527 2.3596 -2.0016 0.9828
2.8298 2.6227 -2.0016 0.9828
2.3181 3.0843 -2.0016 0.9828
2.0334 3.2790 -2.0016 0.9828
1.4177 3.5884 -2.0016 0.9828
0.7568 3.7833 -2.0016 0.9828
-0.6157 3.8088 -2.0016 0.9828
-0.9534 3.7386 -2.0016 0.9828
-1.2834 3.6386 -2.0016 0.9828
-2.2019 3.1683 -2.0016 0.9828
-2.4761 2.9590 -2.0016 0.9828
-2.9629 2.4713 -2.0016 0.9828
-3.1718 2.1968 -2.0016 0.9828
-1.0434 0.4746 -0.5947 0.9948
-1.0601 0.3720 -0.5828 0.9950
-1.0710 0.2713 -0.5731 0.9950
-1.0946 0.1751 -0.5751 0.9950
-1.1065 -0.0223 -0.5741 0.9950
-1.1021 -0.1213 -0.5752 0.9950
-1.0856 -0.2190 -0.5745 0.9950
-1.0635 -0.3156 -0.5755 0.9950
-0.9788 -0.6092 -0.5981 0.9948
-2.8608 -2.5889 -2.0016 0.9828
-2.3546 -3.0565 -2.0016 0.9828
-1.1355 -3.6874 -2.0016 0.9828
-0.8017 -3.7741 -2.0016 0.9828
-0.1175 -3.8565 -2.0016 0.9828
1.2401 -3.6536 -2.0016 0.9828
1.5614 -3.5283 -2.0016 0.9828
2.1641 -3.1942 -2.0016 0.9828
2.6978 -2.7583 -2.0016 0.9828
2.9333 -2.5064 -2.0016 0.9828
3.3324 -1.9446 -2.0016 0.9828
3.4928 -1.6392 -2.0016 0.9828
3.6252 -1.3208 -2.0016 0.9828
3.7286 -0.9918 -2.0016 0.9828
3.8023 -0.6548 -2.0016 0.9828
3.8582 0.0320 -2.0016 0.9828
3.8399 0.3764 -2.0016 0.9828
3.7909 0.7178 -2.0016 0.9828
3.6028 1.3807 -2.0016 0.9828
3.4651 1.6969 -2.0016 0.9828
2.8914 2.5547 -2.0016 0.9828
2.6517 2.8027 -2.0016 0.9828
2.1108 3.2297 -2.0016 0.9828
1.8140 3.4053 -2.0016 0.9828
1.5027 3.5537 -2.0016 0.9828
1.1793 3.6736 -2.0016 0.9828
0.8465 3.7643 -2.0016 0.9828
0.5070 3.8248 -2.0016 0.9828
0.1634 3.8548 -2.0016 0.9828
-0.1815 3.8540 -2.0016 0.9828
-0.5249 3.8224 -2.0016 0.9828
-1.1965 3.6681 -2.0016 0.9828
-1.5193 3.5466 -2.0016 0.9828
-2.1260 3.2197 -2.0016 0.9828
-2.6648 2.7902 -2.0016 0.9828
-2.9033 2.5411 -2.0016 0.9828
-3.1186 2.2717 -2.0016 0.9828
-0.9889 0.5930 -0.5982 0.9948
-1.0359 0.5013 -0.5970 0.9948
-1.0570 0.3994 -0.5862 0.9949
-1.1039 0.1030 -0.5752 0.9950
-1.1059 0.0040 -0.5737 0.9950
