ply
format ascii 1.0
element vertex 1595
property float32 x
property float32 y
property float32 z
property float32 I
end_header
7.7653 5.4181 -2.0015 0.9620
6.6772 6.7135 -2.0015 0.9620
4.3632 7.7217 -1.8748 0.9644
3.6063 7.9708 -1.8493 0.9649
2.8798 8.2611 -1.8493 0.9649
2.1303 8.4853 -1.8493 0.9649
1.3637 8.6417 -1.8493 0.9649
0.5863 8.7290 -1.8493 0.9649
-0.1958 8.7465 -1.8493 0.9649
-0.9764 8.6940 -1.8493 0.9649
-3.2467 8.1239 -1.8493 0.9649
-5.0056 8.0000 -1.9948 0.9622
-6.3707 7.0050 -2.0015 0.9620
-6.9710 6.4079 -2.0015 0.9620
-9.4038 1.1069 -2.0015 0.9620
-9.4506 -0.5842 -2.0015 0.9620
-9.3607 -1.4262 -2.0015 0.9620
-9.1958 -2.2567 -2.0015 0.9620
-8.9575 -3.0691 -2.0015 0.9620
-8.6475 -3.8571 -2.0015 0.9620
-8.2683 -4.6142 -2.0015 0.9620
-7.3153 -6.0119 -2.0015 0.9620
-6.7489 -6.6414 -2.0015 0.9620
-6.1287 -7.2177 -2.0015 0.9620
-5.4594 -7.7363 -2.0015 0.9620
-3.9956 -8.5844 -2.0015 0.9620
-3.2127 -8.9070 -2.0015 0.9620
-1.5764 -9.3365 -2.0015 0.9620
0.1102 -9.4681 -2.0015 0.9620
3.4192 -8.8298 -2.0015 0.9620
4.1943 -8.4890 -2.0015 0.9620
4.9359 -8.0804 -2.0015 0.9620
5.6380 -7.6072 -2.0015 0.9620
6.2951 -7.0731 -2.0015 0.9620
6.9017 -6.4824 -2.0015 0.9620
7.9451 -5.1508 -2.0015 0.9620
8.3735 -4.4204 -2.0015 0.9620
8.7349 -3.6547 -2.0015 0.9620
9.3913 -1.2079 -2.0015 0.9620
9.4617 -0.3641 -2.0015 0.9620
9.4564 0.4826 -2.0015 0.9620
8.3175 4.5250 -2.0015 0.9620
7.8800 5.2500 -2.0015 0.9620
6.2059 7.1514 -2.0015 0.9620
5.5234 7.6512 -1.9947 0.9622
1.5491 8.6104 -1.8493 0.9649
0.7738 8.7144 -1.8493 0.9649
-0.0078 8.7487 -1.8493 0.9649
-1.5646 8.6076 -1.8493 0.9649
-2.3272 8.4334 -1.8493 0.9649
-3.0713 8.1918 -1.8493 0.9649
-4.7590 7.9823 -1.9644 0.9627
-5.5559 7.6673 -2.0015 0.9620
-6.2187 7.1403 -2.0015 0.9620
-6.8317 6.5562 -2.0015 0.9620
-7.8893 5.2359 -2.0015 0.9620
-8.3255 4.5101 -2.0015 0.9620
-8.6952 3.7484 -2.0015 0.9620
-9.2234 2.1412 -2.0015 0.9620
-9.3778 1.3087 -2.0015 0.9620
-9.2422 -2.0585 -2.0015 0.9620
-9.0214 -2.8759 -2.0015 0.9620
-6.2824 -7.0843 -2.0015 0.9620
-5.6244 -7.6172 -2.0015 0.9620
-4.9214 -8.0892 -2.0015 0.9620
-4.1791 -8.4965 -2.0015 0.9620
-2.6004 -9.1046 -2.0015 0.9620
-1.7767 -9.3005 -2.0015 0.9620
-0.9387 -9.4220 -2.0015 0.9620
-0.0933 -9.4682 -2.0015 0.9620
0.7529 -9.4387 -2.0015 0.9620
4.7611 -8.1846 -2.0015 0.9620
5.4732 -7.7266 -2.0015 0.9620
6.1416 -7.2067 -2.0015 0.9620
6.7608 -6.6293 -2.0015 0.9620
8.6544 -3.8416 -2.0015 0.9620
8.9630 -3.0531 -2.0015 0.9620
9.3632 -1.4094 -2.0015 0.9620
9.4517 -0.5673 -2.0015 0.9620
8.7673 3.5763 -2.0015 0.9620
8.4128 4.3453 -2.0015 0.9620
6.9595 6.4204 -2.0015 0.9620
5.6920 7.5379 -1.9966 0.9621
3.9455 7.8085 -1.8493 0.9649
3.2321 8.1297 -1.8493 0.9649
1.7338 8.5751 -1.8493 0.9649
0.1802 8.7468 -1.8493 0.9649
-0.6019 8.7279 -1.8493 0.9649
-1.3792 8.6393 -1.8493 0.9649
-2.1455 8.4815 -1.8493 0.9649
-2.8946 8.2559 -1.8493 0.9649
-3.6205 7.9643 -1.8493 0.9649
-4.4975 7.9262 -1.9264 0.9634
-5.3870 7.7807 -2.0004 0.9620
-6.6892 6.7015 -2.0015 0.9620
-7.2611 6.0772 -2.0015 0.9620
-7.7750 5.4042 -2.0015 0.9620
-9.3475 1.5099 -2.0015 0.9620
-9.4450 0.6688 -2.0015 0.9620
-9.4670 -0.1776 -2.0015 0.9620
-9.0811 -2.6814 -2.0015 0.9620
-8.8052 -3.4819 -2.0015 0.9620
-8.4590 -4.2546 -2.0015 0.9620
-7.5668 -5.6920 -2.0015 0.9620
-7.0281 -6.3452 -2.0015 0.9620
-5.7868 -7.4946 -2.0015 0.9620
-3.5925 -8.7607 -2.0015 0.9620
-0.2967 -9.4640 -2.0015 0.9620
0.5499 -9.4527 -2.0015 0.9620
2.2233 -9.2040 -2.0015 0.9620
3.0366 -8.9686 -2.0015 0.9620
3.8257 -8.6614 -2.0015 0.9620
4.5841 -8.2850 -2.0015 0.9620
5.3059 -7.8424 -2.0015 0.9620
5.9853 -7.3371 -2.0015 0.9620
8.1758 -4.7762 -2.0015 0.9620
8.5698 -4.0267 -2.0015 0.9620
8.8953 -3.2450 -2.0015 0.9620
9.1496 -2.4374 -2.0015 0.9620
9.3307 -1.6103 -2.0015 0.9620
9.4684 0.0758 -2.0015 0.9620
9.1094 2.5837 -2.0015 0.9620
8.5042 4.1635 -2.0015 0.9620
8.0983 4.9065 -2.0015 0.9620
6.5075 6.8781 -2.0015 0.9620
4.1169 7.7305 -1.8514 0.9648
3.4061 8.0584 -1.8493 0.9649
1.9177 8.5359 -1.8493 0.9649
-0.4142 8.7388 -1.8493 0.9649
-1.1932 8.6669 -1.8493 0.9649
-3.4485 8.0403 -1.8493 0.9649
-5.9061 7.4009 -2.0015 0.9620
-6.5436 6.8438 -2.0015 0.9620
-7.1289 6.2318 -2.0015 0.9620
-8.8599 3.3404 -2.0015 0.9620
-9.3129 1.7105 -2.0015 0.9620
-9.4285 0.8717 -2.0015 0.9620
-9.4686 0.0259 -2.0015 0.9620
-9.4331 -0.8201 -2.0015 0.9620
-9.1366 -2.4856 -2.0015 0.9620
-8.8780 -3.2919 -2.0015 0.9620
-8.1505 -4.8192 -2.0015 0.9620
-7.6874 -5.5281 -2.0015 0.9620
-7.1628 -6.1927 -2.0015 0.9620
-5.9465 -7.3685 -2.0015 0.9620
-5.2645 -7.8703 -2.0015 0.9620
-4.5403 -8.3091 -2.0015 0.9620
-2.9892 -8.9845 -2.0015 0.9620
-1.3427 -9.3730 -2.0015 0.9620
0.3466 -9.4623 -2.0015 0.9620
1.1906 -9.3935 -2.0015 0.9620
2.8432 -9.0317 -2.0015 0.9620
3.6386 -8.7416 -2.0015 0.9620
6.4697 -6.9137 -2.0015 0.9620
8.4938 0.6168 -2.0015 0.9656
8.4047 1.3731 -2.0015 0.9656
8.2485 2.1184 -2.0015 0.9656
7.7398 3.5524 -2.0015 0.9656
7.3915 4.2296 -2.0015 0.9656
6.0055 6.0381 -2.0015 0.9656
5.4421 6.5505 -2.0015 0.9656
4.8351 7.0104 -2.0015 0.9656
3.4842 7.7010 -1.9865 0.9659
0.5273 7.8509 -1.8493 0.9682
-0.1761 7.8666 -1.8493 0.9682
-0.8782 7.8194 -1.8493 0.9682
-1.5771 7.7289 -1.8539 0.9681
-3.0871 7.7246 -1.9551 0.9664
-3.8467 7.5794 -1.9976 0.9657
-6.2697 5.7633 -2.0015 0.9656
-6.7595 5.1801 -2.0015 0.9656
-7.1952 4.5556 -2.0015 0.9656
-7.5734 3.8946 -2.0015 0.9656
-8.1456 2.4847 -2.0015 0.9656
-8.5129 0.2360 -2.0015 0.9656
-8.4999 -0.5255 -2.0015 0.9656
-8.4190 -1.2827 -2.0015 0.9656
-8.2707 -2.0297 -2.0015 0.9656
-7.4366 -4.1500 -2.0015 0.9656
-7.0361 -4.7977 -2.0015 0.9656
-4.9102 -6.9581 -2.0015 0.9656
-4.2690 -7.3689 -2.0015 0.9656
-2.1623 -8.2371 -2.0015 0.9656
-0.6620 -8.4904 -2.0015 0.9656
3.7724 -7.6350 -2.0015 0.9656
4.4394 -7.2675 -2.0015 0.9656
5.0708 -6.8419 -2.0015 0.9656
5.6618 -6.3615 -2.0015 0.9656
6.2074 -5.8303 -2.0015 0.9656
6.7035 -5.2525 -2.0015 0.9656
7.5312 -3.9757 -2.0015 0.9656
7.8562 -3.2871 -2.0015 0.9656
8.1184 -2.5721 -2.0015 0.9656
8.3158 -1.8366 -2.0015 0.9656
8.4466 -1.0863 -2.0015 0.9656
8.4323 1.1921 -2.0015 0.9656
8.0856 2.6737 -2.0015 0.9656
7.8144 3.3853 -2.0015 0.9656
7.4807 4.0698 -2.0015 0.9656
6.1339 5.9077 -2.0015 0.9656
5.5816 6.4320 -2.0015 0.9656
4.3454 7.3184 -2.0003 0.9656
2.8752 7.7107 -1.9341 0.9668
-0.0070 7.8685 -1.8493 0.9682
-2.1304 7.7203 -1.8823 0.9676
-4.3610 7.3148 -2.0015 0.9656
-6.1444 5.8967 -2.0015 0.9656
-6.6466 5.3242 -2.0015 0.9656
-7.0957 4.7092 -2.0015 0.9656
-7.4880 4.0564 -2.0015 0.9656
-7.8204 3.3713 -2.0015 0.9656
-8.0903 2.6592 -2.0015 0.9656
-8.4344 1.1770 -2.0015 0.9656
-8.5058 0.4188 -2.0015 0.9656
-8.4446 -1.1015 -2.0015 0.9656
-7.8503 -3.3011 -2.0015 0.9656
-7.5240 -3.9892 -2.0015 0.9656
-7.1376 -4.6454 -2.0015 0.9656
-6.1970 -5.8414 -2.0015 0.9656
-5.6504 -6.3717 -2.0015 0.9656
-5.0586 -6.8509 -2.0015 0.9656
-3.0610 -7.9470 -2.0015 0.9656
-1.5980 -8.3649 -2.0015 0.9656
-0.8443 -8.4742 -2.0015 0.9656
-0.0839 -8.5157 -2.0015 0.9656
1.4329 -8.3947 -2.0015 0.9656
2.9038 -8.0058 -2.0015 0.9656
3.6074 -7.7144 -2.0015 0.9656
4.9226 -6.9493 -2.0015 0.9656
5.5238 -6.4817 -2.0015 0.9656
7.4440 -4.1367 -2.0015 0.9656
7.7838 -3.4551 -2.0015 0.9656
8.2744 -2.0149 -2.0015 0.9656
8.4213 -1.2676 -2.0015 0.9656
8.4560 1.0107 -2.0015 0.9656
8.3319 1.7620 -2.0015 0.9656
7.5665 3.9081 -2.0015 0.9656
6.7502 5.1922 -2.0015 0.9656
5.7185 6.3106 -2.0015 0.9656
5.1319 6.7962 -2.0015 0.9656
2.2945 7.7184 -1.8925 0.9675
0.1621 7.8669 -1.8493 0.9682
-3.5118 7.7251 -1.9944 0.9657
-4.2026 7.4064 -2.0014 0.9656
-6.5307 5.4658 -2.0015 0.9656
-6.9928 4.8606 -2.0015 0.9656
-8.4072 1.3580 -2.0015 0.9656
-8.4949 0.6016 -2.0015 0.9656
-8.3503 -1.6724 -2.0015 0.9656
-7.9194 -3.1316 -2.0015 0.9656
-7.2357 -4.4910 -2.0015 0.9656
-6.8056 -5.1194 -2.0015 0.9656
-6.3211 -5.7069 -2.0015 0.9656
-5.7860 -6.2487 -2.0015 0.9656
-5.2046 -6.7407 -2.0015 0.9656
-4.5817 -7.1786 -2.0015 0.9656
-3.9220 -7.5593 -2.0015 0.9656
-3.2311 -7.8794 -2.0015 0.9656
-1.0262 -8.4541 -2.0015 0.9656
0.4946 -8.5018 -2.0015 0.9656
1.2521 -8.4236 -2.0015 0.9656
1.9996 -8.2781 -2.0015 0.9656
5.3832 -6.5989 -2.0015 0.9656
5.9512 -6.0917 -2.0015 0.9656
6.9402 -4.9354 -2.0015 0.9656
8.2292 -2.1922 -2.0015 0.9656
8.3921 -1.4483 -2.0015 0.9656
8.4879 -0.6928 -2.0015 0.9656
8.5159 0.0682 -2.0015 0.9656
8.4757 0.8287 -2.0015 0.9656
8.1930 2.3237 -2.0015 0.9656
7.9526 3.0464 -2.0015 0.9656
7.6487 3.7446 -2.0015 0.9656
7.2836 4.4129 -2.0015 0.9656
6.8603 5.0460 -2.0015 0.9656
6.3821 5.6386 -2.0015 0.9656
5.8528 6.1862 -2.0015 0.9656
5.2768 6.6843 -2.0015 0.9656
4.6585 7.1290 -2.0015 0.9656
3.9946 7.5007 -1.9972 0.9657
3.2566 7.7048 -1.9659 0.9662
1.7354 7.7243 -1.8606 0.9680
0.3311 7.8616 -1.8493 0.9682
-0.3725 7.8597 -1.8493 0.9682
-1.0732 7.7950 -1.8493 0.9682
-1.7782 7.7241 -1.8628 0.9680
-2.5203 7.7156 -1.9076 0.9672
-4.0389 7.4884 -1.9996 0.9656
-4.6961 7.1043 -2.0015 0.9656
-5.8854 6.1553 -2.0015 0.9656
-6.4117 5.6049 -2.0015 0.9656
-7.9686 3.0044 -2.0015 0.9656
-8.2051 2.2805 -2.0015 0.9656
-8.3760 1.5384 -2.0015 0.9656
-8.4800 0.7840 -2.0015 0.9656
-8.4841 -0.7376 -2.0015 0.9656
-8.3843 -1.4925 -2.0015 0.9656
-8.2175 -2.2356 -2.0015 0.9656
-7.9849 -2.9607 -2.0015 0.9656
-7.3306 -4.3344 -2.0015 0.9656
-6.4423 -5.5697 -2.0015 0.9656
-5.3483 -6.6273 -2.0015 0.9656
-4.7349 -7.0785 -2.0015 0.9656
-3.3997 -7.8081 -2.0015 0.9656
-2.6885 -8.0806 -2.0015 0.9656
-0.4497 -8.5043 -2.0015 0.9656
0.3118 -8.5104 -2.0015 0.9656
1.8213 -8.3191 -2.0015 0.9656
3.2726 -7.8623 -2.0015 0.9656
3.9619 -7.5385 -2.0015 0.9656
4.6195 -7.1544 -2.0015 0.9656
5.2401 -6.7131 -2.0015 0.9656
5.8189 -6.2181 -2.0015 0.9656
7.7099 0.5598 -2.0015 0.9686
7.6291 1.2464 -2.0015 0.9686
7.2855 2.5841 -2.0015 0.9686
7.0255 3.2246 -2.0015 0.9686
6.7094 3.8393 -2.0015 0.9686
4.9398 5.9459 -2.0015 0.9686
2.5435 7.2965 -2.0007 0.9686
1.2013 7.6123 -1.9953 0.9687
-0.8598 7.6555 -1.9946 0.9687
-3.4985 6.8932 -2.0015 0.9686
-4.1003 6.5531 -2.0015 0.9686
-4.6693 6.1606 -2.0015 0.9686
-5.2010 5.7189 -2.0015 0.9686
-5.6911 5.2314 -2.0015 0.9686
-6.8745 3.5352 -2.0015 0.9686
-7.1628 2.9069 -2.0015 0.9686
-7.6772 0.9036 -2.0015 0.9686
-7.7272 0.2142 -2.0015 0.9686
-7.7155 -0.4770 -2.0015 0.9686
-7.0598 -3.1489 -2.0015 0.9686
-6.3867 -4.3550 -2.0015 0.9686
-5.5098 -5.4220 -2.0015 0.9686
-4.4570 -6.3159 -2.0015 0.9686
-2.6228 -7.2717 -2.0015 0.9686
-1.9627 -7.4769 -2.0015 0.9686
-1.2870 -7.6223 -2.0015 0.9686
-0.6009 -7.7068 -2.0015 0.9686
1.4641 -7.5903 -2.0015 0.9686
2.1363 -7.4292 -2.0015 0.9686
2.7914 -7.2086 -2.0015 0.9686
3.4242 -6.9304 -2.0015 0.9686
4.0297 -6.5968 -2.0015 0.9686
6.8361 -3.6088 -2.0015 0.9686
7.1312 -2.9837 -2.0015 0.9686
7.5483 -1.6671 -2.0015 0.9686
7.7245 -0.2972 -2.0015 0.9686
7.7202 0.3940 -2.0015 0.9686
7.6541 1.0821 -2.0015 0.9686
7.0932 3.0729 -2.0015 0.9686
6.4332 4.2861 -2.0015 0.9686
6.0246 4.8436 -2.0015 0.9686
5.0665 5.8384 -2.0015 0.9686
3.9466 6.6468 -2.0015 0.9686
2.7008 7.2430 -2.0015 0.9686
0.6812 7.6724 -1.9943 0.9687
-2.0532 7.4404 -1.9985 0.9686
-3.9585 6.6397 -2.0015 0.9686
-4.5359 6.2596 -2.0015 0.9686
-5.0769 5.8293 -2.0015 0.9686
-7.0987 3.0602 -2.0015 0.9686
-7.3437 2.4138 -2.0015 0.9686
-7.5300 1.7481 -2.0015 0.9686
-7.6560 1.0684 -2.0015 0.9686
-7.7209 0.3802 -2.0015 0.9686
-6.0763 -4.7786 -2.0015 0.9686
-5.1289 -5.7836 -2.0015 0.9686
-4.5917 -6.2187 -2.0015 0.9686
-4.0178 -6.6040 -2.0015 0.9686
-3.4118 -6.9366 -2.0015 0.9686
-2.7785 -7.2136 -2.0015 0.9686
-1.4505 -7.5929 -2.0015 0.9686
-0.7664 -7.6921 -2.0015 0.9686
-0.0761 -7.7298 -2.0015 0.9686
1.9761 -7.4734 -2.0015 0.9686
2.6359 -7.2669 -2.0015 0.9686
3.2745 -7.0024 -2.0015 0.9686
3.8870 -6.6819 -2.0015 0.9686
5.9810 -4.8974 -2.0015 0.9686
6.3945 -4.3435 -2.0015 0.9686
6.7570 -3.7549 -2.0015 0.9686
7.0654 -3.1363 -2.0015 0.9686
7.6441 -1.1506 -2.0015 0.9686
7.7269 0.2280 -2.0015 0.9686
7.5629 1.5994 -2.0015 0.9686
7.1576 2.9197 -2.0015 0.9686
6.1273 4.7130 -2.0015 0.9686
4.0886 6.5605 -2.0015 0.9686
3.4862 6.8995 -2.0015 0.9686
2.8559 7.1833 -2.0015 0.9686
1.5280 7.5572 -1.9963 0.9686
0.8461 7.6570 -1.9946 0.9687
0.1586 7.6992 -1.9939 0.9687
-0.5299 7.6836 -1.9941 0.9687
-1.2149 7.6103 -1.9954 0.9687
-1.8922 7.4803 -1.9978 0.9686
-3.1991 7.0372 -2.0015 0.9686
-3.8149 6.7233 -2.0015 0.9686
-4.4003 6.3556 -2.0015 0.9686
-7.7109 0.5461 -2.0015 0.9686
-7.6850 -0.8349 -2.0015 0.9686
-6.5680 -4.0765 -2.0015 0.9686
-5.7377 -5.1802 -2.0015 0.9686
-4.7243 -6.1186 -2.0015 0.9686
-2.9329 -7.1522 -2.0015 0.9686
-2.2822 -7.3856 -2.0015 0.9686
-1.6133 -7.5600 -2.0015 0.9686
-0.2422 -7.7264 -2.0015 0.9686
1.8151 -7.5141 -2.0015 0.9686
4.3317 -6.4025 -2.0015 0.9686
4.8864 -5.9900 -2.0015 0.9686
5.8743 -5.0248 -2.0015 0.9686
6.2997 -4.4799 -2.0015 0.9686
6.6747 -3.8992 -2.0015 0.9686
6.9964 -3.2874 -2.0015 0.9686
7.7300 0.0619 -2.0015 0.9686
7.6935 0.7522 -2.0015 0.9686
7.5956 1.4365 -2.0015 0.9686
7.2187 2.7652 -2.0015 0.9686
6.6114 4.0057 -2.0015 0.9686
5.3127 5.6153 -2.0015 0.9686
4.7898 6.0675 -2.0015 0.9686
3.0096 7.1203 -2.0015 0.9686
0.3240 7.6943 -1.9940 0.9687
-0.3646 7.6926 -1.9940 0.9687
-1.0509 7.6331 -1.9950 0.9687
-2.3986 7.3431 -2.0001 0.9686
-3.0471 7.1043 -2.0015 0.9686
-3.6696 6.8037 -2.0015 0.9686
-4.2627 6.4487 -2.0015 0.9686
-4.8217 6.0421 -2.0015 0.9686
-5.8200 5.0876 -2.0015 0.9686
-6.2512 4.5474 -2.0015 0.9686
-7.6974 0.7116 -2.0015 0.9686
-7.7302 0.0211 -2.0015 0.9686
-7.7012 -0.6695 -2.0015 0.9686
-7.2480 -2.6875 -2.0015 0.9686
-6.6541 -3.9344 -2.0015 0.9686
-6.2760 -4.5131 -2.0015 0.9686
-5.8477 -5.0557 -2.0015 0.9686
-5.3727 -5.5579 -2.0015 0.9686
-4.2979 -6.4253 -2.0015 0.9686
-2.4404 -7.3349 -2.0015 0.9686
0.9720 -7.6689 -2.0015 0.9686
1.6532 -7.5514 -2.0015 0.9686
2.9706 -7.1367 -2.0015 0.9686
4.1931 -6.4941 -2.0015 0.9686
5.2819 -5.6443 -2.0015 0.9686
5.7650 -5.1499 -2.0015 0.9686
7.0515 0.5120 -2.0015 0.9710
6.8478 1.7587 -2.0015 0.9710
6.6634 2.3634 -2.0015 0.9710
6.1364 3.5115 -2.0015 0.9710
5.7982 4.0456 -2.0015 0.9710
4.9857 5.0128 -2.0015 0.9710
4.5180 5.4382 -2.0015 0.9710
3.4781 6.1554 -2.0015 0.9710
2.9143 6.4415 -2.0015 0.9710
1.1021 6.9837 -2.0015 0.9710
-0.1583 7.0683 -2.0015 0.9710
-0.7891 7.0259 -2.0015 0.9710
-1.4136 6.9273 -2.0015 0.9710
-2.0268 6.7734 -2.0015 0.9710
-3.7502 5.9935 -2.0015 0.9710
-4.2706 5.6346 -2.0015 0.9710
-4.7569 5.2305 -2.0015 0.9710
-5.2051 4.7846 -2.0015 0.9710
-5.6117 4.3005 -2.0015 0.9710
-5.9735 3.7820 -2.0015 0.9710
-6.2875 3.2333 -2.0015 0.9710
-6.7625 2.0628 -2.0015 0.9710
-7.0216 0.8265 -2.0015 0.9710
-7.0566 -0.4362 -2.0015 0.9710
-6.4569 -2.8800 -2.0015 0.9710
-5.4622 -4.4890 -2.0015 0.9710
-5.0393 -4.9590 -2.0015 0.9710
-3.5441 -6.1176 -2.0015 0.9710
-2.3989 -6.6507 -2.0015 0.9710
-1.7951 -6.8384 -2.0015 0.9710
-1.1771 -6.9714 -2.0015 0.9710
-0.5496 -7.0487 -2.0015 0.9710
1.3390 -6.9421 -2.0015 0.9710
2.5530 -6.5930 -2.0015 0.9710
4.2098 -5.6801 -2.0015 0.9710
4.7004 -5.2813 -2.0015 0.9710
5.5652 -4.3606 -2.0015 0.9710
5.9325 -3.8460 -2.0015 0.9710
7.0123 -0.9019 -2.0015 0.9710
4.1383 5.7324 -2.0015 0.9710
3.6096 6.0792 -2.0015 0.9710
3.0521 6.3774 -2.0015 0.9710
2.4702 6.6245 -2.0015 0.9710
1.8685 6.8187 -2.0015 0.9710
1.2519 6.9584 -2.0015 0.9710
-0.0063 7.0701 -2.0015 0.9710
-1.2644 6.9561 -2.0015 0.9710
-1.8807 6.8153 -2.0015 0.9710
-2.4820 6.6201 -2.0015 0.9710
-4.6434 5.3315 -2.0015 0.9710
-5.8908 3.9095 -2.0015 0.9710
-6.4925 2.7988 -2.0015 0.9710
-6.7166 2.2076 -2.0015 0.9710
-7.0643 -0.2845 -2.0015 0.9710
-7.0107 -0.9144 -2.0015 0.9710
-6.7361 -2.1474 -2.0015 0.9710
-6.5173 -2.7406 -2.0015 0.9710
-6.2464 -3.3118 -2.0015 0.9710
-5.9256 -3.8566 -2.0015 0.9710
-5.5574 -4.3705 -2.0015 0.9710
-4.1996 -5.6876 -2.0015 0.9710
-3.6747 -6.0401 -2.0015 0.9710
-3.1205 -6.3442 -2.0015 0.9710
-2.5412 -6.5976 -2.0015 0.9710
-1.9417 -6.7982 -2.0015 0.9710
-1.3266 -6.9445 -2.0015 0.9710
-0.7009 -7.0353 -2.0015 0.9710
0.5622 -7.0477 -2.0015 0.9710
1.1896 -6.9693 -2.0015 0.9710
2.4108 -6.6464 -2.0015 0.9710
2.9949 -6.4044 -2.0015 0.9710
3.5550 -6.1113 -2.0015 0.9710
4.0868 -5.7693 -2.0015 0.9710
4.5858 -5.3811 -2.0015 0.9710
5.0482 -4.9499 -2.0015 0.9710
5.8485 -3.9726 -2.0015 0.9710
6.1800 -3.4343 -2.0015 0.9710
6.4621 -2.8684 -2.0015 0.9710
6.6925 -2.2797 -2.0015 0.9710
7.0574 -0.4236 -2.0015 0.9710
7.0201 0.8390 -2.0015 0.9710
6.5464 2.6704 -2.0015 0.9710
5.6040 4.3106 -2.0015 0.9710
4.2605 5.6422 -2.0015 0.9710
3.7394 6.0002 -2.0015 0.9710
2.0146 6.7770 -2.0015 0.9710
1.4012 6.9298 -2.0015 0.9710
0.7765 7.0273 -2.0015 0.9710
0.1456 7.0686 -2.0015 0.9710
-0.4864 7.0533 -2.0015 0.9710
-1.7338 6.8542 -2.0015 0.9710
-2.9259 6.4362 -2.0015 0.9710
-4.9947 5.0039 -2.0015 0.9710
-5.8054 4.0352 -2.0015 0.9710
-6.1427 3.5005 -2.0015 0.9710
-6.4309 2.9377 -2.0015 0.9710
-6.8510 1.7464 -2.0015 0.9710
-6.3161 -3.1768 -2.0015 0.9710
-5.2477 -4.7379 -2.0015 0.9710
-4.8035 -5.1877 -2.0015 0.9710
-4.3209 -5.5961 -2.0015 0.9710
-3.8037 -5.9597 -2.0015 0.9710
-1.4756 -6.9144 -2.0015 0.9710
-0.8520 -7.0186 -2.0015 0.9710
-0.2216 -7.0666 -2.0015 0.9710
0.4106 -7.0581 -2.0015 0.9710
1.0395 -6.9933 -2.0015 0.9710
1.6601 -6.8724 -2.0015 0.9710
2.2674 -6.6966 -2.0015 0.9710
2.8565 -6.4673 -2.0015 0.9710
3.4229 -6.1863 -2.0015 0.9710
3.9618 -5.8558 -2.0015 0.9710
4.4691 -5.4784 -2.0015 0.9710
6.3989 -3.0067 -2.0015 0.9710
6.9671 -1.2024 -2.0015 0.9710
7.0466 -0.5752 -2.0015 0.9710
7.0699 0.0566 -2.0015 0.9710
6.9469 1.3138 -2.0015 0.9710
6.3499 3.1088 -2.0015 0.9710
5.6954 4.1891 -2.0015 0.9710
5.2984 4.6812 -2.0015 0.9710
4.8590 5.1358 -2.0015 0.9710
4.3808 5.5493 -2.0015 0.9710
3.3233 6.2403 -2.0015 0.9710
2.7526 6.5123 -2.0015 0.9710
0.2975 7.0638 -2.0015 0.9710
-1.5861 6.8899 -2.0015 0.9710
-2.7869 6.4976 -2.0015 0.9710
-3.3562 6.2227 -2.0015 0.9710
-3.8987 5.8980 -2.0015 0.9710
-4.4100 5.5261 -2.0015 0.9710
-5.3230 4.6532 -2.0015 0.9710
-5.7174 4.1590 -2.0015 0.9710
-6.0661 3.6317 -2.0015 0.9710
-6.3662 3.0752 -2.0015 0.9710
-6.6155 2.4942 -2.0015 0.9710
-6.9538 1.2772 -2.0015 0.9710
-7.0401 0.6509 -2.0015 0.9710
-6.9606 -1.2391 -2.0015 0.9710
-6.8221 -1.8560 -2.0015 0.9710
-6.6290 -2.4580 -2.0015 0.9710
-5.7400 -4.1277 -2.0015 0.9710
-2.2320 -6.7085 -2.0015 0.9710
-1.6238 -6.8811 -2.0015 0.9710
-1.0026 -6.9986 -2.0015 0.9710
-0.3734 -7.0602 -2.0015 0.9710
0.8890 -7.0140 -2.0015 0.9710
2.1229 -6.7438 -2.0015 0.9710
3.8351 -5.9396 -2.0015 0.9710
4.3503 -5.5732 -2.0015 0.9710
6.3027 1.6187 -2.0015 0.9731
5.9141 2.7144 -2.0015 0.9731
4.5888 4.6138 -2.0015 0.9731
4.1583 5.0053 -2.0015 0.9731
3.6946 5.3567 -2.0015 0.9731
3.2013 5.6654 -2.0015 0.9731
2.6823 5.9287 -2.0015 0.9731
1.5845 6.3114 -2.0015 0.9731
1.0144 6.4277 -2.0015 0.9731
-0.1457 6.5056 -2.0015 0.9731
-1.3010 6.3759 -2.0015 0.9731
-1.8654 6.2341 -2.0015 0.9731
-3.4516 5.5164 -2.0015 0.9731
-3.9306 5.1860 -2.0015 0.9731
-4.7907 4.4038 -2.0015 0.9731
-5.1650 3.9582 -2.0015 0.9731
-5.4979 3.4809 -2.0015 0.9731
-5.7869 2.9759 -2.0015 0.9731
-6.0296 2.4470 -2.0015 0.9731
-6.2241 1.8986 -2.0015 0.9731
-6.4626 0.7607 -2.0015 0.9731
-6.4948 -0.4015 -2.0015 0.9731
-6.4330 -0.9801 -2.0015 0.9731
-6.3197 -1.5509 -2.0015 0.9731
-6.1559 -2.1092 -2.0015 0.9731
-5.9429 -2.6507 -2.0015 0.9731
-5.6823 -3.1710 -2.0015 0.9731
-5.3763 -3.6660 -2.0015 0.9731
-4.6381 -4.5642 -2.0015 0.9731
-3.7519 -5.3167 -2.0015 0.9731
-3.2619 -5.6306 -2.0015 0.9731
-2.2079 -6.1212 -2.0015 0.9731
-1.6522 -6.2940 -2.0015 0.9731
-1.0834 -6.4164 -2.0015 0.9731
-0.5058 -6.4876 -2.0015 0.9731
0.0758 -6.5068 -2.0015 0.9731
1.2325 -6.3895 -2.0015 0.9731
2.3498 -6.0682 -2.0015 0.9731
2.8825 -5.8340 -2.0015 0.9731
3.3921 -5.5532 -2.0015 0.9731
3.8747 -5.2279 -2.0015 0.9731
4.3262 -4.8609 -2.0015 0.9731
4.7431 -4.4550 -2.0015 0.9731
6.0030 -2.5117 -2.0015 0.9731
6.4988 0.3317 -2.0015 0.9731
6.3360 1.4829 -2.0015 0.9731
6.1782 2.0430 -2.0015 0.9731
5.9710 2.5867 -2.0015 0.9731
5.7161 3.1098 -2.0015 0.9731
5.4154 3.6080 -2.0015 0.9731
5.0714 4.0773 -2.0015 0.9731
4.2649 4.9147 -2.0015 0.9731
3.3223 5.5953 -2.0015 0.9731
2.8091 5.8697 -2.0015 0.9731
2.2735 6.0972 -2.0015 0.9731
1.7198 6.2759 -2.0015 0.9731
1.1523 6.4044 -2.0015 0.9731
-0.0058 6.5072 -2.0015 0.9731
-0.5871 6.4807 -2.0015 0.9731
-1.7310 6.2728 -2.0015 0.9731
-2.2845 6.0931 -2.0015 0.9731
-3.3323 5.5893 -2.0015 0.9731
-3.8183 5.2693 -2.0015 0.9731
-4.2737 4.9071 -2.0015 0.9731
-5.0787 4.0683 -2.0015 0.9731
-5.7216 3.0996 -2.0015 0.9731
-5.9756 2.5760 -2.0015 0.9731
-6.3387 1.4715 -2.0015 0.9731
-6.4994 0.3200 -2.0015 0.9731
-6.3516 -1.4147 -2.0015 0.9731
-5.4539 -3.5496 -2.0015 0.9731
-5.1150 -4.0226 -2.0015 0.9731
-4.3175 -4.8686 -2.0015 0.9731
-3.3822 -5.5592 -2.0015 0.9731
-2.8720 -5.8391 -2.0015 0.9731
-2.3389 -6.0724 -2.0015 0.9731
-1.7871 -6.2570 -2.0015 0.9731
-0.6451 -6.4752 -2.0015 0.9731
-0.0641 -6.5069 -2.0015 0.9731
0.5175 -6.4866 -2.0015 0.9731
1.0949 -6.4145 -2.0015 0.9731
2.7565 -5.8946 -2.0015 0.9731
4.6463 -4.5559 -2.0015 0.9731
5.0347 -4.1226 -2.0015 0.9731
5.3829 -3.6563 -2.0015 0.9731
6.1597 -2.0982 -2.0015 0.9731
6.4348 -0.9686 -2.0015 0.9731
6.4956 -0.3899 -2.0015 0.9731
6.5044 0.1919 -2.0015 0.9731
6.4613 0.7723 -2.0015 0.9731
5.7816 2.9862 -2.0015 0.9731
4.7829 4.4123 -2.0015 0.9731
4.3696 4.8220 -2.0015 0.9731
3.9213 5.1930 -2.0015 0.9731
3.4417 5.5226 -2.0015 0.9731
1.8542 6.2375 -2.0015 0.9731
1.2896 6.3782 -2.0015 0.9731
0.7147 6.4679 -2.0015 0.9731
0.1340 6.5059 -2.0015 0.9731
-0.4477 6.4918 -2.0015 0.9731
-2.1530 6.1408 -2.0015 0.9731
-2.6930 5.9239 -2.0015 0.9731
-4.1673 4.9978 -2.0015 0.9731
-4.9901 4.1765 -2.0015 0.9731
-5.3433 3.7140 -2.0015 0.9731
-6.3056 1.6074 -2.0015 0.9731
-6.5061 -0.1220 -2.0015 0.9731
-6.4692 -0.7028 -2.0015 0.9731
-6.0513 -2.3929 -2.0015 0.9731
-5.8133 -2.9239 -2.0015 0.9731
-5.5289 -3.4316 -2.0015 0.9731
-4.4211 -4.7747 -2.0015 0.9731
-3.9769 -5.1506 -2.0015 0.9731
-3.5009 -5.4853 -2.0015 0.9731
-2.9969 -5.7761 -2.0015 0.9731
-2.4689 -6.0207 -2.0015 0.9731
-1.9212 -6.2172 -2.0015 0.9731
-1.3581 -6.3640 -2.0015 0.9731
-0.2039 -6.5040 -2.0015 0.9731
1.5279 -6.3253 -2.0015 0.9731
2.0869 -6.1635 -2.0015 0.9731
3.1504 -5.6938 -2.0015 0.9731
4.1133 -5.0423 -2.0015 0.9731
4.5473 -4.6547 -2.0015 0.9731
5.3031 -3.7712 -2.0015 0.9731
6.1132 -2.2301 -2.0015 0.9731
6.2880 -1.6751 -2.0015 0.9731
6.4125 -1.1067 -2.0015 0.9731
6.3939 1.2092 -2.0015 0.9731
6.2603 1.7756 -2.0015 0.9731
5.8444 2.8613 -2.0015 0.9731
5.5654 3.3720 -2.0015 0.9731
4.4722 4.7269 -2.0015 0.9731
3.5596 5.4473 -2.0015 0.9731
1.9879 6.1962 -2.0015 0.9731
1.4264 6.3490 -2.0015 0.9731
0.8535 6.4510 -2.0015 0.9731
0.2738 6.5015 -2.0015 0.9731
-0.8875 6.4464 -2.0015 0.9731
-3.5883 5.4285 -2.0015 0.9731
-4.8992 4.2827 -2.0015 0.9731
-5.2622 3.8279 -2.0015 0.9731
-5.8594 2.8304 -2.0015 0.9731
-6.0889 2.2957 -2.0015 0.9731
-6.4002 1.1755 -2.0015 0.9731
-6.5072 0.0178 -2.0015 0.9731
-6.4065 -1.1405 -2.0015 0.9731
-6.1013 -2.2623 -2.0015 0.9731
-5.8748 -2.7983 -2.0015 0.9731
-4.9226 -4.2559 -2.0015 0.9731
-4.5227 -4.6786 -2.0015 0.9731
-4.0867 -5.0639 -2.0015 0.9731
-3.1203 -5.7103 -2.0015 0.9731
-2.0543 -6.1745 -2.0015 0.9731
-1.4945 -6.3333 -2.0015 0.9731
-0.9228 -6.4415 -2.0015 0.9731
-0.3437 -6.4982 -2.0015 0.9731
0.2382 -6.5029 -2.0015 0.9731
1.3916 -6.3567 -2.0015 0.9731
1.9539 -6.2070 -2.0015 0.9731
2.5006 -6.0076 -2.0015 0.9731
3.5298 -5.4667 -2.0015 0.9731
4.0040 -5.1295 -2.0015 0.9731
5.9424 0.9708 -2.0015 0.9749
5.6748 2.0128 -2.0015 0.9749
5.2261 2.9905 -2.0015 0.9749
4.9380 3.4454 -2.0015 0.9749
3.8477 4.6314 -2.0015 0.9749
3.4186 4.9566 -2.0015 0.9749
2.9622 5.2422 -2.0015 0.9749
1.9820 5.6857 -2.0015 0.9749
0.4035 6.0077 -2.0015 0.9749
-2.2345 5.5913 -2.0015 0.9749
-2.7251 5.3693 -2.0015 0.9749
-3.6370 4.7987 -2.0015 0.9749
-4.0512 4.4546 -2.0015 0.9749
-4.4329 4.0748 -2.0015 0.9749
-5.0873 3.2210 -2.0015 0.9749
-5.5793 2.2642 -2.0015 0.9749
-5.7592 1.7568 -2.0015 0.9749
-5.8932 1.2353 -2.0015 0.9749
-6.0189 0.1668 -2.0015 0.9749
-6.0097 -0.3715 -2.0015 0.9749
-5.9525 -0.9069 -2.0015 0.9749
-5.8477 -1.4350 -2.0015 0.9749
-5.4990 -2.4528 -2.0015 0.9749
-5.2579 -2.9342 -2.0015 0.9749
-4.9748 -3.3922 -2.0015 0.9749
-4.6519 -3.8230 -2.0015 0.9749
-3.4717 -4.9196 -2.0015 0.9749
-2.5408 -5.4589 -2.0015 0.9749
-2.0430 -5.6640 -2.0015 0.9749
-1.0025 -5.9372 -2.0015 0.9749
-0.4680 -6.0030 -2.0015 0.9749
0.0701 -6.0208 -2.0015 0.9749
0.6077 -5.9905 -2.0015 0.9749
2.6672 -5.3983 -2.0015 0.9749
3.1388 -5.1384 -2.0015 0.9749
4.3889 -4.1222 -2.0015 0.9749
4.7396 -3.7137 -2.0015 0.9749
5.5546 -2.3241 -2.0015 0.9749
5.7400 -1.8186 -2.0015 0.9749
6.0168 -0.2315 -2.0015 0.9749
6.0134 0.3069 -2.0015 0.9749
5.9619 0.8429 -2.0015 0.9749
5.8628 1.3721 -2.0015 0.9749
5.7168 1.8904 -2.0015 0.9749
5.5251 2.3935 -2.0015 0.9749
4.6927 3.7728 -2.0015 0.9749
4.3369 4.1769 -2.0015 0.9749
3.9464 4.5477 -2.0015 0.9749
3.0741 5.1773 -2.0015 0.9749
2.5993 5.4313 -2.0015 0.9749
1.5913 5.8071 -2.0015 0.9749
1.0662 5.9261 -2.0015 0.9749
0.5325 5.9976 -2.0015 0.9749
-0.5433 5.9967 -2.0015 0.9749
-1.0768 5.9242 -2.0015 0.9749
-1.6017 5.8043 -2.0015 0.9749
-2.6090 5.4266 -2.0015 0.9749
-3.0834 5.1718 -2.0015 0.9749
-3.5331 4.8757 -2.0015 0.9749
-4.3443 4.1692 -2.0015 0.9749
-5.0169 3.3295 -2.0015 0.9749
-5.8652 1.3616 -2.0015 0.9749
-6.0139 0.2961 -2.0015 0.9749
-5.9706 -0.7788 -2.0015 0.9749
-5.8772 -1.3090 -2.0015 0.9749
-5.7368 -1.8288 -2.0015 0.9749
-5.3198 -2.8205 -2.0015 0.9749
-4.7329 -3.7222 -2.0015 0.9749
-4.3815 -4.1301 -2.0015 0.9749
-3.9950 -4.5050 -2.0015 0.9749
-3.5766 -4.8439 -2.0015 0.9749
-2.1642 -5.6188 -2.0015 0.9749
-1.1298 -5.9143 -2.0015 0.9749
-0.5969 -5.9916 -2.0015 0.9749
-0.0593 -6.0209 -2.0015 0.9749
0.4788 -6.0022 -2.0015 0.9749
1.0131 -5.9354 -2.0015 0.9749
2.5506 -5.4543 -2.0015 0.9749
3.9055 -4.5828 -2.0015 0.9749
4.6587 -3.8147 -2.0015 0.9749
4.9808 -3.3833 -2.0015 0.9749
5.2632 -2.9248 -2.0015 0.9749
5.5034 -2.4429 -2.0015 0.9749
5.8503 -1.4246 -2.0015 0.9749
5.9542 -0.8962 -2.0015 0.9749
6.0104 -0.3608 -2.0015 0.9749
6.0186 0.1776 -2.0015 0.9749
5.9787 0.7146 -2.0015 0.9749
5.7561 1.7671 -2.0015 0.9749
5.5752 2.2742 -2.0015 0.9749
5.3498 2.7632 -2.0015 0.9749
5.0815 3.2300 -2.0015 0.9749
4.7727 3.6711 -2.0015 0.9749
3.6284 4.8052 -2.0015 0.9749
3.1847 5.1101 -2.0015 0.9749
2.7154 5.3742 -2.0015 0.9749
2.2245 5.5952 -2.0015 0.9749
1.7158 5.7716 -2.0015 0.9749
1.1933 5.9018 -2.0015 0.9749
0.1240 6.0200 -2.0015 0.9749
-0.9492 5.9459 -2.0015 0.9749
-1.4766 5.8374 -2.0015 0.9749
-1.9922 5.6821 -2.0015 0.9749
-2.4918 5.4814 -2.0015 0.9749
-4.6174 3.8645 -2.0015 0.9749
-4.9442 3.4366 -2.0015 0.9749
-5.2314 2.9812 -2.0015 0.9749
-5.9860 -0.6503 -2.0015 0.9749
-5.7747 -1.7051 -2.0015 0.9749
-5.3791 -2.7055 -2.0015 0.9749
-5.1159 -3.1753 -2.0015 0.9749
-4.4692 -4.0350 -2.0015 0.9749
-3.6799 -4.7659 -2.0015 0.9749
-3.2394 -5.0756 -2.0015 0.9749
-2.7730 -5.3447 -2.0015 0.9749
-2.2845 -5.5710 -2.0015 0.9749
-1.7777 -5.7528 -2.0015 0.9749
-1.2567 -5.8886 -2.0015 0.9749
-0.7256 -5.9774 -2.0015 0.9749
-0.1887 -6.0183 -2.0015 0.9749
0.8853 -5.9558 -2.0015 0.9749
1.9310 -5.7032 -2.0015 0.9749
3.3741 -4.9871 -2.0015 0.9749
4.5756 -3.9139 -2.0015 0.9749
4.9070 -3.4895 -2.0015 0.9749
5.1991 -3.0372 -2.0015 0.9749
6.0013 -0.4898 -2.0015 0.9749
5.9163 1.1189 -2.0015 0.9749
5.7927 1.6430 -2.0015 0.9749
5.6228 2.1539 -2.0015 0.9749
5.4079 2.6476 -2.0015 0.9749
4.8505 3.5677 -2.0015 0.9749
4.1382 4.3739 -2.0015 0.9749
2.8303 5.3146 -2.0015 0.9749
2.3442 5.5461 -2.0015 0.9749
0.7898 5.9692 -2.0015 0.9749
0.2533 6.0159 -2.0015 0.9749
-2.3734 5.5337 -2.0015 0.9749
-2.8583 5.2996 -2.0015 0.9749
-3.3203 5.0230 -2.0015 0.9749
-5.1662 3.0929 -2.0015 0.9749
-5.6341 2.1242 -2.0015 0.9749
-5.8013 1.6124 -2.0015 0.9749
-5.9222 1.0877 -2.0015 0.9749
-5.9956 0.5543 -2.0015 0.9749
-6.0212 0.0165 -2.0015 0.9749
-5.6456 -2.0933 -2.0015 0.9749
-5.1830 -3.0646 -2.0015 0.9749
-4.1849 -4.3292 -2.0015 0.9749
-3.7814 -4.6857 -2.0015 0.9749
-3.3477 -5.0048 -2.0015 0.9749
-2.4037 -5.5206 -2.0015 0.9749
-1.3829 -5.8603 -2.0015 0.9749
0.7571 -5.9734 -2.0015 0.9749
1.2877 -5.8819 -2.0015 0.9749
1.8080 -5.7434 -2.0015 0.9749
2.3138 -5.5589 -2.0015 0.9749
2.8012 -5.3300 -2.0015 0.9749
3.2661 -5.0584 -2.0015 0.9749
3.7050 -4.7464 -2.0015 0.9749
4.1142 -4.3965 -2.0015 0.9749
5.5237 0.9024 -2.0015 0.9765
5.2749 1.8709 -2.0015 0.9765
5.0867 2.3347 -2.0015 0.9765
4.8578 2.7798 -2.0015 0.9765
4.2856 3.5999 -2.0015 0.9765
3.9469 3.9683 -2.0015 0.9765
3.5766 4.3050 -2.0015 0.9765
2.7534 4.8728 -2.0015 0.9765
1.8423 5.2850 -2.0015 0.9765
1.3628 5.4284 -2.0015 0.9765
0.8724 5.5285 -2.0015 0.9765
-0.6247 5.5619 -2.0015 0.9765
-1.1190 5.4839 -2.0015 0.9765
-1.6044 5.3620 -2.0015 0.9765
-2.9687 4.7447 -2.0015 0.9765
-3.7657 4.1406 -2.0015 0.9765
-4.4424 3.4044 -2.0015 0.9765
-4.9773 2.5596 -2.0015 0.9765
-5.3534 1.6330 -2.0015 0.9765
-5.4778 1.1482 -2.0015 0.9765
-5.5947 0.1551 -2.0015 0.9765
-5.1115 -2.2799 -2.0015 0.9765
-4.8874 -2.7274 -2.0015 0.9765
-4.3240 -3.5536 -2.0015 0.9765
-3.6226 -4.2664 -2.0015 0.9765
-3.2270 -4.5729 -2.0015 0.9765
-1.4211 -5.4135 -2.0015 0.9765
-0.4351 -5.5800 -2.0015 0.9765
0.5648 -5.5683 -2.0015 0.9765
1.5467 -5.3789 -2.0015 0.9765
2.0211 -5.2192 -2.0015 0.9765
3.7210 -4.1809 -2.0015 0.9765
4.4056 -3.4520 -2.0015 0.9765
4.6963 -3.0446 -2.0015 0.9765
5.1632 -2.1603 -2.0015 0.9765
5.3355 -1.6904 -2.0015 0.9765
5.5512 -0.7140 -2.0015 0.9765
5.5418 0.7835 -2.0015 0.9765
5.4496 1.2754 -2.0015 0.9765
5.1357 2.2248 -2.0015 0.9765
4.3620 3.5069 -2.0015 0.9765
3.2760 4.5380 -2.0015 0.9765
2.4161 5.0485 -2.0015 0.9765
0.9910 5.5085 -2.0015 0.9765
0.4950 5.5750 -2.0015 0.9765
-0.5050 5.5741 -2.0015 0.9765
-1.0009 5.5067 -2.0015 0.9765
-2.4252 5.0442 -2.0015 0.9765
-3.2841 4.5321 -2.0015 0.9765
-3.6758 4.2206 -2.0015 0.9765
-4.0382 3.8753 -2.0015 0.9765
-5.1397 2.2156 -2.0015 0.9765
-5.3170 1.7476 -2.0015 0.9765
-5.4519 1.2657 -2.0015 0.9765
-5.5499 -0.7239 -2.0015 0.9765
-5.4630 -1.2168 -2.0015 0.9765
-5.1593 -2.1695 -2.0015 0.9765
-4.9449 -2.6218 -2.0015 0.9765
-4.6909 -3.0530 -2.0015 0.9765
-4.3994 -3.4599 -2.0015 0.9765
-4.0727 -3.8390 -2.0015 0.9765
-3.7135 -4.1875 -2.0015 0.9765
-1.5371 -5.3817 -2.0015 0.9765
-0.5549 -5.5693 -2.0015 0.9765
-0.0551 -5.5966 -2.0015 0.9765
3.2352 -4.5671 -2.0015 0.9765
4.3304 -3.5459 -2.0015 0.9765
4.6298 -3.1448 -2.0015 0.9765
4.8923 -2.7187 -2.0015 0.9765
5.2980 -1.8047 -2.0015 0.9765
5.5346 -0.8331 -2.0015 0.9765
5.4758 1.1580 -2.0015 0.9765
5.1823 2.1140 -2.0015 0.9765
4.9728 2.5685 -2.0015 0.9765
4.7234 3.0024 -2.0015 0.9765
4.1137 3.7950 -2.0015 0.9765
3.3727 4.4665 -2.0015 0.9765
2.9603 4.7500 -2.0015 0.9765
1.5948 5.3649 -2.0015 0.9765
1.1092 5.4859 -2.0015 0.9765
0.6147 5.5630 -2.0015 0.9765
0.1153 5.5957 -2.0015 0.9765
-0.3851 5.5836 -2.0015 0.9765
-0.8823 5.5269 -2.0015 0.9765
-1.3726 5.4260 -2.0015 0.9765
-1.8518 5.2817 -2.0015 0.9765
-2.7621 4.8679 -2.0015 0.9765
-3.1859 4.6016 -2.0015 0.9765
-3.5843 4.2986 -2.0015 0.9765
-3.9540 3.9612 -2.0015 0.9765
-4.2920 3.5922 -2.0015 0.9765
-4.5958 3.1944 -2.0015 0.9765
-4.8627 2.7711 -2.0015 0.9765
-5.2783 1.8615 -2.0015 0.9765
-5.5253 0.8925 -2.0015 0.9765
-5.5829 0.3954 -2.0015 0.9765
-5.5959 -0.1050 -2.0015 0.9765
-5.5642 -0.6045 -2.0015 0.9765
-5.0000 -2.5149 -2.0015 0.9765
-4.4727 -3.3645 -2.0015 0.9765
-3.8026 -4.1067 -2.0015 0.9765
-3.4205 -4.4300 -2.0015 0.9765
-2.5776 -4.9680 -2.0015 0.9765
-2.1235 -5.1784 -2.0015 0.9765
-1.1681 -5.4736 -2.0015 0.9765
-0.6744 -5.5561 -2.0015 0.9765
-0.1754 -5.5941 -2.0015 0.9765
1.3142 -5.4404 -2.0015 0.9765
1.7949 -5.3013 -2.0015 0.9765
2.2613 -5.1197 -2.0015 0.9765
2.7097 -4.8972 -2.0015 0.9765
3.5379 -4.3369 -2.0015 0.9765
3.9112 -4.0035 -2.0015 0.9765
4.2532 -3.6381 -2.0015 0.9765
5.0656 -2.3802 -2.0015 0.9765
5.2580 -1.9181 -2.0015 0.9765
5.4083 -1.4407 -2.0015 0.9765
5.5154 -0.9518 -2.0015 0.9765
5.5967 0.0448 -2.0015 0.9765
5.5703 0.5446 -2.0015 0.9765
5.2265 2.0021 -2.0015 0.9765
5.0268 2.4610 -2.0015 0.9765
4.1944 3.7058 -2.0015 0.9765
3.8465 4.0656 -2.0015 0.9765
3.4679 4.3930 -2.0015 0.9765
2.1790 5.1553 -2.0015 0.9765
1.7098 5.3293 -2.0015 0.9765
0.7341 5.5485 -2.0015 0.9765
0.2355 5.5919 -2.0015 0.9765
-0.2650 5.5906 -2.0015 0.9765
-2.6569 4.9261 -2.0015 0.9765
-3.4911 4.3747 -2.0015 0.9765
-3.8679 4.0453 -2.0015 0.9765
-4.5260 3.2924 -2.0015 0.9765
-4.8021 2.8749 -2.0015 0.9765
-5.0397 2.4344 -2.0015 0.9765
-5.2370 1.9745 -2.0015 0.9765
-5.5731 0.5152 -2.0015 0.9765
-5.5758 -0.4847 -2.0015 0.9765
-5.4006 -1.4692 -2.0015 0.9765
-5.2477 -1.9458 -2.0015 0.9765
-4.8177 -2.8486 -2.0015 0.9765
-4.5440 -3.2676 -2.0015 0.9765
-3.1118 -4.6521 -2.0015 0.9765
-2.6838 -4.9115 -2.0015 0.9765
-2.2343 -5.1316 -2.0015 0.9765
-1.2854 -5.4473 -2.0015 0.9765
-0.7937 -5.5403 -2.0015 0.9765
0.2049 -5.5931 -2.0015 0.9765
1.6806 -5.3386 -2.0015 0.9765
2.1508 -5.1671 -2.0015 0.9765
2.6038 -4.9544 -2.0015 0.9765
3.0360 -4.7019 -2.0015 0.9765
3.4439 -4.4119 -2.0015 0.9765
3.8242 -4.0866 -2.0015 0.9765
5.2091 0.3783 -2.0015 0.9779
5.1545 0.8421 -2.0015 0.9779
4.9224 1.7459 -2.0015 0.9779
4.7467 2.1787 -2.0015 0.9779
4.5331 2.5940 -2.0015 0.9779
3.9992 3.3593 -2.0015 0.9779
3.3375 4.0173 -2.0015 0.9779
2.9653 4.2994 -2.0015 0.9779
1.7192 4.9318 -2.0015 0.9779
1.2718 5.0656 -2.0015 0.9779
-0.1169 5.2215 -2.0015 0.9779
-1.0442 5.1174 -2.0015 0.9779
-1.4972 5.0036 -2.0015 0.9779
-2.3637 4.6573 -2.0015 0.9779
-2.7703 4.4276 -2.0015 0.9779
-3.1548 4.1624 -2.0015 0.9779
-3.5140 3.8639 -2.0015 0.9779
-4.1455 3.1769 -2.0015 0.9779
-4.4128 2.7939 -2.0015 0.9779
-4.6447 2.3885 -2.0015 0.9779
-4.9409 -1.6929 -2.0015 0.9779
-4.7699 -2.1275 -2.0015 0.9779
-4.0350 -3.3161 -2.0015 0.9779
-3.7227 -3.6633 -2.0015 0.9779
-3.0113 -4.2673 -2.0015 0.9779
-2.6181 -4.5193 -2.0015 0.9779
-1.7721 -4.9130 -2.0015 0.9779
-1.3261 -5.0517 -2.0015 0.9779
-0.4060 -5.2070 -2.0015 0.9779
0.9892 -5.1283 -2.0015 0.9779
1.4434 -5.0194 -2.0015 0.9779
2.3136 -4.6825 -2.0015 0.9779
2.7226 -4.4571 -2.0015 0.9779
3.1099 -4.1960 -2.0015 0.9779
3.8069 -3.5757 -2.0015 0.9779
4.1112 -3.2213 -2.0015 0.9779
4.9789 -1.5774 -2.0015 0.9779
5.2161 0.2662 -2.0015 0.9779
5.1714 0.7311 -2.0015 0.9779
5.0854 1.1902 -2.0015 0.9779
4.7925 2.0761 -2.0015 0.9779
4.5878 2.4960 -2.0015 0.9779
3.4231 3.9447 -2.0015 0.9779
3.0570 4.2347 -2.0015 0.9779
2.6665 4.4909 -2.0015 0.9779
2.2547 4.7111 -2.0015 0.9779
1.3803 5.0371 -2.0015 0.9779
0.9248 5.1403 -2.0015 0.9779
0.4619 5.2024 -2.0015 0.9779
-0.4712 5.2015 -2.0015 0.9779
-0.9340 5.1387 -2.0015 0.9779
-1.3893 5.0347 -2.0015 0.9779
-2.2631 4.7071 -2.0015 0.9779
-3.7683 3.6164 -2.0015 0.9779
-4.0763 3.2653 -2.0015 0.9779
-4.3517 2.8881 -2.0015 0.9779
-4.7962 2.0676 -2.0015 0.9779
-4.9617 1.6308 -2.0015 0.9779
-5.0875 1.1811 -2.0015 0.9779
-5.2165 0.2569 -2.0015 0.9779
-5.2186 -0.2102 -2.0015 0.9779
-5.0979 -1.1355 -2.0015 0.9779
-4.9761 -1.5863 -2.0015 0.9779
-4.1054 -3.2286 -2.0015 0.9779
-3.4653 -3.9077 -2.0015 0.9779
-3.1024 -4.2016 -2.0015 0.9779
-0.9800 -5.1301 -2.0015 0.9779
0.4153 -5.2063 -2.0015 0.9779
0.8788 -5.1484 -2.0015 0.9779
1.7809 -4.9098 -2.0015 0.9779
2.2124 -4.7311 -2.0015 0.9779
3.0190 -4.2619 -2.0015 0.9779
3.3877 -3.9752 -2.0015 0.9779
3.7292 -3.6566 -2.0015 0.9779
4.0410 -3.3089 -2.0015 0.9779
5.0746 -1.2357 -2.0015 0.9779
5.2135 -0.3129 -2.0015 0.9779
5.2206 0.1541 -2.0015 0.9779
5.1859 0.6198 -2.0015 0.9779
4.9929 1.5328 -2.0015 0.9779
4.8360 1.9727 -2.0015 0.9779
4.4078 2.8018 -2.0015 0.9779
3.8388 3.5414 -2.0015 0.9779
3.5071 3.8702 -2.0015 0.9779
2.7624 4.4325 -2.0015 0.9779
1.0351 5.1193 -2.0015 0.9779
0.5736 5.1912 -2.0015 0.9779
0.1076 5.2217 -2.0015 0.9779
-0.3594 5.2105 -2.0015 0.9779
-1.7280 4.9287 -2.0015 0.9779
-2.9730 4.2941 -2.0015 0.9779
-3.3447 4.0113 -2.0015 0.9779
-4.7506 2.1702 -2.0015 0.9779
-5.1560 0.8329 -2.0015 0.9779
-5.2098 0.3689 -2.0015 0.9779
-5.2219 -0.0980 -2.0015 0.9779
-5.1923 -0.5641 -2.0015 0.9779
-5.1211 -1.0256 -2.0015 0.9779
-5.0090 -1.4790 -2.0015 0.9779
-4.8569 -1.9206 -2.0015 0.9779
-4.4376 -2.7542 -2.0015 0.9779
-4.1738 -3.1397 -2.0015 0.9779
-3.8766 -3.5000 -2.0015 0.9779
-3.1919 -4.1340 -2.0015 0.9779
-1.5420 -4.9900 -2.0015 0.9779
-0.6294 -5.1848 -2.0015 0.9779
0.3033 -5.2140 -2.0015 0.9779
0.7679 -5.1661 -2.0015 0.9779
1.6750 -4.9470 -2.0015 0.9779
2.1102 -4.7776 -2.0015 0.9779
2.5286 -4.5700 -2.0015 0.9779
2.9267 -4.3258 -2.0015 0.9779
3.6498 -3.7360 -2.0015 0.9779
3.9689 -3.3950 -2.0015 0.9779
4.5097 -2.6345 -2.0015 0.9779
5.1468 -0.8882 -2.0015 0.9779
5.1981 0.5082 -2.0015 0.9779
5.1319 0.9706 -2.0015 0.9779
5.0247 1.4251 -2.0015 0.9779
4.4669 2.7064 -2.0015 0.9779
4.2073 3.0946 -2.0015 0.9779
2.8570 4.3721 -2.0015 0.9779
2.0334 4.8108 -2.0015 0.9779
0.2198 5.2182 -2.0015 0.9779
-0.7123 5.1740 -2.0015 0.9779
-1.6217 4.9647 -2.0015 0.9779
-2.0587 4.8000 -2.0015 0.9779
-3.2578 4.0823 -2.0015 0.9779
-3.6094 3.7750 -2.0015 0.9779
-4.4812 2.6828 -2.0015 0.9779
-4.7029 2.2718 -2.0015 0.9779
-5.2228 0.0143 -2.0015 0.9779
-5.2032 -0.4523 -2.0015 0.9779
-5.1420 -0.9154 -2.0015 0.9779
-5.0397 -1.3710 -2.0015 0.9779
-4.8970 -1.8158 -2.0015 0.9779
-4.7153 -2.2460 -2.0015 0.9779
-4.4958 -2.6582 -2.0015 0.9779
-4.2403 -3.0492 -2.0015 0.9779
-3.6300 -3.7551 -2.0015 0.9779
-2.9038 -4.3412 -2.0015 0.9779
-2.5044 -4.5832 -2.0015 0.9779
-2.0850 -4.7886 -2.0015 0.9779
-0.7406 -5.1701 -2.0015 0.9779
0.1912 -5.2193 -2.0015 0.9779
1.1170 -5.1020 -2.0015 0.9779
1.5683 -4.9818 -2.0015 0.9779
2.0070 -4.8218 -2.0015 0.9779
2.4298 -4.6232 -2.0015 0.9779
2.8331 -4.3877 -2.0015 0.9779
4.8775 0.3542 -2.0015 0.9791
4.8263 0.7885 -2.0015 0.9791
4.7366 1.2165 -2.0015 0.9791
4.4445 2.0400 -2.0015 0.9791
4.0106 2.7983 -2.0015 0.9791
3.7446 3.1454 -2.0015 0.9791
3.1251 3.7616 -2.0015 0.9791
2.4058 4.2576 -2.0015 0.9791
2.0158 4.4555 -2.0015 0.9791
1.1908 4.7431 -2.0015 0.9791
-0.1095 4.8891 -2.0015 0.9791
-0.5458 4.8598 -2.0015 0.9791
-1.4019 4.6851 -2.0015 0.9791
-2.2132 4.3608 -2.0015 0.9791
-2.5940 4.1457 -2.0015 0.9791
-2.9539 3.8974 -2.0015 0.9791
-3.2903 3.6179 -2.0015 0.9791
-3.6003 3.3095 -2.0015 0.9791
-3.8816 2.9747 -2.0015 0.9791
-4.5314 1.8390 -2.0015 0.9791
-4.6776 1.4268 -2.0015 0.9791
-4.7863 1.0033 -2.0015 0.9791
-1.9549 0.2301 -0.8056 0.9915
-1.9478 -0.1204 -0.7987 0.9916
-4.7494 -1.1655 -2.0015 0.9791
-3.7781 -3.1050 -2.0015 0.9791
-3.4857 -3.4301 -2.0015 0.9791
-3.1653 -3.7278 -2.0015 0.9791
-2.8196 -3.9956 -2.0015 0.9791
-2.4514 -4.2315 -2.0015 0.9791
-2.0636 -4.4336 -2.0015 0.9791
-1.6593 -4.6002 -2.0015 0.9791
-0.3801 -4.8755 -2.0015 0.9791
0.0569 -4.8900 -2.0015 0.9791
0.9262 -4.8018 -2.0015 0.9791
1.3515 -4.6999 -2.0015 0.9791
2.5493 -4.1733 -2.0015 0.9791
3.2512 -3.6531 -2.0015 0.9791
3.8494 -3.0162 -2.0015 0.9791
4.1035 -2.6603 -2.0015 0.9791
4.3247 -2.2830 -2.0015 0.9791
4.6619 -1.4770 -2.0015 0.9791
4.7753 -1.0546 -2.0015 0.9791
4.8840 0.2493 -2.0015 0.9791
4.8422 0.6846 -2.0015 0.9791
4.6431 1.5353 -2.0015 0.9791
4.4874 1.9440 -2.0015 0.9791
4.0698 2.7115 -2.0015 0.9791
3.2052 3.6935 -2.0015 0.9791
2.8624 3.9651 -2.0015 0.9791
1.7086 4.5821 -2.0015 0.9791
0.8659 4.8131 -2.0015 0.9791
0.4325 4.8712 -2.0015 0.9791
-0.0044 4.8903 -2.0015 0.9791
-0.4412 4.8704 -2.0015 0.9791
-1.3009 4.7141 -2.0015 0.9791
-1.7168 4.5791 -2.0015 0.9791
-2.1190 4.4074 -2.0015 0.9791
-2.8695 3.9600 -2.0015 0.9791
-3.2118 3.6878 -2.0015 0.9791
-3.5284 3.3861 -2.0015 0.9791
-4.6458 1.5270 -2.0015 0.9791
-1.9342 -0.0779 -0.7923 0.9917
-4.7734 -1.0632 -2.0015 0.9791
-4.6593 -1.4854 -2.0015 0.9791
-4.5080 -1.8956 -2.0015 0.9791
-4.0987 -2.6676 -2.0015 0.9791
-3.8440 -3.0231 -2.0015 0.9791
-2.5418 -4.1779 -2.0015 0.9791
-0.9176 -4.8035 -2.0015 0.9791
-0.4848 -4.8662 -2.0015 0.9791
1.2502 -4.7278 -2.0015 0.9791
2.8268 -3.9906 -2.0015 0.9791
3.4918 -3.4238 -2.0015 0.9791
3.7837 -3.0982 -2.0015 0.9791
4.0454 -2.7478 -2.0015 0.9791
4.4698 -1.9841 -2.0015 0.9791
4.6291 -1.5769 -2.0015 0.9791
4.7515 -1.1570 -2.0015 0.9791
4.7845 1.0118 -2.0015 0.9791
4.6750 1.4352 -2.0015 0.9791
4.3450 2.2442 -2.0015 0.9791
3.5944 3.3160 -2.0015 0.9791
1.8067 4.5444 -2.0015 0.9791
0.1007 4.8893 -2.0015 0.9791
-0.3365 4.8787 -2.0015 0.9791
-0.7710 4.8292 -2.0015 0.9791
-3.7502 3.1387 -2.0015 0.9791
-4.0156 2.7911 -2.0015 0.9791
-1.9521 0.1382 -0.8010 0.9916
-4.7951 -0.9603 -2.0015 0.9791
-4.6901 -1.3849 -2.0015 0.9791
-4.1551 -2.5789 -2.0015 0.9791
-3.9081 -2.9398 -2.0015 0.9791
-3.6298 -3.2771 -2.0015 0.9791
-3.3226 -3.5883 -2.0015 0.9791
-2.9887 -3.8708 -2.0015 0.9791
-2.2522 -4.3408 -2.0015 0.9791
-1.0206 -4.7826 -2.0015 0.9791
-0.5893 -4.8547 -2.0015 0.9791
-0.1532 -4.8879 -2.0015 0.9791
0.2840 -4.8821 -2.0015 0.9791
0.7190 -4.8372 -2.0015 0.9791
1.5683 -4.6320 -2.0015 0.9791
3.0913 -3.7894 -2.0015 0.9791
3.7163 -3.1788 -2.0015 0.9791
3.9854 -2.8341 -2.0015 0.9791
4.2226 -2.4668 -2.0015 0.9791
4.4261 -2.0797 -2.0015 0.9791
4.7255 -1.2589 -2.0015 0.9791
4.8191 -0.8317 -2.0015 0.9791
4.8741 -0.3978 -2.0015 0.9791
4.8902 0.0392 -2.0015 0.9791
4.8671 0.4759 -2.0015 0.9791
4.8052 0.9088 -2.0015 0.9791
4.3922 2.1503 -2.0015 0.9791
4.1825 2.5341 -2.0015 0.9791
3.9394 2.8976 -2.0015 0.9791
3.6649 3.2379 -2.0015 0.9791
3.3609 3.5524 -2.0015 0.9791
3.0301 3.8384 -2.0015 0.9791
1.9039 4.5045 -2.0015 0.9791
1.4939 4.6566 -2.0015 0.9791
1.0720 4.7714 -2.0015 0.9791
0.6414 4.8481 -2.0015 0.9791
-0.2315 4.8848 -2.0015 0.9791
-0.6670 4.8446 -2.0015 0.9791
-1.0971 4.7657 -2.0015 0.9791
-1.5185 4.6486 -2.0015 0.9791
-1.9277 4.4944 -2.0015 0.9791
-2.3215 4.3042 -2.0015 0.9791
-3.3796 3.5346 -2.0015 0.9791
-3.6819 3.2186 -2.0015 0.9791
-4.1958 2.5120 -2.0015 0.9791
-4.4035 2.1271 -2.0015 0.9791
-4.7117 1.3096 -2.0015 0.9791
-2.1834 0.4010 -0.9086 0.9905
-1.9007 0.0052 -0.7779 0.9918
-1.9577 -0.1702 -0.8043 0.9915
-2.1606 -0.3846 -0.8982 0.9906
-4.5853 -1.7002 -2.0015 0.9791
-4.4151 -2.1030 -2.0015 0.9791
-2.3450 -4.2914 -2.0015 0.9791
-1.9522 -4.4838 -2.0015 0.9791
-0.2583 -4.8835 -2.0015 0.9791
0.1790 -4.8871 -2.0015 0.9791
1.0458 -4.7772 -2.0015 0.9791
1.4684 -4.6647 -2.0015 0.9791
2.2751 -4.3289 -2.0015 0.9791
3.6471 -3.2579 -2.0015 0.9791
4.3283 1.5352 -2.0015 0.9802
3.9860 2.2809 -2.0015 0.9802
3.7663 2.6279 -2.0015 0.9802
3.5165 2.9538 -2.0015 0.9802
2.9347 3.5325 -2.0015 0.9802
2.6074 3.7805 -2.0015 0.9802
2.2593 3.9983 -2.0015 0.9802
1.8931 4.1842 -2.0015 0.9802
1.5117 4.3366 -2.0015 0.9802
0.7159 4.5364 -2.0015 0.9802
0.3078 4.5822 -2.0015 0.9802
-0.5125 4.5638 -2.0015 0.9802
-0.9182 4.4998 -2.0015 0.9802
-2.0784 4.0953 -2.0015 0.9802
-2.4360 3.8932 -2.0015 0.9802
-2.7740 3.6600 -2.0015 0.9802
-3.3811 3.1080 -2.0015 0.9802
-3.6452 2.7935 -2.0015 0.9802
-4.0841 2.1002 -2.0015 0.9802
-1.5762 0.4808 -0.7182 0.9928
-1.5150 0.3176 -0.6746 0.9933
-1.5227 0.1792 -0.6682 0.9933
-1.5296 -0.0946 -0.6679 0.9933
-1.5420 -0.3784 -0.6919 0.9931
-4.1942 -1.8708 -2.0015 0.9802
-4.0103 -2.2380 -2.0015 0.9802
-3.7943 -2.5873 -2.0015 0.9802
-3.2734 -3.2212 -2.0015 0.9802
-2.9725 -3.5007 -2.0015 0.9802
-2.6479 -3.7523 -2.0015 0.9802
-2.3021 -3.9738 -2.0015 0.9802
-1.9379 -4.1636 -2.0015 0.9802
-1.5582 -4.3201 -2.0015 0.9802
-0.7646 -4.5284 -2.0015 0.9802
-0.3570 -4.5786 -2.0015 0.9802
0.0535 -4.5922 -2.0015 0.9802
0.8698 -4.5094 -2.0015 0.9802
1.2692 -4.4137 -2.0015 0.9802
2.0343 -4.1174 -2.0015 0.9802
2.3940 -3.9192 -2.0015 0.9802
3.0532 -3.4306 -2.0015 0.9802
3.3475 -3.1441 -2.0015 0.9802
4.3780 -1.3871 -2.0015 0.9802
4.5550 -0.5858 -2.0015 0.9802
4.5865 0.2341 -2.0015 0.9802
4.5473 0.6429 -2.0015 0.9802
4.3603 1.4418 -2.0015 0.9802
4.2141 1.8256 -2.0015 0.9802
4.0341 2.1947 -2.0015 0.9802
3.8219 2.5463 -2.0015 0.9802
3.5792 2.8776 -2.0015 0.9802
3.3078 3.1858 -2.0015 0.9802
3.0100 3.4686 -2.0015 0.9802
2.6881 3.7236 -2.0015 0.9802
2.3447 3.9489 -2.0015 0.9802
1.9826 4.1425 -2.0015 0.9802
1.6046 4.3031 -2.0015 0.9802
1.2137 4.4292 -2.0015 0.9802
-0.4144 4.5738 -2.0015 0.9802
-0.8213 4.5185 -2.0015 0.9802
-1.6123 4.3002 -2.0015 0.9802
-1.9900 4.1390 -2.0015 0.9802
-2.6947 3.7187 -2.0015 0.9802
-3.0162 3.4632 -2.0015 0.9802
-3.3135 3.1799 -2.0015 0.9802
-3.8265 2.5395 -2.0015 0.9802
-4.2173 1.8180 -2.0015 0.9802
-1.5326 0.3558 -0.6857 0.9932
-1.5294 0.0753 -0.6673 0.9933
-1.5288 -0.0616 -0.6668 0.9933
-1.5193 -0.1982 -0.6678 0.9933
-1.5822 -0.5044 -0.7237 0.9928
-4.2334 -1.7802 -2.0015 0.9802
-4.0575 -2.1513 -2.0015 0.9802
-3.8491 -2.5051 -2.0015 0.9802
-3.6099 -2.8390 -2.0015 0.9802
-3.0471 -3.4360 -2.0015 0.9802
-2.3870 -3.9234 -2.0015 0.9802
-0.8617 -4.5109 -2.0015 0.9802
-0.4553 -4.5699 -2.0015 0.9802
-0.0452 -4.5923 -2.0015 0.9802
1.5660 -4.3173 -2.0015 0.9802
1.9454 -4.1601 -2.0015 0.9802
3.5533 -2.9095 -2.0015 0.9802
3.7990 -2.5805 -2.0015 0.9802
4.0143 -2.2308 -2.0015 0.9802
4.3472 -1.4808 -2.0015 0.9802
4.4621 -1.0865 -2.0015 0.9802
4.5413 -0.6836 -2.0015 0.9802
4.2523 1.7346 -2.0015 0.9802
3.3755 3.1140 -2.0015 0.9802
3.0838 3.4031 -2.0015 0.9802
1.6967 4.2676 -2.0015 0.9802
1.3086 4.4021 -2.0015 0.9802
-0.7240 4.5351 -2.0015 0.9802
-1.9006 4.1808 -2.0015 0.9802
-2.2664 3.9943 -2.0015 0.9802
-2.9411 3.5272 -2.0015 0.9802
-3.9901 2.2738 -2.0015 0.9802
-4.1773 1.9082 -2.0015 0.9802
-1.5937 0.5621 -0.7365 0.9927
-1.5085 0.2437 -0.6659 0.9934
-1.5261 -0.0286 -0.6652 0.9934
-1.5247 -0.1656 -0.6684 0.9933
-1.5072 -0.3019 -0.6699 0.9933
-3.9020 -2.4218 -2.0015 0.9802
-3.4088 -3.0776 -2.0015 0.9802
-3.1202 -3.3698 -2.0015 0.9802
-2.8067 -3.6350 -2.0015 0.9802
-2.4708 -3.8712 -2.0015 0.9802
-1.7424 -4.2491 -2.0015 0.9802
-1.3559 -4.3878 -2.0015 0.9802
-0.5534 -4.5590 -2.0015 0.9802
-0.1439 -4.5902 -2.0015 0.9802
0.6752 -4.5426 -2.0015 0.9802
1.0783 -4.4641 -2.0015 0.9802
1.4728 -4.3499 -2.0015 0.9802
1.8555 -4.2010 -2.0015 0.9802
2.5735 -3.8037 -2.0015 0.9802
3.2093 -3.2851 -2.0015 0.9802
3.4899 -2.9852 -2.0015 0.9802
3.9655 -2.3165 -2.0015 0.9802
4.1565 -1.9530 -2.0015 0.9802
4.4377 -1.1822 -2.0015 0.9802
4.5773 -0.3736 -2.0015 0.9802
4.5707 0.4469 -2.0015 0.9802
4.4182 1.2531 -2.0015 0.9802
3.9278 2.3798 -2.0015 0.9802
3.6995 2.7211 -2.0015 0.9802
3.1563 3.3360 -2.0015 0.9802
2.8456 3.6047 -2.0015 0.9802
0.6024 4.5528 -2.0015 0.9802
0.1932 4.5884 -2.0015 0.9802
-0.2174 4.5873 -2.0015 0.9802
-1.0303 4.4754 -2.0015 0.9802
-1.4260 4.3655 -2.0015 0.9802
-2.1801 4.0421 -2.0015 0.9802
-2.8646 3.5896 -2.0015 0.9802
-3.4576 3.0226 -2.0015 0.9802
-3.7138 2.7016 -2.0015 0.9802
-4.1353 1.9976 -2.0015 0.9802
-4.2972 1.6202 -2.0015 0.9802
-1.5622 0.4342 -0.7067 0.9930
-1.4986 0.2752 -0.6640 0.9934
-1.5228 0.0042 -0.6637 0.9934
-1.5013 -0.2673 -0.6646 0.9934
-1.5588 -0.4241 -0.7041 0.9930
-3.4741 -3.0036 -2.0015 0.9802
-3.1919 -3.3019 -2.0015 0.9802
-2.5534 -3.8172 -2.0015 0.9802
-1.0548 -4.4697 -2.0015 0.9802
0.1681 -4.5894 -2.0015 0.9802
0.9822 -4.4863 -2.0015 0.9802
1.3790 -4.3806 -2.0015 0.9802
1.7648 -4.2399 -2.0015 0.9802
2.8258 -3.6202 -2.0015 0.9802
4.3126 0.3132 -2.0015 0.9811
4.0752 1.4454 -2.0015 0.9811
3.9298 1.8037 -2.0015 0.9811
3.5461 2.4742 -2.0015 0.9811
3.0492 3.0658 -2.0015 0.9811
2.7631 3.3259 -2.0015 0.9811
2.4550 3.5594 -2.0015 0.9811
1.4233 4.0830 -2.0015 0.9811
1.0529 4.1938 -2.0015 0.9811
-0.0968 4.3229 -2.0015 0.9811
-0.8645 4.2366 -2.0015 0.9811
-1.2395 4.1425 -2.0015 0.9811
-1.9569 3.8558 -2.0015 0.9811
-2.6118 3.4460 -2.0015 0.9811
-3.1834 2.9262 -2.0015 0.9811
-3.4320 2.6301 -2.0015 0.9811
-3.6533 2.3130 -2.0015 0.9811
-1.3279 0.5389 -0.6634 0.9937
-1.3047 0.2735 -0.6170 0.9941
-1.3332 0.1569 -0.6214 0.9941
-1.3369 0.0371 -0.6191 0.9941
-1.3385 -0.0828 -0.6208 0.9941
-1.3249 -0.2019 -0.6204 0.9941
-1.3336 -0.4570 -0.6526 0.9938
-3.7758 -2.1071 -2.0015 0.9811
-3.5725 -2.4360 -2.0015 0.9811
-2.4931 -3.5329 -2.0015 0.9811
-1.8246 -3.9201 -2.0015 0.9811
-1.0979 -4.1823 -2.0015 0.9811
-0.7199 -4.2636 -2.0015 0.9811
-0.3361 -4.3109 -2.0015 0.9811
0.4364 -4.3019 -2.0015 0.9811
1.9154 -3.8766 -2.0015 0.9811
3.4036 -2.6669 -2.0015 0.9811
3.6282 -2.3522 -2.0015 0.9811
3.9889 -1.6690 -2.0015 0.9811
4.1220 -1.3059 -2.0015 0.9811
4.2222 -0.9325 -2.0015 0.9811
4.2886 -0.5516 -2.0015 0.9811
4.2814 0.6053 -2.0015 0.9811
4.2102 0.9853 -2.0015 0.9811
4.1053 1.3575 -2.0015 0.9811
3.9676 1.7188 -2.0015 0.9811
3.5984 2.3974 -2.0015 0.9811
3.3699 2.7093 -2.0015 0.9811
2.2076 3.7179 -2.0015 0.9811
1.5107 4.0514 -2.0015 0.9811
0.7656 4.2556 -2.0015 0.9811
-0.0039 4.3239 -2.0015 0.9811
-0.3901 4.3063 -2.0015 0.9811
-0.7733 4.2542 -2.0015 0.9811
-1.5180 4.0487 -2.0015 0.9811
-2.8398 3.2607 -2.0015 0.9811
-3.1197 2.9939 -2.0015 0.9811
-3.3747 2.7033 -2.0015 0.9811
-3.6027 2.3910 -2.0015 0.9811
-1.3317 0.4377 -0.6489 0.9938
-1.3022 0.3023 -0.6188 0.9941
-1.3284 0.1854 -0.6208 0.9941
