ply
format ascii 1.0
element vertex 1567
property float32 x
property float32 y
property float32 z
property float32 I
end_header
-3.7839 -16.7554 -1.2595 0.9334
-2.2394 -16.7688 -1.2404 0.9344
2.2879 -16.8083 -1.2438 0.9342
9.0549 -16.8673 -1.4037 0.9261
13.5536 13.9045 -1.4237 0.9251
11.4195 14.0274 -1.3262 0.9300
6.1584 13.9690 -1.1194 0.9406
4.8413 14.3264 -1.1088 0.9412
-9.5906 -11.4398 -1.0946 0.9419
-2.7332 -16.7645 -1.2454 0.9341
1.8181 -17.0179 -1.2549 0.9337
3.3352 -16.8175 -1.2571 0.9335
6.8523 -17.4350 -1.3736 0.9276
8.2659 -16.5246 -1.3548 0.9286
10.0071 13.9354 -1.2579 0.9335
6.6441 13.9647 -1.1339 0.9399
-4.8702 -16.9485 -1.2930 0.9317
1.3219 -17.0056 -1.2506 0.9339
7.8962 -16.9938 -1.3740 0.9276
12.7276 13.9117 -1.3825 0.9272
7.1430 13.9604 -1.1498 0.9390
5.5175 18.2075 -1.3950 0.9265
-7.1179 -16.9290 -1.3465 0.9290
-3.7349 -16.7558 -1.2587 0.9335
3.9426 -17.0364 -1.2822 0.9323
7.3373 -17.0627 -1.3618 0.9282
9.1158 -16.8679 -1.4058 0.9260
11.2712 13.9244 -1.3135 0.9307
9.3573 13.9411 -1.2311 0.9349
6.1121 13.9694 -1.1180 0.9407
4.7973 14.3277 -1.1079 0.9412
-9.5437 -11.4485 -1.0928 0.9420
-4.2983 -16.9628 -1.2831 0.9322
-2.6853 -16.7650 -1.2449 0.9342
3.3841 -16.8179 -1.2578 0.9335
6.8468 -17.2795 -1.3628 0.9282
8.3098 -16.4973 -1.3544 0.9286
12.0362 14.0220 -1.3549 0.9286
9.9487 13.9359 -1.2555 0.9336
8.1863 13.9513 -1.1860 0.9372
6.5966 13.9652 -1.1324 0.9399
5.4892 14.9473 -1.1675 0.9381
6.4836 -18.1651 -1.8517 0.9254
12.4421 -14.7651 -1.8537 0.9253
13.7131 -13.5991 -1.8541 0.9253
14.8750 -12.3239 -1.8545 0.9253
16.3520 -11.2478 -1.9054 0.9233
15.3990 11.6660 -1.8547 0.9253
12.7984 13.9111 -1.8148 0.9269
10.6867 13.9295 -1.6855 0.9319
7.1920 13.9600 -1.5076 0.9388
5.6846 13.9731 -1.4482 0.9412
5.5157 18.0205 -1.8093 0.9271
-4.5580 18.7018 -1.8480 0.9256
-7.8049 17.5834 -1.8469 0.9256
-9.3401 16.8121 -1.8464 0.9256
-10.8001 15.9074 -1.8459 0.9256
-13.4491 13.7278 -1.8450 0.9257
-14.6172 12.4703 -1.8446 0.9257
-16.5950 9.6701 -1.8440 0.9257
-10.5292 -16.0887 -1.8460 0.9256
-8.9164 -16.7106 -1.8184 0.9267
-7.1731 -16.9282 -1.7651 0.9288
-3.7839 -16.7554 -1.6491 0.9333
-2.2394 -16.7688 -1.6242 0.9343
-0.8359 -19.2437 -1.8492 0.9255
2.2879 -16.8083 -1.6286 0.9341
5.9563 -18.3428 -1.8515 0.9254
7.2799 -17.0600 -1.7807 0.9282
9.0549 -16.8673 -1.8379 0.9260
12.0100 -15.1167 -1.8536 0.9254
14.5123 -12.7471 -1.8544 0.9253
17.4791 8.2456 -1.8554 0.9253
16.6711 9.7709 -1.8552 0.9253
14.6636 12.5740 -1.8545 0.9253
9.4134 13.9406 -1.6149 0.9346
7.7070 13.9555 -1.5305 0.9379
6.1584 13.9690 -1.4656 0.9405
4.5182 18.7442 -1.8511 0.9254
1.1138 19.2369 -1.8499 0.9255
-0.6069 19.2535 -1.8493 0.9255
-4.0170 18.8273 -1.8482 0.9256
-13.0484 14.1111 -1.8452 0.9257
-15.3424 11.5622 -1.8444 0.9257
-14.7640 -12.2950 -1.8445 0.9257
-10.9881 -15.7769 -1.8458 0.9257
-9.5390 -16.6989 -1.8463 0.9256
-7.7585 -16.9325 -1.7881 0.9279
-4.3480 -16.9604 -1.6809 0.9321
-2.7332 -16.7645 -1.6307 0.9340
-1.2293 -16.9815 -1.6346 0.9339
1.8180 -17.0168 -1.6430 0.9335
6.8529 -17.4367 -1.7987 0.9275
8.2663 -16.5254 -1.7739 0.9284
16.9469 9.2864 -1.8552 0.9253
16.0481 10.7598 -1.8549 0.9253
10.7157 8.6650 -1.3230 0.9461
13.8746 13.4356 -1.8542 0.9253
5.0576 18.6079 -1.8513 0.9254
3.3760 18.9791 -1.8507 0.9255
-0.0512 19.2650 -1.8495 0.9255
-3.4725 18.9373 -1.8484 0.9256
-5.1468 18.5463 -1.8478 0.9256
-6.7791 18.0077 -1.8473 0.9256
-9.8664 16.5066 -1.8462 0.9256
-11.2969 15.5564 -1.8457 0.9257
-15.0034 12.0008 -1.8445 0.9257
-13.9957 -13.1669 -1.8448 0.9257
-11.4377 -15.4521 -1.8457 0.9257
-10.0159 -16.4153 -1.8461 0.9256
-8.2511 -16.7164 -1.7897 0.9278
-1.7234 -16.9852 -1.6390 0.9337
-0.2267 -19.2626 -1.8494 0.9255
1.3218 -17.0044 -1.6374 0.9338
2.8329 -16.8131 -1.6369 0.9338
6.5343 -18.1471 -1.8517 0.9254
11.1164 -15.7816 -1.8533 0.9254
13.7511 -13.5610 -1.8541 0.9253
17.2086 8.7940 -1.8553 0.9253
15.3664 11.7088 -1.8547 0.9253
12.7276 13.9117 -1.8102 0.9270
10.6255 13.9300 -1.6820 0.9320
7.1430 13.9604 -1.5055 0.9389
2.2219 19.1445 -1.8503 0.9255
-7.8538 17.5614 -1.8469 0.9256
-9.3869 16.7859 -1.8464 0.9256
-10.8443 15.8771 -1.8459 0.9256
-15.6994 11.0704 -1.8443 0.9257
-16.6218 9.6237 -1.8439 0.9257
-14.3687 -12.7568 -1.8447 0.9257
-13.1760 -13.9910 -1.8451 0.9257
-7.1173 -16.9278 -1.7630 0.9289
-3.7349 -16.7558 -1.6481 0.9333
-2.1919 -16.7692 -1.6236 0.9343
0.9385 -19.2452 -1.8498 0.9255
2.3357 -16.8087 -1.6292 0.9341
3.9423 -17.0352 -1.6787 0.9321
6.0075 -18.3263 -1.8515 0.9254
7.3367 -17.0614 -1.7830 0.9281
9.1158 -16.8679 -1.8408 0.9258
10.6556 -16.0944 -1.8531 0.9254
12.0522 -15.0833 -1.8536 0.9253
13.3531 -13.9510 -1.8540 0.9253
17.4559 8.2943 -1.8554 0.9253
16.6437 9.8173 -1.8551 0.9253
15.6987 11.2613 -1.8548 0.9253
14.6284 12.6148 -1.8545 0.9253
11.2712 13.9244 -1.7199 0.9305
9.3573 13.9411 -1.6119 0.9348
4.7973 14.3277 -1.4506 0.9411
4.4659 18.7565 -1.8511 0.9254
1.0602 19.2397 -1.8499 0.9255
-0.6605 19.2515 -1.8493 0.9255
-5.7304 18.3722 -1.8476 0.9256
-7.3447 17.7824 -1.8471 0.9256
-10.3827 16.1847 -1.8461 0.9256
-11.7824 15.1899 -1.8456 0.9257
-16.3381 10.0998 -1.8440 0.9257
-13.5731 -13.6042 -1.8449 0.9257
-10.9442 -15.8076 -1.8458 0.9256
-9.4925 -16.7255 -1.8463 0.9256
-4.2980 -16.9616 -1.6799 0.9321
-2.6853 -16.7649 -1.6300 0.9340
1.8661 -17.0179 -1.6436 0.9335
3.3841 -16.8179 -1.6470 0.9334
10.1860 -16.3938 -1.8529 0.9254
11.6111 -15.4235 -1.8534 0.9254
12.9442 -14.3294 -1.8539 0.9253
14.1743 -13.1202 -1.8543 0.9253
17.6887 7.7875 -1.8555 0.9253
16.9209 9.3336 -1.8552 0.9253
10.6560 8.6659 -1.3186 0.9463
6.5966 13.9652 -1.4828 0.9398
3.9075 -15.0833 -1.8508 0.9392
5.2390 -14.6780 -1.8513 0.9392
7.7681 -13.5193 -1.8521 0.9391
8.9454 -12.7750 -1.8525 0.9391
10.0516 -11.9283 -1.8529 0.9391
11.3366 -11.2424 -1.8965 0.9377
13.9165 -9.5726 -2.0064 0.9342
14.7171 -8.2937 -2.0067 0.9342
15.4002 -6.9483 -2.0069 0.9342
15.9603 -5.5469 -2.0071 0.9342
16.3928 -4.1010 -2.0072 0.9342
16.6942 -2.6221 -2.0073 0.9342
16.8950 0.3870 -2.0074 0.9342
16.7928 1.8930 -2.0074 0.9342
16.5563 3.3837 -2.0073 0.9342
16.1873 4.8472 -2.0072 0.9342
15.6889 6.2717 -2.0070 0.9342
13.2322 8.2773 -1.8540 0.9391
12.4391 9.4236 -1.8537 0.9391
11.5467 10.4943 -1.8534 0.9391
9.4940 12.3750 -1.8527 0.9391
8.3502 13.1700 -1.8524 0.9391
7.1402 13.8595 -1.8519 0.9391
4.5609 14.9010 -1.8511 0.9392
3.2123 15.2447 -1.8506 0.9392
0.4513 15.5652 -1.8497 0.9392
-2.3214 15.3898 -1.8488 0.9392
-3.6844 15.1175 -1.8483 0.9392
-6.3098 14.2151 -1.8474 0.9393
-7.5513 13.5923 -1.8470 0.9393
-8.7321 12.8615 -1.8466 0.9393
-9.8429 12.0286 -1.8462 0.9393
-10.8749 11.1002 -1.8459 0.9393
-11.8200 10.0838 -1.8456 0.9393
-15.2200 7.1330 -1.9966 0.9345
-15.7942 5.7459 -1.9964 0.9345
-16.8034 -0.1424 -1.9961 0.9346
-16.5113 -3.1270 -1.9962 0.9345
-16.1673 -4.5881 -1.9963 0.9345
-15.0971 -7.3900 -1.9966 0.9345
-13.5466 -9.9584 -1.9972 0.9345
-9.6378 -12.1940 -1.8463 0.9393
-8.5131 -13.0080 -1.8467 0.9393
-7.3200 -13.7187 -1.8471 0.9393
-6.0681 -14.3204 -1.8475 0.9393
-3.4277 -15.1782 -1.8484 0.9392
-2.0602 -15.4273 -1.8488 0.9392
2.1008 -15.4338 -1.8502 0.9392
3.4704 -15.1885 -1.8507 0.9392
4.8130 -14.8219 -1.8511 0.9392
7.3743 -13.7368 -1.8520 0.9391
8.5725 -13.0269 -1.8524 0.9391
10.7557 -11.3002 -1.8531 0.9391
13.6339 -9.9696 -2.0063 0.9342
14.4711 -8.7145 -2.0066 0.9342
15.7932 -6.0049 -2.0070 0.9342
16.2673 -4.5721 -2.0072 0.9342
16.6114 -3.1025 -2.0073 0.9342
16.8992 -0.1005 -2.0074 0.9342
16.8406 1.4077 -2.0074 0.9342
16.6473 2.9047 -2.0073 0.9342
16.3208 4.3783 -2.0072 0.9342
15.8638 5.8167 -2.0071 0.9342
15.2800 7.2083 -2.0069 0.9342
13.4661 7.8924 -1.8541 0.9391
9.8477 12.0967 -1.8529 0.9391
8.7273 12.9245 -1.8525 0.9391
7.5376 13.6487 -1.8521 0.9391
3.6511 15.1469 -1.8508 0.9392
0.9002 15.5469 -1.8499 0.9392
-0.4905 15.5613 -1.8494 0.9392
-1.8766 15.4516 -1.8489 0.9392
-3.2470 15.2187 -1.8485 0.9392
-4.5909 14.8646 -1.8480 0.9393
-5.8975 14.3923 -1.8476 0.9393
-7.1566 13.8054 -1.8471 0.9393
-8.3580 13.1089 -1.8467 0.9393
-9.4924 12.3083 -1.8463 0.9393
-13.1895 8.2043 -1.8451 0.9393
-15.6223 6.1993 -1.9965 0.9345
-16.4731 3.3233 -1.9962 0.9345
-16.7032 1.8402 -1.9961 0.9346
-16.8005 0.3424 -1.9961 0.9346
-16.5944 -2.6494 -1.9961 0.9345
-16.2926 -4.1197 -1.9962 0.9345
-15.8612 -5.5574 -1.9964 0.9345
-14.6238 -8.2899 -1.9968 0.9345
-7.7122 -13.5008 -1.8469 0.9393
-3.8639 -15.0718 -1.8482 0.9392
-2.5042 -15.3602 -1.8487 0.9392
-1.1239 -15.5263 -1.8491 0.9392
0.2660 -15.5686 -1.8496 0.9392
3.0306 -15.2811 -1.8505 0.9392
6.9744 -13.9428 -1.8519 0.9391
9.3457 -12.4865 -1.8527 0.9391
10.4246 -11.6051 -1.8530 0.9391
13.3400 -10.3582 -2.0062 0.9342
14.2131 -9.1280 -2.0065 0.9342
16.5147 -3.5804 -2.0073 0.9342
16.7690 -2.0927 -2.0074 0.9342
16.8742 0.9213 -2.0074 0.9342
14.0347 7.6906 -1.9010 0.9376
12.9631 8.6914 -1.8539 0.9391
10.6776 8.6342 -1.6311 0.9462
10.1932 11.8083 -1.8530 0.9391
9.0971 12.6682 -1.8526 0.9391
7.9288 13.4265 -1.8522 0.9391
2.7282 15.3374 -1.8505 0.9392
-1.4302 15.5005 -1.8491 0.9392
-2.8069 15.3073 -1.8486 0.9392
-5.4803 14.5575 -1.8477 0.9393
-6.7558 14.0072 -1.8473 0.9393
-7.9769 13.3455 -1.8469 0.9393
-9.1340 12.5779 -1.8465 0.9393
-11.2199 10.7500 -1.8458 0.9393
-12.9479 8.5818 -1.8452 0.9393
-14.7168 7.9629 -1.9876 0.9348
-16.7837 0.8269 -1.9961 0.9346
-16.7905 -0.6740 -1.9961 0.9346
-16.0145 -5.0974 -1.9963 0.9345
-15.4971 -6.5066 -1.9965 0.9345
-14.8563 -7.8643 -1.9967 0.9345
-13.2256 -10.3825 -1.9973 0.9345
-9.2479 -12.4937 -1.8464 0.9393
-5.6125 -14.5064 -1.8476 0.9393
-4.2968 -14.9529 -1.8481 0.9393
-2.9461 -15.2804 -1.8485 0.9392
3.9495 -15.0725 -1.8508 0.9392
6.5688 -14.1372 -1.8517 0.9391
7.8058 -13.4977 -1.8521 0.9391
10.0849 -11.9003 -1.8529 0.9391
11.3991 -11.2415 -1.9017 0.9375
13.0349 -10.7382 -2.0061 0.9342
13.9432 -9.5338 -2.0064 0.9342
15.4196 -6.9053 -2.0069 0.9342
16.4042 -4.0553 -2.0072 0.9342
16.7015 -2.5755 -2.0073 0.9342
16.8651 -1.0750 -2.0074 0.9342
16.8939 0.4341 -2.0074 0.9342
16.7874 1.9398 -2.0074 0.9342
15.6714 6.3154 -2.0070 0.9342
12.4127 9.4582 -1.8537 0.9391
10.5303 11.5100 -1.8531 0.9391
9.4594 12.4013 -1.8527 0.9391
5.6394 13.9735 -1.7899 0.9411
4.5193 14.9135 -1.8511 0.9392
1.7956 15.4717 -1.8502 0.9392
-0.9825 15.5366 -1.8492 0.9392
-2.3643 15.3831 -1.8488 0.9392
-3.7265 15.1070 -1.8483 0.9392
-5.0584 14.7107 -1.8478 0.9393
-6.3493 14.1973 -1.8474 0.9393
-7.5891 13.5711 -1.8470 0.9393
-9.8763 12.0010 -1.8462 0.9393
-10.9058 11.0698 -1.8459 0.9393
-12.6955 8.9522 -1.8453 0.9393
-13.4418 7.7826 -1.8450 0.9394
-15.2397 7.0905 -1.9966 0.9345
-15.8101 5.7018 -1.9964 0.9345
-16.7529 1.3108 -1.9961 0.9346
-16.8029 -0.1893 -1.9961 0.9346
-15.6779 -6.0566 -1.9964 0.9345
-13.5189 -9.9962 -1.9972 0.9345
-8.4768 -13.0317 -1.8467 0.9393
-7.2818 -13.7391 -1.8471 0.9393
-3.3854 -15.1878 -1.8484 0.9392
-2.0172 -15.4332 -1.8488 0.9392
-0.6323 -15.5555 -1.8493 0.9392
0.7585 -15.5538 -1.8498 0.9392
4.8543 -14.8086 -1.8511 0.9392
6.1578 -14.3198 -1.8516 0.9391
9.7367 -12.1855 -1.8528 0.9391
10.7872 -11.2702 -1.8531 0.9391
12.6862 -11.0806 -2.0008 0.9344
13.6617 -9.9316 -2.0063 0.9342
15.2135 -7.3470 -2.0068 0.9342
15.8099 -5.9609 -2.0070 0.9342
16.2800 -4.5268 -2.0072 0.9342
16.6200 -3.0562 -2.0073 0.9342
16.8270 -1.5611 -2.0074 0.9342
16.8366 1.4547 -2.0074 0.9342
16.3085 4.4237 -2.0072 0.9342
12.6810 9.0966 -1.8538 0.9391
10.8586 11.2021 -1.8532 0.9391
9.8139 12.1240 -1.8528 0.9391
7.4995 13.6696 -1.8521 0.9391
6.1121 13.9694 -1.8112 0.9404
4.7973 14.3278 -1.7948 0.9410
3.6088 15.1569 -1.8508 0.9392
0.8568 15.5493 -1.8498 0.9392
-0.5339 15.5598 -1.8494 0.9392
-3.2894 15.2095 -1.8484 0.9392
-4.6323 14.8516 -1.8480 0.9393
-7.1950 13.7854 -1.8471 0.9393
-9.5266 12.2817 -1.8463 0.9393
-11.5537 10.3890 -1.8457 0.9393
-13.2123 8.1675 -1.8451 0.9393
-15.6395 6.1557 -1.9965 0.9345
-16.1250 4.7353 -1.9963 0.9345
-16.4822 3.2774 -1.9962 0.9345
-16.8014 0.2956 -1.9961 0.9346
-16.7608 -1.2048 -1.9961 0.9346
-15.8456 -5.6016 -1.9964 0.9345
-13.8010 -9.6015 -1.9971 0.9345
-9.5446 -11.4495 -1.7706 0.9417
-7.6746 -13.5224 -1.8469 0.9393
-6.4388 -14.1564 -1.8473 0.9393
-5.1512 -14.6779 -1.8478 0.9393
-3.8219 -15.0826 -1.8482 0.9392
1.6977 -15.4822 -1.8501 0.9392
3.0732 -15.2727 -1.8505 0.9392
4.4247 -14.9413 -1.8510 0.9392
7.0133 -13.9235 -1.8519 0.9391
8.2296 -13.2450 -1.8523 0.9391
9.3805 -12.4605 -1.8527 0.9391
12.1332 -11.2309 -1.9639 0.9356
14.2385 -9.0884 -2.0065 0.9342
15.6309 -6.4143 -2.0070 0.9342
16.5246 -3.5344 -2.0073 0.9342
16.4297 3.9515 -2.0073 0.9342
16.0104 5.4014 -2.0071 0.9342
15.4632 6.8078 -2.0069 0.9342
13.9456 7.6924 -1.8918 0.9379
12.9387 8.7274 -1.8539 0.9391
10.1602 11.8366 -1.8530 0.9391
7.8913 13.4485 -1.8522 0.9391
6.5966 13.9652 -1.8346 0.9397
5.3728 14.6303 -1.8514 0.9391
4.3915 -12.3035 -1.8510 0.9486
6.5110 -11.3314 -1.8517 0.9486
10.0482 -9.9647 -2.0051 0.9444
11.6626 -8.0222 -2.0056 0.9444
13.3746 -4.6483 -2.0062 0.9444
14.1299 -0.9402 -2.0065 0.9444
14.1575 0.3243 -2.0065 0.9444
14.0719 1.5863 -2.0065 0.9444
13.8738 2.8355 -2.0064 0.9444
13.1473 5.2557 -2.0062 0.9444
12.6248 6.4073 -2.0060 0.9444
9.6770 8.7949 -1.8528 0.9485
8.8523 9.6219 -1.8525 0.9486
7.9571 10.3717 -1.8522 0.9486
6.9987 11.0384 -1.8519 0.9486
5.9848 11.6167 -1.8516 0.9486
4.9234 12.1021 -1.8512 0.9486
3.8231 12.4906 -1.8508 0.9486
2.6928 12.7793 -1.8505 0.9486
0.3783 13.0490 -1.8497 0.9486
-0.7874 13.0279 -1.8493 0.9486
-6.3321 11.3977 -1.8474 0.9487
-8.2542 10.0871 -1.8468 0.9487
-9.1199 9.3089 -1.8465 0.9487
-9.9128 8.4568 -1.8462 0.9487
-10.8838 7.7202 -1.8907 0.9475
-13.2468 4.8192 -1.9973 0.9446
-13.6231 3.6177 -1.9972 0.9446
-13.8909 2.3876 -1.9971 0.9446
-14.0482 1.1386 -1.9970 0.9447
-13.1633 -5.0431 -1.9973 0.9446
-12.6619 -6.1980 -1.9975 0.9446
-11.3611 -8.3517 -1.9979 0.9446
-7.3421 -11.2187 -1.8997 0.9473
-5.0881 -12.0077 -1.8478 0.9487
-2.8739 -12.7260 -1.8486 0.9487
-1.7273 -12.9344 -1.8489 0.9486
-0.5664 -13.0397 -1.8493 0.9486
1.7611 -12.9382 -1.8501 0.9486
7.3939 -11.2358 -1.9058 0.9471
9.7561 -10.2499 -2.0050 0.9444
10.6333 -9.3399 -2.0053 0.9444
11.4258 -8.3550 -2.0056 0.9444
12.7317 -6.1924 -2.0060 0.9444
13.2346 -5.0321 -2.0062 0.9444
13.6318 -3.8314 -2.0063 0.9444
13.9199 -2.5999 -2.0064 0.9444
14.1610 -0.0843 -2.0065 0.9444
14.1119 1.1796 -2.0065 0.9444
13.9500 2.4341 -2.0064 0.9444
13.6766 3.6689 -2.0063 0.9444
13.2938 4.8743 -2.0062 0.9444
12.8048 6.0406 -2.0060 0.9444
10.7951 7.6983 -1.8786 0.9478
9.9271 8.5125 -1.8529 0.9485
9.1266 9.3630 -1.8526 0.9485
7.3147 10.8325 -1.8520 0.9486
1.9150 12.9169 -1.8502 0.9486
0.7547 13.0335 -1.8498 0.9486
-2.7224 12.7599 -1.8486 0.9487
-4.9451 12.0679 -1.8479 0.9487
-6.0010 11.5763 -1.8475 0.9487
-7.0087 10.9926 -1.8472 0.9487
-7.9602 10.3216 -1.8469 0.9487
-8.8480 9.5686 -1.8466 0.9487
-11.9547 7.4362 -1.9948 0.9447
-12.5875 6.3484 -1.9975 0.9446
-13.5133 4.0093 -1.9972 0.9446
-13.8165 2.7874 -1.9971 0.9446
-14.0912 0.2872 -1.9970 0.9447
-14.0607 -0.9713 -1.9970 0.9447
-13.9183 -2.2221 -1.9970 0.9446
-12.8351 -5.8300 -1.9974 0.9446
-11.5968 -8.0202 -1.9978 0.9446
-10.8363 -9.0241 -1.9981 0.9446
-7.8084 -11.2115 -1.9359 0.9463
-5.4321 -11.8552 -1.8477 0.9487
-3.2397 -12.6370 -1.8484 0.9487
-2.0996 -12.8783 -1.8488 0.9487
-0.9059 -12.5140 -1.7777 0.9506
1.3870 -12.9827 -1.8500 0.9486
4.7788 -12.1593 -1.8511 0.9486
6.9414 -11.2415 -1.8720 0.9480
9.4558 -10.5266 -2.0049 0.9444
10.3590 -9.6423 -2.0052 0.9444
11.9110 -7.6495 -2.0057 0.9444
12.5474 -6.5569 -2.0059 0.9444
13.0836 -5.4117 -2.0061 0.9444
13.5153 -4.2230 -2.0063 0.9444
13.8390 -3.0003 -2.0064 0.9444
14.0520 -1.7536 -2.0065 0.9444
14.1526 -0.4927 -2.0065 0.9444
13.7769 3.2729 -2.0064 0.9444
11.4598 7.6835 -1.9549 0.9458
5.6139 11.7995 -1.8514 0.9486
4.5378 12.2509 -1.8511 0.9486
2.2870 12.8571 -1.8503 0.9486
-0.0347 13.0534 -1.8495 0.9486
-1.1990 12.9955 -1.8491 0.9486
-4.5952 12.2063 -1.8480 0.9487
-5.6649 11.7453 -1.8476 0.9487
-6.6891 11.1909 -1.8473 0.9487
-9.4094 9.0153 -1.8464 0.9487
-10.1748 8.1387 -1.8461 0.9487
-11.6253 7.7052 -1.9761 0.9452
-12.9475 5.5754 -1.9974 0.9446
-14.0771 0.6936 -1.9970 0.9447
-12.9976 -5.4571 -1.9974 0.9446
-12.4599 -6.5957 -1.9975 0.9446
-8.2930 -11.2036 -1.9750 0.9452
-6.8497 -11.2261 -1.8633 0.9483
-5.7715 -11.6928 -1.8476 0.9487
-4.7060 -12.1635 -1.8479 0.9487
-2.4701 -12.8115 -1.8487 0.9487
-0.1536 -13.0521 -1.8495 0.9486
1.0118 -13.0165 -1.8499 0.9486
2.1697 -12.8770 -1.8502 0.9486
3.3107 -12.6346 -1.8506 0.9486
4.4258 -12.2913 -1.8510 0.9486
5.5059 -11.8497 -1.8514 0.9486
6.5426 -11.3133 -1.8517 0.9486
7.9096 -11.2290 -1.9461 0.9460
10.9240 -8.9993 -2.0054 0.9444
11.6849 -7.9897 -2.0057 0.9444
12.3526 -6.9159 -2.0059 0.9444
13.3875 -4.6110 -2.0062 0.9444
13.9954 -2.1582 -2.0064 0.9444
14.1325 -0.9008 -2.0065 0.9444
14.1566 0.3638 -2.0065 0.9444
14.0674 1.6255 -2.0065 0.9444
13.5534 4.0997 -2.0063 0.9444
12.6069 6.4424 -2.0060 0.9444
11.9504 7.5219 -2.0007 0.9446
8.8254 9.6465 -1.8525 0.9486
7.9281 10.3938 -1.8522 0.9486
6.9679 11.0578 -1.8519 0.9486
3.7883 12.5011 -1.8508 0.9486
0.3420 13.0499 -1.8497 0.9486
-0.8237 13.0256 -1.8493 0.9486
-4.2414 12.3346 -1.8481 0.9487
-5.3240 11.9046 -1.8478 0.9487
-6.3638 11.3799 -1.8474 0.9487
-7.3525 10.7647 -1.8471 0.9487
-8.2823 10.0640 -1.8468 0.9487
-9.1458 9.2834 -1.8465 0.9487
-9.9362 8.4291 -1.8462 0.9487
-13.2602 4.7822 -1.9973 0.9446
-14.0513 1.0994 -1.9970 0.9447
-13.8412 -2.6614 -1.9971 0.9446
-13.5491 -3.8860 -1.9972 0.9446
-13.1492 -5.0797 -1.9973 0.9446
-12.6446 -6.2333 -1.9975 0.9446
-10.5459 -9.3629 -1.9982 0.9446
-9.6699 -10.2680 -1.9985 0.9446
-5.0547 -12.0219 -1.8478 0.9487
-3.9626 -12.4275 -1.8482 0.9487
-2.8385 -12.7341 -1.8486 0.9487
-1.6913 -12.9392 -1.8489 0.9486
-0.5301 -13.0413 -1.8493 0.9486
0.6358 -13.0394 -1.8497 0.9486
2.9446 -12.7240 -1.8505 0.9486
6.2131 -11.4966 -1.8516 0.9486
7.4385 -11.2352 -1.9092 0.9470
8.8127 -11.0291 -2.0003 0.9446
11.4491 -8.3231 -2.0056 0.9444
12.1475 -7.2692 -2.0058 0.9444
12.7490 -6.1569 -2.0060 0.9444
14.1005 -1.3082 -2.0065 0.9444
14.1086 1.2190 -2.0065 0.9444
13.9431 2.4729 -2.0064 0.9444
13.6662 3.7070 -2.0063 0.9444
12.7879 6.0762 -2.0060 0.9444
12.1935 7.1923 -2.0058 0.9444
5.2374 11.9703 -1.8513 0.9486
-1.6094 12.9501 -1.8490 0.9486
-4.9787 12.0540 -1.8479 0.9487
-6.0332 11.5595 -1.8475 0.9487
-10.4267 7.8122 -1.8460 0.9487
-12.6051 6.3133 -1.9975 0.9446
-13.1170 5.1629 -1.9973 0.9446
-14.0920 0.2479 -1.9970 0.9447
-14.0579 -1.0105 -1.9970 0.9447
-13.6554 -3.4934 -1.9971 0.9446
-12.8188 -5.8658 -1.9974 0.9446
-12.2455 -6.9868 -1.9976 0.9446
-9.9616 -9.9843 -1.9984 0.9446
-7.7626 -11.2122 -1.9322 0.9464
-5.3990 -11.8703 -1.8477 0.9487
-3.2045 -12.6460 -1.8484 0.9487
-2.0637 -12.8842 -1.8488 0.9487
0.2594 -13.0514 -1.8496 0.9486
1.4232 -12.9789 -1.8500 0.9486
3.7090 -12.5245 -1.8508 0.9486
5.8785 -11.6704 -1.8515 0.9486
6.9844 -11.2410 -1.8751 0.9479
9.4852 -10.5002 -2.0049 0.9444
11.2038 -8.6496 -2.0055 0.9444
12.5657 -6.5219 -2.0060 0.9444
13.5270 -4.1853 -2.0063 0.9444
14.0568 -1.7144 -2.0065 0.9444
14.1540 -0.4533 -2.0065 0.9444
14.0088 2.0697 -2.0064 0.9444
13.4166 4.5263 -2.0063 0.9444
12.9582 5.7049 -2.0061 0.9444
11.3933 7.6850 -1.9472 0.9460
9.3680 9.1223 -1.8527 0.9485
8.5153 9.9203 -1.8524 0.9486
7.5949 10.6387 -1.8521 0.9486
6.6142 11.2720 -1.8518 0.9486
5.5810 11.8150 -1.8514 0.9486
4.5036 12.2634 -1.8511 0.9486
2.9091 -11.2293 -1.9110 0.9541
4.0051 -11.2211 -1.9628 0.9528
5.0829 -11.0194 -1.9991 0.9520
6.9777 -9.9650 -2.0041 0.9519
8.6403 -8.5684 -2.0046 0.9519
10.6045 -5.9761 -2.0053 0.9519
11.4997 -3.9967 -2.0056 0.9518
11.8110 -2.9548 -2.0057 0.9518
11.6631 3.4924 -2.0057 0.9518
10.8551 5.5092 -2.0054 0.9518
9.6918 7.3423 -2.0031 0.9519
6.8424 8.9187 -1.8518 0.9555
1.3257 11.1513 -1.8500 0.9555
-0.6772 11.2053 -1.8493 0.9555
-2.6572 10.9025 -1.8486 0.9555
-3.6188 10.6201 -1.8483 0.9555
-5.4470 9.8045 -1.8477 0.9555
-6.2991 9.2779 -1.8474 0.9556
-7.1008 8.6776 -1.8472 0.9556
-7.8457 8.0083 -1.8469 0.9556
-11.3969 4.1462 -1.9979 0.9520
-11.7208 3.1125 -1.9978 0.9520
-12.0683 -1.1844 -1.9977 0.9520
-11.6664 -3.3108 -1.9978 0.9520
-9.7741 -7.1851 -1.9984 0.9520
-8.3433 -8.8101 -1.9989 0.9520
-6.6464 -10.1557 -1.9995 0.9520
-5.7146 -10.7099 -1.9998 0.9520
-3.6107 -11.2157 -1.9410 0.9534
-1.5000 -11.2321 -1.8668 0.9551
-0.4882 -11.2389 -1.8532 0.9554
1.5293 -11.2356 -1.8680 0.9551
2.5662 -11.2313 -1.8979 0.9544
5.7527 -10.7161 -2.0037 0.9519
7.5682 -9.5259 -2.0043 0.9519
9.1433 -8.0311 -2.0048 0.9519
9.8245 -7.1840 -2.0050 0.9519
10.4274 -6.2794 -2.0052 0.9519
10.9471 -5.3244 -2.0054 0.9518
11.3793 -4.3267 -2.0056 0.9518
11.7207 -3.2942 -2.0057 0.9518
11.9684 -2.2354 -2.0058 0.9518
12.1204 -1.1585 -2.0058 0.9518
12.1756 -0.0724 -2.0058 0.9518
12.1334 1.0142 -2.0058 0.9518
11.7592 3.1546 -2.0057 0.9518
9.9095 7.0668 -2.0051 0.9519
8.9655 7.6879 -1.9456 0.9532
7.8478 8.0510 -1.8522 0.9554
6.2901 9.3151 -1.8517 0.9555
5.4329 9.8377 -1.8514 0.9555
4.5327 10.2816 -1.8511 0.9555
2.6321 10.9197 -1.8504 0.9555
1.6470 11.1090 -1.8501 0.9555
0.6491 11.2097 -1.8498 0.9555
-0.3537 11.2208 -1.8494 0.9555
-1.3533 11.1425 -1.8491 0.9555
-3.3111 10.7207 -1.8484 0.9555
-4.2537 10.3807 -1.8481 0.9555
-5.1621 9.9581 -1.8478 0.9555
-6.0292 9.4563 -1.8475 0.9556
-8.5338 7.7167 -1.8954 0.9544
-9.6842 7.2981 -1.9977 0.9520
-10.2999 6.4068 -1.9983 0.9520
-10.8295 5.4617 -1.9981 0.9520
-11.2728 4.4733 -1.9979 0.9520
-12.0534 1.3279 -1.9977 0.9520
-12.1236 0.2471 -1.9977 0.9520
-12.0974 -0.8357 -1.9977 0.9520
-11.9748 -1.9118 -1.9977 0.9520
-11.7569 -2.9728 -1.9978 0.9520
-11.4453 -4.0102 -1.9979 0.9520
-10.5518 -5.9816 -1.9982 0.9520
-7.7961 -9.2993 -1.9991 0.9520
-5.0461 -11.0129 -1.9956 0.9521
-3.9699 -11.2119 -1.9594 0.9529
-2.8771 -11.2226 -1.9086 0.9541
-1.8309 -11.2302 -1.8745 0.9549
1.2004 -11.2363 -1.8616 0.9552
3.2907 -11.2268 -1.9273 0.9537
6.3907 -10.3498 -2.0039 0.9519
8.9074 -8.2912 -2.0047 0.9519
10.7886 -5.6378 -2.0054 0.9518
11.2495 -4.6530 -2.0055 0.9518
11.8988 -2.5797 -2.0057 0.9518
12.0497 1.7459 -2.0058 0.9518
11.5465 3.8596 -2.0056 0.9518
10.1096 6.7782 -2.0051 0.9519
9.4315 7.6266 -1.9982 0.9520
7.3461 8.5100 -1.8520 0.9554
6.5565 9.1302 -1.8517 0.9555
4.8277 10.1470 -1.8512 0.9555
3.9024 10.5356 -1.8509 0.9555
0.9722 11.1869 -1.8499 0.9555
-0.0298 11.2270 -1.8495 0.9555
-1.0313 11.1775 -1.8492 0.9555
-3.9527 10.4997 -1.8482 0.9555
-4.8730 10.1034 -1.8479 0.9555
-5.7541 9.6267 -1.8476 0.9556
-6.5891 9.0735 -1.8473 0.9556
-9.4491 7.5581 -1.9933 0.9521
-10.1111 6.7015 -1.9983 0.9520
-10.6677 5.7721 -1.9981 0.9520
-11.1393 4.7968 -1.9980 0.9520
-11.5221 3.7835 -1.9979 0.9520
-12.0101 1.6751 -1.9977 0.9520
-12.1115 0.5967 -1.9977 0.9520
-12.0248 -1.5656 -1.9977 0.9520
-11.8376 -2.6323 -1.9977 0.9520
-11.5560 -3.6783 -1.9978 0.9520
-11.1824 -4.6950 -1.9980 0.9520
-10.7197 -5.6745 -1.9981 0.9520
-8.0608 -9.0701 -1.9990 0.9520
-7.2204 -9.7545 -1.9993 0.9520
-5.3677 -10.8749 -1.9979 0.9520
-4.3362 -11.2076 -1.9797 0.9525
-3.2240 -11.2195 -1.9231 0.9538
-1.1398 -11.2337 -1.8601 0.9553
1.8929 -11.2344 -1.8768 0.9549
2.9424 -11.2291 -1.9123 0.9540
4.0403 -11.2208 -1.9647 0.9528
5.1141 -11.0065 -1.9994 0.9520
6.0892 -10.5293 -2.0038 0.9519
7.8661 -9.2821 -2.0044 0.9519
10.0473 -6.8699 -2.0051 0.9519
10.6212 -5.9465 -2.0053 0.9519
11.5108 -3.9646 -2.0056 0.9518
11.8192 -2.9218 -2.0057 0.9518
12.0332 -1.8556 -2.0058 0.9518
12.1511 -0.7745 -2.0058 0.9518
12.1718 0.3128 -2.0058 0.9518
11.6533 3.5249 -2.0057 0.9518
11.2916 4.5504 -2.0055 0.9518
10.3013 6.4839 -2.0052 0.9519
7.5888 8.2949 -1.8521 0.9554
5.9919 9.5089 -1.8516 0.9555
5.1187 10.0041 -1.8513 0.9555
3.2579 10.7510 -1.8506 0.9555
2.2852 10.9968 -1.8503 0.9555
-0.7084 11.2033 -1.8493 0.9555
-2.6875 10.8950 -1.8486 0.9555
-4.5797 10.2403 -1.8480 0.9555
-6.3249 9.2603 -1.8474 0.9556
-9.9138 6.9907 -1.9984 0.9520
-10.4970 6.0776 -1.9982 0.9520
-10.9965 5.1163 -1.9980 0.9520
-11.4084 4.1144 -1.9979 0.9520
-12.0893 0.9459 -1.9977 0.9520
-12.1254 -0.1366 -1.9977 0.9520
-10.8786 -5.3628 -1.9981 0.9520
-10.3576 -6.3126 -1.9982 0.9520
-7.4984 -9.5417 -1.9992 0.9520
-5.6847 -10.7259 -1.9998 0.9520
-4.6899 -11.1544 -1.9934 0.9521
-1.4681 -11.2322 -1.8661 0.9551
1.5613 -11.2355 -1.8687 0.9551
2.5991 -11.2311 -1.8991 0.9543
5.7826 -10.7001 -2.0037 0.9519
6.7154 -10.1430 -2.0040 0.9519
8.4137 -8.7904 -2.0046 0.9519
10.4449 -6.2503 -2.0052 0.9519
11.3914 -4.2949 -2.0056 0.9518
11.7298 -3.2616 -2.0057 0.9518
12.1236 -1.1248 -2.0058 0.9518
12.1757 -0.0385 -2.0058 0.9518
12.1305 1.0481 -2.0058 0.9518
11.9883 2.1262 -2.0058 0.9518
11.4184 4.2228 -2.0056 0.9518
10.4844 6.1842 -2.0053 0.9519
9.8898 7.0943 -2.0051 0.9519
8.9165 7.6891 -1.9396 0.9534
7.8253 8.0728 -1.8522 0.9554
6.2640 9.3326 -1.8516 0.9555
4.5040 10.2941 -1.8511 0.9555
0.6178 11.2114 -1.8498 0.9555
-4.2826 10.3687 -1.8481 0.9555
-5.1898 9.9436 -1.8478 0.9555
-6.0554 9.4394 -1.8475 0.9556
-6.8725 8.8601 -1.8472 0.9556
-7.6346 8.2104 -1.8470 0.9556
-8.5807 7.7157 -1.9010 0.9543
-9.7066 7.2727 -1.9981 0.9520
-10.3176 6.3781 -1.9983 0.9520
-11.6358 3.4170 -1.9978 0.9520
-11.8938 2.3650 -1.9977 0.9520
-12.0570 1.2943 -1.9977 0.9520
-11.9694 -1.9452 -1.9977 0.9520
-11.4341 -4.0421 -1.9979 0.9520
-11.0286 -5.0466 -1.9980 0.9520
-10.5351 -6.0110 -1.9982 0.9520
-9.3009 -7.7895 -1.9986 0.9520
-8.5698 -8.5894 -1.9988 0.9520
-7.7702 -9.3210 -1.9991 0.9520
-6.9085 -9.9786 -1.9994 0.9520
-5.0149 -11.0258 -1.9954 0.9521
-3.9349 -11.2122 -1.9575 0.9530
-2.8438 -11.2229 -1.9073 0.9541
-0.7819 -11.2361 -1.8555 0.9554
0.2234 -11.2410 -1.8522 0.9554
1.2321 -11.2363 -1.8622 0.9552
2.2603 -11.2328 -1.8876 0.9546
3.3246 -11.2265 -1.9288 0.9536
4.4446 -11.2170 -1.9877 0.9523
5.4672 -10.8539 -2.0021 0.9519
6.4196 -10.3320 -2.0039 0.9519
7.3170 -9.7195 -2.0042 0.9519
8.1562 -9.0291 -2.0045 0.9519
8.9305 -8.2664 -2.0047 0.9519
11.2625 -4.6217 -2.0055 0.9518
11.6307 -3.5985 -2.0056 0.9518
11.9059 -2.5465 -2.0057 0.9518
12.1557 0.6977 -2.0058 0.9518
12.0448 1.7795 -2.0058 0.9518
11.8375 2.8470 -2.0057 0.9518
10.6587 5.8794 -2.0053 0.9519
9.4082 7.6512 -1.9977 0.9520
8.0553 7.8440 -1.8523 0.9554
7.3223 8.5304 -1.8520 0.9554
5.6877 9.6932 -1.8515 0.9555
4.7994 10.1604 -1.8512 0.9555
4.4640 -9.6777 -2.0032 0.9576
5.3105 -9.2421 -2.0035 0.9575
8.2121 -6.8037 -2.0045 0.9575
9.2924 -5.2366 -2.0049 0.9575
10.6660 0.2443 -2.0053 0.9575
10.4524 2.1362 -2.0053 0.9575
8.5009 6.4402 -2.0046 0.9575
7.0720 7.6868 -1.9633 0.9584
4.5102 8.7546 -1.8511 0.9607
3.7105 9.1208 -1.8508 0.9607
2.8815 9.4141 -1.8505 0.9607
2.0297 9.6322 -1.8502 0.9607
1.1619 9.7733 -1.8499 0.9607
0.2852 9.8364 -1.8496 0.9607
-0.5936 9.8211 -1.8493 0.9607
-1.4673 9.7274 -1.8490 0.9608
-2.3290 9.5561 -1.8488 0.9608
-3.1719 9.3088 -1.8485 0.9608
-3.9893 8.9873 -1.8482 0.9608
-4.7746 8.5942 -1.8479 0.9608
-5.5217 8.1328 -1.8477 0.9608
-6.3157 7.7181 -1.8745 0.9602
-7.4229 7.5767 -1.9937 0.9577
-8.0910 6.9026 -1.9990 0.9576
-8.6737 6.1525 -1.9988 0.9576
-9.1873 5.3535 -1.9986 0.9576
-9.9912 3.6348 -1.9984 0.9577
-10.2752 2.7287 -1.9983 0.9577
-10.4773 1.8009 -1.9982 0.9577
-10.6303 -0.0901 -1.9982 0.9577
-10.5799 -1.0383 -1.9982 0.9577
-10.4453 -1.9782 -1.9982 0.9577
-10.2275 -2.9025 -1.9983 0.9577
-9.9282 -3.8037 -1.9984 0.9577
-9.5498 -4.6747 -1.9985 0.9576
-8.5683 -6.2987 -1.9988 0.9576
-7.3138 -7.7230 -1.9993 0.9576
-5.8261 -8.9023 -1.9998 0.9576
-5.0092 -9.3879 -2.0000 0.9576
-4.1521 -9.7988 -2.0003 0.9576
-1.4093 -10.5534 -2.0012 0.9576
-0.4621 -10.6388 -2.0016 0.9576
5.0414 -9.3911 -2.0034 0.9575
5.8601 -8.9050 -2.0037 0.9575
6.6321 -8.3477 -2.0040 0.9575
8.0121 -7.0375 -2.0044 0.9575
10.2702 -2.8865 -2.0052 0.9575
10.4871 -1.9587 -2.0053 0.9575
10.6203 -1.0152 -2.0053 0.9575
10.6317 0.8887 -2.0053 0.9575
10.5098 1.8338 -2.0053 0.9575
9.6474 4.5511 -2.0050 0.9575
9.2022 5.3934 -2.0048 0.9575
7.4190 7.6111 -1.9978 0.9577
5.5122 8.1631 -1.8514 0.9607
3.9723 9.0104 -1.8509 0.9607
0.5689 9.8246 -1.8497 0.9607
-0.3100 9.8346 -1.8494 0.9607
-1.1861 9.7662 -1.8491 0.9608
-2.0525 9.6199 -1.8489 0.9608
-2.9022 9.3969 -1.8486 0.9608
-3.7285 9.0991 -1.8483 0.9608
-5.2850 8.2891 -1.8478 0.9608
-6.0027 7.7834 -1.8475 0.9608
-7.1211 7.7010 -1.9715 0.9582
-8.4929 6.4004 -1.9989 0.9576
-9.0293 5.6165 -1.9987 0.9576
-10.1923 3.0240 -1.9983 0.9577
-10.4211 2.1024 -1.9982 0.9577
-10.6054 -0.7326 -1.9982 0.9577
-10.0337 -3.5156 -1.9984 0.9577
-9.6805 -4.3971 -1.9985 0.9576
-9.2502 -5.2438 -1.9986 0.9576
-6.8341 -8.1517 -1.9994 0.9576
-5.2777 -9.2391 -1.9999 0.9576
-3.5525 -10.0329 -2.0005 0.9576
-2.6435 -10.3115 -2.0008 0.9576
-1.7131 -10.5079 -2.0011 0.9576
-0.7688 -10.6205 -2.0015 0.9576
2.0724 -10.4499 -2.0024 0.9576
3.8980 -9.9181 -2.0030 0.9576
4.7681 -9.5322 -2.0033 0.9575
6.3883 -8.5352 -2.0039 0.9575
7.1253 -7.9321 -2.0041 0.9575
8.4235 -6.5407 -2.0046 0.9575
8.9744 -5.7636 -2.0047 0.9575
9.4536 -4.9402 -2.0049 0.9575
10.4262 -2.2604 -2.0052 0.9575
10.6623 -0.3712 -2.0053 0.9575
10.1176 3.3820 -2.0051 0.9575
8.8587 5.9395 -2.0047 0.9575
8.2927 6.7056 -2.0045 0.9575
7.6490 7.4070 -2.0013 0.9576
6.6442 7.6969 -1.9112 0.9595
5.7456 8.0010 -1.8515 0.9607
2.5821 9.5000 -1.8504 0.9607
1.7238 9.6910 -1.8501 0.9607
0.8521 9.8046 -1.8498 0.9607
-0.0261 9.8400 -1.8495 0.9607
-0.9039 9.7968 -1.8492 0.9607
-1.7742 9.6756 -1.8489 0.9608
-2.6300 9.4772 -1.8487 0.9608
-3.4646 9.2033 -1.8484 0.9608
-4.2714 8.8561 -1.8481 0.9608
-5.0439 8.4385 -1.8478 0.9608
-8.3050 6.6429 -1.9989 0.9576
-8.8637 5.8748 -1.9988 0.9576
-9.3518 5.0601 -1.9986 0.9576
-10.1010 3.3168 -1.9983 0.9577
-10.3562 2.4022 -1.9982 0.9577
-10.6222 -0.4264 -1.9982 0.9577
-10.3776 -2.3077 -1.9982 0.9577
-10.1307 -3.2246 -1.9983 0.9577
-8.9168 -5.7937 -1.9987 0.9576
-7.7465 -7.2878 -1.9991 0.9576
-5.5418 -9.0826 -1.9999 0.9576
-4.7099 -9.5421 -2.0001 0.9576
-3.8403 -9.9258 -2.0004 0.9576
-1.0748 -10.5933 -2.0014 0.9576
1.7700 -10.5048 -2.0023 0.9576
3.6101 -10.0260 -2.0029 0.9576
5.3362 -9.2273 -2.0035 0.9575
6.1392 -8.7156 -2.0038 0.9575
6.8932 -8.1340 -2.0040 0.9575
8.2311 -6.7808 -2.0045 0.9575
8.8041 -6.0199 -2.0047 0.9575
9.3070 -5.2107 -2.0049 0.9575
10.3565 -2.5602 -2.0052 0.9575
10.6653 0.2741 -2.0053 0.9575
10.2111 3.0887 -2.0052 0.9575
9.4984 4.8539 -2.0049 0.9575
5.9743 7.8323 -1.8516 0.9607
3.6851 9.1311 -1.8508 0.9607
1.1347 9.7765 -1.8499 0.9607
0.2578 9.8371 -1.8496 0.9607
-1.4944 9.7232 -1.8490 0.9608
-3.1979 9.2999 -1.8485 0.9608
-4.0143 8.9761 -1.8482 0.9608
-4.7985 8.5809 -1.8479 0.9608
-5.5443 8.1174 -1.8477 0.9608
-6.3511 7.7173 -1.8786 0.9601
-7.4452 7.5572 -1.9940 0.9577
-9.2022 5.3279 -1.9986 0.9576
-9.6402 4.4852 -1.9985 0.9576
-10.2828 2.7000 -1.9983 0.9577
-10.5984 0.8292 -1.9982 0.9577
-10.6300 -0.1197 -1.9982 0.9577
-10.5770 -1.0678 -1.9982 0.9577
-10.4398 -2.0073 -1.9982 0.9577
-10.2194 -2.9310 -1.9983 0.9577
-9.9176 -3.8313 -1.9984 0.9577
-9.0800 -5.5339 -1.9987 0.9576
-7.9532 -7.0611 -1.9990 0.9576
-5.8013 -8.9185 -1.9998 0.9576
-3.2335 -10.1409 -2.0006 0.9576
-1.3799 -10.5574 -2.0013 0.9576
0.5187 -10.6379 -2.0019 0.9576
1.4661 -10.5509 -2.0022 0.9576
2.4021 -10.3796 -2.0025 0.9576
3.3192 -10.1255 -2.0028 0.9576
6.6554 -8.3292 -2.0040 0.9575
8.6265 -6.2712 -2.0046 0.9575
9.1525 -5.4769 -2.0048 0.9575
9.9817 -3.7634 -2.0051 0.9575
10.2782 -2.8579 -2.0052 0.9575
10.4926 -1.9295 -2.0053 0.9575
9.6347 4.5780 -2.0050 0.9575
8.6662 6.2166 -2.0047 0.9575
8.0761 6.9644 -2.0045 0.9575
7.3965 7.6305 -1.9975 0.9577
3.9472 9.0214 -1.8509 0.9607
2.2801 9.5764 -1.8503 0.9607
0.5415 9.8261 -1.8497 0.9607
-1.2133 9.7628 -1.8491 0.9608
-5.3080 8.2743 -1.8478 0.9608
-7.9086 7.1113 -1.9991 0.9576
-8.5107 6.3766 -1.9989 0.9576
-9.0449 5.5913 -1.9987 0.9576
-9.5070 4.7616 -1.9985 0.9576
-9.8933 3.8940 -1.9984 0.9577
-10.2007 2.9956 -1.9983 0.9577
-10.5701 1.1347 -1.9982 0.9577
-10.6034 -0.7622 -1.9982 0.9577
-10.4933 -1.7053 -1.9982 0.9577
-10.2996 -2.6349 -1.9983 0.9577
-10.0238 -3.5435 -1.9984 0.9577
-9.2356 -5.2695 -1.9986 0.9576
-8.7293 -6.0731 -1.9988 0.9576
-7.5124 -7.5295 -1.9992 0.9576
-6.8114 -8.1708 -1.9994 0.9576
-6.0559 -8.7471 -1.9997 0.9576
-4.4059 -9.6869 -2.0002 0.9576
-3.5245 -10.0429 -2.0005 0.9576
-0.7392 -10.6226 -2.0015 0.9576
0.2116 -10.6479 -2.0018 0.9576
1.1611 -10.5883 -2.0021 0.9576
2.1016 -10.4441 -2.0024 0.9576
3.0255 -10.2165 -2.0027 0.9576
3.9257 -9.9073 -2.0030 0.9576
4.7947 -9.5189 -2.0033 0.9575
7.8257 -7.2438 -2.0044 0.9575
8.9904 -5.7385 -2.0048 0.9575
9.8687 -4.0497 -2.0050 0.9575
10.6633 -0.3415 -2.0053 0.9575
10.1081 3.4101 -2.0051 0.9575
8.2739 6.7287 -2.0045 0.9575
5.7233 8.0170 -1.8515 0.9607
3.1850 -8.9235 -2.0028 0.9620
4.7217 -8.2174 -2.0033 0.9620
6.1085 -7.2490 -2.0038 0.9620
7.8125 -5.3739 -2.0044 0.9620
8.9585 -3.1135 -2.0047 0.9620
9.2009 -2.3018 -2.0048 0.9620
9.3699 -1.4717 -2.0049 0.9620
9.4640 -0.6297 -2.0049 0.9620
9.4824 0.2172 -2.0049 0.9620
9.2925 1.8992 -2.0049 0.9620
8.0393 5.0289 -2.0044 0.9620
5.7566 7.5035 -1.9991 0.9621
4.8796 7.6961 -1.9262 0.9634
4.0102 7.7840 -1.8509 0.9648
2.5621 8.3706 -1.8504 0.9648
1.0332 8.6903 -1.8499 0.9649
0.2536 8.7466 -1.8496 0.9649
-3.5476 7.9922 -1.8483 0.9649
-4.2875 7.7174 -1.8661 0.9645
-5.2276 7.6997 -1.9672 0.9627
-7.1956 6.1388 -1.9993 0.9621
-7.7140 5.4717 -1.9991 0.9621
-8.1708 4.7612 -1.9990 0.9621
-8.5625 4.0129 -1.9989 0.9621
-8.8860 3.2327 -1.9987 0.9621
-9.1386 2.4268 -1.9987 0.9621
-9.3183 1.6017 -1.9986 0.9621
-9.4544 -0.0801 -1.9985 0.9621
-9.2899 -1.7594 -1.9986 0.9621
-9.0961 -2.5814 -1.9987 0.9621
-8.8299 -3.3829 -1.9988 0.9621
-7.0906 -6.2599 -1.9993 0.9621
-6.5044 -6.8683 -1.9995 0.9621
-5.8662 -7.4221 -1.9997 0.9621
-5.1812 -7.9168 -2.0000 0.9621
-2.9005 -9.0098 -2.0007 0.9620
-1.2532 -9.3845 -2.0013 0.9620
-0.4109 -9.4602 -2.0016 0.9620
1.2775 -9.3853 -2.0022 0.9620
2.1101 -9.2351 -2.0024 0.9620
2.9261 -9.0112 -2.0027 0.9620
3.7190 -8.7154 -2.0030 0.9620
4.4824 -8.3498 -2.0032 0.9620
7.1234 -6.2569 -2.0041 0.9620
8.1235 -4.8920 -2.0045 0.9620
8.5282 -4.1479 -2.0046 0.9620
9.1306 -2.5662 -2.0048 0.9620
9.4519 0.7901 -2.0049 0.9620
9.3435 1.6303 -2.0049 0.9620
9.1605 2.4574 -2.0048 0.9620
8.9043 3.2649 -2.0047 0.9620
8.5770 4.0462 -2.0046 0.9620
8.1812 4.7950 -2.0045 0.9620
7.1975 6.1718 -2.0042 0.9620
6.6174 6.7888 -2.0040 0.9620
5.9790 7.3444 -2.0019 0.9620
5.1922 7.6893 -1.9612 0.9628
4.2572 7.7088 -1.8614 0.9646
3.5319 8.0115 -1.8507 0.9648
2.8026 8.2936 -1.8505 0.9648
0.5058 8.7360 -1.8497 0.9649
-0.2757 8.7451 -1.8494 0.9649
-1.8252 8.5544 -1.8489 0.9649
-3.3157 8.0916 -1.8484 0.9649
-4.0239 7.7624 -1.8482 0.9649
-4.9132 7.7059 -1.9318 0.9633
-5.7663 7.4769 -1.9959 0.9621
-8.0303 4.9951 -1.9990 0.9621
-8.4434 4.2583 -1.9989 0.9621
-8.7891 3.4878 -1.9988 0.9621
-9.0648 2.6895 -1.9987 0.9621
-9.3980 1.0354 -1.9986 0.9621
-9.4323 -0.6516 -1.9986 0.9621
-9.3367 -1.4906 -1.9986 0.9621
-8.6096 -3.9107 -1.9988 0.9621
-8.2268 -4.6636 -1.9990 0.9621
-7.7784 -5.3795 -1.9991 0.9621
-7.2680 -6.0526 -1.9993 0.9621
-6.6996 -6.6776 -1.9995 0.9621
-5.4072 -7.7638 -1.9999 0.9621
-4.6934 -8.2163 -2.0001 0.9621
-3.9421 -8.6034 -2.0004 0.9620
-3.1591 -8.9220 -2.0007 0.9620
-1.5234 -9.3440 -2.0012 0.9620
0.1618 -9.4686 -2.0018 0.9620
4.2395 -8.4753 -2.0031 0.9620
4.9795 -8.0642 -2.0034 0.9620
5.6798 -7.5887 -2.0036 0.9620
6.3350 -7.0524 -2.0039 0.9620
6.9397 -6.4596 -2.0041 0.9620
7.4891 -5.8152 -2.0042 0.9620
7.9788 -5.1242 -2.0044 0.9620
9.0526 -2.8285 -2.0048 0.9620
9.4792 -0.3300 -2.0049 0.9620
9.4708 0.5171 -2.0049 0.9620
8.6904 3.7971 -2.0047 0.9620
8.3164 4.5571 -2.0045 0.9620
7.8760 5.2806 -2.0044 0.9620
4.5488 7.7030 -1.8910 0.9641
1.5328 8.6170 -1.8501 0.9648
0.7577 8.7182 -1.8498 0.9649
-0.8038 8.7116 -1.8493 0.9649
-3.0810 8.1842 -1.8485 0.9649
-4.6094 7.7116 -1.8991 0.9639
-6.2195 7.1280 -1.9996 0.9621
-6.8300 6.5440 -1.9994 0.9621
-8.9836 2.9499 -1.9987 0.9621
-9.3643 1.3061 -1.9986 0.9621
-9.4433 0.4653 -1.9986 0.9621
-9.4472 -0.3792 -1.9986 0.9621
-9.2297 -2.0524 -1.9986 0.9621
-9.0100 -2.8679 -1.9987 0.9621
-8.7186 -3.6606 -1.9988 0.9621
-8.3577 -4.4242 -1.9989 0.9621
-7.9302 -5.1527 -1.9991 0.9621
-7.4394 -5.8402 -1.9992 0.9621
-4.1885 -8.4857 -2.0003 0.9620
-3.4150 -8.8267 -2.0006 0.9620
-1.7922 -9.2957 -2.0011 0.9620
-0.1115 -9.4689 -2.0017 0.9620
4.7446 -8.2042 -2.0033 0.9620
5.4583 -7.7491 -2.0036 0.9620
6.1287 -7.2319 -2.0038 0.9620
6.7502 -6.6569 -2.0040 0.9620
7.8274 -5.3521 -2.0044 0.9620
8.2744 -4.6326 -2.0045 0.9620
8.6553 -3.8761 -2.0046 0.9620
8.9671 -3.0885 -2.0047 0.9620
9.3739 -1.4455 -2.0049 0.9620
9.4221 1.0887 -2.0049 0.9620
9.0781 2.7460 -2.0048 0.9620
8.4445 4.3154 -2.0046 0.9620
8.0252 5.0513 -2.0044 0.9620
6.3991 6.9945 -2.0039 0.9620
5.7349 7.5185 -1.9988 0.9621
4.8499 7.6967 -1.9230 0.9635
1.7808 8.5696 -1.8501 0.9648
-0.5521 8.7315 -1.8494 0.9649
-2.0948 8.4920 -1.8488 0.9649
-2.8438 8.2700 -1.8486 0.9649
-3.5698 7.9823 -1.8483 0.9649
-4.3154 7.7169 -1.8689 0.9645
-5.2586 7.6991 -1.9708 0.9626
-6.0087 7.3013 -1.9988 0.9621
-7.2127 6.1187 -1.9993 0.9621
-8.1841 4.7384 -1.9990 0.9621
-8.5737 3.9890 -1.9989 0.9621
-9.1453 2.4013 -1.9987 0.9621
-9.4070 -0.9497 -1.9986 0.9621
-9.2850 -1.7853 -1.9986 0.9621
-8.0754 -4.9216 -1.9990 0.9621
-7.6046 -5.6230 -1.9992 0.9621
-5.8455 -7.4384 -1.9998 0.9621
-5.1591 -7.9313 -2.0000 0.9621
-4.4314 -8.3610 -2.0002 0.9621
-2.0596 -9.2397 -2.0010 0.9620
1.3037 -9.3817 -2.0022 0.9620
2.1359 -9.2293 -2.0024 0.9620
2.9513 -9.0031 -2.0027 0.9620
4.5057 -8.3373 -2.0032 0.9620
5.2323 -7.9030 -2.0035 0.9620
5.9173 -7.4055 -2.0037 0.9620
6.5552 -6.8487 -2.0039 0.9620
7.1408 -6.2371 -2.0041 0.9620
9.3283 -1.7154 -2.0049 0.9620
9.4443 -0.8762 -2.0049 0.9620
9.1536 2.4830 -2.0048 0.9620
8.1678 4.8178 -2.0045 0.9620
5.9577 7.3601 -2.0016 0.9620
5.1615 7.6899 -1.9577 0.9628
2.0274 8.5150 -1.8502 0.9648
-0.3000 8.7442 -1.8494 0.9649
-1.8490 8.5492 -1.8489 0.9649
-2.6041 8.3490 -1.8487 0.9649
-3.3382 8.0823 -1.8484 0.9649
-5.7879 7.4617 -1.9961 0.9621
-8.0441 4.9727 -1.9990 0.9621
-8.4552 4.2348 -1.9989 0.9621
-9.0723 2.6642 -1.9987 0.9621
-9.4533 0.1663 -1.9986 0.9621
-9.4305 -0.6779 -1.9986 0.9621
-8.9150 -3.1515 -1.9987 0.9621
-8.5987 -3.9346 -1.9988 0.9621
-6.0575 -7.2664 -1.9997 0.9621
-5.3856 -7.7788 -1.9999 0.9621
-2.3252 -9.1761 -2.0009 0.9620
-1.4973 -9.3482 -2.0012 0.9620
-0.6573 -9.4459 -2.0015 0.9620
0.1882 -9.4682 -2.0018 0.9620
1.0324 -9.4150 -2.0021 0.9620
1.8686 -9.2866 -2.0024 0.9620
2.6902 -9.0841 -2.0026 0.9620
5.7010 -7.5728 -2.0036 0.9620
6.3546 -7.0347 -2.0039 0.9620
6.9577 -6.4403 -2.0041 0.9620
8.7738 -3.6004 -2.0047 0.9620
9.0605 -2.8033 -2.0048 0.9620
9.4150 -1.1483 -2.0049 0.9620
9.3829 1.3862 -2.0049 0.9620
9.2216 2.2179 -2.0048 0.9620
8.9865 3.0317 -2.0048 0.9620
8.3036 4.5803 -2.0045 0.9620
7.3561 5.9823 -2.0042 0.9620
6.7923 6.6142 -2.0040 0.9620
6.1744 7.1931 -2.0038 0.9620
4.5203 7.7035 -1.8880 0.9641
3.0179 8.2180 -1.8506 0.9648
2.8645 -8.0253 -2.0027 0.9656
3.5696 -7.7387 -2.0029 0.9656
4.2463 -7.3901 -2.0032 0.9656
5.4934 -6.5191 -2.0036 0.9656
6.0538 -6.0034 -2.0038 0.9656
6.5659 -5.4398 -2.0039 0.9656
7.7737 -3.5073 -2.0043 0.9656
8.0560 -2.7998 -2.0044 0.9656
8.2740 -2.0699 -2.0045 0.9656
8.4259 -1.3234 -2.0046 0.9656
8.4756 0.9554 -2.0046 0.9656
8.3564 1.7078 -2.0045 0.9656
8.1704 2.4466 -2.0045 0.9656
7.9192 3.1657 -2.0044 0.9656
7.6047 3.8595 -2.0043 0.9656
7.2296 4.5224 -2.0042 0.9656
6.7967 5.1491 -2.0040 0.9656
6.3096 5.7345 -2.0039 0.9656
5.7723 6.2741 -2.0037 0.9656
5.1889 6.7635 -2.0035 0.9656
4.5642 7.1987 -2.0033 0.9656
3.8927 7.5559 -1.9976 0.9657
2.3583 7.7049 -1.8938 0.9674
-0.4747 7.8546 -1.8494 0.9682
-1.1735 7.7799 -1.8491 0.9682
-1.8802 7.7147 -1.8662 0.9679
-2.6260 7.7068 -1.9135 0.9671
-3.4159 7.6955 -1.9788 0.9660
-4.1270 7.4286 -1.9972 0.9657
-5.9545 6.0779 -1.9997 0.9656
-7.9932 2.9079 -1.9990 0.9657
-8.5047 -0.0721 -1.9989 0.9657
-8.4644 -0.8307 -1.9989 0.9657
-8.1823 -2.3221 -1.9990 0.9657
-7.2763 -4.4069 -1.9993 0.9656
-6.8545 -5.0389 -1.9994 0.9656
-6.3781 -5.6309 -1.9996 0.9656
-5.8507 -6.1780 -1.9998 0.9656
-4.6604 -7.1210 -2.0002 0.9656
-3.3212 -7.8378 -2.0006 0.9656
-2.6089 -8.1038 -2.0008 0.9656
-1.8756 -8.3053 -2.0011 0.9656
-1.1272 -8.4406 -2.0013 0.9656
-0.3696 -8.5086 -2.0016 0.9656
4.0312 -7.5093 -2.0031 0.9656
6.4060 -5.6268 -2.0039 0.9656
7.3053 -4.3992 -2.0042 0.9656
7.9718 -3.0310 -2.0044 0.9656
8.2108 -2.3077 -2.0045 0.9656
8.4997 0.7105 -2.0046 0.9656
8.4023 1.4661 -2.0046 0.9656
8.0074 2.9360 -2.0044 0.9656
7.3572 4.3120 -2.0042 0.9656
6.9426 4.9510 -2.0041 0.9656
6.4726 5.5503 -2.0039 0.9656
5.3821 6.6112 -2.0035 0.9656
4.1129 7.4475 -1.9995 0.9656
3.3896 7.6887 -1.9748 0.9661
2.6025 7.7015 -1.9106 0.9671
1.8587 7.7109 -1.8641 0.9679
1.1544 7.7862 -1.8499 0.9682
-0.2482 7.8728 -1.8512 0.9682
-0.9486 7.8109 -1.8492 0.9682
-3.9075 7.5378 -1.9954 0.9657
-5.1969 6.7386 -2.0000 0.9656
-6.3107 5.7065 -1.9996 0.9656
-7.2234 4.4932 -1.9993 0.9656
-7.5950 3.8305 -1.9992 0.9657
-7.9061 3.1374 -1.9991 0.9657
-8.1542 2.4193 -1.9990 0.9657
-8.3373 1.6820 -1.9989 0.9657
-8.4539 0.9313 -1.9989 0.9657
-8.4848 -0.5861 -1.9989 0.9657
-8.3988 -1.3409 -1.9989 0.9657
-8.0272 -2.8126 -1.9990 0.9657
-7.4002 -4.1950 -1.9992 0.9657
-6.9969 -4.8389 -1.9994 0.9656
-5.4669 -6.5209 -1.9999 0.9656
-4.8637 -6.9834 -2.0001 0.9656
-4.2216 -7.3903 -2.0003 0.9656
-2.8415 -8.0249 -2.0008 0.9656
-1.3702 -8.4042 -2.0013 0.9656
-0.6149 -8.4940 -2.0015 0.9656
0.1455 -8.5161 -2.0018 0.9656
0.9049 -8.4702 -2.0020 0.9656
1.6573 -8.3567 -2.0023 0.9656
2.3967 -8.1765 -2.0025 0.9656
3.1171 -7.9310 -2.0028 0.9656
5.1080 -6.8246 -2.0034 0.9656
5.6971 -6.3422 -2.0036 0.9656
6.2408 -5.8091 -2.0038 0.9656
6.7349 -5.2295 -2.0040 0.9656
7.5582 -3.9497 -2.0043 0.9656
7.8809 -3.2597 -2.0044 0.9656
8.3354 -1.8071 -2.0045 0.9656
8.5167 0.4650 -2.0046 0.9656
8.4411 1.2231 -2.0046 0.9656
8.2981 1.9713 -2.0045 0.9656
8.0888 2.7038 -2.0045 0.9656
7.4787 4.0981 -2.0043 0.9656
6.6302 5.3614 -2.0040 0.9656
5.5707 6.4534 -2.0036 0.9656
4.3304 7.3331 -2.0015 0.9656
2.8513 7.6978 -1.9293 0.9668
2.0951 7.7082 -1.8773 0.9677
1.3786 7.7499 -1.8500 0.9682
0.6814 7.8410 -1.8498 0.9682
-2.1402 7.7122 -1.8811 0.9676
-2.8999 7.7032 -1.9345 0.9667
-3.6853 7.6410 -1.9938 0.9657
-5.0005 6.8859 -2.0001 0.9656
-6.6438 5.3142 -1.9995 0.9656
-7.0909 4.6998 -1.9994 0.9656
-7.4815 4.0481 -1.9992 0.9657
-7.8125 3.3642 -1.9991 0.9657
-8.0811 2.6536 -1.9990 0.9657
-8.2853 1.9219 -1.9989 0.9657
-8.4236 1.1749 -1.9989 0.9657
-8.4339 -1.0980 -1.9989 0.9657
-8.3025 -1.8462 -1.9989 0.9657
-8.1049 -2.5798 -1.9990 0.9657
-7.8427 -3.2928 -1.9991 0.9657
-5.6525 -6.3603 -1.9998 0.9656
-5.0630 -6.8399 -2.0000 0.9656
-4.4329 -7.2652 -2.0002 0.9656
-3.0717 -7.9392 -2.0007 0.9656
0.6602 -8.4925 -2.0019 0.9656
3.5911 -7.7287 -2.0029 0.9656
4.2669 -7.3783 -2.0032 0.9656
5.5116 -6.5037 -2.0036 0.9656
6.0705 -5.9866 -2.0038 0.9656
7.4410 -4.1660 -2.0042 0.9656
7.7834 -3.4857 -2.0043 0.9656
8.2798 -2.0468 -2.0045 0.9656
8.4729 0.9790 -2.0046 0.9656
7.5939 3.8807 -2.0043 0.9656
6.7823 5.1680 -2.0040 0.9656
6.2936 5.7521 -2.0039 0.9656
5.7547 6.2902 -2.0037 0.9656
5.1700 6.7779 -2.0035 0.9656
3.8712 7.5660 -1.9974 0.9657
2.3349 7.7052 -1.8922 0.9675
-1.1952 7.7766 -1.8491 0.9682
-1.9030 7.7145 -1.8674 0.9679
-4.1481 7.4177 -1.9974 0.9657
-4.7999 7.0275 -2.0001 0.9656
-5.4073 6.5705 -1.9999 0.9656
-5.9714 6.0613 -1.9997 0.9656
-7.3618 4.2623 -1.9993 0.9657
-8.4620 -0.8543 -1.9989 0.9657
-7.9343 -3.0651 -1.9991 0.9657
-6.8405 -5.0580 -1.9994 0.9656
-5.8335 -6.1944 -1.9998 0.9656
-5.2580 -6.6908 -2.0000 0.9656
-4.6405 -7.1340 -2.0002 0.9656
-3.9859 -7.5205 -2.0004 0.9656
-2.5863 -8.1111 -2.0009 0.9656
-1.8525 -8.3105 -2.0011 0.9656
-1.1037 -8.4437 -2.0014 0.9656
-0.3459 -8.5096 -2.0016 0.9656
0.4149 -8.5076 -2.0019 0.9656
1.1725 -8.4377 -2.0021 0.9656
2.6542 -8.0970 -2.0026 0.9656
4.0521 -7.4980 -2.0031 0.9656
4.7055 -7.1073 -2.0033 0.9656
6.4217 -5.6089 -2.0039 0.9656
6.8971 -5.0140 -2.0040 0.9656
7.6795 -3.7087 -2.0043 0.9656
7.9802 -3.0088 -2.0044 0.9656
8.3885 -1.5426 -2.0046 0.9656
8.4929 -0.7879 -2.0046 0.9656
8.3981 1.4895 -2.0046 0.9656
8.2315 2.2328 -2.0045 0.9656
7.9991 2.9583 -2.0044 0.9656
7.7029 3.6601 -2.0043 0.9656
7.3451 4.3325 -2.0042 0.9656
6.9288 4.9703 -2.0041 0.9656
6.4571 5.5683 -2.0039 0.9656
5.9340 6.1217 -2.0037 0.9656
5.3636 6.6261 -2.0035 0.9656
2.5788 7.7018 -1.9089 0.9672
1.8360 7.7112 -1.8630 0.9680
1.1326 7.7893 -1.8499 0.9682
0.4330 7.8583 -1.8497 0.9682
-0.2701 7.8727 -1.8514 0.9682
-2.4046 7.7094 -1.8980 0.9674
-3.9288 7.5275 -1.9956 0.9657
-4.5954 7.1633 -2.0002 0.9656
-6.8084 5.1012 -1.9994 0.9656
-7.2359 4.4730 -1.9993 0.9656
-7.6057 3.8093 -1.9992 0.9657
-8.3419 1.6587 -1.9989 0.9657
-8.4565 0.9078 -1.9989 0.9657
-8.5037 0.1496 -1.9989 0.9657
-8.4831 -0.6098 -1.9989 0.9657
-8.2400 -2.1080 -1.9990 0.9657
-6.0096 -6.0233 -1.9997 0.9656
-5.4487 -6.5361 -1.9999 0.9656
-2.8191 -8.0328 -2.0008 0.9656
-2.0914 -8.2533 -2.0010 0.9656
-1.3468 -8.4080 -2.0013 0.9656
-0.5912 -8.4957 -2.0015 0.9656
0.1692 -8.5157 -2.0018 0.9656
0.9285 -8.4677 -2.0020 0.9656
2.4194 -8.1699 -2.0025 0.9656
5.1270 -6.8103 -2.0034 0.9656
5.7148 -6.3263 -2.0036 0.9656
6.2570 -5.7917 -2.0038 0.9656
7.1880 -4.5880 -2.0041 0.9656
8.1477 -2.5209 -2.0045 0.9656
8.3405 -1.7839 -2.0045 0.9656
8.5250 -0.2730 -2.0046 0.9656
8.5154 0.4887 -2.0046 0.9656
8.0813 2.7263 -2.0045 0.9656
7.8054 3.4364 -2.0044 0.9656
7.4672 4.1189 -2.0042 0.9656
7.0694 4.7685 -2.0041 0.9656
6.6153 5.3798 -2.0040 0.9656
5.5527 6.4688 -2.0036 0.9656
4.9528 6.9378 -2.0034 0.9656
3.6264 7.6771 -1.9955 0.9657
1.9394 -7.4865 -2.0024 0.9686
2.6000 -7.2844 -2.0026 0.9685
3.8542 -6.7077 -2.0030 0.9685
4.4378 -6.3376 -2.0032 0.9685
5.4946 -5.4489 -2.0036 0.9685
5.9593 -4.9373 -2.0037 0.9685
6.3765 -4.3861 -2.0039 0.9685
6.7429 -3.7999 -2.0040 0.9685
7.0554 -3.1833 -2.0041 0.9685
7.3116 -2.5411 -2.0042 0.9685
7.5095 -1.8786 -2.0043 0.9685
7.6473 -1.2011 -2.0043 0.9685
7.7241 -0.5140 -2.0043 0.9685
7.6924 0.8671 -2.0043 0.9685
7.4155 2.2205 -2.0042 0.9685
6.9021 3.5029 -2.0041 0.9685
6.5616 4.1046 -2.0039 0.9685
6.1688 4.6734 -2.0038 0.9685
5.7268 5.2048 -2.0037 0.9685
5.2391 5.6946 -2.0035 0.9685
4.7097 6.1388 -2.0033 0.9685
4.1427 6.5339 -2.0031 0.9685
2.9148 7.1648 -2.0027 0.9685
1.5903 7.5472 -1.9970 0.9686
-2.4911 7.3107 -1.9997 0.9686
-3.7522 6.7540 -2.0005 0.9686
-5.8758 5.0128 -1.9998 0.9686
-7.2565 2.6399 -1.9993 0.9686
-7.4628 1.9818 -1.9992 0.9686
-7.5864 -1.4368 -1.9992 0.9686
-6.6055 -4.0006 -1.9995 0.9686
-6.2226 -4.5743 -1.9996 0.9686
-4.7900 -6.0605 -2.0001 0.9686
-4.2306 -6.4643 -2.0003 0.9686
-3.0148 -7.1148 -2.0007 0.9686
-1.0232 -7.6618 -2.0014 0.9686
-0.3355 -7.7234 -2.0016 0.9686
0.3550 -7.7234 -2.0018 0.9686
1.7226 -7.5390 -2.0023 0.9686
2.3887 -7.3561 -2.0025 0.9685
4.8131 -6.0581 -2.0033 0.9685
5.3349 -5.6050 -2.0035 0.9685
5.8143 -5.1070 -2.0037 0.9685
7.4521 -2.0945 -2.0042 0.9685
7.6094 -1.4212 -2.0043 0.9685
7.7060 -0.7366 -2.0043 0.9685
7.7411 -0.0461 -2.0043 0.9685
7.6258 1.3306 -2.0043 0.9685
7.4765 2.0057 -2.0042 0.9685
7.2675 2.6647 -2.0042 0.9685
6.3012 4.4936 -2.0039 0.9685
4.8849 6.0005 -2.0034 0.9685
4.3296 6.4119 -2.0032 0.9685
2.4743 7.3220 -2.0011 0.9686
1.1303 7.6240 -1.9956 0.9687
0.4452 7.6884 -1.9940 0.9687
-1.6087 7.5398 -1.9961 0.9686
-2.2780 7.3757 -1.9987 0.9686
-2.9300 7.1503 -2.0008 0.9686
-3.5559 6.8597 -2.0005 0.9686
-4.1534 6.5143 -2.0003 0.9686
-5.2442 5.6713 -2.0000 0.9686
-6.5575 4.0790 -1.9995 0.9686
-6.8949 3.4774 -1.9994 0.9686
-7.4026 2.1963 -1.9992 0.9686
-7.6747 0.8455 -1.9991 0.9686
-7.7195 0.1573 -1.9991 0.9686
-7.7028 -0.5321 -1.9991 0.9686
-7.4858 -1.8928 -1.9992 0.9686
-4.9628 -5.9196 -2.0001 0.9686
-1.2437 -7.6288 -2.0013 0.9686
-0.5581 -7.7102 -2.0015 0.9686
0.1321 -7.7302 -2.0018 0.9686
3.4607 -6.9183 -2.0029 0.9685
5.6644 -5.2725 -2.0036 0.9685
7.7365 -0.2694 -2.0043 0.9685
7.7297 0.4220 -2.0043 0.9685
7.3414 2.4540 -2.0042 0.9685
6.7877 3.7195 -2.0040 0.9685
6.0177 4.8661 -2.0038 0.9685
5.0562 5.8573 -2.0034 0.9685
2.6862 7.2521 -2.0024 0.9686
1.3502 7.5907 -1.9962 0.9686
0.6670 7.6746 -1.9946 0.9687
-0.7076 7.6696 -1.9942 0.9687
-2.0633 7.4349 -1.9978 0.9686
-3.3567 6.9596 -2.0006 0.9686
-3.9639 6.6317 -2.0004 0.9686
-5.5772 5.3436 -1.9999 0.9686
-7.0923 3.0541 -1.9993 0.9686
-7.5217 1.7447 -1.9992 0.9686
-7.6566 -0.9968 -1.9992 0.9686
-7.5372 -1.6761 -1.9992 0.9686
-7.3578 -2.3420 -1.9993 0.9686
-6.4758 -4.2077 -1.9995 0.9686
-5.6256 -5.2925 -1.9998 0.9686
-4.0241 -6.5952 -2.0004 0.9686
-1.4633 -7.5894 -2.0012 0.9686
-0.7803 -7.6906 -2.0015 0.9686
3.2595 -7.0151 -2.0028 0.9685
