ply
format ascii 1.0
element vertex 1593
property float32 x
property float32 y
property float32 z
property float32 I
end_header
-7.5614 -9.5092 -2.0014 0.9519
-4.7681 -11.1729 -2.0012 0.9519
-3.6847 -11.3509 -1.9660 0.9528
-2.5643 -11.2345 -1.8984 0.9544
-1.5237 -11.2236 -1.8659 0.9551
0.4946 -11.2300 -1.8518 0.9555
1.5072 -11.2234 -1.8655 0.9551
2.5435 -11.2179 -1.8949 0.9544
4.7366 -11.1437 -1.9948 0.9521
5.7325 -10.7116 -2.0014 0.9519
6.6667 -10.1565 -2.0014 0.9519
7.5476 -9.5201 -2.0014 0.9519
8.3681 -8.8076 -2.0014 0.9519
10.4043 -6.2729 -2.0014 0.9519
10.9232 -5.3181 -2.0014 0.9519
11.3547 -4.3208 -2.0014 0.9519
11.6954 -3.2889 -2.0014 0.9519
11.9425 -2.2307 -2.0014 0.9519
1.3148 -10.5666 -2.0014 0.9576
2.2537 -10.4068 -2.0014 0.9576
4.0701 -9.8395 -2.0014 0.9576
5.7565 -8.9579 -2.0014 0.9576
6.5339 -8.4077 -2.0014 0.9576
7.2591 -7.7902 -2.0014 0.9576
8.5298 -6.3738 -2.0014 0.9576
9.0652 -5.5861 -2.0014 0.9576
9.9147 -3.8833 -2.0014 0.9576
10.2220 -2.9818 -2.0014 0.9576
10.6468 -0.1640 -2.0014 0.9576
10.6189 0.7880 -2.0014 0.9576
10.5060 1.7337 -2.0014 0.9576
8.7221 6.1079 -2.0014 0.9576
8.1414 6.8629 -2.0014 0.9576
7.4769 7.5441 -1.9964 0.9577
6.3905 7.7200 -1.8837 0.9600
4.8243 8.5743 -1.8492 0.9607
4.0389 8.9711 -1.8492 0.9607
1.5150 9.7210 -1.8492 0.9607
0.6403 9.8175 -1.8492 0.9607
-0.2395 9.8354 -1.8492 0.9607
-1.1174 9.7747 -1.8492 0.9607
-1.9863 9.6357 -1.8492 0.9607
-2.8394 9.4197 -1.8492 0.9607
-4.4707 8.7639 -1.8492 0.9607
-6.4347 8.4526 -1.9967 0.9577
-7.8548 7.1891 -2.0014 0.9576
-8.4658 6.4585 -2.0014 0.9576
-9.0090 5.6762 -2.0014 0.9576
-9.4802 4.8485 -2.0014 0.9576
-9.8755 3.9820 -2.0014 0.9576
-10.4266 2.1606 -2.0014 0.9576
-10.5779 1.2203 -2.0014 0.9576
-10.6262 -0.6820 -2.0014 0.9576
-10.5228 -1.6288 -2.0014 0.9576
-10.3351 -2.5626 -2.0014 0.9576
-9.7140 -4.3613 -2.0014 0.9576
-9.2854 -5.2118 -2.0014 0.9576
-8.2094 -6.7814 -2.0014 0.9576
-7.5706 -7.4878 -2.0014 0.9576
-6.8713 -8.1343 -2.0014 0.9576
-6.1170 -8.7158 -2.0014 0.9576
-2.6762 -10.3063 -2.0014 0.9576
0.1530 -10.6470 -2.0014 0.9576
2.9713 -10.2251 -2.0014 0.9576
3.8731 -9.9187 -2.0014 0.9576
7.1023 -7.9335 -2.0014 0.9576
7.7827 -7.2671 -2.0014 0.9576
8.4010 -6.5426 -2.0014 0.9576
8.9520 -5.7658 -2.0014 0.9576
9.4314 -4.9428 -2.0014 0.9576
9.8353 -4.0803 -2.0014 0.9576
10.1606 -3.1851 -2.0014 0.9576
10.5652 -1.3257 -2.0014 0.9576
10.6325 0.5760 -2.0014 0.9576
10.5385 1.5238 -2.0014 0.9576
10.0990 3.3753 -2.0014 0.9576
9.7570 4.2642 -2.0014 0.9576
6.6495 7.7143 -1.9143 0.9594
4.2170 8.8888 -1.8492 0.9607
3.4059 9.2300 -1.8492 0.9607
2.5675 9.4974 -1.8492 0.9607
1.7086 9.6888 -1.8492 0.9607
-2.6510 9.4745 -1.8492 0.9607
-4.2950 8.8513 -1.8492 0.9607
-6.2316 8.5338 -1.9862 0.9579
-7.0228 8.0039 -2.0014 0.9576
-7.7099 7.3444 -2.0014 0.9576
-8.3353 6.6260 -2.0014 0.9576
-8.8940 5.8547 -2.0014 0.9576
-10.1283 3.2863 -2.0014 0.9576
-10.3814 2.3681 -2.0014 0.9576
-10.5515 1.4310 -2.0014 0.9576
-10.6371 0.4824 -2.0014 0.9576
-10.6377 -0.4700 -2.0014 0.9576
-10.3842 -2.3560 -2.0014 0.9576
-10.1321 -3.2744 -2.0014 0.9576
-9.7990 -4.1667 -2.0014 0.9576
-8.9009 -5.8443 -2.0014 0.9576
-7.0321 -7.9956 -2.0014 0.9576
-4.6598 -9.5744 -2.0014 0.9576
-2.8812 -10.2509 -2.0014 0.9576
-1.0106 -10.6000 -2.0014 0.9576
-0.0593 -10.6479 -2.0014 0.9576
0.8924 -10.6106 -2.0014 0.9576
2.7668 -10.2824 -2.0014 0.9576
3.6745 -9.9940 -2.0014 0.9576
6.9426 -8.0735 -2.0014 0.9576
9.3309 -5.1299 -2.0014 0.9576
10.0950 -3.3871 -2.0014 0.9576
10.3573 -2.4715 -2.0014 0.9576
10.1643 3.1732 -2.0014 0.9576
9.8401 4.0687 -2.0014 0.9576
8.4086 6.5327 -2.0014 0.9576
7.7908 7.2575 -2.0013 0.9576
5.8902 7.8803 -1.8492 0.9607
5.1624 8.3751 -1.8492 0.9607
2.7564 9.4443 -1.8492 0.9607
1.9015 9.6528 -1.8492 0.9607
0.1529 9.8372 -1.8492 0.9607
-2.4615 9.5254 -1.8492 0.9607
-4.1177 8.9352 -1.8492 0.9607
-9.7088 4.3726 -2.0014 0.9576
-10.0607 3.4876 -2.0014 0.9576
-10.3321 2.5747 -2.0014 0.9576
-10.5208 1.6412 -2.0014 0.9576
-10.5793 -1.2079 -2.0014 0.9576
-9.8802 -3.9704 -2.0014 0.9576
-9.4859 -4.8374 -2.0014 0.9576
-7.8632 -7.1799 -2.0014 0.9576
-7.1902 -7.8538 -2.0014 0.9576
-5.6774 -9.0082 -2.0014 0.9576
-4.8498 -9.4795 -2.0014 0.9576
-3.9833 -9.8750 -2.0014 0.9576
-3.0851 -10.1914 -2.0014 0.9576
-2.1620 -10.4263 -2.0014 0.9576
-1.2217 -10.5778 -2.0014 0.9576
-0.2717 -10.6446 -2.0014 0.9576
2.5611 -10.3355 -2.0014 0.9576
3.4744 -10.0653 -2.0014 0.9576
4.3599 -9.7146 -2.0014 0.9576
5.2105 -9.2861 -2.0014 0.9576
6.0195 -8.7834 -2.0014 0.9576
6.7802 -8.2104 -2.0014 0.9576
7.4867 -7.5717 -2.0014 0.9576
8.1334 -6.8724 -2.0014 0.9576
8.7149 -6.1182 -2.0014 0.9576
10.6180 -0.8004 -2.0014 0.9576
10.6470 0.1516 -2.0014 0.9576
10.5909 1.1023 -2.0014 0.9576
8.5372 6.3637 -2.0014 0.9576
7.9345 7.1011 -2.0014 0.9576
7.1937 7.7020 -1.9809 0.9580
3.7712 9.0868 -1.8492 0.9607
2.9442 9.3875 -1.8492 0.9607
2.0936 9.6130 -1.8492 0.9607
1.2263 9.7616 -1.8492 0.9607
-3.9386 9.0155 -1.8492 0.9607
-6.6984 8.2781 -2.0015 0.9576
-7.4108 7.6460 -2.0014 0.9576
-8.0644 6.9532 -2.0014 0.9576
-9.1733 5.4067 -2.0014 0.9576
-10.4860 1.8507 -2.0014 0.9576
-10.6095 0.9062 -2.0014 0.9576
-10.6480 -0.0454 -2.0014 0.9576
-10.6013 -0.9967 -2.0014 0.9576
-10.4699 -1.9400 -2.0014 0.9576
-10.2546 -2.8677 -2.0014 0.9576
-9.5804 -4.6472 -2.0014 0.9576
-9.1269 -5.4847 -2.0014 0.9576
-8.0048 -7.0217 -2.0014 0.9576
-6.6272 -8.3344 -2.0014 0.9576
-5.8560 -8.8932 -2.0014 0.9576
-5.0379 -9.3809 -2.0014 0.9576
-2.3695 -10.3811 -2.0014 0.9576
-1.4325 -10.5513 -2.0014 0.9576
-0.4839 -10.6371 -2.0014 0.9576
0.4685 -10.6378 -2.0014 0.9576
1.4172 -10.5534 -2.0014 0.9576
3.2730 -10.1326 -2.0014 0.9576
5.0243 -9.3882 -2.0014 0.9576
5.8431 -8.9017 -2.0014 0.9576
7.9947 -7.0333 -2.0014 0.9576
9.9519 -3.7870 -2.0014 0.9576
10.2505 -2.8826 -2.0014 0.9576
1.1691 -9.3959 -2.0014 0.9620
4.3865 -8.3910 -2.0014 0.9620
5.1187 -7.9655 -2.0014 0.9620
6.4548 -6.9271 -2.0014 0.9620
7.0480 -6.3227 -2.0014 0.9620
8.4724 -4.2270 -2.0014 0.9620
9.0895 -2.6515 -2.0014 0.9620
9.4424 0.7007 -2.0014 0.9620
9.3420 1.5416 -2.0014 0.9620
9.1669 2.3702 -2.0014 0.9620
7.7557 5.4312 -2.0014 0.9620
7.2394 6.1025 -2.0014 0.9620
6.0355 7.2911 -2.0007 0.9620
2.8642 8.2662 -1.8492 0.9649
2.1142 8.4890 -1.8492 0.9649
0.5694 8.7298 -1.8492 0.9649
-3.2632 8.1170 -1.8492 0.9649
-6.3854 6.9912 -2.0014 0.9620
-8.0109 5.0473 -2.0014 0.9620
-8.4299 4.3113 -2.0014 0.9620
-9.4060 1.0851 -2.0014 0.9620
-9.4653 0.2403 -2.0014 0.9620
-9.3569 -1.4484 -2.0014 0.9620
-9.1901 -2.2787 -2.0014 0.9620
-8.6377 -3.8781 -2.0014 0.9620
-7.8095 -5.3536 -2.0014 0.9620
-5.4392 -7.7501 -2.0014 0.9620
-4.7250 -8.2052 -2.0014 0.9620
-2.3797 -9.1645 -2.0014 0.9620
-1.5512 -9.3404 -2.0014 0.9620
0.9815 -9.4174 -2.0014 0.9620
2.6421 -9.0923 -2.0014 0.9620
5.6598 -7.5906 -2.0014 0.9620
6.9205 -6.4620 -2.0014 0.9620
8.3864 -4.3952 -2.0014 0.9620
8.7456 -3.6282 -2.0014 0.9620
9.0349 -2.8322 -2.0014 0.9620
9.2518 -2.0136 -2.0014 0.9620
9.4625 -0.3347 -2.0014 0.9620
9.4545 0.5122 -2.0014 0.9620
9.3709 1.3550 -2.0014 0.9620
9.2124 2.1869 -2.0014 0.9620
7.8625 5.2755 -2.0014 0.9620
6.1818 7.1718 -2.0014 0.9620
1.5193 8.6154 -1.8492 0.9649
-0.0385 8.7483 -1.8492 0.9649
-0.8200 8.7098 -1.8492 0.9649
-1.5950 8.6017 -1.8492 0.9649
-2.3573 8.4248 -1.8492 0.9649
-3.1006 8.1804 -1.8492 0.9649
-5.5838 7.6467 -2.0014 0.9620
-7.4118 5.8919 -2.0014 0.9620
-7.9086 5.2061 -2.0014 0.9620
-9.0062 2.9222 -2.0014 0.9620
-9.3825 1.2725 -2.0014 0.9620
-9.0096 -2.9116 -2.0014 0.9620
-8.7134 -3.7050 -2.0014 0.9620
-7.4187 -5.8832 -2.0014 0.9620
-4.8877 -8.1093 -2.0014 0.9620
-4.1435 -8.5136 -2.0014 0.9620
-2.5620 -9.1152 -2.0014 0.9620
-1.7372 -9.3076 -2.0014 0.9620
-0.0528 -9.4682 -2.0014 0.9620
0.7935 -9.4351 -2.0014 0.9620
1.6334 -9.3264 -2.0014 0.9620
2.4602 -9.1432 -2.0014 0.9620
5.5073 -7.7020 -2.0014 0.9620
6.1734 -7.1791 -2.0014 0.9620
6.7902 -6.5987 -2.0014 0.9620
7.3527 -5.9656 -2.0014 0.9620
7.8563 -5.2847 -2.0014 0.9620
9.3693 -1.3660 -2.0014 0.9620
9.4539 -0.5233 -2.0014 0.9620
9.4628 0.3235 -2.0014 0.9620
9.3961 1.1678 -2.0014 0.9620
8.7499 3.6179 -2.0014 0.9620
8.3916 4.3853 -2.0014 0.9620
7.9662 5.1176 -2.0014 0.9620
4.7550 7.7141 -1.9155 0.9636
3.9067 7.8276 -1.8492 0.9649
3.1916 8.1454 -1.8492 0.9649
0.1360 8.7473 -1.8492 0.9649
-1.4232 8.6318 -1.8492 0.9649
-2.9369 8.2406 -1.8492 0.9649
-3.6615 7.9453 -1.8492 0.9649
-4.5596 7.9395 -1.9353 0.9633
-5.4290 7.7548 -2.0010 0.9620
-7.2928 6.0386 -2.0014 0.9620
-7.8033 5.3628 -2.0014 0.9620
-8.6332 3.8882 -2.0014 0.9620
-8.9461 3.1012 -2.0014 0.9620
-9.1874 2.2894 -2.0014 0.9620
-9.2737 -1.9104 -2.0014 0.9620
-9.0658 -2.7314 -2.0014 0.9620
-8.4349 -4.3014 -2.0014 0.9620
-6.3936 -6.9837 -2.0014 0.9620
-5.7440 -7.5270 -2.0014 0.9620
-4.3125 -8.4293 -2.0014 0.9620
-3.5421 -8.7809 -2.0014 0.9620
-2.7432 -9.0623 -2.0014 0.9620
-1.0864 -9.4058 -2.0014 0.9620
2.2774 -9.1904 -2.0014 0.9620
6.0290 -7.3007 -2.0014 0.9620
8.2045 -4.7261 -2.0014 0.9620
9.3402 -1.5525 -2.0014 0.9620
9.4416 -0.7118 -2.0014 0.9620
9.4674 0.1348 -2.0014 0.9620
9.4175 0.9802 -2.0014 0.9620
9.2922 1.8178 -2.0014 0.9620
8.8203 3.4427 -2.0014 0.9620
8.4774 4.2171 -2.0014 0.9620
8.0667 4.9577 -2.0014 0.9620
7.0554 6.3144 -2.0014 0.9620
6.4629 6.9196 -2.0014 0.9620
5.8086 7.4563 -1.9979 0.9621
4.9673 7.7098 -1.9387 0.9632
4.0620 7.7481 -1.8492 0.9649
3.3534 8.0801 -1.8492 0.9649
2.6180 8.3474 -1.8492 0.9649
1.8617 8.5480 -1.8492 0.9649
1.0904 8.6801 -1.8492 0.9649
-0.4721 8.7356 -1.8492 0.9649
-1.2507 8.6585 -1.8492 0.9649
-3.5023 8.0167 -1.8492 0.9649
-4.3236 7.8888 -1.9016 0.9639
-5.2668 7.8519 -1.9985 0.9621
-6.5898 6.7989 -2.0014 0.9620
-7.1709 6.1828 -2.0014 0.9620
-7.6947 5.5173 -2.0014 0.9620
-8.1570 4.8077 -2.0014 0.9620
-8.5539 4.0596 -2.0014 0.9620
-8.8825 3.2790 -2.0014 0.9620
-9.1399 2.4722 -2.0014 0.9620
-9.3243 1.6456 -2.0014 0.9620
-9.4340 0.8058 -2.0014 0.9620
-9.3099 -1.7250 -2.0014 0.9620
-9.1185 -2.5500 -2.0014 0.9620
-8.8542 -3.3546 -2.0014 0.9620
-7.6474 -5.5827 -2.0014 0.9620
-7.1180 -6.2437 -2.0014 0.9620
-5.8930 -7.4110 -2.0014 0.9620
-4.4797 -8.3416 -2.0014 0.9620
-3.7165 -8.7085 -2.0014 0.9620
-2.9234 -9.0058 -2.0014 0.9620
-2.1070 -9.2309 -2.0014 0.9620
-0.4303 -9.4586 -2.0014 0.9620
1.2602 -9.3841 -2.0014 0.9620
2.0936 -9.2340 -2.0014 0.9620
2.9104 -9.0100 -2.0014 0.9620
3.7038 -8.7139 -2.0014 0.9620
4.4676 -8.3481 -2.0014 0.9620
5.1957 -7.9155 -2.0014 0.9620
5.8822 -7.4195 -2.0014 0.9620
7.6393 -5.5938 -2.0014 0.9620
8.1086 -4.8888 -2.0014 0.9620
8.5130 -4.1447 -2.0014 0.9620
9.1148 -2.5632 -2.0014 0.9620
9.3074 -1.7385 -2.0014 0.9620
1.0515 -8.4507 -2.0014 0.9656
2.5389 -8.1286 -2.0014 0.9656
3.9452 -7.5469 -2.0014 0.9656
6.3390 -5.6866 -2.0014 0.9656
7.9294 -3.1057 -2.0014 0.9656
8.1751 -2.3847 -2.0014 0.9656
8.3555 -1.6447 -2.0014 0.9656
8.5149 -0.1312 -2.0014 0.9656
8.0213 2.8599 -2.0014 0.9656
7.7336 3.5652 -2.0014 0.9656
7.3841 4.2420 -2.0014 0.9656
6.9755 4.8849 -2.0014 0.9656
3.4672 7.7013 -1.9849 0.9659
1.2116 7.7744 -1.8492 0.9682
-0.8936 7.8174 -1.8492 0.9682
-3.8626 7.5718 -1.9977 0.9657
-5.1582 6.7759 -2.0014 0.9656
-5.7430 6.2879 -2.0014 0.9656
-6.2819 5.7496 -2.0014 0.9656
-6.7706 5.1652 -2.0014 0.9656
-7.2050 4.5396 -2.0014 0.9656
-8.1509 2.4661 -2.0014 0.9656
-8.3387 1.7279 -2.0014 0.9656
-8.4984 -0.5455 -2.0014 0.9656
-8.2656 -2.0494 -2.0014 0.9656
-7.4260 -4.1682 -2.0014 0.9656
-7.0239 -4.8151 -2.0014 0.9656
-6.0547 -5.9884 -2.0014 0.9656
-5.4954 -6.5055 -2.0014 0.9656
-4.8921 -6.9705 -2.0014 0.9656
-3.5732 -7.7299 -2.0014 0.9656
-2.1403 -8.2425 -2.0014 0.9656
-1.3952 -8.4008 -2.0014 0.9656
0.1224 -8.5150 -2.0014 0.9656
0.8828 -8.4700 -2.0014 0.9656
3.7939 -7.6240 -2.0014 0.9656
4.4600 -7.2545 -2.0014 0.9656
5.0904 -6.8270 -2.0014 0.9656
6.2243 -5.8119 -2.0014 0.9656
7.8658 -3.2632 -2.0014 0.9656
8.1260 -2.5473 -2.0014 0.9656
8.4496 -1.0602 -2.0014 0.9656
8.5105 -0.3010 -2.0014 0.9656
8.0767 2.6994 -2.0014 0.9656
7.8032 3.4103 -2.0014 0.9656
7.4673 4.0939 -2.0014 0.9656
4.9613 6.9213 -2.0014 0.9656
4.3200 7.3319 -2.0000 0.9656
2.0872 7.7207 -1.8797 0.9677
-2.1601 7.7199 -1.8840 0.9676
-2.9260 7.7197 -1.9403 0.9666
-5.0220 6.8774 -2.0014 0.9656
-5.6165 6.4012 -2.0014 0.9656
-6.6662 5.2992 -2.0014 0.9656
-7.1130 4.6824 -2.0014 0.9656
-7.5030 4.0280 -2.0014 0.9656
-8.1001 2.6282 -2.0014 0.9656
-8.3026 1.8939 -2.0014 0.9656
-8.4386 1.1445 -2.0014 0.9656
-8.5076 -0.3759 -2.0014 0.9656
-8.3048 -1.8842 -2.0014 0.9656
-8.1032 -2.6187 -2.0014 0.9656
-7.1185 -4.6740 -2.0014 0.9656
-5.6240 -6.3946 -2.0014 0.9656
-3.7267 -7.6571 -2.0014 0.9656
-2.3042 -8.1982 -2.0014 0.9656
-1.5625 -8.3713 -2.0014 0.9656
-0.8082 -8.4774 -2.0014 0.9656
-0.0474 -8.5157 -2.0014 0.9656
1.4691 -8.3882 -2.0014 0.9656
2.2127 -8.2234 -2.0014 0.9656
2.9387 -7.9927 -2.0014 0.9656
6.1071 -5.9349 -2.0014 0.9656
6.6130 -5.3654 -2.0014 0.9656
7.0660 -4.7531 -2.0014 0.9656
7.4624 -4.1027 -2.0014 0.9656
8.2833 -1.9766 -2.0014 0.9656
8.4268 -1.2285 -2.0014 0.9656
8.5028 -0.4707 -2.0014 0.9656
8.3232 1.8013 -2.0014 0.9656
7.5474 3.9442 -2.0014 0.9656
7.1648 4.6028 -2.0014 0.9656
5.6875 6.3382 -2.0014 0.9656
5.0984 6.8210 -2.0014 0.9656
2.2528 7.7189 -1.8898 0.9675
0.8248 7.8249 -1.8492 0.9682
0.1223 7.8673 -1.8492 0.9682
-0.5812 7.8468 -1.8492 0.9682
-1.9954 7.7217 -1.8744 0.9678
-3.5522 7.7081 -1.9947 0.9657
-6.0476 5.9955 -2.0014 0.9656
-6.5592 5.4311 -2.0014 0.9656
-7.0183 4.8233 -2.0014 0.9656
-7.7647 3.4971 -2.0014 0.9656
-8.2632 2.0591 -2.0014 0.9656
-8.4977 0.5554 -2.0014 0.9656
-8.4609 -0.9660 -2.0014 0.9656
-7.9017 -3.1754 -2.0014 0.9656
-7.5864 -3.8687 -2.0014 0.9656
-5.7504 -6.2811 -2.0014 0.9656
-3.8787 -7.5813 -2.0014 0.9656
-3.1857 -7.8975 -2.0014 0.9656
-1.7291 -8.3385 -2.0014 0.9656
2.0483 -8.2659 -2.0014 0.9656
2.7787 -8.0498 -2.0014 0.9656
3.4869 -7.7693 -2.0014 0.9656
4.1671 -7.4266 -2.0014 0.9656
4.8141 -7.0246 -2.0014 0.9656
5.4225 -6.5663 -2.0014 0.9656
5.9876 -6.0555 -2.0014 0.9656
6.9698 -4.8930 -2.0014 0.9656
7.7294 -3.5743 -2.0014 0.9656
8.5150 0.1212 -2.0014 0.9656
8.4701 0.8816 -2.0014 0.9656
8.3575 1.6349 -2.0014 0.9656
8.1779 2.3752 -2.0014 0.9656
7.9330 3.0964 -2.0014 0.9656
7.6246 3.7929 -2.0014 0.9656
6.8277 5.0894 -2.0014 0.9656
6.3456 5.6792 -2.0014 0.9656
4.6122 7.1587 -2.0014 0.9656
3.9449 7.5247 -1.9968 0.9657
1.6824 7.7248 -1.8581 0.9680
0.2792 7.8633 -1.8492 0.9682
-2.5773 7.7148 -1.9117 0.9671
-4.0902 7.4629 -2.0001 0.9656
-4.7438 7.0722 -2.0014 0.9656
-6.9206 4.9623 -2.0014 0.9656
-7.9889 2.9492 -2.0014 0.9656
-8.4849 0.7248 -2.0014 0.9656
-8.4785 -0.7971 -2.0014 0.9656
-7.6620 -3.7166 -2.0014 0.9656
-7.2992 -4.3864 -2.0014 0.9656
-4.0291 -7.5024 -2.0014 0.9656
-1.8950 -8.3023 -2.0014 0.9656
0.3747 -8.5076 -2.0014 0.9656
1.1334 -8.4401 -2.0014 0.9656
2.6176 -8.1036 -2.0014 0.9656
4.0182 -7.5083 -2.0014 0.9656
6.3938 -5.6249 -2.0014 0.9656
6.8708 -5.0311 -2.0014 0.9656
7.6566 -3.7277 -2.0014 0.9656
7.9591 -3.0287 -2.0014 0.9656
8.3711 -1.5636 -2.0014 0.9656
8.4773 -0.8094 -2.0014 0.9656
1.6361 -7.5548 -2.0014 0.9686
4.7433 -6.1036 -2.0014 0.9686
5.7540 -5.1618 -2.0014 0.9686
6.1922 -4.6270 -2.0014 0.9686
6.9169 -3.4509 -2.0014 0.9686
7.4207 -2.1647 -2.0014 0.9686
7.5844 -1.4929 -2.0014 0.9686
7.6875 -0.8092 -2.0014 0.9686
7.7290 -0.1191 -2.0014 0.9686
7.4838 1.9350 -2.0014 0.9686
5.9102 4.9821 -2.0014 0.9686
4.3773 6.3712 -2.0014 0.9686
3.7905 6.7368 -2.0014 0.9686
2.5297 7.3008 -2.0006 0.9686
1.8643 7.4858 -1.9974 0.9686
1.1867 7.6142 -1.9952 0.9687
-0.8749 7.6537 -1.9946 0.9687
-1.5567 7.5514 -1.9963 0.9686
-2.8833 7.1721 -2.0014 0.9686
-4.1139 6.5443 -2.0014 0.9686
-4.6822 6.1506 -2.0014 0.9686
-5.7022 5.2189 -2.0014 0.9686
-6.5401 4.1206 -2.0014 0.9686
-6.8821 3.5197 -2.0014 0.9686
-7.5692 1.5685 -2.0014 0.9686
-7.6790 0.8859 -2.0014 0.9686
-7.7275 0.1962 -2.0014 0.9686
-7.7141 -0.4951 -2.0014 0.9686
-7.6390 -1.1824 -2.0014 0.9686
-7.5028 -1.8603 -2.0014 0.9686
-7.0518 -3.1660 -2.0014 0.9686
-6.7407 -3.7835 -2.0014 0.9686
-6.3757 -4.3707 -2.0014 0.9686
-5.4959 -5.4357 -2.0014 0.9686
-4.9882 -5.9051 -2.0014 0.9686
-3.8575 -6.6987 -2.0014 0.9686
-3.2435 -7.0166 -2.0014 0.9686
-1.9428 -7.4818 -2.0014 0.9686
1.4851 -7.5860 -2.0014 0.9686
2.1570 -7.4229 -2.0014 0.9686
2.8116 -7.2005 -2.0014 0.9686
4.0484 -6.5850 -2.0014 0.9686
4.6206 -6.1969 -2.0014 0.9686
5.1559 -5.7593 -2.0014 0.9686
5.6499 -5.2755 -2.0014 0.9686
6.0987 -4.7496 -2.0014 0.9686
6.8467 -3.5882 -2.0014 0.9686
7.1399 -2.9621 -2.0014 0.9686
7.3760 -2.3122 -2.0014 0.9686
7.6698 -0.9624 -2.0014 0.9686
7.7186 0.4182 -2.0014 0.9686
7.5209 1.7854 -2.0014 0.9686
7.3313 2.4503 -2.0014 0.9686
6.7781 3.7161 -2.0014 0.9686
6.4190 4.3069 -2.0014 0.9686
6.0084 4.8632 -2.0014 0.9686
5.0468 5.8550 -2.0014 0.9686
2.6759 7.2519 -2.0014 0.9686
2.0139 7.4495 -1.9980 0.9686
1.3386 7.5905 -1.9957 0.9687
-0.0339 7.6997 -1.9936 0.9687
-2.7397 7.2282 -2.0014 0.9686
-3.9825 6.6251 -2.0014 0.9686
-4.5586 6.2427 -2.0014 0.9686
-5.5970 5.3316 -2.0014 0.9686
-6.0510 4.8102 -2.0014 0.9686
-6.8106 3.6563 -2.0014 0.9686
-7.7224 -0.3412 -2.0014 0.9686
-7.3554 -2.3771 -2.0014 0.9686
-7.1136 -3.0248 -2.0014 0.9686
-6.8148 -3.6483 -2.0014 0.9686
-6.4616 -4.2427 -2.0014 0.9686
-6.0566 -4.8031 -2.0014 0.9686
-4.5659 -6.2374 -2.0014 0.9686
-1.4183 -7.5987 -2.0014 0.9686
-0.7336 -7.6951 -2.0014 0.9686
-0.0431 -7.7298 -2.0014 0.9686
1.3335 -7.6141 -2.0014 0.9686
2.0085 -7.4644 -2.0014 0.9686
2.6675 -7.2551 -2.0014 0.9686
3.3051 -6.9878 -2.0014 0.9686
5.5435 -5.3872 -2.0014 0.9686
6.0027 -4.8703 -2.0014 0.9686
6.4139 -4.3144 -2.0014 0.9686
6.7738 -3.7240 -2.0014 0.9686
7.3285 -2.4589 -2.0014 0.9686
7.6491 -1.1152 -2.0014 0.9686
7.7181 -0.4272 -2.0014 0.9686
7.7254 0.2642 -2.0014 0.9686
7.6709 0.9534 -2.0014 0.9686
7.3787 2.3036 -2.0014 0.9686
6.8509 3.5802 -2.0014 0.9686
6.5036 4.1780 -2.0014 0.9686
5.1626 5.7532 -2.0014 0.9686
4.6279 6.1915 -2.0014 0.9686
2.8201 7.1972 -2.0014 0.9686
1.4900 7.5640 -1.9961 0.9686
0.1197 7.6996 -1.9938 0.9687
-1.2537 7.6041 -1.9954 0.9687
-1.9306 7.4709 -1.9979 0.9686
-3.8496 6.7032 -2.0014 0.9686
-4.4332 6.3324 -2.0014 0.9686
-5.9539 4.9299 -2.0014 0.9686
-6.3706 4.3782 -2.0014 0.9686
-6.7363 3.7914 -2.0014 0.9686
-7.3036 2.5318 -2.0014 0.9686
-7.5006 1.8691 -2.0014 0.9686
-7.6376 1.1914 -2.0014 0.9686
-7.7277 -0.1871 -2.0014 0.9686
-7.6801 -0.8769 -2.0014 0.9686
-7.5710 -1.5596 -2.0014 0.9686
-7.4013 -2.2299 -2.0014 0.9686
-7.1725 -2.8823 -2.0014 0.9686
-6.1512 -4.6813 -2.0014 0.9686
-5.2197 -5.7015 -2.0014 0.9686
-4.6894 -6.1451 -2.0014 0.9686
-4.1215 -6.5395 -2.0014 0.9686
-2.8917 -7.1687 -2.0014 0.9686
-2.2396 -7.3984 -2.0014 0.9686
-0.1972 -7.7274 -2.0014 0.9686
0.4941 -7.7142 -2.0014 0.9686
1.1814 -7.6392 -2.0014 0.9686
1.8593 -7.5030 -2.0014 0.9686
2.5222 -7.3069 -2.0014 0.9686
3.7826 -6.7412 -2.0014 0.9686
4.3698 -6.3763 -2.0014 0.9686
4.9221 -5.9603 -2.0014 0.9686
6.3266 -4.4415 -2.0014 0.9686
6.6981 -3.8584 -2.0014 0.9686
7.6253 -1.2675 -2.0014 0.9686
7.7292 0.1100 -2.0014 0.9686
7.6884 0.8002 -2.0014 0.9686
7.5862 1.4840 -2.0014 0.9686
7.4232 2.1560 -2.0014 0.9686
7.2009 2.8106 -2.0014 0.9686
6.9209 3.4428 -2.0014 0.9686
5.7600 5.1551 -2.0014 0.9686
5.2763 5.6491 -2.0014 0.9686
3.5892 6.8462 -2.0014 0.9686
0.9602 7.6441 -1.9947 0.9687
0.2733 7.6959 -1.9939 0.9687
-0.4156 7.6899 -1.9940 0.9687
-1.1016 7.6262 -1.9950 0.9687
-1.7807 7.5057 -1.9973 0.9686
-2.4479 7.3276 -2.0003 0.9686
-4.8624 6.0091 -2.0014 0.9686
-5.8544 5.0477 -2.0014 0.9686
-6.2820 4.5043 -2.0014 0.9686
-6.9834 3.3142 -2.0014 0.9686
-7.6123 1.3435 -2.0014 0.9686
-7.7299 -0.0329 -2.0014 0.9686
-7.6960 -0.7235 -2.0014 0.9686
-7.6006 -1.4083 -2.0014 0.9686
-7.4443 -2.0818 -2.0014 0.9686
-7.2285 -2.7387 -2.0014 0.9686
-6.9549 -3.3736 -2.0014 0.9686
-6.2433 -4.5577 -2.0014 0.9686
-5.8111 -5.0974 -2.0014 0.9686
-4.8110 -6.0503 -2.0014 0.9686
-4.2511 -6.4560 -2.0014 0.9686
-1.0399 -7.6597 -2.0014 0.9686
-0.3513 -7.7220 -2.0014 0.9686
0.3401 -7.7225 -2.0014 0.9686
1.0288 -7.6612 -2.0014 0.9686
3.0238 -7.1140 -2.0014 0.9686
3.6474 -6.8153 -2.0014 0.9686
5.3243 -5.6039 -2.0014 0.9686
5.8037 -5.1058 -2.0014 0.9686
6.6198 -3.9912 -2.0014 0.9686
6.9500 -3.3837 -2.0014 0.9686
7.5985 -1.4193 -2.0014 0.9686
0.8730 -7.0157 -2.0014 0.9710
2.1078 -6.7483 -2.0014 0.9710
3.8221 -5.9477 -2.0014 0.9710
4.3382 -5.5823 -2.0014 0.9710
5.2626 -4.7210 -2.0014 0.9710
5.6634 -4.2319 -2.0014 0.9710
6.0189 -3.7089 -2.0014 0.9710
6.3262 -3.1562 -2.0014 0.9710
6.9367 -1.3654 -2.0014 0.9710
7.0310 -0.7401 -2.0014 0.9710
7.0690 -0.1089 -2.0014 0.9710
7.0505 0.5232 -2.0014 0.9710
6.6592 2.3743 -2.0014 0.9710
6.4204 2.9598 -2.0014 0.9710
5.7911 4.0554 -2.0014 0.9710
5.4055 4.5566 -2.0014 0.9710
4.9767 5.0214 -2.0014 0.9710
4.5082 5.4460 -2.0014 0.9710
4.0035 5.8271 -2.0014 0.9710
3.4668 6.1615 -2.0014 0.9710
1.7085 6.8603 -2.0014 0.9710
0.4601 7.0549 -2.0014 0.9710
-0.1721 7.0677 -2.0014 0.9710
-2.6371 6.5596 -2.0014 0.9710
-3.7626 5.9855 -2.0014 0.9710
-5.2152 4.7733 -2.0014 0.9710
-5.6209 4.2881 -2.0014 0.9710
-6.2944 3.2192 -2.0014 0.9710
-6.5569 2.6439 -2.0014 0.9710
-6.7669 2.0474 -2.0014 0.9710
-6.9228 1.4345 -2.0014 0.9710
-7.0553 -0.4528 -2.0014 0.9710
-6.9866 -1.0815 -2.0014 0.9710
-6.8621 -1.7014 -2.0014 0.9710
-6.6826 -2.3078 -2.0014 0.9710
-6.4496 -2.8957 -2.0014 0.9710
-6.1651 -3.4604 -2.0014 0.9710
-5.4507 -4.5025 -2.0014 0.9710
-5.0266 -4.9715 -2.0014 0.9710
-4.5622 -5.4008 -2.0014 0.9710
-2.9665 -6.4174 -2.0014 0.9710
-2.3812 -6.6568 -2.0014 0.9710
-1.7769 -6.8429 -2.0014 0.9710
1.3583 -6.9381 -2.0014 0.9710
1.9728 -6.7890 -2.0014 0.9710
3.1497 -6.3295 -2.0014 0.9710
3.7027 -6.0227 -2.0014 0.9710
4.2260 -5.6678 -2.0014 0.9710
5.1674 -4.8250 -2.0014 0.9710
5.9437 -3.8282 -2.0014 0.9710
6.5302 -2.7091 -2.0014 0.9710
6.7461 -2.1148 -2.0014 0.9710
7.0654 -0.2499 -2.0014 0.9710
6.9971 1.0117 -2.0014 0.9710
6.7053 2.2410 -2.0014 0.9710
6.4782 2.8312 -2.0014 0.9710
6.1993 3.3987 -2.0014 0.9710
5.8708 3.9391 -2.0014 0.9710
5.4953 4.4479 -2.0014 0.9710
5.0759 4.9212 -2.0014 0.9710
4.6159 5.3550 -2.0014 0.9710
3.0303 6.3875 -2.0014 0.9710
2.4475 6.6327 -2.0014 0.9710
1.8450 6.8249 -2.0014 0.9710
1.2278 6.9624 -2.0014 0.9710
-0.6627 7.0387 -2.0014 0.9710
-1.2890 6.9513 -2.0014 0.9710
-4.1693 5.7096 -2.0014 0.9710
-5.1190 4.8763 -2.0014 0.9710
-5.9052 3.8873 -2.0014 0.9710
-6.2290 3.3441 -2.0014 0.9710
-6.7247 2.1819 -2.0014 0.9710
-6.8928 1.5723 -2.0014 0.9710
-7.0626 0.3203 -2.0014 0.9710
-7.0630 -0.3120 -2.0014 0.9710
-6.5061 -2.7665 -2.0014 0.9710
-5.9098 -3.8804 -2.0014 0.9710
-4.6690 -5.3087 -2.0014 0.9710
-4.1760 -5.7047 -2.0014 0.9710
-3.0939 -6.3569 -2.0014 0.9710
-1.2972 -6.9498 -2.0014 0.9710
-0.0394 -7.0697 -2.0014 0.9710
0.5925 -7.0450 -2.0014 0.9710
2.4397 -6.6356 -2.0014 0.9710
3.0228 -6.3910 -2.0014 0.9710
3.5818 -6.0953 -2.0014 0.9710
4.1122 -5.7509 -2.0014 0.9710
4.6096 -5.3605 -2.0014 0.9710
5.0701 -4.9271 -2.0014 0.9710
5.4901 -4.4544 -2.0014 0.9710
6.1953 -3.4060 -2.0014 0.9710
6.4749 -2.8388 -2.0014 0.9710
7.0657 0.2416 -2.0014 0.9710
6.5334 2.7014 -2.0014 0.9710
5.5829 4.3374 -2.0014 0.9710
4.7217 5.2619 -2.0014 0.9710
4.2327 5.6628 -2.0014 0.9710
3.1571 6.3258 -2.0014 0.9710
2.5793 6.5826 -2.0014 0.9710
1.9807 6.7867 -2.0014 0.9710
1.3664 6.9365 -2.0014 0.9710
0.1099 7.0690 -2.0014 0.9710
-0.5222 7.0505 -2.0014 0.9710
-1.1501 6.9757 -2.0014 0.9710
-1.7688 6.8450 -2.0014 0.9710
-4.0546 5.7916 -2.0014 0.9710
-4.5559 5.4062 -2.0014 0.9710
-5.0207 4.9774 -2.0014 0.9710
-5.4454 4.5089 -2.0014 0.9710
-5.8265 4.0043 -2.0014 0.9710
-6.1610 3.4676 -2.0014 0.9710
-6.6798 2.3156 -2.0014 0.9710
-7.0548 0.4611 -2.0014 0.9710
-7.0678 -0.1711 -2.0014 0.9710
-7.0242 -0.8020 -2.0014 0.9710
-5.9860 -3.7617 -2.0014 0.9710
-4.7740 -5.2146 -2.0014 0.9710
-3.7696 -5.9811 -2.0014 0.9710
2.8948 -6.4500 -2.0014 0.9710
3.4596 -6.1656 -2.0014 0.9710
3.9967 -5.8318 -2.0014 0.9710
4.5018 -5.4513 -2.0014 0.9710
5.7863 -4.0622 -2.0014 0.9710
6.8427 -1.7778 -2.0014 0.9710
6.9741 -1.1593 -2.0014 0.9710
7.0498 -0.5314 -2.0014 0.9710
7.0319 0.7319 -2.0014 0.9710
6.5859 2.5706 -2.0014 0.9710
6.0232 3.7018 -2.0014 0.9710
5.6683 4.2252 -2.0014 0.9710
5.2681 4.7148 -2.0014 0.9710
1.5045 6.9079 -2.0014 0.9710
0.8812 7.0147 -2.0014 0.9710
0.2509 7.0654 -2.0014 0.9710
-3.3979 6.1998 -2.0014 0.9710
-3.9383 5.8713 -2.0014 0.9710
-4.4472 5.4959 -2.0014 0.9710
-5.3544 4.6166 -2.0014 0.9710
-5.7455 4.1197 -2.0014 0.9710
-6.0906 3.5898 -2.0014 0.9710
-6.6324 2.4484 -2.0014 0.9710
-6.8246 1.8459 -2.0014 0.9710
-6.9623 1.2287 -2.0014 0.9710
-7.0442 0.6017 -2.0014 0.9710
-7.0388 -0.6617 -2.0014 0.9710
-6.9515 -1.2880 -2.0014 0.9710
-6.8086 -1.9040 -2.0014 0.9710
-6.0598 -3.6416 -2.0014 0.9710
-5.7102 -4.1685 -2.0014 0.9710
-4.8770 -5.1183 -2.0014 0.9710
-4.4002 -5.5336 -2.0014 0.9710
-3.8881 -5.9047 -2.0014 0.9710
-3.3449 -6.2285 -2.0014 0.9710
-1.5733 -6.8926 -2.0014 0.9710
-0.9511 -7.0056 -2.0014 0.9710
0.3111 -7.0630 -2.0014 0.9710
0.9410 -7.0069 -2.0014 0.9710
1.5633 -6.8948 -2.0014 0.9710
4.8696 -5.1254 -2.0014 0.9710
5.7042 -4.1768 -2.0014 0.9710
6.8059 -1.9139 -2.0014 0.9710
6.9497 -1.2981 -2.0014 0.9710
0.8035 -6.4572 -2.0014 0.9731
1.3773 -6.3596 -2.0014 0.9731
2.4872 -6.0129 -2.0014 0.9731
3.5178 -5.4742 -2.0014 0.9731
3.9929 -5.1379 -2.0014 0.9731
5.8226 -2.9050 -2.0014 0.9731
6.0589 -2.3731 -2.0014 0.9731
6.2467 -1.8222 -2.0014 0.9731
6.5063 -0.1002 -2.0014 0.9731
6.4892 0.4815 -2.0014 0.9731
6.1291 2.1853 -2.0014 0.9731
4.9752 4.1939 -2.0014 0.9731
3.1908 5.6710 -2.0014 0.9731
2.1304 6.1484 -2.0014 0.9731
0.4235 6.4932 -2.0014 0.9731
-0.7390 6.4649 -2.0014 0.9731
-1.3138 6.3730 -2.0014 0.9731
-1.8780 6.2301 -2.0014 0.9731
-2.4271 6.0374 -2.0014 0.9731
-2.9569 5.7964 -2.0014 0.9731
-3.9414 5.1775 -2.0014 0.9731
-4.3883 4.8046 -2.0014 0.9731
-5.1734 3.9468 -2.0014 0.9731
-5.5054 3.4687 -2.0014 0.9731
-6.2282 1.8844 -2.0014 0.9731
-6.3717 1.3203 -2.0014 0.9731
-6.4642 0.7457 -2.0014 0.9731
-6.5049 0.1651 -2.0014 0.9731
-6.1506 -2.1241 -2.0014 0.9731
-5.9362 -2.6652 -2.0014 0.9731
-5.3670 -3.6792 -2.0014 0.9731
-4.1990 -4.9709 -2.0014 0.9731
-3.2472 -5.6389 -2.0014 0.9731
-2.7303 -5.9065 -2.0014 0.9731
-2.1916 -6.1268 -2.0014 0.9731
-1.6354 -6.2982 -2.0014 0.9731
-0.4882 -6.4887 -2.0014 0.9731
0.0935 -6.5064 -2.0014 0.9731
0.6745 -6.4720 -2.0014 0.9731
1.2501 -6.3858 -2.0014 0.9731
1.8158 -6.2486 -2.0014 0.9731
2.3668 -6.0613 -2.0014 0.9731
2.8990 -5.8256 -2.0014 0.9731
4.3402 -4.8481 -2.0014 0.9731
4.7560 -4.4409 -2.0014 0.9731
5.1338 -3.9982 -2.0014 0.9731
5.4705 -3.5235 -2.0014 0.9731
5.7635 -3.0205 -2.0014 0.9731
6.0103 -2.4934 -2.0014 0.9731
6.3582 -1.3838 -2.0014 0.9731
6.5030 -0.2300 -2.0014 0.9731
6.1715 2.0626 -2.0014 0.9731
5.0579 4.0938 -2.0014 0.9731
4.2484 4.9287 -2.0014 0.9731
3.7910 5.2887 -2.0014 0.9731
2.2526 6.1047 -2.0014 0.9731
1.6981 6.2815 -2.0014 0.9731
0.5529 6.4835 -2.0014 0.9731
-0.0286 6.5070 -2.0014 0.9731
-0.6100 6.4784 -2.0014 0.9731
-1.1864 6.3980 -2.0014 0.9731
-1.7533 6.2664 -2.0014 0.9731
-2.8407 5.8542 -2.0014 0.9731
-4.7115 4.4881 -2.0014 0.9731
-5.0937 4.0492 -2.0014 0.9731
-5.7331 3.0778 -2.0014 0.9731
-5.9852 2.5533 -2.0014 0.9731
-6.3441 1.4472 -2.0014 0.9731
-6.4480 0.8745 -2.0014 0.9731
-5.9882 -2.5462 -2.0014 0.9731
-3.8435 -5.2506 -2.0014 0.9731
-2.3134 -6.0819 -2.0014 0.9731
-0.6175 -6.4777 -2.0014 0.9731
-0.0363 -6.5069 -2.0014 0.9731
0.5453 -6.4841 -2.0014 0.9731
1.6908 -6.2835 -2.0014 0.9731
2.2455 -6.1073 -2.0014 0.9731
3.2967 -5.6101 -2.0014 0.9731
3.7848 -5.2931 -2.0014 0.9731
5.0531 -4.0998 -2.0014 0.9731
5.3992 -3.6319 -2.0014 0.9731
5.7021 -3.1349 -2.0014 0.9731
5.9594 -2.6128 -2.0014 0.9731
6.4390 -0.9387 -2.0014 0.9731
6.4971 -0.3596 -2.0014 0.9731
6.4574 0.8026 -2.0014 0.9731
6.2114 1.9391 -2.0014 0.9731
6.0133 2.4864 -2.0014 0.9731
5.7670 3.0138 -2.0014 0.9731
4.3459 4.8430 -2.0014 0.9731
3.8957 5.2120 -2.0014 0.9731
2.3739 6.0585 -2.0014 0.9731
-0.4806 6.4893 -2.0014 0.9731
-1.0586 6.4204 -2.0014 0.9731
-1.6280 6.3001 -2.0014 0.9731
-2.1845 6.1294 -2.0014 0.9731
-2.7234 5.9097 -2.0014 0.9731
-4.1932 4.9758 -2.0014 0.9731
-4.6210 4.5812 -2.0014 0.9731
-5.0119 4.1500 -2.0014 0.9731
-5.6706 3.1916 -2.0014 0.9731
-6.4293 1.0029 -2.0014 0.9731
-6.4932 0.4244 -2.0014 0.9731
-6.5051 -0.1575 -2.0014 0.9731
-6.4650 -0.7381 -2.0014 0.9731
-6.3732 -1.3129 -2.0014 0.9731
-6.0377 -2.4263 -2.0014 0.9731
-5.7968 -2.9561 -2.0014 0.9731
-4.8052 -4.3876 -2.0014 0.9731
-4.3939 -4.7995 -2.0014 0.9731
-3.9475 -5.1729 -2.0014 0.9731
-3.4695 -5.5049 -2.0014 0.9731
0.4159 -6.4937 -2.0014 0.9731
0.9945 -6.4306 -2.0014 0.9731
3.6785 -5.3675 -2.0014 0.9731
4.1434 -5.0174 -2.0014 0.9731
4.5751 -4.6270 -2.0014 0.9731
4.9703 -4.1997 -2.0014 0.9731
5.3257 -3.7388 -2.0014 0.9731
5.6385 -3.2480 -2.0014 0.9731
5.9061 -2.7312 -2.0014 0.9731
6.1265 -2.1925 -2.0014 0.9731
6.2979 -1.6363 -2.0014 0.9731
6.4886 -0.4891 -2.0014 0.9731
6.5064 0.0926 -2.0014 0.9731
6.4721 0.6736 -2.0014 0.9731
6.0617 2.3660 -2.0014 0.9731
5.8260 2.8982 -2.0014 0.9731
5.2171 3.8889 -2.0014 0.9731
4.8487 4.3395 -2.0014 0.9731
3.9989 5.1333 -2.0014 0.9731
1.9473 6.2088 -2.0014 0.9731
0.8110 6.4563 -2.0014 0.9731
0.2309 6.5029 -2.0014 0.9731
-1.5021 6.3313 -2.0014 0.9731
-2.0618 6.1718 -2.0014 0.9731
-3.1274 5.7062 -2.0014 0.9731
-3.6248 5.4039 -2.0014 0.9731
-4.9282 4.2491 -2.0014 0.9731
-5.6058 3.3040 -2.0014 0.9731
-5.8786 2.7899 -2.0014 0.9731
-6.2813 1.6990 -2.0014 0.9731
-6.4080 1.1309 -2.0014 0.9731
-6.4834 0.5538 -2.0014 0.9731
-6.3981 -1.1855 -2.0014 0.9731
-6.0849 -2.3054 -2.0014 0.9731
-5.8546 -2.8399 -2.0014 0.9731
-5.5774 -3.3517 -2.0014 0.9731
-4.8917 -4.2909 -2.0014 0.9731
-4.4888 -4.7109 -2.0014 0.9731
-4.0499 -5.0931 -2.0014 0.9731
-3.0786 -5.7327 -2.0014 0.9731
-2.5541 -5.9848 -2.0014 0.9731
-0.8754 -6.4479 -2.0014 0.9731
0.2863 -6.5007 -2.0014 0.9731
0.8660 -6.4491 -2.0014 0.9731
1.4388 -6.3460 -2.0014 0.9731
2.5454 -5.9885 -2.0014 0.9731
3.0703 -5.7371 -2.0014 0.9731
3.5707 -5.4398 -2.0014 0.9731
4.0425 -5.0990 -2.0014 0.9731
4.8855 -4.2980 -2.0014 0.9731
5.2501 -3.8443 -2.0014 0.9731
5.5726 -3.3598 -2.0014 0.9731
6.2641 -1.7615 -2.0014 0.9731
0.7435 -5.9750 -2.0014 0.9749
1.7951 -5.7472 -2.0014 0.9749
2.3015 -5.5638 -2.0014 0.9749
3.6946 -4.7542 -2.0014 0.9749
4.8232 -3.6041 -2.0014 0.9749
5.3877 -2.6880 -2.0014 0.9749
5.6063 -2.1958 -2.0014 0.9749
5.7801 -1.6861 -2.0014 0.9749
5.9077 -1.1629 -2.0014 0.9749
5.9879 -0.6303 -2.0014 0.9749
6.0045 0.4456 -2.0014 0.9749
5.9407 0.9803 -2.0014 0.9749
5.6713 2.0221 -2.0014 0.9749
4.9320 3.4538 -2.0014 0.9749
4.6036 3.8807 -2.0014 0.9749
4.2384 4.2765 -2.0014 0.9749
3.8394 4.6381 -2.0014 0.9749
3.4096 4.9626 -2.0014 0.9749
2.9525 5.2474 -2.0014 0.9749
1.4551 5.8426 -2.0014 0.9749
0.9272 5.9492 -2.0014 0.9749
0.3919 6.0083 -2.0014 0.9749
-1.7377 5.7648 -2.0014 0.9749
-2.7361 5.3635 -2.0014 0.9749
-3.2044 5.0975 -2.0014 0.9749
-4.4416 4.0652 -2.0014 0.9749
-4.7870 3.6520 -2.0014 0.9749
-5.5842 2.2516 -2.0014 0.9749
-5.7630 1.7437 -2.0014 0.9749
-5.8958 1.2217 -2.0014 0.9749
-5.9814 0.6900 -2.0014 0.9749
-6.0191 0.1528 -2.0014 0.9749
-5.9502 -0.9210 -2.0014 0.9749
-5.6912 -1.9654 -2.0014 0.9749
-5.4928 -2.4661 -2.0014 0.9749
-4.6421 -3.8346 -2.0014 0.9749
-3.4589 -4.9284 -2.0014 0.9749
-3.0046 -5.2177 -2.0014 0.9749
-2.0279 -5.6692 -2.0014 0.9749
-0.4518 -6.0041 -2.0014 0.9749
0.0865 -6.0204 -2.0014 0.9749
1.1568 -5.9089 -2.0014 0.9749
4.0160 -4.4860 -2.0014 0.9749
4.4008 -4.1092 -2.0014 0.9749
4.7504 -3.6996 -2.0014 0.9749
5.5614 -2.3072 -2.0014 0.9749
5.7453 -1.8010 -2.0014 0.9749
5.9742 -0.7496 -2.0014 0.9749
6.0122 0.3257 -2.0014 0.9749
5.9591 0.8616 -2.0014 0.9749
5.8582 1.3907 -2.0014 0.9749
5.5171 2.4112 -2.0014 0.9749
5.2796 2.8945 -2.0014 0.9749
4.6801 3.7881 -2.0014 0.9749
4.3229 4.1911 -2.0014 0.9749
3.5079 4.8936 -2.0014 0.9749
3.0565 5.1875 -2.0014 0.9749
2.5808 5.4399 -2.0014 0.9749
2.0844 5.6487 -2.0014 0.9749
1.5713 5.8124 -2.0014 0.9749
1.0456 5.9295 -2.0014 0.9749
0.5116 5.9993 -2.0014 0.9749
-0.0265 6.0210 -2.0014 0.9749
-1.6224 5.7983 -2.0014 0.9749
-2.1340 5.6302 -2.0014 0.9749
-3.5508 4.8626 -2.0014 0.9749
-3.9711 4.5259 -2.0014 0.9749
-4.3596 4.1529 -2.0014 0.9749
-4.7132 3.7467 -2.0014 0.9749
-5.0292 3.3106 -2.0014 0.9749
-5.9664 0.8092 -2.0014 0.9749
-6.0148 0.2728 -2.0014 0.9749
-6.0151 -0.2658 -2.0014 0.9749
-5.8718 -1.3322 -2.0014 0.9749
-5.0331 -3.3047 -2.0014 0.9749
-4.3645 -4.1478 -2.0014 0.9749
-3.9764 -4.5212 -2.0014 0.9749
-3.5565 -4.8584 -2.0014 0.9749
-3.1081 -5.1568 -2.0014 0.9749
0.5046 -5.9998 -2.0014 0.9749
1.5645 -5.8142 -2.0014 0.9749
3.0505 -5.1911 -2.0014 0.9749
3.5021 -4.8978 -2.0014 0.9749
3.9258 -4.5652 -2.0014 0.9749
4.3180 -4.1962 -2.0014 0.9749
4.6756 -3.7936 -2.0014 0.9749
5.2762 -2.9007 -2.0014 0.9749
5.5143 -2.4177 -2.0014 0.9749
5.7083 -1.9153 -2.0014 0.9749
5.8566 -1.3975 -2.0014 0.9749
6.0175 0.2058 -2.0014 0.9749
5.8848 1.2736 -2.0014 0.9749
4.7547 3.6940 -2.0014 0.9749
4.0213 4.4813 -2.0014 0.9749
3.6048 4.8227 -2.0014 0.9749
2.1966 5.6060 -2.0014 0.9749
1.1637 5.9075 -2.0014 0.9749
-0.4447 6.0046 -2.0014 0.9749
-1.5064 5.8295 -2.0014 0.9749
-2.0213 5.6716 -2.0014 0.9749
-2.5200 5.4683 -2.0014 0.9749
-2.9985 5.2213 -2.0014 0.9749
-3.8800 4.6042 -2.0014 0.9749
-4.2759 4.2390 -2.0014 0.9749
-4.9622 3.4102 -2.0014 0.9749
-5.4899 2.4725 -2.0014 0.9749
-5.8424 1.4559 -2.0014 0.9749
-5.9491 0.9280 -2.0014 0.9749
-6.0193 -0.1457 -2.0014 0.9749
-5.9821 -0.6830 -2.0014 0.9749
-5.7650 -1.7369 -2.0014 0.9749
-5.0980 -3.2037 -2.0014 0.9749
-4.7913 -3.6464 -2.0014 0.9749
-4.0657 -4.4410 -2.0014 0.9749
-3.6527 -4.7865 -2.0014 0.9749
-3.2103 -5.0938 -2.0014 0.9749
-1.7445 -5.7628 -2.0014 0.9749
-0.6908 -5.9813 -2.0014 0.9749
1.4482 -5.8443 -2.0014 0.9749
1.9646 -5.6915 -2.0014 0.9749
4.2334 -4.2815 -2.0014 0.9749
4.9279 -3.4596 -2.0014 0.9749
5.2173 -3.0054 -2.0014 0.9749
5.9395 -0.9873 -2.0014 0.9749
6.0040 -0.4526 -2.0014 0.9749
6.0204 0.0857 -2.0014 0.9749
5.9090 1.1559 -2.0014 0.9749
5.3909 2.6817 -2.0014 0.9749
5.1297 3.1527 -2.0014 0.9749
3.7002 4.7499 -2.0014 0.9749
2.3080 5.5611 -2.0014 0.9749
1.2813 5.8831 -2.0014 0.9749
0.7505 5.9741 -2.0014 0.9749
0.2136 6.0172 -2.0014 0.9749
-0.8608 5.9592 -2.0014 0.9749
-1.9078 5.7108 -2.0014 0.9749
-2.4104 5.5175 -2.0014 0.9749
-2.8938 5.2800 -2.0014 0.9749
-3.3540 5.0003 -2.0014 0.9749
-3.7874 4.6806 -2.0014 0.9749
-4.1905 4.3235 -2.0014 0.9749
-5.1871 3.0573 -2.0014 0.9749
-5.6484 2.0852 -2.0014 0.9749
-5.8122 1.5721 -2.0014 0.9749
-5.9294 1.0465 -2.0014 0.9749
-6.0210 -0.0257 -2.0014 0.9749
-5.9946 -0.5636 -2.0014 0.9749
-5.9203 -1.0970 -2.0014 0.9749
-5.7985 -1.6216 -2.0014 0.9749
-4.8631 -3.5501 -2.0014 0.9749
-3.7474 -4.7127 -2.0014 0.9749
-3.3113 -5.0287 -2.0014 0.9749
-1.8590 -5.7268 -2.0014 0.9749
-1.3399 -5.8700 -2.0014 0.9749
0.2649 -6.0152 -2.0014 0.9749
1.3314 -5.8720 -2.0014 0.9749
1.8507 -5.7295 -2.0014 0.9749
2.3553 -5.5412 -2.0014 0.9749
4.1472 -4.3650 -2.0014 0.9749
4.5206 -3.9770 -2.0014 0.9749
4.8579 -3.5571 -2.0014 0.9749
5.1563 -3.1088 -2.0014 0.9749
5.4135 -2.6357 -2.0014 0.9749
5.9187 -1.1055 -2.0014 0.9749
2.5928 -4.9599 -2.0014 0.9765
3.4343 -4.4192 -2.0014 0.9765
4.1660 -3.7373 -2.0014 0.9765
4.4833 -3.3501 -2.0014 0.9765
4.7647 -2.9361 -2.0014 0.9765
5.0080 -2.4986 -2.0014 0.9765
5.2112 -2.0411 -2.0014 0.9765
5.3728 -1.5673 -2.0014 0.9765
5.5660 -0.5859 -2.0014 0.9765
5.5814 0.4142 -2.0014 0.9765
5.5220 0.9112 -2.0014 0.9765
5.2717 1.8796 -2.0014 0.9765
5.0826 2.3431 -2.0014 0.9765
4.8529 2.7879 -2.0014 0.9765
4.5844 3.2104 -2.0014 0.9765
4.2792 3.6072 -2.0014 0.9765
3.9397 3.9751 -2.0014 0.9765
3.1693 4.6129 -2.0014 0.9765
2.2976 5.1033 -2.0014 0.9765
1.8324 5.2882 -2.0014 0.9765
1.3525 5.4308 -2.0014 0.9765
0.3643 5.5848 -2.0014 0.9765
-1.1300 5.4815 -2.0014 0.9765
-1.6152 5.3586 -2.0014 0.9765
-2.0876 5.1928 -2.0014 0.9765
-2.9785 4.7383 -2.0014 0.9765
-3.3900 4.4532 -2.0014 0.9765
-4.1285 3.7787 -2.0014 0.9765
-4.4497 3.3946 -2.0014 0.9765
-4.9829 2.5484 -2.0014 0.9765
-5.5598 0.6414 -2.0014 0.9765
-5.5308 -0.8561 -2.0014 0.9765
-5.4322 -1.3469 -2.0014 0.9765
-5.1057 -2.2923 -2.0014 0.9765
-4.8805 -2.7394 -2.0014 0.9765
-4.3149 -3.5643 -2.0014 0.9765
-3.9792 -3.9356 -2.0014 0.9765
-3.6116 -4.2754 -2.0014 0.9765
-3.2151 -4.5811 -2.0014 0.9765
-2.3484 -5.0802 -2.0014 0.9765
-1.8850 -5.2697 -2.0014 0.9765
-1.4066 -5.4171 -2.0014 0.9765
-0.9169 -5.5211 -2.0014 0.9765
-0.4199 -5.5809 -2.0014 0.9765
1.5617 -5.3744 -2.0014 0.9765
2.9312 -4.7678 -2.0014 0.9765
3.3454 -4.4868 -2.0014 0.9765
3.7330 -4.1699 -2.0014 0.9765
4.0907 -3.8196 -2.0014 0.9765
4.4156 -3.4388 -2.0014 0.9765
5.1695 -2.1446 -2.0014 0.9765
5.3404 -1.6741 -2.0014 0.9765
5.4687 -1.1902 -2.0014 0.9765
5.5532 -0.6968 -2.0014 0.9765
5.5932 -0.1978 -2.0014 0.9765
5.5391 0.8009 -2.0014 0.9765
5.3081 1.7741 -2.0014 0.9765
4.9075 2.6906 -2.0014 0.9765
4.6475 3.1183 -2.0014 0.9765
4.3503 3.5211 -2.0014 0.9765
3.6541 4.2392 -2.0014 0.9765
3.2606 4.5488 -2.0014 0.9765
2.3989 5.0565 -2.0014 0.9765
1.9375 5.2506 -2.0014 0.9765
1.4606 5.4028 -2.0014 0.9765
0.4756 5.5765 -2.0014 0.9765
-0.0246 5.5967 -2.0014 0.9765
-1.5081 5.3897 -2.0014 0.9765
-1.9836 5.2334 -2.0014 0.9765
-2.4433 5.0352 -2.0014 0.9765
-2.8835 4.7967 -2.0014 0.9765
-3.6912 4.2069 -2.0014 0.9765
-4.0524 3.8602 -2.0014 0.9765
-4.3811 3.4827 -2.0014 0.9765
-4.6748 3.0773 -2.0014 0.9765
-4.9310 2.6473 -2.0014 0.9765
-5.1479 2.1961 -2.0014 0.9765
-5.4565 1.2447 -2.0014 0.9765
-5.5910 0.2536 -2.0014 0.9765
-5.5912 -0.2470 -2.0014 0.9765
-5.4580 -1.2383 -2.0014 0.9765
-4.9341 -2.6415 -2.0014 0.9765
-4.6784 -3.0718 -2.0014 0.9765
-4.0569 -3.8555 -2.0014 0.9765
-3.6962 -4.2026 -2.0014 0.9765
-3.3058 -4.5160 -2.0014 0.9765
-1.9897 -5.2311 -2.0014 0.9765
-1.5144 -5.3879 -2.0014 0.9765
-0.5311 -5.5715 -2.0014 0.9765
0.4690 -5.5770 -2.0014 0.9765
0.9655 -5.5128 -2.0014 0.9765
2.8355 -4.8253 -2.0014 0.9765
3.6491 -4.2435 -2.0014 0.9765
4.0137 -3.9005 -2.0014 0.9765
4.3462 -3.5262 -2.0014 0.9765
5.4439 -1.2990 -2.0014 0.9765
5.5382 -0.8074 -2.0014 0.9765
5.5934 0.1912 -2.0014 0.9765
5.5540 0.6903 -2.0014 0.9765
5.3424 1.6679 -2.0014 0.9765
5.1720 2.1386 -2.0014 0.9765
4.7088 3.0250 -2.0014 0.9765
4.4196 3.4337 -2.0014 0.9765
2.4993 5.0077 -2.0014 0.9765
2.0418 5.2110 -2.0014 0.9765
0.0870 5.5960 -2.0014 0.9765
-2.3424 5.0829 -2.0014 0.9765
-3.6066 4.2797 -2.0014 0.9765
-3.9746 3.9403 -2.0014 0.9765
-4.6125 3.1699 -2.0014 0.9765
-5.2880 1.8331 -2.0014 0.9765
-5.4306 1.3533 -2.0014 0.9765
-5.5848 0.3650 -2.0014 0.9765
-5.5606 -0.6349 -2.0014 0.9765
-5.4816 -1.1292 -2.0014 0.9765
-4.1330 -3.7738 -2.0014 0.9765
-3.7792 -4.1280 -2.0014 0.9765
-2.9841 -4.7348 -2.0014 0.9765
-2.5491 -4.9825 -2.0014 0.9765
-2.0937 -5.1903 -2.0014 0.9765
-1.1364 -5.4801 -2.0014 0.9765
-0.6422 -5.5597 -2.0014 0.9765
-0.1428 -5.5949 -2.0014 0.9765
1.8262 -5.2904 -2.0014 0.9765
2.7387 -4.8809 -2.0014 0.9765
3.1639 -4.6166 -2.0014 0.9765
3.5637 -4.3154 -2.0014 0.9765
3.9351 -3.9797 -2.0014 0.9765
4.2750 -3.6122 -2.0014 0.9765
5.4169 -1.4074 -2.0014 0.9765
5.5210 -0.9177 -2.0014 0.9765
5.5809 -0.4207 -2.0014 0.9765
5.5961 0.0797 -2.0014 0.9765
5.5666 0.5794 -2.0014 0.9765
4.7682 2.9305 -2.0014 0.9765
4.1704 3.7324 -2.0014 0.9765
3.4395 4.4151 -2.0014 0.9765
3.0312 4.7048 -2.0014 0.9765
2.5986 4.9568 -2.0014 0.9765
2.1453 5.1692 -2.0014 0.9765
1.6749 5.3402 -2.0014 0.9765
1.1910 5.4685 -2.0014 0.9765
0.6976 5.5531 -2.0014 0.9765
0.1986 5.5932 -2.0014 0.9765
-2.6899 4.9079 -2.0014 0.9765
-3.1177 4.6479 -2.0014 0.9765
-3.8952 4.0188 -2.0014 0.9765
-4.2387 3.6546 -2.0014 0.9765
-4.5483 3.2613 -2.0014 0.9765
-5.5115 0.9727 -2.0014 0.9765
-5.5764 0.4763 -2.0014 0.9765
-5.5967 -0.0238 -2.0014 0.9765
-5.3899 -1.5073 -2.0014 0.9765
-5.2337 -1.9829 -2.0014 0.9765
-4.7971 -2.8828 -2.0014 0.9765
-4.5204 -3.2999 -2.0014 0.9765
-4.2074 -3.6906 -2.0014 0.9765
-3.8608 -4.0518 -2.0014 0.9765
-2.6479 -4.9307 -2.0014 0.9765
-2.1968 -5.1476 -2.0014 0.9765
-1.7280 -5.3233 -2.0014 0.9765
-0.7529 -5.5458 -2.0014 0.9765
0.7449 -5.5469 -2.0014 0.9765
2.6408 -4.9345 -2.0014 0.9765
3.0712 -4.6788 -2.0014 0.9765
3.4769 -4.3857 -2.0014 0.9765
4.2021 -3.6967 -2.0014 0.9765
4.5156 -3.3065 -2.0014 0.9765
5.2308 -1.9905 -2.0014 0.9765
5.3877 -1.5151 -2.0014 0.9765
0.6449 -5.1827 -2.0014 0.9779
1.1054 -5.1043 -2.0014 0.9779
1.5571 -4.9852 -2.0014 0.9779
2.4196 -4.6284 -2.0014 0.9779
2.8235 -4.3937 -2.0014 0.9779
3.8876 -3.4875 -2.0014 0.9779
4.1837 -3.1262 -2.0014 0.9779
4.4463 -2.7399 -2.0014 0.9779
5.0137 -1.4625 -2.0014 0.9779
5.1940 -0.5468 -2.0014 0.9779
5.0564 1.3074 -2.0014 0.9779
4.9193 1.7540 -2.0014 0.9779
4.7429 2.1865 -2.0014 0.9779
4.5286 2.6016 -2.0014 0.9779
4.2780 2.9958 -2.0014 0.9779
2.1440 4.7623 -2.0014 0.9779
1.7099 4.9348 -2.0014 0.9779
1.2621 5.0679 -2.0014 0.9779
0.8042 5.1604 -2.0014 0.9779
0.3399 5.2116 -2.0014 0.9779
-0.5932 5.1889 -2.0014 0.9779
-1.0544 5.1151 -2.0014 0.9779
-2.3733 4.6523 -2.0014 0.9779
-3.1635 4.1556 -2.0014 0.9779
-3.5221 3.8563 -2.0014 0.9779
-4.1523 3.1678 -2.0014 0.9779
-4.9989 1.5125 -2.0014 0.9779
-5.1140 1.0597 -2.0014 0.9779
-5.1883 0.5985 -2.0014 0.9779
-5.2119 -0.3345 -2.0014 0.9779
-5.0692 -1.2569 -2.0014 0.9779
-4.5543 -2.5563 -2.0014 0.9779
-4.3077 -2.9530 -2.0014 0.9779
-2.6063 -4.5259 -2.0014 0.9779
-2.1914 -4.7407 -2.0014 0.9779
-1.7590 -4.9175 -2.0014 0.9779
-1.3126 -5.0550 -2.0014 0.9779
-0.8557 -5.1521 -2.0014 0.9779
-0.3919 -5.2080 -2.0014 0.9779
0.5414 -5.1945 -2.0014 0.9779
1.0034 -5.1254 -2.0014 0.9779
1.4574 -5.0152 -2.0014 0.9779
2.7353 -4.4491 -2.0014 0.9779
3.4835 -3.8912 -2.0014 0.9779
3.8173 -3.5644 -2.0014 0.9779
4.1205 -3.2090 -2.0014 0.9779
4.3908 -2.8280 -2.0014 0.9779
4.6259 -2.4243 -2.0014 0.9779
4.8240 -2.0013 -2.0014 0.9779
5.1032 -1.1107 -2.0014 0.9779
5.1689 0.7474 -2.0014 0.9779
5.0815 1.2063 -2.0014 0.9779
4.7856 2.0915 -2.0014 0.9779
4.5796 2.5108 -2.0014 0.9779
3.4099 3.9559 -2.0014 0.9779
2.6513 4.4997 -2.0014 0.9779
0.9070 5.1433 -2.0014 0.9779
0.4438 5.2038 -2.0014 0.9779
-0.9522 5.1351 -2.0014 0.9779
-1.4073 5.0295 -2.0014 0.9779
-1.8511 4.8836 -2.0014 0.9779
-2.2800 4.6987 -2.0014 0.9779
-2.6908 4.4762 -2.0014 0.9779
-3.4445 3.9258 -2.0014 0.9779
-4.6015 2.4703 -2.0014 0.9779
-4.8038 2.0493 -2.0014 0.9779
-4.9677 1.6119 -2.0014 0.9779
-5.0919 1.1615 -2.0014 0.9779
-5.1753 0.7019 -2.0014 0.9779
-5.1761 -0.6958 -2.0014 0.9779
-5.0932 -1.1555 -2.0014 0.9779
-4.6044 -2.4650 -2.0014 0.9779
-4.0921 -3.2452 -2.0014 0.9779
-3.7858 -3.5978 -2.0014 0.9779
-3.0849 -4.2142 -2.0014 0.9779
-2.6960 -4.4730 -2.0014 0.9779
-1.4132 -5.0279 -2.0014 0.9779
-0.0291 -5.2226 -2.0014 0.9779
0.9010 -5.1444 -2.0014 0.9779
2.2330 -4.7212 -2.0014 0.9779
2.6460 -4.5028 -2.0014 0.9779
3.0378 -4.2483 -2.0014 0.9779
3.4052 -3.9599 -2.0014 0.9779
3.7454 -3.6398 -2.0014 0.9779
4.0557 -3.2906 -2.0014 0.9779
4.3335 -2.9150 -2.0014 0.9779
5.2147 -0.2886 -2.0014 0.9779
5.2196 0.1785 -2.0014 0.9779
5.1045 1.1047 -2.0014 0.9779
4.8264 1.9956 -2.0014 0.9779
4.3941 2.8228 -2.0014 0.9779
4.1243 3.2042 -2.0014 0.9779
3.8215 3.5599 -2.0014 0.9779
3.4881 3.8871 -2.0014 0.9779
2.3323 4.6730 -2.0014 0.9779
1.4632 5.0135 -2.0014 0.9779
0.5475 5.1939 -2.0014 0.9779
0.0812 5.2220 -2.0014 0.9779
-1.3067 5.0566 -2.0014 0.9779
-2.1859 4.7432 -2.0014 0.9779
-2.6010 4.5289 -2.0014 0.9779
-2.9952 4.2784 -2.0014 0.9779
-3.3656 3.9937 -2.0014 0.9779
-3.7090 3.6770 -2.0014 0.9779
-4.0227 3.3308 -2.0014 0.9779
-4.5513 2.5616 -2.0014 0.9779
-5.0677 1.2628 -2.0014 0.9779
-5.1603 0.8050 -2.0014 0.9779
-5.2115 0.3406 -2.0014 0.9779
-5.2211 -0.1264 -2.0014 0.9779
-5.1890 -0.5924 -2.0014 0.9779
-5.1153 -1.0537 -2.0014 0.9779
-4.8460 -1.9474 -2.0014 0.9779
-4.4220 -2.7789 -2.0014 0.9779
-4.1560 -3.1629 -2.0014 0.9779
-3.5267 -3.8521 -2.0014 0.9779
-1.9538 -4.8435 -2.0014 0.9779
-1.5131 -4.9987 -2.0014 0.9779
-1.0604 -5.1139 -2.0014 0.9779
-0.5992 -5.1882 -2.0014 0.9779
0.3338 -5.2120 -2.0014 0.9779
0.7982 -5.1613 -2.0014 0.9779
1.2562 -5.0694 -2.0014 0.9779
3.6721 -3.7138 -2.0014 0.9779
3.9893 -3.3708 -2.0014 0.9779
4.2745 -3.0008 -2.0014 0.9779
4.5255 -2.6069 -2.0014 0.9779
4.7404 -2.1921 -2.0014 0.9779
4.9173 -1.7597 -2.0014 0.9779
5.1520 -0.8564 -2.0014 0.9779
5.2221 0.0743 -2.0014 0.9779
5.1946 0.5407 -2.0014 0.9779
5.1255 1.0027 -2.0014 0.9779
4.8652 1.8990 -2.0014 0.9779
4.4495 2.7346 -2.0014 0.9779
4.1873 3.1213 -2.0014 0.9779
3.5649 3.8168 -2.0014 0.9779
3.2096 4.1201 -2.0014 0.9779
2.8286 4.3904 -2.0014 0.9779
0.1853 5.2194 -2.0014 0.9779
-2.9093 4.3373 -2.0014 0.9779
-3.6349 3.7502 -2.0014 0.9779
-3.9554 3.4104 -2.0014 0.9779
-4.2444 3.0433 -2.0014 0.9779
-4.4993 2.6519 -2.0014 0.9779
-4.7183 2.2392 -2.0014 0.9779
-4.8995 1.8087 -2.0014 0.9779
-5.1432 0.9077 -2.0014 0.9779
-5.1353 -0.9515 -2.0014 0.9779
-4.6990 -2.2794 -2.0014 0.9779
-3.9262 -3.4440 -2.0014 0.9779
-3.6028 -3.7810 -2.0014 0.9779
-2.4710 -4.6011 -2.0014 0.9779
-2.0500 -4.8035 -2.0014 0.9779
-1.6125 -4.9675 -2.0014 0.9779
0.2298 -5.2176 -2.0014 0.9779
0.6951 -5.1762 -2.0014 0.9779
1.1548 -5.0934 -2.0014 0.9779
1.6053 -4.9698 -2.0014 0.9779
2.0430 -4.8065 -2.0014 0.9779
2.8659 -4.3661 -2.0014 0.9779
3.2446 -4.0925 -2.0014 0.9779
4.2138 -3.0855 -2.0014 0.9779
4.4726 -2.6966 -2.0014 0.9779
4.6957 -2.2862 -2.0014 0.9779
5.1339 -0.9590 -2.0014 0.9779
1.4580 -4.6678 -2.0014 0.9791
3.0007 -3.8613 -2.0014 0.9791
3.3337 -3.5777 -2.0014 0.9791
3.9173 -2.9272 -2.0014 0.9791
4.6945 -1.3694 -2.0014 0.9791
4.7981 -0.9445 -2.0014 0.9791
4.8633 -0.5119 -2.0014 0.9791
4.8896 -0.0753 -2.0014 0.9791
4.8768 0.3619 -2.0014 0.9791
4.7345 1.2241 -2.0014 0.9791
4.4410 2.0473 -2.0014 0.9791
3.7390 3.1518 -2.0014 0.9791
3.4424 3.4733 -2.0014 0.9791
2.3980 4.2619 -2.0014 0.9791
2.0075 4.4591 -2.0014 0.9791
1.1818 4.7452 -2.0014 0.9791
0.7530 4.8318 -2.0014 0.9791
0.3183 4.8798 -2.0014 0.9791
-0.1190 4.8887 -2.0014 0.9791
-0.5554 4.8585 -2.0014 0.9791
-1.4113 4.6821 -2.0014 0.9791
-1.8240 4.5373 -2.0014 0.9791
-2.2222 4.3561 -2.0014 0.9791
-2.9621 3.8910 -2.0014 0.9791
-3.8879 2.9661 -2.0014 0.9791
-4.1374 2.6068 -2.0014 0.9791
-1.9490 -0.1251 -0.7993 0.9916
-1.9960 -0.3090 -0.8266 0.9913
-4.2644 -2.3935 -2.0014 0.9791
-4.0334 -2.7650 -2.0014 0.9791
-3.4768 -3.4388 -2.0014 0.9791
-3.1557 -3.7357 -2.0014 0.9791
-2.8092 -4.0027 -2.0014 0.9791
-2.0519 -4.4389 -2.0014 0.9791
-1.6471 -4.6044 -2.0014 0.9791
-0.3669 -4.8764 -2.0014 0.9791
0.0703 -4.8897 -2.0014 0.9791
0.5069 -4.8638 -2.0014 0.9791
1.3646 -4.6959 -2.0014 0.9791
1.7787 -4.5552 -2.0014 0.9791
2.5611 -4.1659 -2.0014 0.9791
3.8582 -3.0047 -2.0014 0.9791
4.3314 -2.2700 -2.0014 0.9791
4.5169 -1.8739 -2.0014 0.9791
4.6663 -1.4628 -2.0014 0.9791
4.8871 -0.1728 -2.0014 0.9791
4.8398 0.6998 -2.0014 0.9791
4.6380 1.5501 -2.0014 0.9791
4.2880 2.3509 -2.0014 0.9791
4.0608 2.7246 -2.0014 0.9791
3.8011 3.0766 -2.0014 0.9791
3.1928 3.7041 -2.0014 0.9791
2.8490 3.9745 -2.0014 0.9791
2.4825 4.2132 -2.0014 0.9791
2.0961 4.4182 -2.0014 0.9791
-0.0215 4.8901 -2.0014 0.9791
-0.8916 4.8082 -2.0014 0.9791
-1.7332 4.5727 -2.0014 0.9791
-2.5194 4.1912 -2.0014 0.9791
-3.8280 3.0430 -2.0014 0.9791
-4.4980 1.9188 -2.0014 0.9791
-1.9370 -0.0856 -0.7935 0.9917
-1.9493 -0.2620 -0.8050 0.9915
-4.7690 -1.0820 -2.0014 0.9791
-4.6532 -1.5038 -2.0014 0.9791
-4.0878 -2.6840 -2.0014 0.9791
-3.5447 -3.3688 -2.0014 0.9791
-1.7386 -4.5707 -2.0014 0.9791
-1.3232 -4.7078 -2.0014 0.9791
-0.4641 -4.8681 -2.0014 0.9791
0.4098 -4.8730 -2.0014 0.9791
0.8436 -4.8169 -2.0014 0.9791
3.5070 -3.4081 -2.0014 0.9791
4.0576 -2.7294 -2.0014 0.9791
4.8827 -0.2703 -2.0014 0.9791
4.8873 0.1671 -2.0014 0.9791
4.7795 1.0344 -2.0014 0.9791
4.6680 1.4573 -2.0014 0.9791
3.8617 3.0002 -2.0014 0.9791
3.5782 3.3332 -2.0014 0.9791
2.9277 3.9169 -2.0014 0.9791
2.5660 4.1629 -2.0014 0.9791
1.7841 4.5531 -2.0014 0.9791
1.3701 4.6943 -2.0014 0.9791
0.5126 4.8632 -2.0014 0.9791
0.0760 4.8896 -2.0014 0.9791
-0.3612 4.8768 -2.0014 0.9791
-0.7955 4.8250 -2.0014 0.9791
-1.2235 4.7346 -2.0014 0.9791
-2.0467 4.4413 -2.0014 0.9791
-2.8045 4.0060 -2.0014 0.9791
-3.4728 3.4429 -2.0014 0.9791
-3.7666 3.1188 -2.0014 0.9791
-2.0054 0.3128 -0.8307 0.9913
-1.9496 0.1274 -0.7996 0.9916
-1.9214 -0.0465 -0.7866 0.9917
-1.9557 -0.2233 -0.8056 0.9915
-4.1405 -2.6020 -2.0014 0.9791
-3.8914 -2.9615 -2.0014 0.9791
-3.3021 -3.6069 -2.0014 0.9791
-2.6074 -4.1371 -2.0014 0.9791
-2.2273 -4.3535 -2.0014 0.9791
-1.4168 -4.6805 -2.0014 0.9791
-0.9929 -4.7883 -2.0014 0.9791
-0.5611 -4.8579 -2.0014 0.9791
0.3125 -4.8802 -2.0014 0.9791
0.7474 -4.8327 -2.0014 0.9791
1.5956 -4.6225 -2.0014 0.9791
