ply
format ascii 1.0
element vertex 1597
property float32 x
property float32 y
property float32 z
property float32 I
end_header
9.0005 -3.0298 -2.0074 0.9619
9.2357 -2.2149 -2.0076 0.9619
9.3970 -1.3821 -2.0077 0.9619
9.4831 -0.5382 -2.0078 0.9619
9.4934 0.3101 -2.0078 0.9619
9.4277 1.1559 -2.0077 0.9619
9.2865 1.9923 -2.0077 0.9619
8.7831 3.6105 -2.0073 0.9619
8.4250 4.3793 -2.0071 0.9619
7.9995 5.1128 -2.0068 0.9619
6.9610 6.4510 -2.0061 0.9619
5.6859 7.5618 -1.9999 0.9621
3.9369 7.8267 -1.8519 0.9648
3.2220 8.1446 -1.8514 0.9648
-1.3874 8.6335 -1.8484 0.9649
-2.1516 8.4730 -1.8479 0.9649
-2.8982 8.2450 -1.8474 0.9649
-7.2444 6.0615 -1.9967 0.9621
-7.7550 5.3900 -1.9963 0.9621
-8.2038 4.6759 -1.9960 0.9621
-8.5871 3.9247 -1.9957 0.9621
-8.9021 3.1426 -1.9955 0.9621
-9.3176 1.5102 -1.9953 0.9621
-9.4149 0.6728 -1.9952 0.9621
-9.3846 -1.0113 -1.9952 0.9621
-9.2573 -1.8447 -1.9953 0.9621
-8.7834 -3.4611 -1.9956 0.9621
-8.4405 -4.2315 -1.9958 0.9621
-7.5563 -5.6659 -1.9964 0.9621
-6.4313 -6.9213 -1.9971 0.9621
-5.7894 -7.4691 -1.9976 0.9621
-5.1011 -7.9577 -1.9980 0.9621
-4.3718 -8.3831 -1.9985 0.9621
-1.1643 -9.3928 -2.0006 0.9620
-0.3217 -9.4618 -2.0012 0.9620
0.5239 -9.4555 -2.0018 0.9620
1.3658 -9.3736 -2.0023 0.9620
3.0118 -8.9866 -2.0034 0.9620
3.8025 -8.6843 -2.0040 0.9620
4.5634 -8.3125 -2.0045 0.9620
5.2881 -7.8741 -2.0049 0.9620
7.1892 -6.1965 -2.0062 0.9619
7.7147 -5.5313 -2.0066 0.9619
8.1787 -4.8217 -2.0069 0.9619
9.1666 -2.4844 -2.0076 0.9619
9.3523 -1.6567 -2.0077 0.9619
9.4632 -0.8157 -2.0078 0.9619
9.4984 0.0319 -2.0078 0.9619
9.1498 2.5459 -2.0076 0.9619
8.5500 4.1308 -2.0072 0.9619
8.1462 4.8765 -2.0069 0.9619
7.1475 6.2447 -2.0062 0.9619
6.5605 6.8562 -2.0059 0.9619
5.9133 7.4025 -2.0027 0.9620
5.0971 7.7009 -1.9521 0.9629
4.1726 7.7231 -1.8555 0.9647
3.4595 8.0475 -1.8516 0.9648
2.7270 8.3218 -1.8511 0.9648
1.2038 8.6693 -1.8501 0.9648
0.4254 8.7397 -1.8496 0.9649
-0.3560 8.7403 -1.8491 0.9649
-1.1341 8.6712 -1.8485 0.9649
-3.3872 8.0548 -1.8470 0.9649
-4.0989 7.7328 -1.8500 0.9649
-5.0296 7.7314 -1.9496 0.9630
-5.8366 7.4264 -1.9966 0.9621
-8.0637 4.9144 -1.9961 0.9621
-8.4688 4.1747 -1.9958 0.9621
-9.3912 0.9482 -1.9952 0.9621
-9.4382 0.1065 -1.9952 0.9621
-9.4101 -0.7360 -1.9952 0.9621
-9.3072 -1.5727 -1.9952 0.9621
-9.1303 -2.3970 -1.9954 0.9621
-8.8807 -3.2023 -1.9955 0.9621
-7.7186 -5.4419 -1.9963 0.9621
-6.6309 -6.7295 -1.9970 0.9621
-6.0052 -7.2958 -1.9974 0.9621
-5.3315 -7.8043 -1.9979 0.9621
-3.0767 -8.9443 -1.9994 0.9621
1.0906 -9.4088 -2.0021 0.9620
1.9263 -9.2765 -2.0027 0.9620
5.0548 -8.0250 -2.0048 0.9620
5.7520 -7.5437 -2.0053 0.9620
8.0336 -5.0589 -2.0068 0.9619
8.4541 -4.3225 -2.0071 0.9619
9.0897 -2.7517 -2.0075 0.9619
9.4352 -1.0925 -2.0077 0.9619
9.4952 -0.2463 -2.0078 0.9619
9.4793 0.6018 -2.0078 0.9619
9.3875 1.4452 -2.0077 0.9619
8.6676 3.8787 -2.0072 0.9619
8.2859 4.6360 -2.0070 0.9619
7.8381 5.3561 -2.0067 0.9619
7.3277 6.0330 -2.0064 0.9619
5.4229 7.6936 -1.9897 0.9622
4.4644 7.7141 -1.8840 0.9642
3.6940 7.9433 -1.8517 0.9648
2.9698 8.2391 -1.8513 0.9648
1.4573 8.6311 -1.8503 0.9648
-0.0998 8.7478 -1.8492 0.9649
-0.8797 8.7015 -1.8487 0.9649
-1.6521 8.5860 -1.8482 0.9649
-2.4109 8.4020 -1.8477 0.9649
-5.6080 7.5827 -1.9936 0.9622
-6.8779 6.4761 -1.9969 0.9621
-7.4269 5.8355 -1.9965 0.9621
-7.9167 5.1487 -1.9962 0.9621
-8.3433 4.4212 -1.9959 0.9621
-8.7034 3.6587 -1.9957 0.9621
-9.2135 2.0532 -1.9953 0.9621
-9.3595 1.2229 -1.9952 0.9621
-9.4310 0.3830 -1.9952 0.9621
-9.4276 -0.4600 -1.9952 0.9621
-9.3492 -1.2994 -1.9952 0.9621
-8.3068 -4.4892 -1.9959 0.9621
-7.8743 -5.2132 -1.9962 0.9621
-6.2159 -7.1163 -1.9973 0.9621
-5.5574 -7.6442 -1.9977 0.9621
-4.1123 -8.5143 -1.9987 0.9621
-3.3371 -8.8495 -1.9992 0.9621
-2.5349 -9.1144 -1.9997 0.9621
-1.7120 -9.3068 -2.0003 0.9621
1.6536 -9.3281 -2.0025 0.9620
2.4799 -9.1459 -2.0031 0.9620
4.0681 -8.5640 -2.0041 0.9620
5.5282 -7.7084 -2.0051 0.9620
6.1953 -7.1860 -2.0056 0.9620
6.8131 -6.6059 -2.0060 0.9619
9.2389 -2.2014 -2.0076 0.9619
9.4929 0.3239 -2.0078 0.9619
9.4260 1.1696 -2.0077 0.9619
9.2836 2.0059 -2.0076 0.9619
9.0670 2.8260 -2.0075 0.9619
8.4185 4.3915 -2.0071 0.9619
6.3462 7.0541 -2.0057 0.9619
3.9254 7.8324 -1.8519 0.9648
3.2101 8.1493 -1.8514 0.9648
2.4696 8.4010 -1.8509 0.9648
1.7097 8.5855 -1.8504 0.9648
-0.6245 8.7244 -1.8489 0.9649
-2.9102 8.2407 -1.8474 0.9649
-3.6329 7.9461 -1.8469 0.9649
-4.4038 7.7242 -1.8795 0.9643
-5.3756 7.7324 -1.9906 0.9622
-6.0648 7.2466 -1.9974 0.9621
-7.2533 6.0509 -1.9966 0.9621
-8.5928 3.9122 -1.9957 0.9621
-9.4158 0.6590 -1.9952 0.9621
-9.4370 -0.1837 -1.9952 0.9621
-9.3831 -1.0250 -1.9952 0.9621
-9.2546 -1.8581 -1.9953 0.9621
-9.0525 -2.6766 -1.9954 0.9621
-8.7784 -3.4740 -1.9956 0.9621
-8.4344 -4.2438 -1.9958 0.9621
-7.5480 -5.6770 -1.9964 0.9621
-7.0127 -6.3289 -1.9968 0.9621
-6.4213 -6.9307 -1.9971 0.9621
-4.3595 -8.3895 -1.9985 0.9621
-2.8005 -9.0354 -1.9995 0.9621
-1.1506 -9.3945 -2.0006 0.9620
1.3795 -9.3717 -2.0023 0.9620
2.2108 -9.2138 -2.0029 0.9620
4.5755 -8.3059 -2.0045 0.9620
5.2996 -7.8664 -2.0050 0.9620
7.1982 -6.1860 -2.0062 0.9619
9.3548 -1.6431 -2.0077 0.9619
9.4644 -0.8019 -2.0078 0.9619
9.4983 0.0458 -2.0078 0.9619
9.4563 0.8930 -2.0078 0.9619
8.8805 3.3648 -2.0074 0.9619
2.9443 -7.9996 -2.0034 0.9656
3.6471 -7.7068 -2.0039 0.9656
4.3212 -7.3523 -2.0043 0.9656
4.9610 -6.9389 -2.0047 0.9656
6.1176 -5.9490 -2.0055 0.9655
7.0799 -4.7685 -2.0062 0.9655
8.0927 -2.7242 -2.0068 0.9655
8.5264 -0.4839 -2.0071 0.9655
8.3497 1.7913 -2.0070 0.9655
8.1561 2.5290 -2.0069 0.9655
7.1928 4.5972 -2.0063 0.9655
6.2593 5.8006 -2.0057 0.9655
5.7158 6.3348 -2.0053 0.9655
4.4969 7.2467 -2.0044 0.9656
3.8203 7.5950 -1.9981 0.9657
3.0477 7.7039 -1.9471 0.9665
2.2802 7.7152 -1.8908 0.9675
0.8537 7.8245 -1.8499 0.9682
0.1522 7.8675 -1.8494 0.9682
-1.9612 7.7229 -1.8727 0.9678
-2.7118 7.7146 -1.9219 0.9670
-4.8432 6.9882 -1.9983 0.9657
-5.4462 6.5269 -1.9979 0.9657
-6.0058 6.0138 -1.9975 0.9657
-6.5172 5.4530 -1.9971 0.9657
-6.9767 4.8490 -1.9968 0.9657
-7.3805 4.2066 -1.9966 0.9657
-7.7255 3.5309 -1.9963 0.9657
-8.0089 2.8273 -1.9961 0.9657
-8.2287 2.1013 -1.9960 0.9657
-8.3829 1.3587 -1.9959 0.9657
-8.4704 0.6053 -1.9958 0.9657
-8.4906 -0.1529 -1.9958 0.9657
-8.4432 -0.9098 -1.9958 0.9657
-8.3286 -1.6596 -1.9959 0.9657
-6.7979 -5.0972 -1.9969 0.9657
-3.9325 -7.5409 -1.9988 0.9657
-2.5308 -8.1236 -1.9997 0.9656
-1.7964 -8.3190 -2.0002 0.9656
-1.0472 -8.4482 -2.0007 0.9656
-0.2894 -8.5101 -2.0012 0.9656
0.4712 -8.5041 -2.0017 0.9656
4.1037 -7.4751 -2.0042 0.9656
5.3692 -6.6296 -2.0050 0.9656
5.9404 -6.1252 -2.0054 0.9655
6.9368 -4.9736 -2.0061 0.9655
7.7123 -3.6624 -2.0066 0.9655
8.2420 -2.2338 -2.0069 0.9655
8.4089 -1.4896 -2.0071 0.9655
8.5034 0.7905 -2.0071 0.9655
7.6876 3.7142 -2.0066 0.9655
6.9033 5.0201 -2.0061 0.9655
5.8992 6.1651 -2.0054 0.9655
4.0451 7.4872 -2.0001 0.9656
2.5271 7.7118 -1.9073 0.9672
1.0827 7.7968 -1.8500 0.9682
0.3826 7.8603 -1.8495 0.9682
-1.7225 7.7250 -1.8601 0.9680
-3.9753 7.4995 -1.9949 0.9657
-4.6367 7.1275 -1.9984 0.9657
-5.2531 6.6840 -1.9980 0.9657
-6.8320 5.0515 -1.9969 0.9657
-7.2544 4.4212 -1.9966 0.9657
-7.6190 3.7558 -1.9964 0.9657
-7.9229 3.0607 -1.9962 0.9657
-8.1638 2.3415 -1.9960 0.9657
-8.4491 0.8531 -1.9958 0.9657
-8.4661 -0.6621 -1.9958 0.9657
-8.3735 -1.4149 -1.9959 0.9657
-7.3520 -4.2561 -1.9965 0.9657
-6.9439 -4.8957 -1.9968 0.9657
-6.4804 -5.4966 -1.9971 0.9657
-5.9651 -6.0539 -1.9975 0.9657
-5.4022 -6.5632 -1.9978 0.9657
-4.7961 -7.0204 -1.9982 0.9657
-3.4735 -7.7645 -1.9991 0.9657
-2.7675 -8.0453 -1.9996 0.9656
-1.2941 -8.4132 -2.0006 0.9656
0.2219 -8.5136 -2.0016 0.9656
3.1891 -7.9059 -2.0035 0.9656
4.5456 -7.2165 -2.0045 0.9656
5.7581 -6.2962 -2.0053 0.9655
6.7878 -5.1743 -2.0060 0.9655
7.6015 -3.8866 -2.0065 0.9655
7.9188 -3.1932 -2.0067 0.9655
8.4833 -0.9823 -2.0071 0.9655
8.5373 -0.2215 -2.0071 0.9655
8.4405 1.2994 -2.0071 0.9655
8.0742 2.7785 -2.0068 0.9655
7.7934 3.4875 -2.0067 0.9655
7.4503 4.1685 -2.0064 0.9655
5.5179 6.5072 -2.0052 0.9656
4.2671 7.3731 -2.0021 0.9656
2.7784 7.7082 -1.9257 0.9669
-0.0898 7.8678 -1.8492 0.9682
-1.4876 7.7311 -1.8503 0.9682
-2.2153 7.7204 -1.8877 0.9675
-4.4265 7.2611 -1.9986 0.9657
-5.0554 6.8355 -1.9981 0.9657
-6.6814 5.2498 -1.9970 0.9657
-7.5060 3.9775 -1.9965 0.9657
-7.8301 3.2916 -1.9963 0.9657
-8.0919 2.5796 -1.9961 0.9657
-8.4206 1.1003 -1.9958 0.9657
-8.0705 -2.6457 -1.9961 0.9657
-7.4732 -4.0387 -1.9965 0.9657
-6.1396 -5.8762 -1.9973 0.9657
-4.3667 -7.2966 -1.9985 0.9657
0.7325 -8.4864 -2.0019 0.9656
1.4872 -8.3893 -2.0024 0.9656
2.9560 -7.9953 -2.0034 0.9656
4.3319 -7.3460 -2.0043 0.9656
4.9711 -6.9317 -2.0047 0.9656
5.5709 -6.4618 -2.0051 0.9656
6.6330 -5.3707 -2.0059 0.9655
7.4841 -4.1074 -2.0064 0.9655
7.8216 -3.4237 -2.0067 0.9655
8.5271 -0.4714 -2.0071 0.9655
8.5352 0.2912 -2.0071 0.9655
8.4750 1.0516 -2.0071 0.9655
8.3471 1.8035 -2.0070 0.9655
8.1523 2.5409 -2.0069 0.9655
7.1861 4.6077 -2.0063 0.9655
6.7454 5.2297 -2.0060 0.9655
6.2508 5.8097 -2.0056 0.9655
5.1168 6.8257 -2.0049 0.9656
4.4861 7.2529 -2.0043 0.9656
0.8423 7.8257 -1.8498 0.9682
-0.5617 7.8469 -1.8489 0.9682
-5.4557 6.5189 -1.9978 0.9657
-6.9837 4.8388 -1.9968 0.9657
-7.7306 3.5197 -1.9963 0.9657
-8.0131 2.8156 -1.9961 0.9657
-8.3848 1.3464 -1.9959 0.9657
-8.4418 -0.9221 -1.9958 0.9657
-7.5880 -3.8180 -1.9964 0.9657
-7.2180 -4.4803 -1.9966 0.9657
-6.7904 -5.1072 -1.9969 0.9657
-6.3087 -5.6936 -1.9972 0.9657
-5.7766 -6.2348 -1.9976 0.9657
-5.1982 -6.7266 -1.9980 0.9657
-4.5783 -7.1651 -1.9984 0.9657
-3.9216 -7.5466 -1.9988 0.9657
-3.2333 -7.8682 -1.9993 0.9656
-0.2770 -8.5105 -2.0012 0.9656
1.2407 -8.4285 -2.0022 0.9656
3.4310 -7.8047 -2.0037 0.9656
4.1146 -7.4692 -2.0042 0.9656
4.7656 -7.0738 -2.0046 0.9656
5.9494 -6.1166 -2.0054 0.9655
6.4725 -5.5623 -2.0057 0.9655
6.9441 -4.9634 -2.0061 0.9655
8.0135 -2.9483 -2.0068 0.9655
8.2452 -2.2217 -2.0069 0.9655
8.5096 -0.7210 -2.0071 0.9655
8.5401 0.0411 -2.0071 0.9655
8.3965 1.5583 -2.0071 0.9655
8.2235 2.3011 -2.0069 0.9655
7.9847 3.0254 -2.0068 0.9655
7.6822 3.7254 -2.0066 0.9655
7.3183 4.3954 -2.0063 0.9655
2.6723 -7.2607 -2.0032 0.9685
5.0473 -5.8718 -2.0048 0.9685
6.4251 -4.3275 -2.0057 0.9685
6.7864 -3.7374 -2.0060 0.9685
7.0935 -3.1173 -2.0062 0.9685
7.5358 -1.8072 -2.0065 0.9685
7.1667 2.9460 -2.0062 0.9685
6.5276 4.1720 -2.0058 0.9685
5.1874 5.7492 -2.0049 0.9685
4.6529 6.1880 -2.0046 0.9685
2.8463 7.1950 -2.0034 0.9685
2.1895 7.4084 -2.0002 0.9686
1.5175 7.5627 -1.9971 0.9686
-0.5386 7.6817 -1.9938 0.9687
-1.2224 7.6062 -1.9946 0.9687
-3.2006 7.0275 -1.9994 0.9686
-5.4525 5.4598 -1.9978 0.9686
-5.9170 4.9507 -1.9975 0.9686
-6.3342 4.4025 -1.9973 0.9686
-7.0142 3.2058 -1.9968 0.9686
-7.2716 2.5670 -1.9966 0.9686
-7.6112 1.2336 -1.9964 0.9686
-7.7090 -0.1388 -1.9963 0.9686
-7.5619 -1.5068 -1.9964 0.9686
-7.3977 -2.1756 -1.9965 0.9686
-5.7351 -5.1608 -1.9976 0.9686
-3.5701 -6.8458 -1.9990 0.9686
-2.9456 -7.1385 -1.9995 0.9686
-2.2975 -7.3745 -1.9999 0.9686
-0.9506 -7.6688 -2.0008 0.9686
-0.2627 -7.7248 -2.0012 0.9686
0.4277 -7.7192 -2.0017 0.9686
1.1150 -7.6520 -2.0022 0.9686
2.4583 -7.3353 -2.0031 0.9685
4.3158 -6.4263 -2.0043 0.9685
5.3912 -5.5589 -2.0050 0.9685
5.8666 -5.0566 -2.0053 0.9685
6.2953 -4.5136 -2.0056 0.9685
7.2682 -2.6862 -2.0063 0.9685
7.4794 -2.0271 -2.0064 0.9685
7.6309 -1.3518 -2.0065 0.9685
7.7213 -0.6655 -2.0066 0.9685
7.7500 0.0260 -2.0066 0.9685
7.6217 1.4030 -2.0065 0.9685
7.2501 2.7349 -2.0063 0.9685
3.6789 6.8094 -2.0039 0.9685
2.4070 7.3455 -2.0014 0.9686
1.7391 7.5184 -1.9980 0.9686
0.3744 7.6930 -1.9942 0.9687
-0.9988 7.6372 -1.9943 0.9687
-2.9936 7.1187 -1.9995 0.9686
-4.2094 6.4706 -1.9987 0.9686
-5.2905 5.6175 -1.9980 0.9686
-6.2028 4.5863 -1.9973 0.9686
-6.5864 4.0141 -1.9971 0.9686
-6.9175 3.4100 -1.9969 0.9686
-7.4122 2.1259 -1.9965 0.9686
-7.6713 0.7746 -1.9963 0.9686
-7.6027 -1.2846 -1.9964 0.9686
-6.6750 -3.8642 -1.9970 0.9686
-6.3044 -4.4449 -1.9972 0.9686
-5.8835 -4.9903 -1.9975 0.9686
-4.3541 -6.3735 -1.9985 0.9686
-3.1532 -7.0487 -1.9993 0.9686
-2.5123 -7.3035 -1.9997 0.9686
-0.4888 -7.7132 -2.0011 0.9686
0.8903 -7.6808 -2.0020 0.9686
1.5724 -7.5725 -2.0025 0.9685
4.6943 -6.1565 -2.0046 0.9685
6.1601 -4.6958 -2.0055 0.9685
6.8984 -3.5271 -2.0060 0.9685
7.7474 -0.2010 -2.0066 0.9685
7.7344 0.4911 -2.0066 0.9685
7.6596 1.1792 -2.0066 0.9685
7.5235 1.8578 -2.0065 0.9685
7.3273 2.5215 -2.0063 0.9685
6.3959 4.3706 -2.0057 0.9685
5.9797 4.9231 -2.0055 0.9685
2.6229 7.2767 -2.0027 0.9685
1.9596 7.4679 -1.9990 0.9686
1.2837 7.6026 -1.9963 0.9686
0.5997 7.6801 -1.9946 0.9687
-0.0879 7.6986 -1.9934 0.9687
-0.7746 7.6621 -1.9940 0.9687
-1.4560 7.5669 -1.9952 0.9687
-3.4149 6.9252 -1.9992 0.9686
-4.0183 6.5916 -1.9988 0.9686
-5.1240 5.7703 -1.9981 0.9686
-6.8149 3.6113 -1.9969 0.9686
-7.1092 2.9885 -1.9967 0.9686
-7.5261 1.6772 -1.9964 0.9686
-7.6454 0.9990 -1.9964 0.9686
-7.6370 -1.0614 -1.9964 0.9686
-7.5121 -1.7386 -1.9964 0.9686
-7.3275 -2.4021 -1.9966 0.9686
-7.0845 -3.0465 -1.9967 0.9686
-6.7851 -3.6668 -1.9969 0.9686
-5.0766 -5.8119 -1.9980 0.9686
-3.9643 -6.6241 -1.9988 0.9686
-3.3581 -6.9528 -1.9992 0.9686
0.6649 -7.7030 -2.0019 0.9686
2.6829 -7.2568 -2.0032 0.9685
3.9316 -6.6672 -2.0040 0.9685
5.5599 -5.3908 -2.0051 0.9685
6.4314 -4.3181 -2.0057 0.9685
6.7918 -3.7275 -2.0060 0.9685
7.3476 -2.4615 -2.0063 0.9685
7.6689 -1.1165 -2.0066 0.9685
7.7381 -0.4278 -2.0066 0.9685
7.7455 0.2643 -2.0066 0.9685
7.6909 0.9543 -2.0066 0.9685
6.8693 3.5834 -2.0060 0.9685
6.5215 4.1815 -2.0058 0.9685
5.6729 5.2726 -2.0053 0.9685
5.1790 5.7567 -2.0049 0.9685
4.6439 6.1948 -2.0046 0.9685
3.4675 6.9188 -2.0038 0.9685
2.8358 7.1991 -2.0034 0.9685
2.1787 7.4114 -2.0001 0.9686
-0.5498 7.6809 -1.9938 0.9687
-1.2335 7.6045 -1.9947 0.9687
-1.9088 7.4709 -1.9965 0.9686
-2.5713 7.2810 -1.9993 0.9686
-4.4061 6.3377 -1.9985 0.9686
-5.4604 5.4518 -1.9978 0.9686
-6.7065 3.8095 -1.9970 0.9686
-7.2753 2.5564 -1.9966 0.9686
-7.4739 1.8969 -1.9965 0.9686
-7.6647 -0.8373 -1.9963 0.9686
-7.3946 -2.1864 -1.9965 0.9686
-7.1705 -2.8377 -1.9967 0.9686
-6.5533 -4.0677 -1.9971 0.9686
-6.1651 -4.6368 -1.9973 0.9686
-5.7276 -5.1691 -1.9976 0.9686
-5.2444 -5.6604 -1.9979 0.9686
-3.5601 -6.8510 -1.9991 0.9686
-1.6197 -7.5541 -2.0003 0.9686
-0.9395 -7.6702 -2.0008 0.9686
-0.2514 -7.7252 -2.0013 0.9686
1.1262 -7.6504 -2.0022 0.9686
1.8046 -7.5211 -2.0026 0.9685
3.7344 -6.7790 -2.0039 0.9685
5.3993 -5.5511 -2.0050 0.9685
5.8740 -5.0480 -2.0053 0.9685
6.6795 -3.9247 -2.0059 0.9685
7.2722 -2.6756 -2.0063 0.9685
7.4824 -2.0162 -2.0064 0.9685
7.7156 0.7286 -2.0066 0.9685
7.2461 2.7455 -2.0063 0.9685
6.2582 4.5650 -2.0056 0.9685
3.0272 -6.3968 -2.0034 0.9710
4.6156 -5.3696 -2.0045 0.9710
5.4981 -4.4651 -2.0051 0.9710
6.2057 -3.4176 -2.0056 0.9710
6.4865 -2.8505 -2.0058 0.9710
6.8908 -1.6525 -2.0060 0.9710
7.0110 -1.0312 -2.0061 0.9710
7.0828 0.2314 -2.0062 0.9710
7.0338 0.8624 -2.0061 0.9710
6.9286 1.4865 -2.0061 0.9710
6.7680 2.0986 -2.0060 0.9710
6.5533 2.6939 -2.0058 0.9710
6.2863 3.2676 -2.0057 0.9710
5.9690 3.8150 -2.0054 0.9710
5.1946 4.8140 -2.0049 0.9710
4.7437 5.2575 -2.0046 0.9710
4.2550 5.6588 -2.0043 0.9710
3.7325 6.0149 -2.0040 0.9710
2.6030 6.5800 -2.0032 0.9710
2.0052 6.7847 -2.0028 0.9710
0.7671 7.0301 -2.0020 0.9710
0.1367 7.0691 -2.0016 0.9710
-1.1214 6.9779 -2.0007 0.9710
-2.9275 6.4279 -1.9995 0.9711
-3.4887 6.1399 -1.9992 0.9711
-4.5229 5.4202 -1.9985 0.9711
-4.9877 4.9943 -1.9982 0.9711
-5.4126 4.5287 -1.9979 0.9711
-5.7943 4.0272 -1.9976 0.9711
-6.6520 2.3483 -1.9970 0.9711
-6.8346 1.7453 -1.9969 0.9711
-6.9627 1.1285 -1.9968 0.9711
-7.0355 0.5027 -1.9968 0.9711
-7.0128 -0.7557 -1.9968 0.9711
-6.9177 -1.3784 -1.9968 0.9711
-6.5633 -2.5863 -1.9971 0.9711
-6.3069 -3.1618 -1.9972 0.9711
-6.0002 -3.7123 -1.9974 0.9711
-3.8105 -5.9444 -1.9989 0.9711
-2.1014 -6.7452 -2.0000 0.9711
-0.8695 -7.0141 -2.0008 0.9710
-0.2402 -7.0652 -2.0013 0.9710
1.0197 -6.9983 -2.0021 0.9710
2.2483 -6.7084 -2.0029 0.9710
2.8384 -6.4823 -2.0033 0.9710
3.4061 -6.2044 -2.0037 0.9710
3.9468 -5.8768 -2.0041 0.9710
4.4562 -5.5022 -2.0044 0.9710
6.1027 -3.5978 -2.0055 0.9710
6.4000 -3.0392 -2.0057 0.9710
6.9777 -1.2361 -2.0061 0.9710
7.0604 -0.6086 -2.0062 0.9710
7.0866 0.0238 -2.0062 0.9710
6.9693 1.2829 -2.0061 0.9710
6.6296 2.5009 -2.0059 0.9710
5.7289 4.1660 -2.0053 0.9710
5.3336 4.6600 -2.0050 0.9710
4.8959 5.1165 -2.0047 0.9710
4.4192 5.5321 -2.0044 0.9710
1.5942 6.8918 -2.0025 0.9710
0.9727 7.0051 -2.0021 0.9710
0.3438 7.0625 -2.0017 0.9710
-0.2877 7.0635 -2.0013 0.9710
-2.7382 6.5113 -1.9997 0.9711
-3.3076 6.2399 -1.9993 0.9711
-4.3624 5.5507 -1.9986 0.9711
-5.6741 4.1954 -1.9977 0.9711
-6.0251 3.6720 -1.9975 0.9711
-6.3280 3.1194 -1.9973 0.9711
-6.7807 1.9448 -1.9969 0.9711
-7.0178 0.7086 -1.9968 0.9711
-7.0529 0.0796 -1.9968 0.9711
-7.0319 -0.5500 -1.9968 0.9711
-6.9550 -1.1752 -1.9968 0.9711
-6.8227 -1.7911 -1.9969 0.9711
-6.3966 -2.9757 -1.9972 0.9711
-5.7671 -4.0660 -1.9976 0.9711
-4.4863 -5.4504 -1.9984 0.9711
-3.9828 -5.8299 -1.9988 0.9711
-2.8842 -6.4473 -1.9995 0.9711
-1.6931 -6.8600 -2.0003 0.9711
-1.0745 -6.9852 -2.0007 0.9710
-0.4470 -7.0546 -2.0011 0.9710
0.1842 -7.0679 -2.0015 0.9710
0.8143 -7.0247 -2.0020 0.9710
3.7727 -5.9896 -2.0039 0.9710
4.2928 -5.6300 -2.0043 0.9710
4.7788 -5.2254 -2.0046 0.9710
5.2268 -4.7789 -2.0049 0.9710
5.6331 -4.2941 -2.0052 0.9710
6.3080 -3.2253 -2.0056 0.9710
6.5712 -2.6498 -2.0058 0.9710
6.7819 -2.0531 -2.0060 0.9710
7.0395 -0.8151 -2.0061 0.9710
7.0842 -0.1838 -2.0062 0.9710
7.0039 1.0782 -2.0061 0.9710
6.7001 2.3057 -2.0059 0.9710
6.4672 2.8941 -2.0058 0.9710
6.1826 3.4592 -2.0056 0.9710
5.4681 4.5019 -2.0051 0.9710
4.0787 5.7866 -2.0042 0.9710
2.9842 6.4171 -2.0035 0.9710
1.7955 6.8426 -2.0027 0.9710
1.1776 6.9741 -2.0023 0.9710
0.5505 7.0499 -2.0019 0.9710
-1.3353 6.9396 -2.0006 0.9710
-3.1236 6.3344 -1.9994 0.9711
-4.6871 5.2783 -1.9984 0.9711
-6.2341 3.3035 -1.9973 0.9711
-6.5034 2.7339 -1.9971 0.9711
-6.7209 2.1426 -1.9970 0.9711
-6.8849 1.5343 -1.9969 0.9711
-7.0450 -0.3438 -1.9968 0.9711
-6.9864 -0.9710 -1.9968 0.9711
-6.8721 -1.5905 -1.9969 0.9711
-6.4808 -2.7869 -1.9971 0.9711
-6.2069 -3.3544 -1.9973 0.9711
-5.0988 -4.8801 -1.9980 0.9711
-3.0716 -6.3597 -1.9994 0.9711
-2.4924 -6.6097 -1.9998 0.9711
-0.6534 -7.0380 -2.0010 0.9710
-0.0229 -7.0698 -2.0014 0.9710
3.0366 -6.3924 -2.0035 0.9710
3.5955 -6.0971 -2.0038 0.9710
4.6235 -5.3629 -2.0045 0.9710
5.0843 -4.9297 -2.0048 0.9710
5.5046 -4.4571 -2.0051 0.9710
5.8811 -3.9486 -2.0054 0.9710
6.2106 -3.4085 -2.0056 0.9710
6.8932 -1.6425 -2.0060 0.9710
7.0758 -0.3912 -2.0062 0.9710
7.0326 0.8726 -2.0061 0.9710
6.9264 1.4966 -2.0061 0.9710
6.5494 2.7035 -2.0058 0.9710
6.2815 3.2767 -2.0057 0.9710
5.9634 3.8237 -2.0054 0.9710
5.5978 4.3400 -2.0052 0.9710
4.7360 5.2644 -2.0046 0.9710
4.2467 5.6650 -2.0043 0.9710
2.5934 6.5838 -2.0032 0.9710
1.9953 6.7876 -2.0028 0.9710
0.1264 7.0692 -2.0016 0.9710
-1.7491 6.8460 -2.0003 0.9711
-2.3525 6.6613 -1.9999 0.9711
-4.9949 4.9870 -1.9981 0.9711
-5.4192 4.5208 -1.9979 0.9711
-6.1349 3.4848 -1.9974 0.9711
-6.4208 2.9233 -1.9972 0.9711
-7.0362 0.4925 -1.9968 0.9711
-7.0520 -0.1373 -1.9968 0.9711
-6.9156 -1.3885 -1.9968 0.9711
-6.5595 -2.5958 -1.9971 0.9711
-6.3023 -3.1710 -1.9972 0.9711
-5.2393 -4.7285 -1.9979 0.9711
-4.7972 -5.1778 -1.9982 0.9711
-4.3168 -5.5861 -1.9986 0.9711
-3.8019 -5.9500 -1.9989 0.9711
-3.2564 -6.2666 -1.9993 0.9711
-2.0916 -6.7482 -2.0000 0.9711
-0.2299 -7.0656 -2.0013 0.9710
0.4015 -7.0594 -2.0017 0.9710
2.2580 -6.7052 -2.0029 0.9710
3.9554 -5.8711 -2.0041 0.9710
5.3715 -4.6162 -2.0050 0.9710
5.7627 -4.1190 -2.0053 0.9710
6.8420 -1.8436 -2.0060 0.9710
6.9795 -1.2259 -2.0061 0.9710
7.0613 -0.5983 -2.0062 0.9710
7.0552 0.6663 -2.0062 0.9710
6.9674 1.2931 -2.0061 0.9710
6.3750 3.0914 -2.0057 0.9710
5.7228 4.1744 -2.0053 0.9710
2.2492 -6.1111 -2.0029 0.9731
2.7860 -5.8871 -2.0033 0.9731
3.3007 -5.6160 -2.0036 0.9731
4.2477 -4.9415 -2.0043 0.9731
5.4068 -3.6416 -2.0050 0.9731
5.7107 -3.1450 -2.0052 0.9731
5.9691 -2.6232 -2.0054 0.9731
6.1797 -2.0803 -2.0056 0.9731
6.3410 -1.5207 -2.0057 0.9731
6.4517 -0.9489 -2.0057 0.9731
6.3759 1.3679 -2.0057 0.9731
6.2281 1.9312 -2.0056 0.9731
6.0306 2.4790 -2.0055 0.9731
5.1573 3.9864 -2.0049 0.9731
4.7804 4.4301 -2.0047 0.9731
2.3956 6.0558 -2.0031 0.9731
1.8454 6.2442 -2.0027 0.9731
1.2807 6.3828 -2.0023 0.9731
0.1258 6.5063 -2.0016 0.9731
-1.0321 6.4226 -2.0008 0.9731
-1.6008 6.3037 -2.0004 0.9731
-2.6947 5.9167 -1.9997 0.9732
-3.7021 5.3417 -1.9990 0.9732
-4.1633 4.9893 -1.9987 0.9732
-4.5912 4.5973 -1.9984 0.9732
-4.9824 4.1688 -1.9982 0.9732
-5.3339 3.7072 -1.9979 0.9732
-6.4766 0.4628 -1.9971 0.9732
-6.4920 -0.1169 -1.9971 0.9732
-6.4558 -0.6957 -1.9971 0.9732
-6.3681 -1.2689 -1.9972 0.9732
-6.2298 -1.8321 -1.9973 0.9732
-6.0419 -2.3808 -1.9974 0.9732
-5.8058 -2.9106 -1.9976 0.9732
-5.5234 -3.4173 -1.9978 0.9732
-3.0058 -5.7639 -1.9994 0.9732
-2.4800 -6.0101 -1.9998 0.9732
-0.8003 -6.4559 -2.0009 0.9731
-0.2211 -6.5028 -2.0013 0.9731
0.3600 -6.4979 -2.0017 0.9731
2.0692 -6.1740 -2.0028 0.9731
3.1347 -5.7100 -2.0035 0.9731
4.1009 -5.0636 -2.0042 0.9731
5.2976 -3.7983 -2.0050 0.9731
5.6160 -3.3108 -2.0052 0.9731
5.8895 -2.7968 -2.0054 0.9731
6.1160 -2.2603 -2.0055 0.9731
6.2937 -1.7057 -2.0056 0.9731
6.4210 -1.1374 -2.0057 0.9731
6.4971 -0.5600 -2.0058 0.9731
6.5212 0.0219 -2.0058 0.9731
6.4133 1.1806 -2.0057 0.9731
6.1007 2.3014 -2.0055 0.9731
5.2720 3.8338 -2.0050 0.9731
4.9083 4.2884 -2.0047 0.9731
4.0669 5.0911 -2.0042 0.9731
3.5958 5.4328 -2.0039 0.9731
3.0963 5.7310 -2.0035 0.9731
2.5721 5.9833 -2.0032 0.9731
2.0277 6.1879 -2.0028 0.9731
0.3164 6.5002 -2.0017 0.9731
-0.2648 6.5013 -2.0013 0.9731
-0.8436 6.4505 -2.0009 0.9731
-1.9759 6.1955 -2.0002 0.9732
-3.0445 5.7436 -1.9994 0.9732
-3.5442 5.4482 -1.9991 0.9732
-5.5463 3.3802 -1.9978 0.9732
-6.0577 2.3402 -1.9974 0.9732
-6.4603 0.6523 -1.9972 0.9732
-6.4927 0.0733 -1.9971 0.9732
-6.1089 -2.2028 -1.9974 0.9732
-5.6210 -3.2540 -1.9977 0.9732
-4.1296 -5.0171 -1.9987 0.9732
-2.1151 -6.1488 -2.0000 0.9732
-1.5584 -6.3142 -2.0004 0.9731
-0.9890 -6.4293 -2.0008 0.9731
-0.4115 -6.4931 -2.0012 0.9731
0.7494 -6.4654 -2.0019 0.9731
1.8873 -6.2316 -2.0027 0.9731
2.4362 -6.0395 -2.0031 0.9731
2.9659 -5.7990 -2.0034 0.9731
3.9507 -5.1813 -2.0041 0.9731
4.8100 -4.3979 -2.0046 0.9731
5.1839 -3.9517 -2.0049 0.9731
5.5164 -3.4738 -2.0051 0.9731
5.8049 -2.9680 -2.0053 0.9731
6.3849 -1.3250 -2.0057 0.9731
6.5191 -0.1691 -2.0058 0.9731
6.5081 0.4132 -2.0058 0.9731
6.4452 0.9922 -2.0058 0.9731
6.3307 1.5633 -2.0057 0.9731
6.1657 2.1217 -2.0056 0.9731
5.9513 2.6632 -2.0054 0.9731
5.3822 3.6779 -2.0051 0.9731
4.2145 4.9700 -2.0043 0.9731
3.7536 5.3254 -2.0040 0.9731
3.2630 5.6382 -2.0037 0.9731
1.0838 6.4187 -2.0022 0.9731
-2.8751 5.8307 -1.9996 0.9732
-4.3145 4.8587 -1.9986 0.9732
-4.7302 4.4538 -1.9983 0.9732
-5.7388 3.0410 -1.9976 0.9732
-5.9867 2.5167 -1.9975 0.9732
-6.3380 1.4124 -1.9972 0.9732
-5.9660 -2.5655 -1.9975 0.9732
-5.7137 -3.0878 -1.9976 0.9732
-5.4160 -3.5857 -1.9978 0.9732
-4.6936 -4.4923 -1.9983 0.9732
-3.8215 -5.2565 -1.9989 0.9732
-3.3378 -5.5773 -1.9992 0.9732
-1.7425 -6.2655 -2.0003 0.9732
-1.1768 -6.3972 -2.0006 0.9731
-0.0211 -6.5070 -2.0014 0.9731
0.5597 -6.4841 -2.0018 0.9731
2.2582 -6.1079 -2.0029 0.9731
2.7946 -5.8831 -2.0033 0.9731
3.7970 -5.2945 -2.0040 0.9731
4.2549 -4.9353 -2.0043 0.9731
4.6789 -4.5367 -2.0046 0.9731
5.0657 -4.1016 -2.0048 0.9731
5.7153 -3.1367 -2.0052 0.9731
5.9729 -2.6145 -2.0054 0.9731
6.3433 -1.5114 -2.0057 0.9731
6.4531 -0.9395 -2.0058 0.9731
6.5113 -0.3600 -2.0058 0.9731
6.5175 0.2224 -2.0058 0.9731
6.4715 0.8030 -2.0058 0.9731
6.0269 2.4878 -2.0055 0.9731
5.7805 3.0154 -2.0053 0.9731
5.4878 3.5188 -2.0051 0.9731
5.1514 3.9939 -2.0049 0.9731
4.7740 4.4371 -2.0047 0.9731
3.9082 5.2134 -2.0041 0.9731
3.4269 5.5405 -2.0038 0.9731
2.3868 6.0592 -2.0031 0.9731
1.8363 6.2469 -2.0027 0.9731
1.2714 6.3846 -2.0023 0.9731
0.6966 6.4714 -2.0019 0.9731
-0.4645 6.4896 -2.0012 0.9731
-1.0415 6.4211 -2.0008 0.9731
-2.7033 5.9127 -1.9997 0.9732
-3.2195 5.6469 -1.9993 0.9732
-3.7099 5.3363 -1.9990 0.9732
-5.3392 3.6994 -1.9979 0.9732
-5.9106 2.6910 -1.9975 0.9732
-6.1267 2.1528 -1.9974 0.9732
-6.2940 1.5975 -1.9973 0.9732
-6.4111 1.0295 -1.9972 0.9732
-6.4548 -0.7051 -1.9971 0.9732
-6.3663 -1.2782 -1.9972 0.9732
-6.2271 -1.8412 -1.9973 0.9732
-5.8015 -2.9191 -1.9976 0.9732
-5.5185 -3.4254 -1.9978 0.9732
-4.8229 -4.3527 -1.9982 0.9732
-4.4159 -4.7662 -1.9985 0.9732
-3.9736 -5.1420 -1.9988 0.9732
-3.4996 -5.4769 -1.9991 0.9732
-2.9974 -5.7682 -1.9994 0.9732
-1.9252 -6.2114 -2.0001 0.9732
-0.7909 -6.4571 -2.0009 0.9731
0.3695 -6.4973 -2.0017 0.9731
0.9479 -6.4397 -2.0021 0.9731
4.1083 -5.0576 -2.0042 0.9731
4.5439 -4.6716 -2.0045 0.9731
4.9432 -4.2481 -2.0047 0.9731
5.6208 -3.3026 -2.0052 0.9731
6.1193 -2.2514 -2.0055 0.9731
6.2962 -1.6966 -2.0056 0.9731
6.4227 -1.1281 -2.0057 0.9731
6.5212 0.0314 -2.0058 0.9731
6.4116 1.1899 -2.0057 0.9731
5.8665 2.8449 -2.0054 0.9731
5.5887 3.3566 -2.0052 0.9731
5.2664 3.8415 -2.0050 0.9731
2.5778 -5.4471 -2.0031 0.9749
3.5059 -4.9037 -2.0038 0.9749
3.9300 -4.5720 -2.0041 0.9749
4.6812 -3.8016 -2.0046 0.9749
5.5224 -2.4269 -2.0051 0.9749
5.8665 -1.4069 -2.0054 0.9749
6.0235 -0.3418 -2.0055 0.9749
6.0300 0.1970 -2.0055 0.9749
5.9883 0.7342 -2.0054 0.9749
5.8987 1.2655 -2.0054 0.9749
5.5793 2.2935 -2.0052 0.9749
5.3520 2.7820 -2.0050 0.9749
4.0390 4.4765 -2.0042 0.9749
3.1782 5.1216 -2.0036 0.9749
2.7081 5.3839 -2.0033 0.9749
2.2166 5.6031 -2.0030 0.9749
1.7075 5.7776 -2.0026 0.9749
-1.4813 5.8331 -2.0005 0.9750
-2.4936 5.4751 -1.9998 0.9750
-2.9716 5.2300 -1.9995 0.9750
-3.4259 4.9432 -1.9992 0.9750
-3.8527 4.6172 -1.9989 0.9750
-4.2488 4.2544 -1.9986 0.9750
-4.9361 3.4308 -1.9982 0.9750
-5.2220 2.9764 -1.9980 0.9750
-5.4663 2.4984 -1.9978 0.9750
-5.6670 2.0006 -1.9977 0.9750
-5.9319 0.9614 -1.9975 0.9750
-6.0081 -0.1082 -1.9975 0.9750
-5.9746 -0.6438 -1.9975 0.9750
-5.8934 -1.1743 -1.9975 0.9750
-4.4691 -4.0215 -1.9985 0.9750
-4.0930 -4.4048 -1.9987 0.9750
-3.6841 -4.7530 -1.9990 0.9750
-2.7815 -5.3338 -1.9996 0.9750
-2.2949 -5.5616 -1.9999 0.9750
-1.2703 -5.8829 -2.0006 0.9749
0.8684 -5.9598 -2.0020 0.9749
1.3969 -5.8596 -2.0024 0.9749
1.9145 -5.7126 -2.0027 0.9749
2.4170 -5.5199 -2.0030 0.9749
2.9003 -5.2831 -2.0034 0.9749
5.1958 -3.0631 -2.0049 0.9749
5.8227 -1.5781 -2.0053 0.9749
6.0332 0.0203 -2.0055 0.9749
6.0073 0.5585 -2.0055 0.9749
5.8120 1.6172 -2.0053 0.9749
5.1751 3.0980 -2.0049 0.9749
4.1686 4.3564 -2.0043 0.9749
2.3799 5.5361 -2.0031 0.9749
1.8761 5.7254 -2.0027 0.9749
0.8284 5.9656 -2.0020 0.9749
0.2927 6.0147 -2.0017 0.9749
-0.2450 6.0157 -2.0013 0.9749
-1.3099 5.8743 -2.0006 0.9749
-1.8284 5.7330 -2.0003 0.9750
-3.2798 5.0417 -1.9993 0.9750
-4.8337 3.5740 -1.9982 0.9750
-5.3909 2.6575 -1.9979 0.9750
-5.6061 2.1657 -1.9977 0.9750
-5.7767 1.6568 -1.9976 0.9750
-5.9012 1.1348 -1.9975 0.9750
-5.9908 -0.4685 -1.9975 0.9750
-5.9252 -1.0012 -1.9975 0.9750
-5.4494 -2.5350 -1.9978 0.9750
-4.9129 -3.4638 -1.9982 0.9750
-4.5848 -3.8888 -1.9984 0.9750
-3.8216 -4.6429 -1.9989 0.9750
-2.9364 -5.2497 -1.9995 0.9750
-1.9573 -5.6899 -2.0001 0.9750
0.6934 -5.9824 -2.0019 0.9749
1.2247 -5.8977 -2.0022 0.9749
2.7442 -5.3655 -2.0033 0.9749
3.2125 -5.1001 -2.0036 0.9749
4.7961 -3.6560 -2.0046 0.9749
5.1037 -3.2139 -2.0048 0.9749
5.3706 -2.7459 -2.0050 0.9749
5.7739 -1.7479 -2.0053 0.9749
5.9628 0.9179 -2.0054 0.9749
5.7043 1.9630 -2.0053 0.9749
5.5060 2.4639 -2.0051 0.9749
5.2638 2.9451 -2.0050 0.9749
4.9796 3.4027 -2.0048 0.9749
4.6556 3.8330 -2.0046 0.9749
4.2945 4.2326 -2.0043 0.9749
3.8993 4.5983 -2.0041 0.9749
3.4729 4.9272 -2.0038 0.9749
2.5411 5.4643 -2.0032 0.9749
2.0431 5.6683 -2.0028 0.9749
1.5290 5.8270 -2.0025 0.9749
0.4688 6.0039 -2.0018 0.9749
-0.6055 5.9895 -2.0011 0.9749
-2.1689 5.6123 -2.0000 0.9750
-2.6606 5.3955 -1.9997 0.9750
-3.5761 4.8353 -1.9991 0.9750
-4.3774 4.1216 -1.9986 0.9750
-4.7271 3.7142 -1.9983 0.9750
-5.9586 0.7786 -1.9975 0.9750
-5.8546 -1.3550 -1.9975 0.9750
-5.7106 -1.8721 -1.9976 0.9750
-3.5364 -4.8643 -1.9991 0.9750
-3.0888 -5.1612 -1.9994 0.9750
-2.1230 -5.6298 -2.0000 0.9750
-1.6125 -5.7978 -2.0004 0.9750
-1.0889 -5.9195 -2.0007 0.9749
-0.5565 -5.9941 -2.0011 0.9749
1.5766 -5.8143 -2.0025 0.9749
2.5857 -5.4433 -2.0032 0.9749
3.0615 -5.1917 -2.0035 0.9749
3.5131 -4.8986 -2.0038 0.9749
3.9367 -4.5662 -2.0041 0.9749
5.0072 -3.3619 -2.0048 0.9749
5.2877 -2.9020 -2.0050 0.9749
5.7201 -1.9163 -2.0053 0.9749
5.8686 -1.3983 -2.0054 0.9749
5.9701 -0.8692 -2.0054 0.9749
6.0297 0.2058 -2.0055 0.9749
5.8969 1.2741 -2.0054 0.9749
5.7594 1.7951 -2.0053 0.9749
5.3480 2.7898 -2.0050 0.9749
5.0773 3.2555 -2.0049 0.9749
4.7661 3.6951 -2.0046 0.9749
4.4169 4.1052 -2.0044 0.9749
4.0325 4.4823 -2.0042 0.9749
3.6159 4.8236 -2.0039 0.9749
2.7002 5.3878 -2.0033 0.9749
2.2084 5.6063 -2.0029 0.9749
0.6445 5.9879 -2.0019 0.9749
-0.4298 6.0050 -2.0012 0.9749
-1.4898 5.8309 -2.0005 0.9750
-2.5015 5.4715 -1.9998 0.9750
-2.9793 5.2256 -1.9995 0.9750
-3.4331 4.9382 -1.9992 0.9750
-3.8595 4.6115 -1.9989 0.9750
-4.2550 4.2482 -1.9986 0.9750
-4.9411 3.4236 -1.9982 0.9750
-5.2264 2.9688 -1.9980 0.9750
-5.4700 2.4904 -1.9978 0.9750
-5.6700 1.9923 -1.9977 0.9750
-5.8248 1.4784 -1.9976 0.9750
-5.9332 0.9528 -1.9975 0.9750
-5.9945 0.4196 -1.9975 0.9750
-5.8917 -1.1829 -1.9975 0.9750
-5.7629 -1.7040 -1.9976 0.9750
-5.5882 -2.2115 -1.9977 0.9750
-5.1070 -3.1700 -1.9980 0.9750
-4.8043 -3.6134 -1.9982 0.9750
-2.7738 -5.3378 -1.9996 0.9750
-2.2868 -5.5649 -1.9999 0.9750
-1.7815 -5.7477 -2.0002 0.9750
-1.2618 -5.8848 -2.0006 0.9749
0.3419 -6.0120 -2.0017 0.9749
0.8771 -5.9586 -2.0020 0.9749
1.9228 -5.7098 -2.0027 0.9749
2.4250 -5.5164 -2.0030 0.9749
2.9080 -5.2789 -2.0034 0.9749
4.2040 -4.3222 -2.0042 0.9749
4.5734 -3.9303 -2.0045 0.9749
4.9064 -3.5070 -2.0047 0.9749
5.2003 -3.0555 -2.0049 0.9749
5.4526 -2.5796 -2.0051 0.9749
5.6614 -2.0829 -2.0052 0.9749
5.9421 -1.0437 -2.0054 0.9749
5.9317 1.1008 -2.0054 0.9749
5.8096 1.6256 -2.0053 0.9749
5.6411 2.1374 -2.0052 0.9749
5.4275 2.6320 -2.0051 0.9749
5.1706 3.1055 -2.0049 0.9749
4.8724 3.5541 -2.0047 0.9749
2.3959 -5.0629 -2.0030 0.9765
2.8385 -4.8296 -2.0033 0.9765
3.6527 -4.2494 -2.0039 0.9765
4.0178 -3.9070 -2.0041 0.9765
4.6492 -3.1314 -2.0045 0.9765
4.9105 -2.7043 -2.0047 0.9765
5.1326 -2.2556 -2.0049 0.9765
5.3137 -1.7887 -2.0050 0.9765
5.5474 -0.8159 -2.0051 0.9765
5.5982 -0.3177 -2.0052 0.9765
5.6042 0.1831 -2.0052 0.9765
5.5655 0.6823 -2.0052 0.9765
5.1854 2.1316 -2.0049 0.9765
4.4347 3.4279 -2.0044 0.9765
3.3674 4.4784 -2.0037 0.9765
2.9540 4.7603 -2.0034 0.9765
2.5171 5.0042 -2.0032 0.9765
2.0603 5.2080 -2.0028 0.9765
1.5871 5.3702 -2.0025 0.9765
1.1015 5.4895 -2.0022 0.9765
0.1082 5.5960 -2.0016 0.9765
-0.8878 5.5243 -2.0009 0.9765
-1.3769 5.4222 -2.0006 0.9765
-1.8549 5.2769 -2.0002 0.9765
-3.5815 4.2922 -1.9991 0.9765
-4.5888 3.1894 -1.9984 0.9765
-4.8546 2.7670 -1.9982 0.9765
-5.2684 1.8598 -1.9980 0.9765
-5.4130 1.3823 -1.9979 0.9765
-5.5543 -0.5985 -1.9978 0.9765
-5.4789 -1.0917 -1.9978 0.9765
-5.3598 -1.5763 -1.9979 0.9765
-5.1981 -2.0483 -1.9980 0.9765
-4.9949 -2.5041 -1.9981 0.9765
-4.1546 -3.7385 -1.9987 0.9765
-3.8049 -4.0948 -1.9989 0.9765
-3.4248 -4.4185 -1.9992 0.9765
-1.6638 -5.3405 -2.0003 0.9765
0.8072 -5.5397 -2.0020 0.9765
2.2465 -5.1306 -2.0029 0.9765
2.6957 -4.9105 -2.0032 0.9765
3.5265 -4.3544 -2.0038 0.9765
3.9015 -4.0229 -2.0040 0.9765
4.8290 -2.8469 -2.0047 0.9765
5.2589 -1.9436 -2.0050 0.9765
5.5211 -0.9780 -2.0051 0.9765
5.5865 -0.4815 -2.0052 0.9765
5.6072 0.0188 -2.0052 0.9765
5.0479 2.4388 -2.0048 0.9765
4.8098 2.8793 -2.0047 0.9765
4.5333 3.2966 -2.0045 0.9765
4.2207 3.6876 -2.0043 0.9765
3.4972 4.3780 -2.0038 0.9765
3.0923 4.6719 -2.0035 0.9765
2.2120 5.1457 -2.0030 0.9765
1.7438 5.3217 -2.0026 0.9765
1.2619 5.4552 -2.0023 0.9765
0.7700 5.5451 -2.0020 0.9765
0.2721 5.5908 -2.0017 0.9765
-0.2277 5.5918 -2.0013 0.9765
-0.7256 5.5483 -2.0010 0.9765
-1.2176 5.4605 -2.0007 0.9765
-1.6996 5.3292 -2.0003 0.9765
-2.6190 4.9408 -1.9997 0.9765
-3.0489 4.6867 -1.9994 0.9765
-3.4544 4.3954 -1.9992 0.9765
-3.8323 4.0692 -1.9989 0.9765
-4.1796 3.7106 -1.9987 0.9765
-4.4935 3.3225 -1.9985 0.9765
-5.0117 2.4705 -1.9981 0.9765
-5.2117 2.0134 -1.9980 0.9765
-5.5582 0.5612 -1.9978 0.9765
-5.5860 0.0631 -1.9977 0.9765
-5.5084 -0.9308 -1.9978 0.9765
-4.2621 -3.6151 -1.9986 0.9765
-3.9231 -3.9814 -1.9988 0.9765
-2.7297 -4.8801 -1.9996 0.9765
-2.2837 -5.1049 -1.9999 0.9765
-1.3405 -5.4313 -2.0005 0.9765
-0.8507 -5.5301 -2.0009 0.9765
-0.3539 -5.5849 -2.0012 0.9765
0.1458 -5.5951 -2.0015 0.9765
0.6446 -5.5607 -2.0019 0.9765
2.0952 -5.1940 -2.0028 0.9765
2.5506 -4.9871 -2.0031 0.9765
2.9858 -4.7403 -2.0034 0.9765
4.1362 -3.7818 -2.0042 0.9765
4.4576 -3.3980 -2.0044 0.9765
5.4900 -1.1393 -2.0051 0.9765
5.5960 0.3553 -2.0052 0.9765
5.5418 0.8531 -2.0052 0.9765
4.8922 2.7372 -2.0047 0.9765
4.3271 3.5625 -2.0044 0.9765
3.9915 3.9339 -2.0041 0.9765
3.6241 4.2739 -2.0039 0.9765
3.2279 4.5796 -2.0036 0.9765
1.8991 5.2686 -2.0027 0.9765
1.4212 5.4161 -2.0024 0.9765
-0.0639 5.5964 -2.0014 0.9765
-0.5628 5.5674 -2.0011 0.9765
-1.5429 5.3770 -2.0004 0.9765
-2.0162 5.2171 -2.0001 0.9765
-4.0693 3.8315 -1.9988 0.9765
-4.9373 2.6163 -1.9982 0.9765
-5.1506 2.1652 -1.9980 0.9765
-5.3230 1.6969 -1.9979 0.9765
-5.5818 0.2267 -1.9977 0.9765
-5.5798 -0.2723 -1.9977 0.9765
-5.3089 -1.7404 -1.9979 0.9765
-3.2875 -4.5219 -1.9992 0.9765
-2.8713 -4.7978 -1.9995 0.9765
-1.9735 -5.2333 -2.0001 0.9765
-1.0122 -5.5025 -2.0008 0.9765
-0.5173 -5.5718 -2.0011 0.9765
0.9772 -5.5126 -2.0021 0.9765
1.4654 -5.4043 -2.0024 0.9765
2.4033 -5.0594 -2.0030 0.9765
3.2652 -4.5530 -2.0036 0.9765
3.6589 -4.2441 -2.0039 0.9765
4.3560 -3.5270 -2.0043 0.9765
4.6538 -3.1246 -2.0045 0.9765
4.9144 -2.6971 -2.0047 0.9765
5.3163 -1.7810 -2.0050 0.9765
5.4542 -1.2996 -2.0051 0.9765
5.5486 -0.8078 -2.0051 0.9765
5.6040 0.1912 -2.0052 0.9765
5.4805 1.1842 -2.0051 0.9765
5.3528 1.6684 -2.0050 0.9765
4.4297 3.4344 -2.0044 0.9765
4.1052 3.8155 -2.0042 0.9765
1.0935 5.4911 -2.0022 0.9765
-0.8959 5.5230 -2.0009 0.9765
-1.3848 5.4202 -2.0006 0.9765
-1.8626 5.2742 -2.0002 0.9765
-2.3254 5.0862 -1.9999 0.9765
-3.1914 4.5906 -1.9993 0.9765
-3.5878 4.2869 -1.9991 0.9765
-3.9555 3.9492 -1.9988 0.9765
-4.2916 3.5802 -1.9986 0.9765
-4.8587 2.7599 -1.9982 0.9765
-5.0851 2.3152 -1.9981 0.9765
-5.2711 1.8521 -1.9979 0.9765
-5.5728 0.3900 -1.9977 0.9765
-5.5853 -0.1087 -1.9977 0.9765
-5.4773 -1.0997 -1.9978 0.9765
-5.1951 -2.0559 -1.9980 0.9765
-4.9913 -2.5114 -1.9981 0.9765
-4.7477 -2.9469 -1.9983 0.9765
-4.1491 -3.7446 -1.9987 0.9765
-3.7989 -4.1003 -1.9989 0.9765
-2.5785 -4.9620 -1.9997 0.9765
-2.1258 -5.1730 -2.0000 0.9765
0.8153 -5.5386 -2.0020 0.9765
1.3064 -5.4446 -2.0023 0.9765
1.7873 -5.3072 -2.0026 0.9765
2.7029 -4.9065 -2.0032 0.9765
3.1303 -4.6465 -2.0035 0.9765
3.9073 -4.0172 -2.0040 0.9765
4.2507 -3.6529 -2.0043 0.9765
4.5601 -3.2595 -2.0045 0.9765
5.0677 -2.3975 -2.0048 0.9765
5.2617 -1.9359 -2.0050 0.9765
5.4137 -1.4588 -2.0051 0.9765
5.5225 -0.9700 -2.0051 0.9765
5.5824 0.5272 -2.0052 0.9765
5.5129 1.0231 -2.0051 0.9765
5.0444 2.4462 -2.0048 0.9765
1.8050 -4.9042 -2.0026 0.9779
2.2357 -4.7243 -2.0029 0.9779
3.0406 -4.2528 -2.0035 0.9779
3.4083 -3.9651 -2.0037 0.9779
4.3381 -2.9218 -2.0043 0.9778
4.7890 -2.1046 -2.0046 0.9778
4.9580 -1.6690 -2.0048 0.9778
5.0873 -1.2200 -2.0048 0.9778
5.1760 -0.7613 -2.0049 0.9778
5.1153 1.0974 -2.0049 0.9778
4.8383 1.9889 -2.0047 0.9778
4.4072 2.8168 -2.0044 0.9778
3.8357 3.5546 -2.0040 0.9778
3.5028 3.8822 -2.0038 0.9779
2.7564 4.4419 -2.0033 0.9779
1.9225 4.8597 -2.0028 0.9779
0.5666 5.1930 -2.0019 0.9779
0.1010 5.2220 -2.0015 0.9779
-1.7310 4.9244 -2.0003 0.9779
-2.1632 4.7497 -2.0000 0.9779
-2.5780 4.5371 -1.9998 0.9779
-3.3425 4.0056 -1.9992 0.9779
-3.6861 3.6910 -1.9990 0.9779
-4.0003 3.3471 -1.9988 0.9779
-4.2826 2.9765 -1.9986 0.9779
-4.5307 2.5823 -1.9984 0.9779
-4.7427 2.1676 -1.9983 0.9779
-5.0519 1.2901 -1.9981 0.9779
-5.2129 -0.0939 -1.9980 0.9779
-5.1837 -0.5586 -1.9980 0.9779
-5.1133 -1.0189 -1.9980 0.9779
-5.0022 -1.4711 -1.9981 0.9779
-4.8512 -1.9117 -1.9982 0.9779
-4.6616 -2.3370 -1.9983 0.9779
-4.1727 -3.1288 -1.9987 0.9779
-3.8773 -3.4890 -1.9989 0.9779
-3.5509 -3.8214 -1.9991 0.9779
-3.1962 -4.1235 -1.9993 0.9779
-2.8159 -4.3928 -1.9996 0.9779
-1.5527 -4.9837 -2.0004 0.9779
-1.1020 -5.1032 -2.0007 0.9779
-0.6424 -5.1819 -2.0010 0.9779
0.7532 -5.1694 -2.0019 0.9779
1.2116 -5.0824 -2.0022 0.9779
1.6605 -4.9547 -2.0025 0.9779
3.9612 -3.4143 -2.0041 0.9778
4.2505 -3.0475 -2.0043 0.9778
4.5058 -2.6563 -2.0044 0.9778
4.9069 -1.8135 -2.0047 0.9778
5.2318 0.0176 -2.0049 0.9778
5.2093 0.4843 -2.0049 0.9778
5.1453 0.9471 -2.0049 0.9778
4.7101 2.2756 -2.0046 0.9778
3.9383 3.4408 -2.0041 0.9778
3.6152 3.7781 -2.0039 0.9778
3.2633 4.0851 -2.0036 0.9779
2.8854 4.3594 -2.0034 0.9779
1.6272 4.9658 -2.0026 0.9779
1.1775 5.0904 -2.0023 0.9779
0.7185 5.1744 -2.0020 0.9779
0.2539 5.2171 -2.0016 0.9779
-0.2125 5.2181 -2.0013 0.9779
-0.6772 5.1775 -2.0010 0.9779
-1.1363 5.0957 -2.0007 0.9779
-1.5861 4.9733 -2.0004 0.9779
-2.4441 4.6108 -1.9998 0.9779
-2.8453 4.3738 -1.9996 0.9779
-3.5765 3.7975 -1.9991 0.9779
-3.9007 3.4629 -1.9989 0.9779
-4.6772 2.3057 -1.9983 0.9779
-5.1874 0.5238 -1.9980 0.9779
-5.1409 -0.8687 -1.9980 0.9779
-4.5132 -2.6127 -1.9984 0.9779
-4.2624 -3.0052 -1.9986 0.9779
-3.3154 -4.0279 -1.9992 0.9779
-2.9432 -4.3082 -1.9995 0.9779
-2.5474 -4.5542 -1.9997 0.9779
-1.6979 -4.9359 -2.0003 0.9779
-0.7938 -5.1606 -2.0009 0.9779
1.0622 -5.1154 -2.0021 0.9779
2.3800 -4.6535 -2.0030 0.9779
2.7861 -4.4232 -2.0033 0.9779
3.1701 -4.1575 -2.0035 0.9779
3.5288 -3.8586 -2.0038 0.9779
3.8594 -3.5287 -2.0040 0.9778
4.1593 -3.1706 -2.0042 0.9778
4.4260 -2.7871 -2.0044 0.9778
4.6573 -2.3813 -2.0045 0.9778
4.8516 -1.9564 -2.0047 0.9778
5.2301 -0.1357 -2.0049 0.9778
5.2213 0.3315 -2.0049 0.9778
5.0790 1.2542 -2.0048 0.9778
4.9467 1.7023 -2.0048 0.9778
4.5648 2.5540 -2.0045 0.9778
3.7244 3.6707 -2.0040 0.9778
2.2040 4.7392 -2.0029 0.9779
1.7721 4.9163 -2.0027 0.9779
0.8698 5.1514 -2.0021 0.9779
-0.0596 5.2224 -2.0014 0.9779
-0.9865 5.1271 -2.0008 0.9779
-1.8815 4.8686 -2.0002 0.9779
-2.3081 4.6807 -1.9999 0.9779
-2.7161 4.4555 -1.9997 0.9779
-3.1024 4.1948 -1.9994 0.9779
-3.4639 3.9008 -1.9992 0.9779
-3.7977 3.5758 -1.9989 0.9779
-4.1012 3.2224 -1.9987 0.9779
-4.3719 2.8433 -1.9986 0.9779
-4.8070 2.0207 -1.9983 0.9779
-5.0891 1.1341 -1.9981 0.9779
-5.2094 0.2115 -1.9980 0.9779
-4.9547 -1.6242 -1.9981 0.9779
-4.5877 -2.4793 -1.9984 0.9779
-4.3485 -2.8790 -1.9985 0.9779
-4.0747 -3.2558 -1.9987 0.9779
-3.7683 -3.6067 -1.9989 0.9779
-3.4319 -3.9290 -1.9992 0.9779
-3.0680 -4.2200 -1.9994 0.9779
-2.6796 -4.4775 -1.9996 0.9779
-1.8417 -4.8838 -2.0002 0.9779
0.9119 -5.1441 -2.0020 0.9779
1.3674 -5.0430 -2.0023 0.9779
1.8122 -4.9016 -2.0026 0.9779
2.2426 -4.7210 -2.0029 0.9779
3.4141 -3.9601 -2.0037 0.9779
3.7543 -3.6401 -2.0039 0.9778
4.3423 -2.9155 -2.0043 0.9778
4.5855 -2.5166 -2.0045 0.9778
4.7921 -2.0976 -2.0046 0.9778
5.0891 -1.2126 -2.0048 0.9778
5.1772 -0.7537 -2.0049 0.9778
5.1920 0.6442 -2.0049 0.9778
5.1136 1.1049 -2.0049 0.9778
4.4031 2.8232 -2.0044 0.9778
4.1332 3.2045 -2.0042 0.9778
3.8304 3.5602 -2.0040 0.9778
3.1360 4.1833 -2.0036 0.9779
2.7499 4.4459 -2.0033 0.9779
2.3419 4.6729 -2.0030 0.9779
1.9154 4.8625 -2.0028 0.9779
1.0204 5.1240 -2.0022 0.9779
0.5590 5.1938 -2.0018 0.9779
0.0934 5.2221 -2.0015 0.9779
-0.3729 5.2088 -2.0012 0.9779
-0.8360 5.1540 -2.0009 0.9779
-1.2923 5.0581 -2.0006 0.9779
-1.7382 4.9219 -2.0003 0.9779
-2.1701 4.7465 -2.0000 0.9779
-2.5846 4.5333 -1.9998 0.9779
-4.0052 3.3412 -1.9988 0.9779
-5.0538 1.2827 -1.9981 0.9779
-5.1479 0.8266 -1.9980 0.9779
-5.2127 -0.1015 -1.9980 0.9779
-5.0001 -1.4784 -1.9981 0.9779
-4.8485 -1.9187 -1.9982 0.9779
-4.6582 -2.3438 -1.9983 0.9779
-4.4308 -2.7503 -1.9985 0.9779
-3.5453 -3.8266 -1.9991 0.9779
-2.8095 -4.3969 -1.9996 0.9779
-2.4063 -4.6306 -1.9998 0.9779
-1.5454 -4.9860 -2.0004 0.9779
-1.0945 -5.1048 -2.0007 0.9779
0.2966 -5.2148 -2.0016 0.9779
0.7608 -5.1683 -2.0019 0.9779
1.2191 -5.0806 -2.0022 0.9779
2.1033 -4.7845 -2.0028 0.9779
2.9209 -4.3356 -2.0034 0.9779
3.2965 -4.0582 -2.0036 0.9779
3.9662 -3.4085 -2.0041 0.9778
4.2549 -3.0413 -2.0043 0.9778
4.5097 -2.6498 -2.0044 0.9778
5.0513 -1.3611 -2.0048 0.9778
5.1528 -0.9050 -2.0049 0.9778
5.2318 0.0252 -2.0049 0.9778
5.1439 0.9546 -2.0049 0.9778
5.0380 1.4097 -2.0048 0.9778
1.6900 -4.5918 -2.0026 0.9791
2.0933 -4.4233 -2.0028 0.9791
3.5100 -3.4132 -2.0038 0.9791
4.0615 -2.7355 -2.0041 0.9791
4.2897 -2.3624 -2.0043 0.9791
4.4837 -1.9704 -2.0044 0.9791
4.7629 -1.1422 -2.0046 0.9791
4.8903 -0.2775 -2.0047 0.9791
4.8618 0.5961 -2.0047 0.9791
4.7891 1.0275 -2.0047 0.9791
4.5298 1.8621 -2.0045 0.9791
4.1262 2.6372 -2.0042 0.9791
3.5912 3.3280 -2.0039 0.9791
3.2796 3.6348 -2.0037 0.9791
2.1991 4.3719 -2.0029 0.9791
0.9624 4.7963 -2.0021 0.9791
0.5305 4.8623 -2.0018 0.9791
-0.3420 4.8778 -2.0012 0.9791
-0.7757 4.8271 -2.0010 0.9791
-1.2032 4.7380 -2.0007 0.9791
-2.0255 4.4475 -2.0001 0.9791
-2.4140 4.2485 -1.9999 0.9791
-2.7831 4.0156 -1.9996 0.9791
-3.4517 3.4563 -1.9992 0.9791
-3.7459 3.1342 -1.9990 0.9791
-4.0103 2.7873 -1.9988 0.9791
-4.4412 2.0298 -1.9985 0.9791
-4.6043 1.6254 -1.9984 0.9791
-2.0541 0.3329 -0.8517 0.9910
-1.9158 -0.0345 -0.7842 0.9918
-1.9569 -0.2109 -0.8055 0.9915
-4.7883 -0.9541 -1.9983 0.9791
-4.6842 -1.3776 -1.9983 0.9791
-4.5429 -1.7901 -1.9984 0.9791
-4.3653 -2.1884 -1.9985 0.9791
-3.9074 -2.9299 -1.9988 0.9791
-3.6307 -3.2671 -1.9990 0.9791
-3.3251 -3.5784 -1.9992 0.9791
-2.9929 -3.8612 -1.9994 0.9791
-2.2595 -4.3327 -1.9999 0.9791
-1.0318 -4.7784 -2.0007 0.9791
-0.6015 -4.8521 -2.0010 0.9791
-0.1662 -4.8871 -2.0013 0.9791
0.2706 -4.8831 -2.0016 0.9791
0.7053 -4.8402 -2.0019 0.9791
1.9627 -4.4825 -2.0027 0.9791
3.0809 -3.8041 -2.0035 0.9791
3.4084 -3.5144 -2.0037 0.9791
3.9795 -2.8532 -2.0041 0.9791
4.7274 -1.2812 -2.0046 0.9791
4.8230 -0.8544 -2.0047 0.9791
4.8801 -0.4206 -2.0047 0.9791
4.8982 0.0164 -2.0047 0.9791
4.8771 0.4534 -2.0047 0.9791
4.5825 1.7287 -2.0045 0.9791
4.4097 2.1305 -2.0044 0.9791
3.6872 3.2215 -2.0039 0.9791
3.3847 3.5373 -2.0037 0.9791
3.0553 3.8247 -2.0035 0.9791
1.9326 4.4956 -2.0028 0.9791
1.5236 4.6495 -2.0025 0.9791
1.1025 4.7662 -2.0022 0.9791
0.6728 4.8449 -2.0019 0.9791
0.2377 4.8849 -2.0016 0.9791
-0.6341 4.8480 -2.0011 0.9791
-1.8945 4.5051 -2.0002 0.9791
-2.2886 4.3175 -1.9999 0.9791
-3.0188 3.8411 -1.9995 0.9791
-3.6526 3.2427 -1.9990 0.9791
-4.1701 2.5414 -1.9987 0.9791
-4.3799 2.1591 -1.9985 0.9791
-4.6934 1.3461 -1.9983 0.9791
-4.7946 0.9220 -1.9983 0.9791
-1.9577 0.1977 -0.8053 0.9915
-2.1208 -0.3583 -0.8803 0.9907
-4.7225 -1.2398 -1.9983 0.9791
-4.4274 -2.0596 -1.9985 0.9791
-3.1046 -3.7718 -1.9994 0.9791
-2.7560 -4.0342 -1.9996 0.9791
-1.5898 -4.6218 -2.0004 0.9791
-1.1713 -4.7459 -2.0007 0.9791
-0.7433 -4.8321 -2.0009 0.9791
0.1274 -4.8887 -2.0015 0.9791
0.5632 -4.8586 -2.0018 0.9791
1.4181 -4.6825 -2.0024 0.9791
1.8305 -4.5379 -2.0027 0.9791
2.9680 -3.8926 -2.0034 0.9791
3.8941 -2.9685 -2.0040 0.9791
4.1438 -2.6094 -2.0042 0.9791
4.5422 -1.8316 -2.0045 0.9791
4.7958 -0.9953 -2.0046 0.9791
4.8656 -0.5634 -2.0047 0.9791
4.8411 0.7453 -2.0047 0.9791
4.6312 1.5937 -2.0045 0.9791
4.2737 2.3912 -2.0043 0.9791
3.7801 3.1122 -2.0040 0.9791
3.1661 3.7337 -2.0036 0.9791
2.8200 4.0009 -2.0034 0.9791
0.3808 4.8761 -2.0017 0.9791
-0.0558 4.8899 -2.0014 0.9791
-0.4918 4.8647 -2.0011 0.9791
-0.9237 4.8007 -2.0009 0.9791
-1.3482 4.6985 -2.0006 0.9791
-2.1612 4.3829 -2.0000 0.9791
-2.5433 4.1720 -1.9998 0.9791
-3.2436 3.6527 -1.9993 0.9791
-4.0940 2.6626 -1.9987 0.9791
-4.5014 1.8923 -1.9985 0.9791
-4.7656 1.0620 -1.9983 0.9791
-1.9508 0.2549 -0.8052 0.9915
-1.9345 0.0786 -0.7924 0.9917
-1.9401 -0.0947 -0.7950 0.9916
-4.7568 -1.1009 -1.9983 0.9791
-4.6397 -1.5210 -1.9984 0.9791
-4.4858 -1.9290 -1.9985 0.9791
-4.2960 -2.3217 -1.9986 0.9791
-3.2136 -3.6791 -1.9993 0.9791
-2.1253 -4.4004 -2.0000 0.9791
-1.7245 -4.5731 -2.0003 0.9791
-1.3098 -4.7093 -2.0006 0.9791
-0.4520 -4.8685 -2.0011 0.9791
1.2803 -4.7218 -2.0023 0.9791
2.0997 -4.4202 -2.0028 0.9791
2.4861 -4.2158 -2.0031 0.9791
2.8526 -3.9777 -2.0033 0.9791
3.1965 -3.7077 -2.0036 0.9791
3.5150 -3.4081 -2.0038 0.9791
3.8054 -3.0812 -2.0040 0.9791
4.6441 -1.5558 -2.0045 0.9791
4.7646 -1.1353 -2.0046 0.9791
4.8907 -0.2704 -2.0047 0.9791
4.8954 0.1670 -2.0047 0.9791
4.8609 0.6032 -2.0047 0.9791
4.6760 1.4574 -2.0046 0.9791
4.1223 2.6432 -2.0042 0.9791
3.5863 3.3332 -2.0039 0.9791
3.2743 3.6395 -2.0037 0.9791
2.9361 3.9167 -2.0034 0.9791
2.1927 4.3751 -2.0029 0.9791
1.7934 4.5527 -2.0027 0.9791
0.5234 4.8631 -2.0018 0.9791
-0.3491 4.8773 -2.0012 0.9791
-1.2101 4.7362 -2.0007 0.9791
-1.6276 4.6087 -2.0004 0.9791
-2.4202 4.2449 -1.9999 0.9791
-2.7889 4.0116 -1.9996 0.9791
-3.4567 3.4512 -1.9992 0.9791
-4.0143 2.7814 -1.9988 0.9791
-4.2461 2.4120 -1.9986 0.9791
-4.4441 2.0233 -1.9985 0.9791
-4.7325 1.2012 -1.9983 0.9791
-1.9171 -0.0373 -0.7848 0.9917
-1.9567 -0.2137 -0.8056 0.9915
-4.6822 -1.3844 -1.9983 0.9791
-4.1491 -2.5754 -1.9987 0.9791
-3.3199 -3.5833 -1.9992 0.9791
-2.6308 -4.1172 -1.9997 0.9791
-1.8576 -4.5204 -2.0002 0.9791
-0.1591 -4.8873 -2.0013 0.9791
0.7123 -4.8392 -2.0019 0.9791
1.1414 -4.7570 -2.0022 0.9791
1.5615 -4.6369 -2.0025 0.9791
2.3614 -4.2866 -2.0030 0.9791
2.7348 -4.0594 -2.0033 0.9791
3.0864 -3.7996 -2.0035 0.9791
3.7134 -3.1912 -2.0039 0.9791
4.5965 -1.6911 -2.0045 0.9791
4.8242 -0.8473 -2.0047 0.9791
4.8807 -0.4135 -2.0047 0.9791
4.8981 0.0236 -2.0047 0.9791
4.8158 0.8938 -2.0047 0.9791
4.7167 1.3198 -2.0046 0.9791
4.4066 2.1369 -2.0044 0.9791
4.1981 2.5214 -2.0043 0.9791
3.9561 2.8857 -2.0041 0.9791
2.6733 -3.7391 -2.0032 0.9801
2.9966 -3.4861 -2.0034 0.9801
3.2960 -3.2051 -2.0036 0.9801
4.3587 -1.4673 -2.0044 0.9801
4.5504 -0.6693 -2.0045 0.9801
4.5920 -0.2606 -2.0045 0.9801
4.5970 0.1502 -2.0045 0.9801
4.2536 1.7485 -2.0043 0.9801
3.8746 2.4764 -2.0040 0.9801
3.6379 2.8120 -2.0039 0.9801
3.0796 3.4132 -2.0035 0.9801
2.4234 3.9053 -2.0031 0.9801
2.0651 4.1055 -2.0028 0.9801
0.9038 4.5041 -2.0021 0.9802
0.4982 4.5661 -2.0018 0.9802
-0.3212 4.5807 -2.0013 0.9802
-0.7285 4.5332 -2.0010 0.9802
-1.5222 4.3304 -2.0005 0.9802
-1.9023 4.1768 -2.0002 0.9802
-2.6137 3.7713 -1.9997 0.9802
-3.2417 3.2460 -1.9993 0.9802
-3.5181 2.9436 -1.9991 0.9802
-3.9846 2.2711 -1.9988 0.9802
-4.1711 1.9064 -1.9987 0.9802
-1.5293 0.1093 -0.6682 0.9933
-1.5260 -0.0275 -0.6651 0.9934
-1.5248 -0.1643 -0.6684 0.9933
-1.5709 -0.4620 -0.7136 0.9929
-4.2666 -1.6813 -1.9986 0.9802
-4.0998 -2.0553 -1.9987 0.9802
-3.4099 -3.0684 -1.9992 0.9802
-2.4763 -3.8630 -1.9998 0.9802
-2.1220 -4.0691 -2.0000 0.9802
-1.7507 -4.2427 -2.0003 0.9802
-0.5648 -4.5566 -2.0011 0.9802
0.2541 -4.5857 -2.0016 0.9802
0.6623 -4.5454 -2.0019 0.9802
1.0654 -4.4688 -2.0021 0.9802
1.8431 -4.2093 -2.0027 0.9801
2.2116 -4.0286 -2.0029 0.9801
2.5625 -3.8157 -2.0031 0.9801
2.8931 -3.5722 -2.0034 0.9801
3.7369 -2.6792 -2.0039 0.9801
3.9613 -2.3353 -2.0041 0.9801
4.4390 -1.2031 -2.0044 0.9801
4.5288 -0.8023 -2.0045 0.9801
4.5824 -0.3950 -2.0045 0.9801
4.5797 0.4258 -2.0045 0.9801
4.3030 1.6232 -2.0043 0.9801
4.1408 2.0006 -2.0042 0.9801
2.8690 3.5916 -2.0034 0.9801
1.4307 4.3662 -2.0024 0.9802
0.6318 4.5498 -2.0019 0.9802
0.2233 4.5874 -2.0016 0.9802
-0.1869 4.5884 -2.0013 0.9802
-0.9992 4.4809 -2.0008 0.9802
-1.3948 4.3733 -2.0005 0.9802
-2.1493 4.0548 -2.0000 0.9802
-2.5022 3.8464 -1.9998 0.9802
-3.6881 2.7270 -1.9990 0.9802
-1.5247 0.0172 -0.6645 0.9934
-1.5289 -0.1196 -0.6684 0.9933
-1.5531 -0.4077 -0.6998 0.9930
-1.5957 -0.5754 -0.7393 0.9926
-3.7487 -2.6429 -1.9989 0.9802
-3.2198 -3.2677 -1.9993 0.9802
-2.9157 -3.5423 -1.9995 0.9802
-2.2402 -4.0050 -1.9999 0.9802
-1.8741 -4.1894 -2.0002 0.9802
-1.4931 -4.3405 -2.0004 0.9802
-1.1000 -4.4570 -2.0007 0.9802
0.1196 -4.5910 -2.0015 0.9802
0.9340 -4.4979 -2.0021 0.9802
1.3317 -4.3972 -2.0023 0.9802
2.0926 -4.0915 -2.0028 0.9801
2.4496 -3.8889 -2.0031 0.9801
3.3931 -3.1023 -2.0037 0.9801
3.6567 -2.7875 -2.0039 0.9801
3.8911 -2.4503 -2.0040 0.9801
4.2652 -1.7199 -2.0043 0.9801
4.4018 -1.3326 -2.0044 0.9801
4.5689 -0.5290 -2.0045 0.9801
4.5979 -0.1193 -2.0045 0.9801
