ply
format ascii 1.0
element vertex 1592
property float32 x
property float32 y
property float32 z
property float32 I
end_header
4.8653 -11.1651 -2.0064 0.9518
8.5669 -8.8602 -2.0303 0.9513
9.3306 -8.0657 -2.0318 0.9512
9.9935 -7.1861 -2.0278 0.9513
11.0648 -5.2715 -2.0191 0.9515
11.7725 -3.2049 -2.0100 0.9517
12.0987 -1.0550 -2.0007 0.9520
12.0380 1.1085 -1.9915 0.9522
11.5977 3.2177 -1.9828 0.9524
10.2689 6.1395 -1.9710 0.9527
8.2349 8.5998 -1.9615 0.9529
6.5582 9.9033 -1.9568 0.9530
5.6424 10.4395 -1.9549 0.9530
4.6843 10.8934 -1.9535 0.9531
3.6909 11.2618 -1.9524 0.9531
-0.4847 11.8386 -1.9519 0.9531
-1.5404 11.7532 -1.9528 0.9531
-6.0083 9.2239 -1.8135 0.9564
-8.9186 6.5826 -1.8261 0.9561
-9.4900 5.7718 -1.8298 0.9560
-9.9886 4.9118 -1.8337 0.9559
-8.7652 3.3756 -1.5474 0.9626
-10.7508 3.0706 -1.8419 0.9557
-11.0073 2.1032 -1.8461 0.9556
-11.1770 1.1146 -1.8504 0.9555
-11.4482 0.1144 -1.8861 0.9546
-12.0667 -2.0567 -2.0165 0.9516
-11.8612 -3.1328 -2.0210 0.9515
-11.5589 -4.1883 -2.0253 0.9514
-10.6723 -6.2022 -2.0335 0.9512
-9.4322 -8.0297 -2.0407 0.9510
-8.6910 -8.8534 -2.0438 0.9509
-7.8766 -9.6072 -2.0466 0.9509
-6.9958 -10.2844 -2.0491 0.9508
-5.0643 -11.3856 -2.0528 0.9507
-2.9616 -12.1172 -2.0549 0.9507
-0.7594 -12.4530 -2.0553 0.9507
0.3555 -12.4682 -2.0548 0.9507
1.4667 -12.3812 -2.0539 0.9507
2.5646 -12.1929 -2.0526 0.9507
3.6319 -11.8789 -2.0463 0.9509
6.3638 -10.0400 -1.9583 0.9530
8.3393 -9.0646 -2.0291 0.9513
10.4207 -6.5163 -2.0247 0.9514
11.6968 -3.4984 -2.0113 0.9517
11.9349 -2.4344 -2.0066 0.9518
12.0765 -1.3559 -2.0020 0.9519
11.3486 3.9534 -1.9798 0.9524
9.8387 6.7807 -1.9685 0.9527
7.6555 9.1046 -1.9596 0.9529
6.8040 9.7403 -1.9573 0.9530
2.9556 11.4733 -1.9518 0.9531
1.9190 11.6889 -1.9514 0.9531
0.8677 11.8134 -1.9514 0.9531
-1.2480 11.7862 -1.9525 0.9531
-3.3199 11.3608 -1.9498 0.9532
-4.9093 9.8317 -1.8104 0.9564
-5.7752 9.3665 -1.8128 0.9564
-7.3719 8.2155 -1.8184 0.9562
-8.7476 6.7983 -1.8251 0.9561
-9.3384 6.0021 -1.8288 0.9560
-9.8577 5.1552 -1.8326 0.9559
-10.6645 3.3344 -1.8407 0.9557
-10.9447 2.3743 -1.8450 0.9556
-12.1569 -0.6643 -2.0057 0.9518
-12.1065 -1.7554 -2.0153 0.9516
-11.9280 -2.8357 -2.0198 0.9515
-10.8173 -5.9322 -2.0324 0.9512
-10.2635 -6.8871 -2.0362 0.9511
-7.2466 -10.1044 -2.0484 0.9508
-6.3222 -10.7225 -2.0506 0.9508
-3.2612 -12.0388 -2.0547 0.9507
-2.1738 -12.2850 -2.0553 0.9507
1.1590 -12.4156 -2.0542 0.9507
3.3396 -11.9787 -2.0486 0.9508
4.3644 -11.5495 -2.0340 0.9512
5.2571 -10.8636 -1.9882 0.9523
6.1200 -10.2072 -1.9606 0.9529
7.0243 -9.6439 -1.9655 0.9528
9.6353 -7.6818 -2.0300 0.9513
10.8027 -5.8213 -2.0216 0.9515
12.1185 -0.5728 -1.9986 0.9520
12.0934 0.5103 -1.9940 0.9521
11.9724 1.5845 -1.9895 0.9522
11.7572 2.6413 -1.9851 0.9523
10.0088 6.5375 -1.9694 0.9527
7.8819 8.9149 -1.9603 0.9529
6.1567 10.1516 -1.9559 0.9530
4.2465 11.0679 -1.9529 0.9531
0.1035 11.8461 -1.9516 0.9531
-8.3491 -6.8954 -2.0353 0.9569
-6.2461 -8.8941 -2.0428 0.9567
-5.4320 -9.4249 -2.0447 0.9567
-4.5722 -9.8795 -2.0462 0.9567
-3.6739 -10.2541 -2.0473 0.9566
-2.7448 -10.5453 -2.0481 0.9566
0.1480 -10.8962 -2.0482 0.9566
2.0818 -10.6867 -2.0464 0.9567
3.0255 -10.4507 -2.0450 0.9567
3.9430 -10.1299 -2.0432 0.9567
10.2024 -3.2181 -2.0108 0.9574
10.4279 -2.2897 -2.0067 0.9575
10.5692 -1.3467 -2.0027 0.9576
10.5973 0.5524 -1.9946 0.9577
9.2313 5.0323 -1.9762 0.9581
8.7312 5.8272 -1.9730 0.9582
7.5343 7.2667 -1.9675 0.9583
4.4964 9.4076 -1.9599 0.9584
3.6364 9.7660 -1.9587 0.9585
1.8404 10.2507 -1.9575 0.9585
-0.0122 10.4156 -1.9577 0.9585
-0.9424 10.3762 -1.9583 0.9585
-2.7760 10.0547 -1.9606 0.9584
-3.5833 9.5550 -1.9181 0.9593
-4.9499 8.3028 -1.8169 0.9614
-7.0028 6.7225 -1.8246 0.9613
-8.1143 5.3881 -1.8308 0.9611
-8.9767 3.8734 -1.8376 0.9610
-9.3049 3.0625 -1.8412 0.9609
-9.5603 2.2239 -1.8449 0.9608
-9.8327 1.3771 -1.8662 0.9604
-10.6268 0.5290 -1.9999 0.9576
-10.6203 -1.3784 -2.0130 0.9573
-10.4754 -2.3257 -2.0169 0.9573
-9.9319 -4.1674 -2.0245 0.9571
-9.5368 -5.0463 -2.0280 0.9570
-7.8946 -7.4273 -2.0374 0.9568
-7.2091 -8.1128 -2.0399 0.9568
-6.4632 -8.7338 -2.0422 0.9567
-5.6630 -9.2849 -2.0442 0.9567
-4.8152 -9.7611 -2.0458 0.9567
-3.0054 -10.4730 -2.0480 0.9566
-1.0952 -10.8440 -2.0486 0.9566
0.8506 -10.8614 -2.0478 0.9566
2.7657 -10.5248 -2.0454 0.9567
3.6913 -10.2273 -2.0437 0.9567
4.5851 -9.8470 -2.0417 0.9568
5.4397 -9.3874 -2.0393 0.9568
6.2480 -8.8527 -2.0366 0.9569
7.0033 -8.2475 -2.0337 0.9569
8.3315 -6.8482 -2.0271 0.9571
9.7939 -4.3711 -2.0159 0.9573
10.1250 -3.4723 -2.0119 0.9574
10.6185 -0.6609 -1.9997 0.9576
10.3521 2.1639 -1.9878 0.9579
9.7660 3.9559 -1.9805 0.9580
8.8770 5.6110 -1.9739 0.9582
8.3280 6.3716 -1.9709 0.9582
7.0435 7.7309 -1.9658 0.9583
4.7295 9.2948 -1.9602 0.9584
2.9977 9.9773 -1.9582 0.9585
1.1750 10.3477 -1.9575 0.9585
0.2464 10.4121 -1.9576 0.9585
-3.4114 9.8324 -1.9562 0.9585
-3.9656 8.8003 -1.8143 0.9615
-4.7406 8.4203 -1.8163 0.9614
-6.1788 7.4624 -1.8210 0.9613
-7.9741 5.5851 -1.8299 0.9612
-9.2209 3.2907 -1.8402 0.9609
-10.6808 -0.1585 -2.0078 0.9575
-10.6454 -1.1137 -2.0118 0.9574
-10.0272 -3.9175 -2.0235 0.9571
-6.6760 -8.5681 -2.0416 0.9568
-5.8903 -9.1391 -2.0437 0.9567
-5.0550 -9.6366 -2.0454 0.9567
-2.3238 -10.6472 -2.0484 0.9566
-0.3931 -10.8914 -2.0485 0.9566
0.5808 -10.8802 -2.0480 0.9566
2.5041 -10.5924 -2.0458 0.9567
3.4371 -10.3183 -2.0442 0.9567
5.2067 -9.5228 -2.0400 0.9568
6.7992 -8.4223 -2.0345 0.9569
7.5125 -7.7697 -2.0314 0.9570
9.2545 -5.4723 -2.0208 0.9572
10.5012 -1.8717 -2.0049 0.9575
10.1769 2.8235 -1.9851 0.9579
9.4785 4.5722 -1.9780 0.9581
9.0175 5.3913 -1.9748 0.9581
8.4870 6.1654 -1.9717 0.9582
7.8915 6.8888 -1.9689 0.9583
5.7640 8.7041 -1.9622 0.9584
4.9598 9.1764 -1.9606 0.9584
3.2448 9.9008 -1.9584 0.9585
1.4315 10.3154 -1.9575 0.9585
-1.3542 10.3326 -1.9587 0.9585
-6.6547 7.0557 -1.8230 0.9613
-7.2696 6.4435 -1.8259 0.9612
-8.7640 4.3096 -1.8357 0.9610
-9.4276 2.6926 -1.8429 0.9609
-10.6638 -0.8486 -2.0107 0.9574
-10.5665 -1.8010 -2.0147 0.9573
-10.3836 -2.7425 -2.0186 0.9572
-10.1162 -3.6655 -2.0224 0.9572
-9.7661 -4.5624 -2.0261 0.9571
-9.3357 -5.4254 -2.0295 0.9570
-8.8281 -6.2472 -2.0328 0.9569
-6.1137 -8.9877 -2.0431 0.9567
-1.6320 -10.7761 -2.0486 0.9566
-0.6633 -10.8787 -2.0486 0.9566
5.8052 -9.1586 -2.0381 0.9568
6.5907 -8.5920 -2.0354 0.9569
7.3205 -7.9573 -2.0323 0.9569
7.9889 -7.2601 -2.0290 0.9570
8.5904 -6.5066 -2.0255 0.9571
9.1205 -5.7033 -2.0219 0.9572
9.5752 -4.8570 -2.0181 0.9572
9.9512 -3.9749 -2.0141 0.9573
10.2459 -3.0644 -2.0101 0.9574
10.5843 0.7102 -1.9939 0.9577
10.4580 1.6491 -1.9900 0.9578
10.2492 2.5714 -1.9862 0.9579
9.9602 3.4698 -1.9825 0.9580
9.1526 5.1681 -1.9756 0.9581
6.7273 8.0007 -1.9648 0.9583
5.9799 8.5606 -1.9627 0.9584
5.1872 9.0524 -1.9610 0.9584
1.6872 10.2769 -1.9575 0.9585
-0.1676 10.4147 -1.9578 0.9585
-1.0972 10.3617 -1.9585 0.9585
-2.0190 10.2276 -1.9595 0.9585
-2.9261 10.0134 -1.9608 0.9584
-3.6418 9.2870 -1.8750 0.9602
-4.3142 8.6398 -1.8151 0.9615
-6.4748 7.2156 -1.8222 0.9613
-8.6498 4.5235 -1.8347 0.9611
-8.8202 3.6508 -1.7943 0.9619
-9.9912 1.2476 -1.8925 0.9598
-10.6021 -1.5373 -2.0136 0.9573
-7.7847 -7.5459 -2.0378 0.9568
-7.0886 -8.2211 -2.0403 0.9568
-6.3332 -8.8308 -2.0426 0.9567
-5.5246 -9.3697 -2.0445 0.9567
-4.6695 -9.8331 -2.0460 0.9567
-1.8990 -10.7320 -2.0485 0.9566
3.8429 -10.1695 -2.0434 0.9567
4.7307 -9.7757 -2.0413 0.9568
7.1238 -8.1401 -2.0332 0.9569
7.8098 -7.4597 -2.0300 0.9570
8.4303 -6.7212 -2.0265 0.9571
8.9807 -5.9310 -2.0229 0.9571
9.4566 -5.0959 -2.0191 0.9572
10.1723 -3.3197 -2.0112 0.9574
10.5577 -1.4516 -2.0031 0.9576
10.6236 -0.5021 -1.9990 0.9576
10.5014 1.3898 -1.9911 0.9578
10.3153 2.3174 -1.9872 0.9579
9.7030 4.1000 -1.9799 0.9580
9.2824 4.9415 -1.9765 0.9581
8.7900 5.7414 -1.9734 0.9582
8.2300 6.4936 -1.9705 0.9582
7.6070 7.1927 -1.9678 0.9583
6.9260 7.8337 -1.9654 0.9583
5.4115 8.9228 -1.9615 0.9584
4.5897 9.3633 -1.9600 0.9584
3.7332 9.7300 -1.9589 0.9585
1.9418 10.2322 -1.9576 0.9585
1.0204 10.3641 -1.9575 0.9585
-9.0304 -3.1205 -2.0196 0.9617
-8.7298 -3.9206 -2.0229 0.9616
-8.3576 -4.6916 -2.0259 0.9616
-6.8427 -6.7656 -2.0340 0.9614
-5.5416 -7.8909 -2.0382 0.9613
-4.8188 -8.3609 -2.0399 0.9613
-2.4345 -9.3531 -2.0429 0.9613
-0.7323 -9.6388 -2.0433 0.9613
0.1313 -9.6643 -2.0430 0.9613
0.9933 -9.6109 -2.0424 0.9613
2.6839 -9.2708 -2.0401 0.9613
4.2827 -8.6308 -2.0366 0.9614
5.7365 -7.7141 -2.0320 0.9615
6.3939 -7.1617 -2.0294 0.9615
6.9979 -6.5529 -2.0265 0.9616
7.5436 -5.8930 -2.0234 0.9616
8.4438 -4.4428 -2.0168 0.9617
9.0677 -2.8601 -2.0098 0.9619
9.3979 -1.1975 -2.0026 0.9620
9.4502 -0.3529 -1.9990 0.9621
9.4270 0.4914 -1.9954 0.9621
9.3291 1.3288 -1.9919 0.9622
9.1574 2.1527 -1.9885 0.9623
8.9138 2.9568 -1.9852 0.9623
8.6005 3.7349 -1.9820 0.9624
7.7763 5.1899 -1.9762 0.9625
6.7124 6.4740 -1.9713 0.9626
6.1010 7.0399 -1.9692 0.9626
5.4430 7.5494 -1.9673 0.9627
4.7434 7.9988 -1.9657 0.9627
3.2413 8.7048 -1.9634 0.9627
1.6405 9.1375 -1.9624 0.9628
0.8181 9.2472 -1.9623 0.9628
-0.0108 9.2844 -1.9625 0.9628
-3.2668 8.7109 -1.9665 0.9627
-3.9193 8.1512 -1.9118 0.9637
-4.4101 7.3975 -1.8205 0.9654
-5.0588 6.9821 -1.8225 0.9654
-5.6691 6.5107 -1.8248 0.9653
-6.7559 5.4140 -1.8300 0.9652
-7.2235 4.7966 -1.8329 0.9652
-7.9880 3.4468 -1.8390 0.9651
-8.9171 2.0743 -1.9352 0.9633
-9.4927 -0.3767 -2.0082 0.9619
-8.4680 -4.4808 -2.0251 0.9616
-7.5574 -5.9322 -2.0308 0.9615
-6.3970 -7.1988 -2.0357 0.9614
-3.4831 -9.0104 -2.0420 0.9613
-2.6657 -9.2890 -2.0428 0.9613
-1.8261 -9.4921 -2.0432 0.9613
-0.9713 -9.6178 -2.0433 0.9612
-0.1087 -9.6651 -2.0431 0.9613
0.7545 -9.6336 -2.0426 0.9613
3.2748 -9.0733 -2.0390 0.9613
4.0682 -8.7369 -2.0372 0.9614
5.5451 -7.8568 -2.0327 0.9614
6.8358 -6.7273 -2.0273 0.9615
8.3348 -4.6532 -2.0178 0.9617
8.9983 -3.0859 -2.0108 0.9619
9.2214 -2.2661 -2.0072 0.9619
9.3700 -1.4311 -2.0036 0.9620
9.4410 0.2573 -1.9964 0.9621
9.2124 1.9256 -1.9894 0.9623
8.9886 2.7359 -1.9861 0.9623
8.6944 3.5218 -1.9829 0.9624
7.9058 4.9972 -1.9770 0.9625
7.4181 5.6754 -1.9743 0.9625
6.8733 6.3074 -1.9719 0.9626
4.2152 8.2842 -1.9648 0.9627
3.4568 8.6227 -1.9637 0.9627
1.8669 9.0943 -1.9624 0.9628
1.0474 9.2240 -1.9623 0.9628
0.2196 9.2814 -1.9624 0.9628
-1.4355 9.1782 -1.9637 0.9627
-2.2505 9.0183 -1.9647 0.9627
-3.0489 8.7874 -1.9661 0.9627
-3.8104 8.4559 -1.9605 0.9628
-4.8823 7.1032 -1.8219 0.9654
-6.0834 6.1373 -1.8266 0.9653
-6.6166 5.5777 -1.8293 0.9652
-7.0991 4.9722 -1.8321 0.9652
-7.8962 3.6423 -1.8381 0.9651
-8.2040 2.9278 -1.8413 0.9650
-9.4520 0.7061 -2.0035 0.9620
-9.3511 -1.8338 -2.0143 0.9618
-9.1657 -2.6659 -2.0177 0.9617
-8.9057 -3.4794 -2.0211 0.9617
-7.6995 -5.7406 -2.0301 0.9615
-7.1653 -6.4134 -2.0327 0.9614
-5.9234 -7.6022 -2.0372 0.9614
-4.4842 -8.5485 -2.0405 0.9613
-3.7052 -8.9200 -2.0417 0.9613
0.5151 -9.6503 -2.0428 0.9613
1.3742 -9.5620 -2.0420 0.9613
3.0492 -9.1538 -2.0394 0.9613
3.8510 -8.8375 -2.0377 0.9614
7.2480 -6.2655 -2.0252 0.9616
8.6071 -4.1006 -2.0153 0.9618
8.9233 -3.3099 -2.0118 0.9618
9.3927 0.8649 -1.9938 0.9622
9.2618 1.6972 -1.9903 0.9622
9.0579 2.5131 -1.9870 0.9623
8.4395 4.0710 -1.9807 0.9624
7.5594 5.4915 -1.9750 0.9625
7.0300 6.1368 -1.9725 0.9626
5.1367 7.7568 -1.9666 0.9627
2.8923 8.8252 -1.9631 0.9627
2.0922 9.0456 -1.9625 0.9628
0.4500 9.2727 -1.9624 0.9628
-0.3798 9.2776 -1.9627 0.9627
-1.2071 9.2099 -1.9634 0.9627
-2.0256 9.0699 -1.9644 0.9627
-2.8292 8.8586 -1.9657 0.9627
-3.6037 8.5583 -1.9629 0.9627
-4.7029 7.2199 -1.8214 0.9654
-5.3352 6.7793 -1.8235 0.9653
-5.9269 6.2840 -1.8259 0.9653
-8.1249 3.1290 -1.8404 0.9650
-9.4902 0.0948 -2.0061 0.9619
-9.4778 -0.7542 -2.0098 0.9619
-9.2247 -2.4364 -2.0168 0.9617
-8.9853 -3.2557 -2.0201 0.9617
-4.6941 -8.4329 -2.0401 0.9613
-3.9249 -8.8239 -2.0414 0.9613
-2.2947 -9.3887 -2.0430 0.9613
-1.4475 -9.5576 -2.0433 0.9613
1.1365 -9.5944 -2.0422 0.9613
1.9876 -9.4499 -2.0412 0.9613
3.6314 -8.9326 -2.0382 0.9613
4.4102 -8.5645 -2.0363 0.9614
5.1517 -8.1277 -2.0341 0.9614
5.8497 -7.6260 -2.0316 0.9615
7.0932 -6.4461 -2.0260 0.9616
8.1011 -5.0658 -2.0197 0.9617
8.5068 -4.3150 -2.0163 0.9618
8.8427 -3.5322 -2.0128 0.9618
9.1066 -2.7237 -2.0092 0.9619
9.2967 -1.8963 -2.0056 0.9620
9.4119 -1.0567 -2.0020 0.9620
9.4516 -0.2118 -1.9984 0.9621
9.4159 0.6318 -1.9948 0.9622
9.1217 2.2885 -1.9879 0.9623
8.8663 3.0887 -1.9846 0.9623
8.5416 3.8619 -1.9815 0.9624
8.1505 4.6022 -1.9785 0.9625
6.6138 6.5722 -1.9709 0.9626
4.6229 8.0677 -1.9655 0.9627
3.1108 8.7516 -1.9633 0.9627
1.5039 9.1608 -1.9623 0.9628
0.6800 9.2584 -1.9623 0.9628
-0.1494 9.2836 -1.9626 0.9628
-0.9780 9.2360 -1.9632 0.9627
-1.7996 9.1159 -1.9641 0.9627
-3.3943 8.6560 -1.9653 0.9627
-5.1635 6.9072 -1.8229 0.9654
-5.7669 6.4268 -1.8252 0.9653
-6.3265 5.8944 -1.8278 0.9653
-6.8376 5.3139 -1.8305 0.9652
-7.2962 4.6895 -1.8334 0.9652
-7.6984 4.0259 -1.8364 0.9651
-8.3204 2.6015 -1.8427 0.9650
-9.0522 1.9638 -1.9580 0.9628
-9.2779 -2.2056 -2.0158 0.9618
-8.7666 -3.8333 -2.0225 0.9616
-7.9689 -5.3473 -2.0286 0.9615
-7.4696 -6.0456 -2.0313 0.9615
-6.2899 -7.2948 -2.0360 0.9614
-5.6189 -7.8348 -2.0380 0.9613
-4.9010 -8.3121 -2.0397 0.9613
-4.1421 -8.7224 -2.0411 0.9613
-3.3485 -9.0621 -2.0421 0.9613
-2.5269 -9.3283 -2.0429 0.9613
-1.6843 -9.5185 -2.0433 0.9613
-0.8277 -9.6312 -2.0433 0.9612
0.0355 -9.6653 -2.0431 0.9613
2.5921 -9.2976 -2.0403 0.9613
4.9499 -8.2557 -2.0347 0.9614
5.6606 -7.7716 -2.0323 0.9615
6.3236 -7.2257 -2.0297 0.9615
7.4861 -5.9684 -2.0238 0.9616
7.9765 -5.2678 -2.0206 0.9617
8.4010 -4.5271 -2.0172 0.9617
8.7566 -3.7524 -2.0138 0.9618
9.0407 -2.9504 -2.0102 0.9619
9.3874 -1.2907 -2.0030 0.9620
9.4333 0.3981 -1.9958 0.9621
8.9443 2.8689 -1.9855 0.9623
8.6386 3.6502 -1.9823 0.9624
8.2656 4.4002 -1.9793 0.9624
6.1711 6.9799 -1.9694 0.9626
5.5180 7.4958 -1.9675 0.9627
0.0811 9.2839 -1.9625 0.9628
-8.1148 -2.8041 -2.0178 0.9653
-5.5829 -6.6060 -2.0328 0.9651
-3.6406 -7.8664 -2.0372 0.9650
-2.9250 -8.1638 -2.0381 0.9650
-0.6572 -8.6512 -2.0391 0.9650
0.1178 -8.6742 -2.0388 0.9650
0.8916 -8.6266 -2.0382 0.9650
3.1405 -8.0682 -2.0348 0.9651
3.8451 -7.7491 -2.0331 0.9651
4.5173 -7.3678 -2.0312 0.9651
5.1516 -6.9276 -2.0290 0.9651
6.7774 -5.2944 -2.0213 0.9653
7.2127 -4.6615 -2.0184 0.9653
7.5887 -3.9929 -2.0153 0.9654
8.1523 -2.5714 -2.0090 0.9655
8.3358 -1.8303 -2.0058 0.9655
8.4522 -1.0770 -2.0025 0.9656
8.5008 -0.3175 -1.9993 0.9656
8.2418 1.9375 -1.9898 0.9658
8.0239 2.6616 -1.9868 0.9659
7.7431 3.3626 -1.9840 0.9659
7.4019 4.0350 -1.9813 0.9660
7.0031 4.6738 -1.9788 0.9660
4.9040 6.8018 -1.9707 0.9661
4.2740 7.2073 -1.9693 0.9662
3.6113 7.5556 -1.9682 0.9662
2.9209 7.8443 -1.9673 0.9662
2.2081 8.0712 -1.9666 0.9662
1.4784 8.2347 -1.9663 0.9662
-0.0098 8.3670 -1.9664 0.9662
-0.7570 8.3348 -1.9669 0.9662
-2.2294 8.0747 -1.9687 0.9662
-2.9434 7.8486 -1.9701 0.9661
-4.2820 7.1826 -1.9653 0.9662
-4.6668 6.4411 -1.8694 0.9678
-5.6158 5.3911 -1.8296 0.9685
-6.5028 4.3180 -1.8346 0.9684
-8.0363 2.6449 -1.9884 0.9658
-8.2793 1.9259 -1.9978 0.9657
-8.4319 1.1809 -2.0010 0.9656
-8.5175 0.4240 -2.0043 0.9656
-8.5351 -0.3387 -2.0075 0.9655
-8.4844 -1.1012 -2.0107 0.9655
-8.3653 -1.8572 -2.0139 0.9654
-7.9252 -3.3254 -2.0199 0.9653
-6.7873 -5.3277 -2.0279 0.9652
-6.2915 -5.9191 -2.0302 0.9651
-4.5100 -7.3944 -2.0356 0.9650
-3.1264 -8.0877 -2.0379 0.9650
-1.6390 -8.5195 -2.0390 0.9650
-0.8718 -8.6323 -2.0391 0.9650
4.3342 -7.4797 -2.0317 0.9651
6.6465 -5.4632 -2.0220 0.9653
7.4904 -4.1818 -2.0162 0.9654
7.8218 -3.4909 -2.0131 0.9654
8.4941 -0.5286 -2.0002 0.9656
8.4937 0.2315 -1.9969 0.9657
8.4256 0.9874 -1.9938 0.9657
6.6811 5.1116 -1.9771 0.9660
5.6535 6.2053 -1.9729 0.9661
3.1151 7.7703 -1.9675 0.9662
-0.5498 8.3503 -1.9668 0.9662
-1.2936 8.2708 -1.9675 0.9662
-2.7471 7.9177 -1.9697 0.9661
-3.4457 7.6466 -1.9711 0.9661
-4.1065 7.2939 -1.9672 0.9662
-4.5578 6.6312 -1.8911 0.9675
-4.9570 5.9867 -1.8267 0.9686
-5.9576 5.0222 -1.8313 0.9685
-6.3911 4.4764 -1.8338 0.9684
-7.2823 3.3592 -1.8848 0.9676
-8.3962 1.3892 -2.0001 0.9656
-8.5005 0.6350 -2.0034 0.9656
-7.3387 -4.5122 -2.0247 0.9652
-6.9152 -5.1559 -2.0272 0.9652
-5.3181 -6.8254 -2.0336 0.9651
-4.6912 -7.2787 -2.0352 0.9650
-4.0253 -7.6737 -2.0365 0.9650
-2.5986 -8.2748 -2.0384 0.9650
0.4624 -8.6617 -2.0386 0.9650
2.7372 -8.2173 -2.0356 0.9650
3.4574 -7.9342 -2.0341 0.9651
6.5113 -5.6286 -2.0228 0.9653
6.9781 -5.0178 -2.0200 0.9653
7.3874 -4.3683 -2.0170 0.9654
8.0217 -2.9755 -2.0108 0.9655
8.4822 -0.7397 -2.0011 0.9656
8.1528 2.2620 -1.9885 0.9658
7.5987 3.6654 -1.9828 0.9659
7.2315 4.3235 -1.9802 0.9660
6.8082 4.9458 -1.9777 0.9660
5.8074 6.0647 -1.9734 0.9661
5.2379 6.5530 -1.9716 0.9661
3.9831 7.3694 -1.9688 0.9662
3.3074 7.6915 -1.9677 0.9662
1.8855 8.1518 -1.9664 0.9662
1.1500 8.2867 -1.9662 0.9662
0.4055 8.3565 -1.9663 0.9662
-0.3423 8.3608 -1.9666 0.9662
-1.8253 8.1729 -1.9681 0.9662
-4.4544 6.8383 -1.9181 0.9670
-5.3376 5.6592 -1.8283 0.9685
-5.8290 5.1666 -1.8306 0.9685
-6.2755 4.6318 -1.8331 0.9685
-6.6736 4.0588 -1.8357 0.9684
-8.1531 2.3286 -1.9928 0.9658
-8.3553 1.5965 -1.9992 0.9657
-8.4783 0.8455 -2.0025 0.9656
-8.5210 -0.6781 -2.0090 0.9655
-8.2905 -2.1897 -2.0153 0.9654
-8.0740 -2.9256 -2.0183 0.9653
-7.4457 -4.3270 -2.0240 0.9652
-6.5735 -5.5961 -2.0289 0.9651
-6.0541 -6.1673 -2.0311 0.9651
-5.4846 -6.6896 -2.0331 0.9651
-4.2138 -7.5701 -2.0362 0.9650
-2.0596 -8.4269 -2.0388 0.9650
-0.5281 -8.6599 -2.0391 0.9650
0.2472 -8.6711 -2.0387 0.9650
3.2601 -8.0194 -2.0345 0.9651
3.9597 -7.6897 -2.0328 0.9651
6.3719 -5.7907 -2.0236 0.9652
7.6455 -3.8782 -2.0148 0.9654
7.9489 -3.1751 -2.0117 0.9654
8.3600 -1.7052 -2.0052 0.9655
7.9813 2.7804 -1.9864 0.9659
7.3392 4.1441 -1.9809 0.9660
6.9312 4.7768 -1.9784 0.9660
6.4694 5.3704 -1.9761 0.9660
4.1655 7.2695 -1.9691 0.9662
1.3553 8.2557 -1.9663 0.9662
0.6128 8.3437 -1.9662 0.9662
-0.8813 8.3231 -1.9670 0.9662
-2.3499 8.0414 -1.9689 0.9662
-3.0605 7.8048 -1.9703 0.9661
-3.7459 7.5018 -1.9707 0.9661
-4.3478 7.0514 -1.9469 0.9665
-4.7330 6.3315 -1.8579 0.9680
-5.1937 5.7880 -1.8277 0.9686
-6.1562 4.7843 -1.8324 0.9685
-6.5681 4.2215 -1.8350 0.9684
-7.5639 3.1308 -1.9240 0.9669
-8.0815 2.5268 -1.9900 0.9658
-8.3094 1.8026 -1.9983 0.9657
-8.4508 1.0552 -2.0016 0.9656
-8.5314 -0.4662 -2.0081 0.9655
-8.4692 -1.2280 -2.0113 0.9654
-8.3388 -1.9824 -2.0144 0.9654
-7.8766 -3.4441 -2.0204 0.9653
-5.6475 -6.5497 -2.0325 0.9651
-4.3996 -7.4618 -2.0358 0.9650
-3.7181 -7.8295 -2.0371 0.9650
-1.5117 -8.5432 -2.0390 0.9650
1.5733 -8.5254 -2.0375 0.9650
2.3269 -8.3462 -2.0364 0.9650
3.0607 -8.0996 -2.0350 0.9650
3.7686 -7.7876 -2.0333 0.9651
4.4446 -7.4130 -2.0314 0.9651
5.0834 -6.9791 -2.0292 0.9651
5.6796 -6.4898 -2.0269 0.9652
6.2285 -5.9493 -2.0243 0.9652
7.1674 -4.7334 -2.0187 0.9653
7.8710 -3.3729 -2.0126 0.9654
8.4988 -0.4017 -1.9996 0.9656
8.4870 0.3581 -1.9964 0.9657
8.4077 1.1127 -1.9932 0.9658
8.2620 1.8561 -1.9902 0.9658
7.0500 4.6049 -1.9790 0.9660
5.5594 6.2880 -1.9726 0.9661
4.3455 7.1651 -1.9695 0.9662
0.8197 8.3258 -1.9662 0.9662
-7.3605 -2.5434 -2.0163 0.9683
-7.1134 -3.1947 -2.0190 0.9683
-6.8082 -3.8218 -2.0215 0.9683
-6.4473 -4.4196 -2.0239 0.9682
-5.5700 -5.5072 -2.0281 0.9682
-4.5092 -6.4208 -2.0315 0.9681
-3.9205 -6.8022 -2.0328 0.9681
-1.9801 -7.6073 -2.0353 0.9680
-1.2931 -7.7548 -2.0356 0.9680
0.1068 -7.8603 -2.0354 0.9680
0.8079 -7.8174 -2.0348 0.9680
2.1835 -7.5423 -2.0330 0.9681
2.8464 -7.3125 -2.0317 0.9681
3.4853 -7.0239 -2.0302 0.9681
4.0949 -6.6788 -2.0284 0.9681
4.6704 -6.2804 -2.0265 0.9682
5.2069 -5.8321 -2.0243 0.9682
6.1465 -4.8016 -2.0195 0.9683
6.8841 -3.6222 -2.0141 0.9684
7.3975 -2.3333 -2.0084 0.9685
7.5652 -1.6611 -2.0054 0.9685
7.7173 -0.2882 -1.9995 0.9686
7.2885 2.4177 -1.9882 0.9688
7.0343 3.0548 -1.9856 0.9688
6.3636 4.2470 -1.9809 0.9689
2.6556 7.1318 -1.9704 0.9690
-0.0089 7.6073 -1.9697 0.9691
-0.6882 7.5779 -1.9701 0.9690
-1.3626 7.4888 -1.9708 0.9690
-3.3044 6.8723 -1.9744 0.9690
-3.9080 6.5553 -1.9760 0.9690
-5.4356 5.2181 -1.9509 0.9693
-5.8629 4.6983 -1.9453 0.9694
-6.3234 4.1989 -1.9653 0.9691
-7.0604 3.0466 -1.9910 0.9687
-7.3199 2.4092 -1.9953 0.9687
-7.6541 1.0720 -2.0011 0.9686
-7.7306 0.3849 -2.0041 0.9685
-7.5891 -1.6849 -2.0128 0.9684
-7.4186 -2.3590 -2.0156 0.9683
-6.8986 -3.6504 -2.0208 0.9683
-6.5530 -4.2568 -2.0232 0.9682
-6.1535 -4.8303 -2.0255 0.9682
-5.7035 -5.3658 -2.0275 0.9682
-4.6662 -6.3056 -2.0310 0.9681
-4.0874 -6.7016 -2.0324 0.9681
-2.8332 -7.3292 -2.0345 0.9681
-2.1682 -7.5553 -2.0352 0.9680
-1.4852 -7.7201 -2.0355 0.9680
-0.7900 -7.8223 -2.0356 0.9680
0.6137 -7.8357 -2.0350 0.9680
1.3104 -7.7469 -2.0343 0.9681
1.9959 -7.5953 -2.0333 0.9681
2.6645 -7.3823 -2.0321 0.9681
3.3106 -7.1098 -2.0306 0.9681
3.9289 -6.7801 -2.0289 0.9681
4.5143 -6.3962 -2.0270 0.9682
5.0621 -5.9614 -2.0249 0.9682
6.4375 -4.3908 -2.0176 0.9683
6.7947 -3.7934 -2.0149 0.9684
7.0964 -3.1671 -2.0121 0.9684
7.3403 -2.5173 -2.0092 0.9684
7.5247 -1.8491 -2.0063 0.9685
7.6485 -1.1682 -2.0033 0.9685
7.7109 -0.4799 -2.0003 0.9686
7.7116 0.2102 -1.9974 0.9686
7.6509 0.8966 -1.9945 0.9687
7.1105 2.8803 -1.9863 0.9688
6.4691 4.0890 -1.9815 0.9689
4.0475 6.4546 -1.9726 0.9690
2.1893 7.2867 -1.9700 0.9691
-0.4999 7.5920 -1.9700 0.9691
-1.1761 7.5195 -1.9706 0.9690
-1.8436 7.3877 -1.9715 0.9690
-2.4973 7.1977 -1.9726 0.9690
-3.1321 6.9508 -1.9740 0.9690
-3.7432 6.6487 -1.9755 0.9690
-4.8609 5.8707 -1.9735 0.9690
-5.3254 5.3726 -1.9586 0.9692
-5.7432 4.8414 -1.9449 0.9694
-6.9754 3.2176 -1.9889 0.9688
-7.2550 2.5891 -1.9945 0.9687
-7.7155 0.5764 -2.0032 0.9685
-7.7476 -0.1150 -2.0062 0.9685
-7.7176 -0.8074 -2.0091 0.9684
-7.4720 -2.1733 -2.0148 0.9684
-6.9847 -3.4768 -2.0201 0.9683
-6.6545 -4.0915 -2.0226 0.9682
-5.8333 -5.2212 -2.0270 0.9682
-5.3489 -5.7266 -2.0289 0.9681
-4.8203 -6.1865 -2.0306 0.9681
-0.9839 -7.8003 -2.0356 0.9680
-0.2835 -7.8566 -2.0355 0.9680
0.4190 -7.8491 -2.0352 0.9680
1.8070 -7.6436 -2.0336 0.9681
3.1337 -7.1913 -2.0311 0.9681
3.7603 -6.8773 -2.0294 0.9681
4.3553 -6.5081 -2.0276 0.9682
4.9140 -6.0871 -2.0255 0.9682
5.4318 -5.6178 -2.0233 0.9682
5.9047 -5.1043 -2.0209 0.9683
6.3288 -4.5509 -2.0183 0.9683
6.7010 -3.9624 -2.0156 0.9683
7.0183 -3.3436 -2.0128 0.9684
7.6203 -1.3582 -2.0041 0.9685
7.6739 0.7067 -1.9953 0.9687
7.5694 1.3870 -1.9925 0.9687
7.1824 2.7038 -1.9871 0.9688
6.9035 3.3301 -1.9845 0.9688
6.5707 3.9284 -1.9822 0.9689
6.1868 4.4944 -1.9799 0.9689
5.2784 5.5122 -1.9760 0.9690
3.0069 6.9927 -1.9708 0.9690
1.7143 7.4117 -1.9697 0.9691
1.0456 7.5344 -1.9695 0.9691
0.3687 7.5978 -1.9695 0.9691
-0.3112 7.6016 -1.9698 0.9691
-2.3175 7.2563 -1.9723 0.9690
-2.9580 7.0250 -1.9736 0.9690
-4.7150 5.9912 -1.9740 0.9690
-5.2142 5.5284 -1.9676 0.9691
-6.0576 4.4710 -1.9494 0.9694
-6.5360 3.9751 -1.9807 0.9689
-6.8865 3.3864 -1.9870 0.9688
-7.1856 2.7673 -1.9937 0.9687
-7.4147 2.1177 -1.9966 0.9686
-7.5852 1.4494 -1.9995 0.9686
-7.7449 0.0774 -2.0054 0.9685
-7.5208 -1.9864 -2.0141 0.9684
-7.3234 -2.6536 -2.0168 0.9683
-6.3818 -4.5161 -2.0243 0.9682
-5.4880 -5.5906 -2.0284 0.9681
-4.9713 -6.0635 -2.0302 0.9681
-4.4134 -6.4881 -2.0317 0.9681
-3.1927 -7.1779 -2.0340 0.9681
-2.5401 -7.4372 -2.0348 0.9680
-1.1773 -7.7733 -2.0356 0.9680
1.6169 -7.6872 -2.0339 0.9681
2.2956 -7.5081 -2.0328 0.9681
2.9553 -7.2690 -2.0315 0.9681
3.5892 -6.9701 -2.0299 0.9681
5.2924 -5.7527 -2.0239 0.9682
6.2161 -4.7083 -2.0190 0.9683
6.6030 -4.1291 -2.0164 0.9683
7.4297 -2.2221 -2.0079 0.9685
7.6838 -0.8627 -2.0020 0.9686
7.6922 0.5161 -1.9961 0.9686
7.4566 1.8707 -1.9905 0.9687
6.9865 3.1588 -1.9852 0.9688
4.3645 6.2481 -1.9734 0.9690
2.5487 7.1702 -1.9703 0.9690
-0.1224 7.6065 -1.9697 0.9691
-2.1363 7.3104 -1.9720 0.9690
-2.7822 7.0949 -1.9732 0.9690
-3.4070 6.8231 -1.9746 0.9690
-5.5033 5.1275 -1.9475 0.9694
-6.4042 4.1162 -1.9711 0.9690
-7.6711 0.9579 -2.0016 0.9686
-7.7374 0.2695 -2.0046 0.9685
-7.7419 -0.4230 -2.0075 0.9685
-6.0818 -4.9224 -2.0258 0.9682
-5.6237 -5.4512 -2.0279 0.9682
-3.9874 -6.7626 -2.0327 0.9681
-0.6732 -7.8332 -2.0356 0.9680
0.7305 -7.8253 -2.0349 0.9680
1.4257 -7.7259 -2.0342 0.9681
2.1088 -7.5640 -2.0331 0.9681
2.7740 -7.3409 -2.0319 0.9681
4.0290 -6.7198 -2.0286 0.9681
4.6085 -6.3271 -2.0267 0.9682
5.1495 -5.8841 -2.0245 0.9682
6.8490 -3.6907 -2.0144 0.9684
7.1411 -3.0602 -2.0116 0.9684
7.7153 -0.3647 -1.9999 0.9686
7.7057 0.3252 -1.9969 0.9686
7.6349 1.0104 -1.9940 0.9687
7.5036 1.6857 -1.9912 0.9687
7.0652 2.9854 -1.9859 0.9688
6.4062 4.1843 -1.9811 0.9689
4.5192 6.1390 -1.9737 0.9690
2.7262 7.1054 -1.9705 0.9690
2.0803 7.3183 -1.9699 0.9691
1.4183 7.4735 -1.9696 0.9691
0.7453 7.5699 -1.9695 0.9691
-5.8912 -4.0384 -2.0220 0.9707
-5.5126 -4.5528 -2.0240 0.9707
-4.1189 -5.8651 -2.0289 0.9706
-3.5810 -6.2132 -2.0301 0.9706
-3.0134 -6.5113 -2.0311 0.9706
-1.8084 -6.9478 -2.0324 0.9706
0.0975 -7.1789 -2.0325 0.9706
2.6000 -6.6796 -2.0291 0.9706
4.7577 -5.3290 -2.0224 0.9707
5.2090 -4.8778 -2.0202 0.9708
5.6174 -4.3883 -2.0180 0.9708
5.9797 -3.8646 -2.0156 0.9708
6.5551 -2.7325 -2.0105 0.9709
6.9182 -1.5190 -2.0051 0.9710
7.0167 -0.8941 -2.0024 0.9710
7.0449 0.3672 -1.9971 0.9711
6.4381 2.7959 -1.9870 0.9712
5.8254 3.8879 -1.9827 0.9713
5.4497 4.3881 -1.9807 0.9713
5.0316 4.8528 -1.9790 0.9714
4.0821 5.6618 -1.9760 0.9714
3.5581 6.0001 -1.9748 0.9714
3.0067 6.2907 -1.9738 0.9714
2.4321 6.5316 -1.9731 0.9714
1.8387 6.7209 -1.9726 0.9714
0.6139 6.9395 -1.9722 0.9715
-0.0081 6.9673 -1.9724 0.9715
-0.6303 6.9402 -1.9728 0.9714
-1.2479 6.8584 -1.9734 0.9714
-1.8561 6.7226 -1.9743 0.9714
-2.4502 6.5336 -1.9754 0.9714
-3.0258 6.2929 -1.9767 0.9714
-4.5970 5.2795 -1.9818 0.9713
-5.4744 4.3870 -1.9860 0.9713
-5.8510 3.8852 -1.9883 0.9712
-6.1821 3.3514 -1.9907 0.9712
-6.4648 2.7895 -1.9932 0.9712
-6.6968 2.2041 -1.9958 0.9711
-7.0007 0.9805 -2.0012 0.9710
-6.7812 -2.1563 -2.0144 0.9709
-6.3045 -3.3359 -2.0192 0.9708
-5.6224 -4.4133 -2.0235 0.9707
-5.2108 -4.9023 -2.0253 0.9707
-4.7562 -5.3524 -2.0270 0.9707
-3.1737 -6.4337 -2.0309 0.9706
-2.5877 -6.6940 -2.0317 0.9706
-1.9802 -6.9003 -2.0323 0.9706
-1.3564 -7.0508 -2.0326 0.9706
-0.7215 -7.1440 -2.0327 0.9706
-0.0807 -7.1794 -2.0326 0.9706
3.5892 -6.1940 -2.0266 0.9707
4.1244 -5.8438 -2.0249 0.9707
5.0879 -5.0071 -2.0208 0.9708
6.9950 -1.0684 -2.0032 0.9710
7.0529 -0.4389 -2.0005 0.9711
7.0544 0.1923 -1.9978 0.9711
6.9998 0.8203 -1.9952 0.9711
6.7251 2.0470 -1.9901 0.9712
6.5077 2.6361 -1.9877 0.9712
5.9218 3.7431 -1.9833 0.9713
5.5584 4.2526 -1.9813 0.9713
5.1517 4.7276 -1.9794 0.9714
4.7052 5.1644 -1.9778 0.9714
4.2222 5.5598 -1.9763 0.9714
2.5937 6.4698 -1.9733 0.9714
0.7860 6.9221 -1.9722 0.9715
0.1648 6.9651 -1.9723 0.9715
-0.4578 6.9532 -1.9727 0.9714
-1.0771 6.8866 -1.9732 0.9714
-1.6884 6.7657 -1.9741 0.9714
-2.8681 6.3648 -1.9763 0.9714
-3.9606 5.7622 -1.9794 0.9714
-4.9318 4.9755 -1.9832 0.9713
-5.3621 4.5201 -1.9854 0.9713
-6.0949 3.5026 -1.9900 0.9712
-6.3913 2.9481 -1.9925 0.9712
-6.9716 1.1535 -2.0004 0.9711
-7.0563 0.5272 -2.0031 0.9710
-7.0564 -0.7382 -2.0085 0.9709
-6.9714 -1.3671 -2.0112 0.9709
-6.3833 -3.1774 -2.0186 0.9708
-5.3295 -4.7702 -2.0248 0.9707
-4.8865 -5.2315 -2.0266 0.9707
-3.3320 -6.3520 -2.0306 0.9706
-2.1507 -6.8486 -2.0321 0.9706
-1.5310 -7.0147 -2.0326 0.9706
-0.2590 -7.1754 -2.0326 0.9706
2.2660 -6.8027 -2.0298 0.9706
2.8626 -6.5691 -2.0286 0.9707
3.9790 -5.9458 -2.0254 0.9707
4.4899 -5.5617 -2.0235 0.9707
4.9635 -5.1334 -2.0214 0.9708
5.3961 -4.6646 -2.0192 0.9708
5.7843 -4.1594 -2.0169 0.9708
6.4160 -3.0567 -2.0119 0.9709
6.6546 -2.4684 -2.0093 0.9709
6.8394 -1.8619 -2.0066 0.9710
6.9689 -1.2421 -2.0039 0.9710
7.0597 0.0171 -1.9985 0.9711
7.0206 0.6465 -1.9959 0.9711
6.9258 1.2691 -1.9933 0.9712
6.7762 1.8800 -1.9908 0.9712
6.0147 3.5960 -1.9838 0.9713
5.2688 4.5994 -1.9799 0.9713
4.8330 5.0471 -1.9782 0.9714
3.8528 5.8180 -1.9754 0.9714
3.3161 6.1353 -1.9743 0.9714
2.7538 6.4041 -1.9735 0.9714
2.1703 6.6222 -1.9728 0.9714
0.9576 6.9005 -1.9722 0.9715
0.3377 6.9586 -1.9723 0.9715
-1.5197 6.8047 -1.9738 0.9714
-2.1222 6.6450 -1.9748 0.9714
-2.7087 6.4329 -1.9760 0.9714
-6.3139 3.1048 -1.9918 0.9712
-7.0825 0.0708 -2.0051 0.9710
-7.0700 -0.5626 -2.0078 0.9709
-7.0007 -1.1932 -2.0104 0.9709
-6.6938 -2.4254 -2.0155 0.9708
-6.4582 -3.0170 -2.0179 0.9708
-6.1699 -3.5856 -2.0202 0.9708
-5.4449 -4.6353 -2.0243 0.9707
-4.5413 -5.5391 -2.0277 0.9707
-2.9161 -6.5560 -2.0313 0.9706
-2.3199 -6.7926 -2.0320 0.9706
-1.7046 -6.9742 -2.0325 0.9706
-0.4370 -7.1669 -2.0327 0.9706
0.8443 -7.1276 -2.0319 0.9706
2.0968 -6.8579 -2.0301 0.9706
3.8311 -6.0443 -2.0259 0.9707
4.3516 -5.6729 -2.0240 0.9707
4.8359 -5.2565 -2.0220 0.9707
5.6812 -4.3031 -2.0176 0.9708
6.0354 -3.7741 -2.0152 0.9708
6.5937 -2.6338 -2.0100 0.9709
6.7935 -2.0319 -2.0074 0.9710
7.0277 -0.7891 -2.0020 0.9710
7.0371 0.4722 -1.9966 0.9711
6.9577 1.0972 -1.9940 0.9711
6.8232 1.7118 -1.9915 0.9712
2.9123 6.3344 -1.9737 0.9714
2.3342 6.5668 -1.9730 0.9714
1.1286 6.8747 -1.9722 0.9715
-0.1121 6.9666 -1.9724 0.9715
-0.7338 6.9303 -1.9729 0.9714
-5.1280 4.7778 -1.9842 0.9713
-6.9006 1.4970 -1.9989 0.9711
-7.0161 0.8761 -2.0016 0.9710
-7.0256 -1.0187 -2.0097 0.9709
-6.7496 -2.2578 -2.0148 0.9708
-6.5289 -2.8548 -2.0173 0.9708
-6.2551 -3.4303 -2.0196 0.9708
-5.9303 -3.9794 -2.0218 0.9707
-3.6421 -6.1770 -2.0300 0.9706
-2.4876 -6.7323 -2.0318 0.9706
-1.2511 -7.0703 -2.0327 0.9706
0.6672 -7.1470 -2.0321 0.9706
1.3022 -7.0565 -2.0314 0.9706
3.1204 -6.4481 -2.0279 0.9707
4.7053 -5.3765 -2.0226 0.9707
6.5286 -2.7977 -2.0108 0.9709
6.7435 -2.2007 -2.0081 0.9709
6.9038 -1.5877 -2.0054 0.9710
7.0085 -0.9636 -2.0027 0.9710
7.0571 -0.3336 -2.0000 0.9711
7.0492 0.2975 -1.9974 0.9711
6.8660 1.5425 -1.9922 0.9712
6.4663 2.7323 -1.9873 0.9712
6.1895 3.2950 -1.9850 0.9713
5.0799 4.8032 -1.9791 0.9714
4.6270 5.2334 -1.9775 0.9714
3.6176 5.9649 -1.9749 0.9714
3.0690 6.2609 -1.9739 0.9714
2.4968 6.5074 -1.9731 0.9714
1.9052 6.7025 -1.9726 0.9714
0.6826 6.9331 -1.9722 0.9715
-5.4179 -3.7140 -2.0204 0.9729
-5.0693 -4.1867 -2.0222 0.9729
-4.6792 -4.6264 -2.0239 0.9728
-4.2506 -5.0295 -2.0254 0.9728
-3.2922 -5.7122 -2.0279 0.9728
-1.6624 -6.3870 -2.0299 0.9728
-0.5000 -6.5817 -2.0302 0.9728
0.0896 -6.5994 -2.0300 0.9728
0.6784 -6.5636 -2.0296 0.9728
1.2613 -6.4747 -2.0289 0.9728
1.8336 -6.3335 -2.0280 0.9728
2.3904 -6.1412 -2.0270 0.9728
3.4399 -5.6105 -2.0242 0.9728
3.9239 -5.2766 -2.0225 0.9729
5.1670 -4.0364 -2.0167 0.9729
5.5007 -3.5550 -2.0145 0.9730
5.7895 -3.0462 -2.0122 0.9730
6.2241 -1.9632 -2.0074 0.9731
6.3666 -1.3979 -2.0049 0.9731
5.6696 3.0907 -1.9861 0.9733
4.6353 4.4706 -1.9808 0.9734
4.2145 4.8630 -1.9793 0.9734
3.7610 5.2165 -1.9780 0.9734
3.2784 5.5284 -1.9769 0.9735
1.6943 6.1931 -1.9749 0.9735
0.5657 6.3947 -1.9745 0.9735
-0.0075 6.4202 -1.9747 0.9735
-0.5808 6.3951 -1.9751 0.9735
-1.1498 6.3196 -1.9757 0.9735
-2.2576 6.0198 -1.9775 0.9735
-2.7877 5.7977 -1.9787 0.9734
-3.7801 5.2172 -1.9816 0.9734
-5.3882 3.5779 -1.9894 0.9733
-6.1652 2.0291 -1.9963 0.9732
-6.4436 0.9024 -2.0013 0.9731
-6.5065 0.3239 -2.0037 0.9731
-6.5175 -0.2586 -2.0062 0.9731
-6.4763 -0.8406 -2.0087 0.9730
-6.3830 -1.4171 -2.0111 0.9730
-6.2382 -1.9837 -2.0134 0.9730
-5.5070 -3.5773 -2.0198 0.9729
-5.1704 -4.0585 -2.0217 0.9729
-4.3732 -4.9214 -2.0250 0.9728
-0.6632 -6.5673 -2.0302 0.9728
1.6760 -6.3779 -2.0283 0.9728
2.7805 -5.9715 -2.0261 0.9728
3.3003 -5.6954 -2.0246 0.9728
3.7926 -5.3737 -2.0230 0.9728
5.4124 -3.6916 -2.0151 0.9730
6.1755 -2.1178 -2.0080 0.9730
6.3322 -1.5561 -2.0056 0.9731
6.4378 -0.9833 -2.0031 0.9731
6.4443 0.7552 -1.9957 0.9732
6.1927 1.8849 -1.9910 0.9733
5.7463 2.9499 -1.9867 0.9733
4.7459 4.3551 -1.9812 0.9734
4.3348 4.7578 -1.9797 0.9734
3.8900 5.1224 -1.9784 0.9734
2.3900 5.9616 -1.9755 0.9735
1.2910 6.2888 -1.9747 0.9735
0.7243 6.3786 -1.9745 0.9735
0.1519 6.4182 -1.9746 0.9735
-0.9925 6.3456 -1.9755 0.9735
-1.5557 6.2340 -1.9762 0.9735
-2.1071 6.0731 -1.9772 0.9735
-2.6425 5.8641 -1.9783 0.9734
-3.1576 5.6085 -1.9797 0.9734
-3.6486 5.3083 -1.9812 0.9734
-4.5425 4.5828 -1.9847 0.9734
-4.9385 4.1630 -1.9867 0.9733
-5.2961 3.7094 -1.9888 0.9733
-5.8847 2.7145 -1.9933 0.9732
-6.2888 1.6284 -1.9981 0.9732
-6.4170 1.0617 -2.0006 0.9731
-6.4141 -1.2578 -2.0104 0.9730
-6.2836 -1.8277 -2.0128 0.9730
-6.1022 -2.3841 -2.0151 0.9730
-4.0485 -5.1960 -2.0260 0.9728
-2.5306 -6.0924 -2.0291 0.9728
-1.4074 -6.4484 -2.0301 0.9728
0.9385 -6.5306 -2.0293 0.9728
1.5173 -6.4183 -2.0286 0.9728
2.0833 -6.2542 -2.0276 0.9728
2.6319 -6.0397 -2.0264 0.9728
3.6589 -5.4674 -2.0235 0.9728
4.5648 -4.7211 -2.0199 0.9729
4.9631 -4.2903 -2.0179 0.9729
5.3207 -3.8260 -2.0157 0.9729
6.1231 -2.2712 -2.0087 0.9730
6.2937 -1.7134 -2.0063 0.9731
6.4820 -0.5653 -2.0013 0.9731
6.4985 0.0157 -1.9988 0.9732
6.2396 1.7311 -1.9917 0.9733
5.8194 2.8071 -1.9873 0.9733
4.8536 4.2369 -1.9817 0.9734
4.4524 4.6497 -1.9801 0.9734
3.0555 5.6531 -1.9765 0.9735
2.5375 5.9010 -1.9757 0.9735
1.9999 6.1021 -1.9751 0.9735
0.3112 6.4123 -1.9746 0.9735
-0.2627 6.4153 -1.9749 0.9735
-3.0168 5.6841 -1.9793 0.9734
-3.5149 5.3960 -1.9807 0.9734
-3.9859 5.0648 -1.9824 0.9734
-4.4262 4.6929 -1.9842 0.9734
-4.8323 4.2831 -1.9861 0.9733
-6.0528 2.3310 -1.9950 0.9732
-6.4780 0.6460 -2.0024 0.9731
-6.5178 0.0651 -2.0048 0.9731
-6.3250 -1.6706 -2.0121 0.9730
-6.1576 -2.2312 -2.0144 0.9730
-5.6747 -3.2978 -2.0187 0.9729
-5.3628 -3.7950 -2.0207 0.9729
-4.6102 -4.6964 -2.0242 0.9728
-4.1755 -5.0929 -2.0257 0.9728
-3.2069 -5.7611 -2.0280 0.9728
0.1881 -6.5971 -2.0300 0.9728
0.7762 -6.5524 -2.0295 0.9728
1.9277 -6.3049 -2.0279 0.9728
2.4816 -6.1043 -2.0268 0.9728
3.0147 -5.8545 -2.0254 0.9728
3.5228 -5.5578 -2.0239 0.9728
4.0016 -5.2168 -2.0223 0.9729
4.4474 -4.8342 -2.0204 0.9729
4.8565 -4.4135 -2.0184 0.9729
6.2514 -1.8697 -2.0070 0.9731
6.4682 -0.7262 -2.0020 0.9731
6.4782 0.4347 -1.9970 0.9732
6.4058 1.0101 -1.9946 0.9732
6.2826 1.5762 -1.9923 0.9733
6.1099 2.1284 -1.9900 0.9733
5.6219 3.1745 -1.9858 0.9733
5.3109 3.6602 -1.9839 0.9734
4.1410 4.9248 -1.9791 0.9734
2.6835 5.8368 -1.9759 0.9735
2.1509 6.0510 -1.9752 0.9735
1.0400 6.3349 -1.9746 0.9735
0.4702 6.4025 -1.9746 0.9735
-0.1033 6.4195 -1.9748 0.9735
-0.6762 6.3860 -1.9752 0.9735
-1.2441 6.3021 -1.9758 0.9735
-1.8026 6.1685 -1.9766 0.9735
-2.3474 5.9860 -1.9777 0.9735
-3.3791 5.4804 -1.9803 0.9734
-3.8580 5.1610 -1.9819 0.9734
-4.3072 4.8001 -1.9837 0.9734
-5.4419 3.4977 -1.9897 0.9733
-5.7390 3.0012 -1.9920 0.9733
-6.3520 1.3780 -1.9992 0.9732
-6.4577 0.8064 -2.0017 0.9731
-6.5120 0.2268 -2.0042 0.9731
-6.5143 -0.3559 -2.0066 0.9731
-6.4643 -0.9373 -2.0091 0.9730
-6.3624 -1.5125 -2.0115 0.9730
-5.4539 -3.6597 -2.0202 0.9729
-5.1100 -4.1359 -2.0220 0.9729
-3.8399 -5.3543 -2.0266 0.9728
-3.3484 -5.6790 -2.0277 0.9728
-2.2869 -6.1890 -2.0294 0.9728
-1.7256 -6.3701 -2.0299 0.9728
-1.1501 -6.4996 -2.0302 0.9728
-0.5652 -6.5764 -2.0302 0.9728
0.0243 -6.6000 -2.0300 0.9728
1.1971 -6.4872 -2.0290 0.9728
2.8690 -5.9287 -2.0258 0.9728
3.3845 -5.6448 -2.0244 0.9728
4.7468 -4.5340 -2.0190 0.9729
5.4659 -3.6098 -2.0147 0.9730
5.7598 -3.1038 -2.0124 0.9730
6.4504 -0.8869 -2.0027 0.9731
6.4958 -0.3070 -2.0002 0.9732
6.4311 0.8511 -1.9953 0.9732
6.3219 1.4202 -1.9929 0.9732
5.9550 2.5163 -1.9885 0.9733
5.7006 3.0348 -1.9864 0.9733
4.2628 4.8214 -1.9795 0.9734
3.8127 5.1794 -1.9782 0.9734
3.3332 5.4960 -1.9770 0.9735
2.3006 5.9962 -1.9754 0.9735
1.7556 6.1761 -1.9749 0.9735
1.1970 6.3073 -1.9746 0.9735
0.0561 6.4199 -1.9747 0.9735
-5.7242 -1.9780 -2.0132 0.9748
-5.5304 -2.4837 -2.0152 0.9748
-5.2917 -2.9705 -2.0172 0.9747
-4.3261 -4.2774 -2.0223 0.9747
-2.5608 -5.5334 -2.0267 0.9746
-2.0572 -5.7418 -2.0274 0.9746
-1.5367 -5.9038 -2.0278 0.9746
-1.0035 -6.0181 -2.0281 0.9746
-0.4622 -6.0837 -2.0281 0.9746
0.0829 -6.1001 -2.0279 0.9746
1.6950 -5.8548 -2.0261 0.9746
4.4303 -4.1486 -2.0175 0.9747
5.7580 -1.8162 -2.0070 0.9749
5.9756 -0.7614 -2.0024 0.9749
6.0128 -0.2246 -2.0001 0.9750
5.9434 0.8465 -1.9956 0.9750
5.8377 1.3723 -1.9934 0.9750
5.4891 2.3838 -1.9892 0.9751
4.6485 3.7431 -1.9839 0.9752
4.2925 4.1400 -1.9823 0.9752
3.9030 4.5036 -1.9810 0.9752
3.4832 4.8312 -1.9798 0.9752
3.0364 5.1203 -1.9788 0.9752
2.0757 5.5746 -1.9773 0.9752
1.5694 5.7363 -1.9769 0.9752
1.0508 5.8528 -1.9766 0.9752
-0.5380 5.9234 -1.9771 0.9752
-1.0650 5.8534 -1.9776 0.9752
-1.5840 5.7370 -1.9784 0.9752
-2.5818 5.3694 -1.9804 0.9752
-3.0528 5.1207 -1.9817 0.9752
-4.3111 4.1386 -1.9865 0.9751
-5.2693 2.8566 -1.9924 0.9751
-5.5093 2.3773 -1.9945 0.9750
-6.0298 -0.2393 -2.0059 0.9749
-5.3623 -2.8374 -2.0166 0.9748
-4.7807 -3.7527 -2.0202 0.9747
-4.4301 -4.1678 -2.0218 0.9747
-4.0431 -4.5499 -2.0233 0.9747
-3.1731 -5.2026 -2.0256 0.9746
-2.6971 -5.4675 -2.0265 0.9746
-1.6827 -5.8635 -2.0277 0.9746
-1.1526 -5.9912 -2.0280 0.9746
-0.6131 -6.0704 -2.0281 0.9746
-0.0686 -6.1005 -2.0280 0.9746
0.4763 -6.0812 -2.0276 0.9746
1.5493 -5.8958 -2.0263 0.9746
2.0685 -5.7312 -2.0254 0.9746
2.5705 -5.5205 -2.0242 0.9747
3.9330 -4.6318 -2.0198 0.9747
5.0057 -3.4142 -2.0141 0.9748
5.2850 -2.9506 -2.0120 0.9748
5.5214 -2.4642 -2.0098 0.9748
5.8584 -1.4397 -2.0053 0.9749
6.0098 0.1638 -1.9984 0.9750
5.8717 1.2273 -1.9940 0.9750
5.5481 2.2474 -1.9898 0.9751
5.3201 2.7311 -1.9878 0.9751
4.0143 4.4061 -1.9813 0.9752
3.6026 4.7440 -1.9801 0.9752
3.1630 5.0440 -1.9790 0.9752
2.6988 5.3039 -1.9782 0.9752
2.2137 5.5218 -1.9775 0.9752
1.1958 5.8251 -1.9767 0.9752
-0.3907 5.9346 -1.9770 0.9752
-0.9193 5.8775 -1.9775 0.9752
-1.4409 5.7739 -1.9781 0.9752
-1.9515 5.6247 -1.9790 0.9752
-2.4473 5.4309 -1.9801 0.9752
-4.5723 3.8543 -1.9878 0.9751
-5.4469 2.5125 -1.9939 0.9750
-5.6557 2.0184 -1.9961 0.9750
-5.8199 1.5071 -1.9984 0.9750
-5.9380 0.9825 -2.0007 0.9749
-6.0090 0.4489 -2.0030 0.9749
-5.8119 -1.6905 -2.0120 0.9748
-4.8713 -3.6320 -2.0198 0.9747
-4.5312 -4.0557 -2.0214 0.9747
-4.1541 -4.4473 -2.0229 0.9747
-3.7428 -4.8036 -2.0242 0.9747
-3.3008 -5.1215 -2.0254 0.9746
-2.8317 -5.3983 -2.0263 0.9746
-2.3393 -5.6316 -2.0271 0.9746
-1.8276 -5.8196 -2.0276 0.9746
-0.7636 -6.0533 -2.0281 0.9746
-0.2200 -6.0971 -2.0280 0.9746
0.8676 -6.0367 -2.0272 0.9746
1.9259 -5.7816 -2.0257 0.9746
2.4331 -5.5836 -2.0246 0.9747
3.3829 -5.0550 -2.0219 0.9747
4.2211 -4.3655 -2.0185 0.9747
4.9208 -3.5384 -2.0147 0.9748
5.2117 -3.0818 -2.0126 0.9748
5.4602 -2.6013 -2.0104 0.9748
5.6643 -2.1011 -2.0082 0.9749
5.9342 -1.0577 -2.0037 0.9749
6.0139 0.0146 -1.9991 0.9750
5.7758 1.6025 -1.9924 0.9751
5.6038 2.1096 -1.9903 0.9751
4.4945 3.9235 -1.9832 0.9752
4.1233 4.3060 -1.9817 0.9752
3.7199 4.6539 -1.9804 0.9752
2.3503 5.4656 -1.9776 0.9752
0.8173 5.8898 -1.9766 0.9752
0.2882 5.9394 -1.9766 0.9752
-1.2970 5.8073 -1.9779 0.9752
-1.8111 5.6707 -1.9788 0.9752
-2.3113 5.4891 -1.9798 0.9752
-3.2549 4.9969 -1.9823 0.9752
-5.1181 3.1128 -1.9912 0.9751
-5.3813 2.6462 -1.9933 0.9750
-5.7789 1.6505 -1.9978 0.9750
-5.9099 1.1292 -2.0000 0.9750
-6.0304 0.0603 -2.0046 0.9749
-6.0186 -0.4790 -2.0069 0.9749
-5.9584 -1.0156 -2.0092 0.9748
-5.8503 -1.5452 -2.0114 0.9748
-5.2476 -3.0496 -2.0175 0.9747
-4.9588 -3.5091 -2.0193 0.9747
-4.6295 -3.9411 -2.0210 0.9747
-3.4264 -5.0372 -2.0251 0.9746
-2.4781 -5.5713 -2.0269 0.9746
-1.9714 -5.7721 -2.0275 0.9746
-0.3713 -6.0899 -2.0281 0.9746
0.1739 -6.0980 -2.0278 0.9746
1.2550 -5.9667 -2.0268 0.9746
3.7000 -4.8235 -2.0207 0.9747
4.4910 -4.0813 -2.0172 0.9747
5.3955 -2.7369 -2.0110 0.9748
5.6122 -2.2417 -2.0088 0.9748
5.7834 -1.7298 -2.0066 0.9749
5.9851 -0.6720 -2.0020 0.9749
5.9955 0.4023 -1.9974 0.9750
5.8155 1.4590 -1.9930 0.9750
5.4520 2.4650 -1.9889 0.9751
5.2052 2.9391 -1.9870 0.9751
4.5916 3.8115 -1.9836 0.9752
4.2297 4.2031 -1.9821 0.9752
3.4104 4.8822 -1.9796 0.9752
2.9594 5.1646 -1.9786 0.9752
2.4855 5.4061 -1.9778 0.9752
1.9922 5.6047 -1.9772 0.9752
0.4356 5.9303 -1.9766 0.9752
-0.6263 5.9150 -1.9772 0.9752
-1.1523 5.8371 -1.9777 0.9752
-1.6695 5.7132 -1.9785 0.9752
-2.1740 5.5440 -1.9795 0.9752
-2.6619 5.3308 -1.9806 0.9752
-3.5726 4.7791 -1.9834 0.9752
-3.9883 4.4446 -1.9850 0.9751
-5.0378 3.2380 -1.9907 0.9751
-5.3123 2.7781 -1.9927 0.9750
-5.8782 1.2752 -1.9994 0.9750
-6.0251 0.2099 -2.0040 0.9749
-5.9799 -0.8671 -2.0086 0.9749
-5.8851 -1.3991 -2.0108 0.9748
-5.7428 -1.9210 -2.0129 0.9748
-5.5541 -2.4286 -2.0150 0.9748
-5.0431 -3.3841 -2.0188 0.9747
-3.9752 -4.6103 -2.0235 0.9747
-2.6154 -5.5075 -2.0267 0.9746
-2.1139 -5.7209 -2.0273 0.9746
-1.5950 -5.8882 -2.0278 0.9746
-1.0631 -6.0078 -2.0280 0.9746
-0.5224 -6.0788 -2.0281 0.9746
0.0224 -6.1007 -2.0279 0.9746
0.5669 -6.0732 -2.0275 0.9746
1.6370 -5.8716 -2.0262 0.9746
2.6524 -5.4810 -2.0240 0.9747
3.1291 -5.2188 -2.0227 0.9747
3.5799 -4.9149 -2.0212 0.9747
4.0011 -4.5719 -2.0195 0.9747
4.3894 -4.1927 -2.0177 0.9747
5.0552 -3.3386 -2.0138 0.9748
5.3275 -2.8709 -2.0117 0.9748
5.5565 -2.3811 -2.0095 0.9748
6.0110 -0.2841 -2.0003 0.9750
5.5131 2.3295 -1.9895 0.9751
5.0014 3.2668 -1.9857 0.9751
4.6858 3.6972 -1.9840 0.9752
4.3336 4.0976 -1.9825 0.9752
3.5311 4.7968 -1.9799 0.9752
3.0871 5.0902 -1.9789 0.9752
1.6261 5.7206 -1.9769 0.9752
0.5826 5.9176 -1.9766 0.9752
-4.0184 -3.9731 -2.0208 0.9763
-3.2516 -4.6300 -2.0232 0.9763
0.0769 -5.6650 -2.0260 0.9762
1.0828 -5.5585 -2.0251 0.9762
2.0524 -5.2729 -2.0234 0.9762
3.3701 -4.5319 -2.0196 0.9763
3.7584 -4.2097 -2.0181 0.9763
4.1158 -3.8541 -2.0164 0.9763
4.4396 -3.4681 -2.0146 0.9764
4.7270 -3.0550 -2.0127 0.9764
4.9760 -2.6182 -2.0107 0.9764
5.3513 -1.6879 -2.0066 0.9764
5.4749 -1.2021 -2.0045 0.9765
5.5894 -0.2087 -2.0002 0.9765
5.5258 0.7871 -1.9960 0.9766
5.2871 1.7538 -1.9920 0.9766
4.6209 3.0840 -1.9867 0.9767
4.3237 3.4815 -1.9851 0.9767
3.9927 3.8509 -1.9837 0.9767
3.2403 4.4943 -1.9813 0.9767
1.4601 5.3368 -1.9786 0.9768
0.9776 5.4452 -1.9784 0.9768
0.4875 5.5106 -1.9783 0.9768
-0.5005 5.5108 -1.9788 0.9768
-0.9908 5.4455 -1.9793 0.9768
-1.4736 5.3372 -1.9800 0.9768
-2.8397 4.7633 -1.9831 0.9767
-4.0095 3.8490 -1.9876 0.9767
-4.3409 3.4787 -1.9893 0.9766
-4.6384 3.0800 -1.9911 0.9766
-5.5424 0.7762 -2.0014 0.9765
-5.6041 -0.2224 -2.0056 0.9765
-5.5677 -0.7226 -2.0077 0.9764
-4.9819 -2.6361 -2.0156 0.9763
-4.7307 -3.0731 -2.0173 0.9763
-4.4410 -3.4860 -2.0189 0.9763
-4.1150 -3.8714 -2.0204 0.9763
-3.3650 -4.5472 -2.0229 0.9763
-2.5049 -5.0778 -2.0248 0.9762
-1.0704 -5.5639 -2.0262 0.9762
-0.0637 -5.6654 -2.0261 0.9762
1.4389 -5.4756 -2.0246 0.9762
2.3875 -5.1275 -2.0227 0.9763
2.8341 -4.8909 -2.0214 0.9763
3.2572 -4.6151 -2.0201 0.9763
4.0198 -3.9560 -2.0169 0.9763
4.3532 -3.5782 -2.0151 0.9763
4.9108 -2.7417 -2.0113 0.9764
5.1309 -2.2899 -2.0093 0.9764
5.3093 -1.8208 -2.0072 0.9764
5.4449 -1.3380 -2.0051 0.9765
5.5870 0.1523 -1.9987 0.9765
5.5452 0.6498 -1.9966 0.9766
5.4594 1.1412 -1.9945 0.9766
5.1594 2.0899 -1.9906 0.9766
4.9476 2.5399 -1.9888 0.9767
4.4097 3.3738 -1.9855 0.9767
3.7342 4.0986 -1.9828 0.9767
2.9425 4.6923 -1.9806 0.9767
2.5107 4.9343 -1.9798 0.9768
2.0594 5.1371 -1.9792 0.9768
0.6242 5.4968 -1.9783 0.9768
-0.3635 5.5212 -1.9787 0.9768
-1.3405 5.3715 -1.9798 0.9768
-2.7201 4.8314 -1.9828 0.9767
-3.1427 4.5723 -1.9841 0.9767
-3.5410 4.2765 -1.9855 0.9767
-3.9118 3.9464 -1.9871 0.9767
-4.2522 3.5845 -1.9888 0.9767
-4.5594 3.1934 -1.9906 0.9766
-4.8309 2.7762 -1.9925 0.9766
-5.4105 1.4010 -1.9986 0.9765
-5.5198 0.9133 -2.0008 0.9765
-5.0445 -2.5110 -2.0151 0.9763
-4.8044 -2.9540 -2.0169 0.9763
-3.8585 -4.1309 -2.0214 0.9763
-3.4763 -4.4616 -2.0226 0.9763
-3.0657 -4.7566 -2.0237 0.9762
-2.1725 -5.2302 -2.0253 0.9762
-0.7091 -5.6216 -2.0262 0.9762
-0.2043 -5.6622 -2.0262 0.9762
0.3020 -5.6571 -2.0259 0.9762
1.3026 -5.5102 -2.0248 0.9762
2.7123 -4.9606 -2.0218 0.9763
3.1423 -4.6955 -2.0205 0.9763
3.5464 -4.3930 -2.0190 0.9763
4.2641 -3.6860 -2.0156 0.9763
5.0739 -2.4173 -2.0098 0.9764
5.4116 -1.4732 -2.0057 0.9765
5.5755 -0.4862 -2.0014 0.9765
5.5613 0.5121 -1.9972 0.9766
5.4876 1.0056 -1.9951 0.9766
5.3705 1.4900 -1.9931 0.9766
5.2110 1.9617 -1.9912 0.9766
4.1806 3.6494 -1.9845 0.9767
3.8354 4.0054 -1.9831 0.9767
3.4604 4.3292 -1.9819 0.9767
3.0584 4.6184 -1.9809 0.9767
2.6327 4.8709 -1.9800 0.9768
2.1865 5.0848 -1.9793 0.9768
1.7233 5.2583 -1.9788 0.9768
-0.2263 5.5283 -1.9786 0.9768
-2.5989 4.8967 -1.9824 0.9767
-3.0277 4.6480 -1.9837 0.9767
-3.4330 4.3622 -1.9851 0.9767
-4.1609 3.6880 -1.9883 0.9767
-4.7592 2.8945 -1.9920 0.9766
-5.0036 2.4604 -1.9939 0.9766
-5.2086 2.0059 -1.9960 0.9766
-5.3725 1.5344 -1.9981 0.9765
-5.6049 0.0560 -2.0044 0.9765
-5.5934 -0.4451 -2.0066 0.9764
-5.5371 -0.9438 -2.0087 0.9764
-4.8751 -2.8331 -2.0164 0.9763
-3.9591 -4.0331 -2.0210 0.9763
-3.5854 -4.3732 -2.0223 0.9763
-2.3015 -5.1742 -2.0251 0.9762
-1.8308 -5.3605 -2.0257 0.9762
-1.3451 -5.5035 -2.0260 0.9762
-0.8484 -5.6022 -2.0262 0.9762
-0.3449 -5.6555 -2.0262 0.9762
0.6663 -5.6250 -2.0256 0.9762
1.1656 -5.5414 -2.0250 0.9762
1.6550 -5.4131 -2.0242 0.9762
2.5887 -5.0272 -2.0221 0.9763
4.4901 -3.4010 -2.0143 0.9764
5.3750 -1.6076 -2.0063 0.9764
5.4912 -1.1201 -2.0041 0.9765
5.5633 -0.6246 -2.0020 0.9765
5.5909 -0.1253 -1.9999 0.9765
5.2595 1.8322 -1.9917 0.9766
4.5737 3.1521 -1.9864 0.9767
4.2707 3.5452 -1.9849 0.9767
3.9344 3.9096 -1.9835 0.9767
2.7531 4.8046 -1.9803 0.9768
2.3123 5.0294 -1.9795 0.9768
0.4052 5.5173 -1.9784 0.9768
-0.0890 5.5320 -1.9785 0.9768
-0.5827 5.5029 -1.9789 0.9768
-1.0720 5.4304 -1.9794 0.9768
-2.0224 5.1574 -1.9810 0.9767
-4.0670 3.7893 -1.9878 0.9767
-4.3930 3.4140 -1.9896 0.9766
-4.9396 2.5832 -1.9934 0.9766
-5.3312 1.6669 -1.9975 0.9766
-5.5544 0.6936 -2.0017 0.9765
-5.6011 -0.3061 -2.0060 0.9765
-5.4687 -1.3001 -2.0101 0.9764
-5.3361 -1.7849 -2.0121 0.9764
-4.6850 -3.1437 -2.0176 0.9763
-4.0572 -3.9328 -2.0207 0.9763
-3.6923 -4.2821 -2.0220 0.9763
-0.9872 -5.5793 -2.0262 0.9762
0.0208 -5.6656 -2.0261 0.9762
0.5265 -5.6401 -2.0257 0.9762
1.5203 -5.4531 -2.0245 0.9762
2.0002 -5.2932 -2.0235 0.9762
2.9064 -4.8475 -2.0212 0.9763
3.3253 -4.5655 -2.0198 0.9763
3.7168 -4.2471 -2.0183 0.9763
4.4054 -3.5123 -2.0148 0.9763
4.9504 -2.6676 -2.0110 0.9764
5.1636 -2.2127 -2.0089 0.9764
5.5478 -0.7628 -2.0026 0.9765
5.5877 -0.2641 -2.0004 0.9765
5.5339 0.7324 -1.9962 0.9766
5.1268 2.1663 -1.9903 0.9766
4.9085 2.6131 -1.9885 0.9767
4.6516 3.0383 -1.9869 0.9767
4.3583 3.4388 -1.9853 0.9767
4.0310 3.8115 -1.9839 0.9767
3.6722 4.1535 -1.9826 0.9767
1.9825 5.1670 -1.9791 0.9768
1.0315 5.4353 -1.9784 0.9768
0.5421 5.5055 -1.9783 0.9768
-4.3407 -2.9755 -2.0167 0.9777
-3.0321 -4.3175 -2.0218 0.9777
-2.2176 -4.7918 -2.0234 0.9776
-0.8690 -5.2111 -2.0246 0.9776
0.0717 -5.2822 -2.0244 0.9776
1.4679 -5.0704 -2.0229 0.9776
3.1430 -4.2266 -2.0185 0.9777
3.5053 -3.9262 -2.0170 0.9777
4.1411 -3.2350 -2.0138 0.9777
4.4095 -2.8498 -2.0120 0.9778
4.6421 -2.4425 -2.0102 0.9778
4.8371 -2.0163 -2.0083 0.9778
4.9929 -1.5749 -2.0063 0.9778
5.1831 -0.6604 -2.0023 0.9779
5.0665 1.1910 -1.9945 0.9780
4.3143 2.8793 -1.9877 0.9780
4.0370 3.2507 -1.9862 0.9780
3.7282 3.5957 -1.9849 0.9781
3.3902 3.9119 -1.9837 0.9781
3.0258 4.1968 -1.9827 0.9781
2.2293 4.6643 -1.9811 0.9781
0.9130 5.0853 -1.9799 0.9781
0.4553 5.1464 -1.9799 0.9781
-0.0060 5.1669 -1.9800 0.9781
-1.3761 4.9841 -1.9815 0.9781
-1.8164 4.8433 -1.9823 0.9781
-2.6516 4.4477 -1.9844 0.9781
-3.0401 4.1959 -1.9856 0.9780
-3.4049 3.9104 -1.9870 0.9780
-3.7433 3.5935 -1.9885 0.9780
-4.3300 2.8752 -1.9919 0.9780
-4.5736 2.4794 -1.9937 0.9780
-4.9510 1.6295 -1.9974 0.9779
-5.0817 1.1821 -1.9994 0.9779
-5.1946 -0.6742 -2.0074 0.9778
-5.0013 -1.5904 -2.0112 0.9778
-4.8437 -2.0324 -2.0130 0.9778
-4.4123 -2.8662 -2.0163 0.9777
-4.1418 -3.2511 -2.0178 0.9777
-3.8376 -3.6104 -2.0192 0.9777
-3.5021 -3.9411 -2.0204 0.9777
-3.1379 -4.2403 -2.0215 0.9777
-2.7481 -4.5057 -2.0225 0.9776
-2.3357 -4.7349 -2.0232 0.9776
-1.9042 -4.9260 -2.0239 0.9776
-1.4571 -5.0774 -2.0243 0.9776
-0.5309 -5.2564 -2.0246 0.9776
0.4124 -5.2660 -2.0242 0.9776
0.8807 -5.2069 -2.0237 0.9776
1.3417 -5.1058 -2.0231 0.9776
3.4075 -4.0129 -2.0174 0.9777
3.7493 -3.6898 -2.0159 0.9777
4.0605 -3.3376 -2.0142 0.9777
4.3385 -2.9591 -2.0125 0.9778
4.7868 -2.1364 -2.0088 0.9778
5.1756 0.6065 -1.9969 0.9779
5.0959 1.0652 -1.9950 0.9779
4.3853 2.7719 -1.9881 0.9780
4.1173 3.1501 -1.9866 0.9780
3.8170 3.5027 -1.9853 0.9781
3.1295 4.1210 -1.9830 0.9781
2.7478 4.3819 -1.9821 0.9781
2.3446 4.6079 -1.9813 0.9781
1.9233 4.7974 -1.9807 0.9781
1.0390 5.0612 -1.9800 0.9781
0.5829 5.1335 -1.9799 0.9781
0.1222 5.1653 -1.9800 0.9781
-0.3395 5.1562 -1.9802 0.9781
-1.2518 5.0163 -1.9813 0.9781
-2.1259 4.7177 -1.9830 0.9781
