ply
format ascii 1.0
element vertex 1591
property float32 x
property float32 y
property float32 z
property float32 I
end_header
-10.3520 -2.4732 -2.0005 0.9576
-9.3265 -5.1295 -2.0007 0.9576
-8.8313 -5.9422 -2.0007 0.9576
-8.2656 -6.7075 -2.0008 0.9576
-7.6338 -7.4193 -2.0009 0.9576
-4.5533 -9.6245 -2.0013 0.9576
-2.7685 -10.2823 -2.0015 0.9576
-0.8949 -10.6121 -2.0017 0.9576
0.0565 -10.6502 -2.0019 0.9576
1.0076 -10.6032 -2.0020 0.9576
1.9508 -10.4715 -2.0021 0.9576
2.8785 -10.2560 -2.0022 0.9576
3.7832 -9.9585 -2.0023 0.9576
4.6579 -9.5813 -2.0024 0.9576
5.4953 -9.1274 -2.0025 0.9576
7.0324 -8.0048 -2.0027 0.9576
8.3451 -6.6264 -2.0029 0.9576
9.3916 -5.0362 -2.0030 0.9576
9.8042 -4.1773 -2.0031 0.9576
10.5613 -1.4288 -2.0032 0.9576
10.1404 3.2788 -2.0032 0.9576
9.3948 5.0304 -2.0031 0.9576
8.9076 5.8493 -2.0030 0.9576
6.7714 7.6982 -1.9271 0.9591
5.8158 7.9431 -1.8504 0.9607
3.5013 9.1993 -1.8501 0.9607
2.6655 9.4747 -1.8500 0.9607
1.8085 9.6743 -1.8499 0.9607
0.9371 9.7966 -1.8498 0.9607
-2.5522 9.5022 -1.8493 0.9607
-4.2016 8.8955 -1.8491 0.9608
-4.9791 8.4842 -1.8490 0.9608
-5.7167 8.0051 -1.8489 0.9608
-7.6188 7.4139 -1.9982 0.9577
-8.2615 6.7127 -2.0008 0.9576
-9.7445 4.2819 -2.0006 0.9576
-10.0878 3.3943 -2.0006 0.9576
-10.3505 2.4796 -2.0005 0.9576
-10.5633 -1.3018 -2.0005 0.9576
-10.1634 -3.1606 -2.0006 0.9576
-9.8406 -4.0558 -2.0006 0.9576
-9.4393 -4.9187 -2.0006 0.9576
-8.9625 -5.7423 -2.0007 0.9576
-8.4141 -6.5201 -2.0008 0.9576
-7.7983 -7.2459 -2.0009 0.9576
-6.3853 -8.5186 -2.0010 0.9576
-5.5991 -9.0553 -2.0011 0.9576
-2.9986 -10.2174 -2.0015 0.9576
-2.0742 -10.4450 -2.0016 0.9576
-1.1330 -10.5891 -2.0017 0.9576
-0.1827 -10.6486 -2.0018 0.9576
0.7692 -10.6230 -2.0019 0.9576
4.4415 -9.6833 -2.0024 0.9576
5.2889 -9.2484 -2.0025 0.9576
6.8507 -8.1606 -2.0027 0.9576
7.5526 -7.5164 -2.0028 0.9576
8.7702 -6.0532 -2.0030 0.9576
9.7078 -4.3964 -2.0031 0.9576
10.6333 -0.7187 -2.0032 0.9576
10.6550 0.2339 -2.0032 0.9576
9.8980 3.9500 -2.0031 0.9576
8.4960 6.4322 -2.0029 0.9576
7.8871 7.1651 -2.0029 0.9576
7.0776 7.6909 -1.9645 0.9584
2.8776 9.4126 -1.8500 0.9607
1.1569 9.7732 -1.8498 0.9607
0.2793 9.8369 -1.8497 0.9607
-0.6004 9.8219 -1.8496 0.9607
-1.4753 9.7285 -1.8495 0.9607
-3.1823 9.3097 -1.8493 0.9607
-6.3364 7.7224 -1.8776 0.9602
-8.1088 6.8965 -2.0008 0.9576
-8.6920 6.1445 -2.0008 0.9576
-9.2058 5.3434 -2.0007 0.9576
-9.6460 4.4996 -2.0006 0.9576
-10.2923 2.7115 -2.0005 0.9576
-10.4526 -2.0059 -2.0005 0.9576
-10.2317 -2.9316 -2.0005 0.9576
-9.5473 -4.7055 -2.0006 0.9576
-7.9590 -7.0689 -2.0008 0.9576
-7.2961 -7.7518 -2.0009 0.9576
-5.8010 -8.9272 -2.0011 0.9576
-4.9807 -9.4101 -2.0012 0.9576
-3.2273 -10.1473 -2.0014 0.9576
-0.4217 -10.6417 -2.0018 0.9576
0.5305 -10.6375 -2.0019 0.9576
2.4150 -10.3746 -2.0022 0.9576
3.3322 -10.1180 -2.0023 0.9576
4.2229 -9.7805 -2.0024 0.9576
5.0798 -9.3647 -2.0025 0.9576
5.8963 -8.8740 -2.0026 0.9576
8.6319 -6.2485 -2.0029 0.9576
9.6066 -4.6133 -2.0031 0.9576
9.9805 -3.7369 -2.0031 0.9576
10.4865 -1.9015 -2.0032 0.9576
10.6145 -0.9573 -2.0032 0.9576
10.6576 -0.0054 -2.0032 0.9576
10.6155 0.9466 -2.0032 0.9576
10.2775 2.8202 -2.0032 0.9576
9.9843 3.7268 -2.0031 0.9576
9.6113 4.6036 -2.0031 0.9576
9.1614 5.4435 -2.0030 0.9576
8.6383 6.2399 -2.0030 0.9576
7.3637 7.6497 -1.9958 0.9577
4.7024 8.6481 -1.8503 0.9607
3.9110 9.0330 -1.8502 0.9607
2.2411 9.5837 -1.8500 0.9607
1.3760 9.7450 -1.8498 0.9607
-0.3797 9.8331 -1.8496 0.9607
-2.9725 9.3789 -1.8493 0.9607
-3.7981 9.0754 -1.8492 0.9607
-7.2357 7.7033 -1.9865 0.9579
-8.5519 6.3382 -2.0008 0.9576
-10.2288 2.9419 -2.0006 0.9576
-10.4505 2.0165 -2.0005 0.9576
-10.5888 1.0750 -2.0005 0.9576
-10.6424 0.1249 -2.0005 0.9576
-10.2950 -2.7010 -2.0005 0.9576
-10.0127 -3.6098 -2.0006 0.9576
-9.6505 -4.4899 -2.0006 0.9576
-9.2111 -5.3340 -2.0007 0.9576
-8.1157 -6.8883 -2.0008 0.9576
-7.4683 -7.5860 -2.0009 0.9576
-5.9999 -8.7945 -2.0011 0.9576
-5.1907 -9.2958 -2.0012 0.9576
-2.5410 -10.3410 -2.0015 0.9576
-0.6606 -10.6294 -2.0018 0.9576
0.2915 -10.6465 -2.0019 0.9576
4.0021 -9.8727 -2.0024 0.9576
6.4773 -8.4598 -2.0027 0.9576
7.8798 -7.1730 -2.0029 0.9576
9.8940 -3.9600 -2.0031 0.9576
-8.5803 -3.9961 -2.0008 0.9620
-7.7328 -5.4593 -2.0009 0.9620
-6.6386 -6.7485 -2.0010 0.9620
-3.8558 -8.6474 -2.0014 0.9620
-1.4255 -9.3616 -2.0017 0.9620
-0.5837 -9.4520 -2.0018 0.9620
1.1075 -9.4061 -2.0020 0.9620
1.9433 -9.2700 -2.0021 0.9620
4.3320 -8.4244 -2.0024 0.9620
5.0674 -8.0042 -2.0025 0.9620
5.7623 -7.5199 -2.0026 0.9620
6.4113 -6.9755 -2.0027 0.9620
8.4491 -4.2893 -2.0029 0.9620
8.7986 -3.5176 -2.0030 0.9620
9.0778 -2.7177 -2.0030 0.9620
8.9485 3.1170 -2.0030 0.9620
4.4155 7.7100 -1.8781 0.9643
1.4145 8.6362 -1.8498 0.9649
-1.6989 8.5829 -1.8494 0.9649
-3.9129 7.8242 -1.8492 0.9649
-4.7628 7.7134 -1.9162 0.9636
-6.3274 7.0414 -2.0011 0.9620
-6.9308 6.4478 -2.0010 0.9620
-7.4788 5.8028 -2.0009 0.9620
-9.3930 1.1635 -2.0007 0.9620
-8.6678 -3.8024 -2.0007 0.9620
-8.2938 -4.5615 -2.0008 0.9620
-7.3503 -5.9647 -2.0009 0.9620
-6.7884 -6.5976 -2.0010 0.9620
-6.1722 -7.1779 -2.0011 0.9620
-2.4618 -9.1433 -2.0015 0.9620
-1.6354 -9.3271 -2.0016 0.9620
-0.7958 -9.4364 -2.0017 0.9620
0.0502 -9.4703 -2.0019 0.9620
0.8960 -9.4284 -2.0020 0.9620
2.5595 -9.1195 -2.0022 0.9620
3.3640 -8.8549 -2.0023 0.9620
4.1417 -8.5195 -2.0024 0.9620
5.5919 -7.6474 -2.0026 0.9620
6.2529 -7.1176 -2.0026 0.9620
6.8639 -6.5309 -2.0027 0.9620
7.9170 -5.2058 -2.0029 0.9620
8.3505 -4.4780 -2.0029 0.9620
8.7173 -3.7143 -2.0030 0.9620
9.0144 -2.9209 -2.0030 0.9620
9.2394 -2.1041 -2.0030 0.9620
9.4665 -0.4266 -2.0031 0.9620
9.3913 1.2646 -2.0031 0.9620
9.2407 2.0983 -2.0030 0.9620
9.0163 2.9153 -2.0030 0.9620
8.7197 3.7089 -2.0030 0.9620
7.4238 5.8874 -2.0028 0.9620
6.2574 7.1138 -2.0027 0.9620
3.1133 8.1798 -1.8501 0.9648
0.8333 8.7112 -1.8498 0.9649
-0.7299 8.7195 -1.8496 0.9649
-3.0149 8.2127 -1.8493 0.9649
-3.7362 7.9102 -1.8492 0.9649
-5.4820 7.6765 -1.9939 0.9622
-6.7843 6.6019 -2.0010 0.9620
-7.3466 5.9693 -2.0009 0.9620
-7.8502 5.2891 -2.0009 0.9620
-8.2910 4.5666 -2.0008 0.9620
-9.3645 1.3741 -2.0007 0.9620
-9.4497 0.5322 -2.0007 0.9620
-9.3937 -1.1577 -2.0007 0.9620
-9.2528 -1.9921 -2.0007 0.9620
-9.0380 -2.8106 -2.0007 0.9620
-8.3941 -4.3740 -2.0008 0.9620
-7.4823 -5.7981 -2.0009 0.9620
-6.9347 -6.4435 -2.0010 0.9620
-6.3317 -7.0374 -2.0010 0.9620
-5.6781 -7.5751 -2.0011 0.9620
-4.2401 -8.4653 -2.0013 0.9620
-2.6665 -9.0856 -2.0015 0.9620
-1.0075 -9.4160 -2.0017 0.9620
0.6840 -9.4460 -2.0019 0.9620
1.5251 -9.3477 -2.0020 0.9620
3.1643 -8.9281 -2.0022 0.9620
4.7028 -8.2235 -2.0024 0.9620
7.2859 -6.0570 -2.0028 0.9620
7.7980 -5.3822 -2.0028 0.9620
8.6317 -3.9091 -2.0030 0.9620
9.3596 -1.4809 -2.0030 0.9620
9.4545 -0.6390 -2.0031 0.9620
9.4738 0.2080 -2.0031 0.9620
9.4174 1.0534 -2.0031 0.9620
8.8008 3.5122 -2.0030 0.9620
7.5542 5.7192 -2.0028 0.9620
7.0129 6.3709 -2.0028 0.9620
4.8817 7.7003 -1.9272 0.9634
4.0075 7.7815 -1.8502 0.9648
3.2963 8.1080 -1.8501 0.9648
2.5588 8.3696 -1.8500 0.9649
1.8009 8.5642 -1.8499 0.9649
1.0287 8.6904 -1.8498 0.9649
-1.3118 8.6507 -1.8495 0.9649
-2.8298 8.2784 -1.8493 0.9649
-3.5577 7.9922 -1.8492 0.9649
-4.3015 7.7218 -1.8684 0.9645
-6.0018 7.3146 -2.0000 0.9621
-6.6344 6.7526 -2.0010 0.9620
-7.2108 6.1328 -2.0009 0.9620
-8.5779 4.0014 -2.0008 0.9620
-9.1526 2.4112 -2.0007 0.9620
-9.4642 -0.1015 -2.0007 0.9620
-7.6106 -5.6286 -2.0009 0.9620
-4.4290 -8.3679 -2.0013 0.9620
-3.6641 -8.7304 -2.0014 0.9620
-1.2187 -9.3909 -2.0017 0.9620
1.3148 -9.3795 -2.0020 0.9620
2.9629 -8.9968 -2.0022 0.9620
3.7549 -8.6966 -2.0023 0.9620
4.5169 -8.3269 -2.0024 0.9620
5.2428 -7.8905 -2.0025 0.9620
5.9269 -7.3910 -2.0026 0.9620
6.5636 -6.8324 -2.0027 0.9620
8.1409 -4.8483 -2.0029 0.9620
8.5417 -4.1019 -2.0029 0.9620
9.1356 -2.5168 -2.0030 0.9620
9.4761 -0.0048 -2.0031 0.9620
9.4387 0.8416 -2.0031 0.9620
9.3257 1.6813 -2.0030 0.9620
8.8775 3.3137 -2.0030 0.9620
8.1459 4.8401 -2.0029 0.9620
7.1543 6.2119 -2.0028 0.9620
6.5706 6.8258 -2.0027 0.9620
5.9274 7.3764 -2.0003 0.9621
5.1242 7.6950 -1.9542 0.9629
4.1955 7.7154 -1.8564 0.9647
3.4776 8.0320 -1.8501 0.9648
2.7461 8.3101 -1.8500 0.9649
1.9928 8.5217 -1.8499 0.9649
1.2236 8.6652 -1.8498 0.9649
0.4447 8.7394 -1.8497 0.9649
-0.3377 8.7437 -1.8496 0.9649
-1.1172 8.6781 -1.8495 0.9649
-1.8878 8.5432 -1.8494 0.9649
-3.3774 8.0702 -1.8492 0.9649
-4.9983 7.7089 -1.9421 0.9631
-7.6049 5.6363 -2.0009 0.9620
-8.4859 4.1930 -2.0008 0.9620
-9.0962 2.6162 -2.0007 0.9620
-9.4362 -0.7347 -2.0007 0.9620
-9.3329 -1.5746 -2.0007 0.9620
-9.1550 -2.4020 -2.0007 0.9620
-8.9040 -3.2101 -2.0007 0.9620
-8.1912 -4.7434 -2.0008 0.9620
-7.7350 -5.4562 -2.0009 0.9620
-6.6412 -6.7459 -2.0010 0.9620
-3.8592 -8.6458 -2.0014 0.9620
1.1038 -9.4065 -2.0020 0.9620
1.9397 -9.2708 -2.0021 0.9620
2.7601 -9.0610 -2.0022 0.9620
3.5586 -8.7787 -2.0023 0.9620
4.3287 -8.4261 -2.0024 0.9620
5.0643 -8.0062 -2.0025 0.9620
5.7594 -7.5222 -2.0026 0.9620
6.4085 -6.9780 -2.0027 0.9620
7.0064 -6.3779 -2.0027 0.9620
8.7972 -3.5211 -2.0030 0.9620
-8.3939 -1.4196 -2.0008 0.9656
-8.2337 -2.1637 -2.0008 0.9656
-7.7176 -3.5943 -2.0009 0.9656
-7.3658 -4.2693 -2.0009 0.9656
-6.9552 -4.9103 -2.0010 0.9656
-6.4891 -5.5121 -2.0010 0.9656
-5.9710 -6.0698 -2.0011 0.9656
-4.7961 -7.0359 -2.0012 0.9656
-4.1486 -7.4365 -2.0013 0.9656
-3.4680 -7.7776 -2.0014 0.9656
-2.7595 -8.0567 -2.0015 0.9656
-1.2821 -8.4199 -2.0017 0.9656
0.9961 -8.4598 -2.0020 0.9656
2.4856 -8.1483 -2.0022 0.9656
3.8961 -7.5767 -2.0023 0.9656
4.5575 -7.1988 -2.0024 0.9656
6.7907 -5.1478 -2.0027 0.9656
7.5987 -3.8576 -2.0028 0.9656
7.9130 -3.1636 -2.0029 0.9656
8.1641 -2.4442 -2.0029 0.9656
8.5201 -0.1923 -2.0029 0.9656
8.5033 0.5694 -2.0029 0.9656
8.4184 1.3267 -2.0029 0.9656
8.2662 2.0733 -2.0029 0.9656
8.0478 2.8033 -2.0029 0.9656
6.5560 5.4434 -2.0027 0.9656
4.8778 6.9860 -2.0025 0.9656
0.5733 7.8495 -1.8497 0.9682
-3.0270 7.7060 -1.9458 0.9666
-3.7978 7.5940 -1.9955 0.9657
-5.1029 6.8165 -2.0012 0.9656
-6.2339 5.7994 -2.0011 0.9656
-6.7267 5.2193 -2.0010 0.9656
-8.3214 1.7969 -2.0008 0.9656
-8.4485 1.0465 -2.0008 0.9656
-8.2802 -1.9782 -2.0008 0.9656
-7.7963 -3.4200 -2.0009 0.9656
-7.4598 -4.1028 -2.0009 0.9656
-7.0637 -4.7529 -2.0010 0.9656
-6.6112 -5.3649 -2.0010 0.9656
-5.5515 -6.4561 -2.0011 0.9656
-4.9528 -6.9264 -2.0012 0.9656
-4.3145 -7.3414 -2.0013 0.9656
-0.7157 -8.4871 -2.0018 0.9656
0.0452 -8.5176 -2.0019 0.9656
0.8058 -8.4799 -2.0019 0.9656
1.5601 -8.3744 -2.0020 0.9656
2.3020 -8.2020 -2.0021 0.9656
5.6237 -6.4013 -2.0026 0.9656
6.1732 -5.8736 -2.0026 0.9656
7.1202 -4.6819 -2.0028 0.9656
7.5101 -4.0273 -2.0028 0.9656
7.8400 -3.3404 -2.0029 0.9656
8.1071 -2.6269 -2.0029 0.9656
8.3095 -1.8923 -2.0029 0.9656
8.4453 -1.1425 -2.0029 0.9656
8.5137 -0.3836 -2.0029 0.9656
8.5139 0.3784 -2.0029 0.9656
8.4461 1.1373 -2.0029 0.9656
8.3106 1.8871 -2.0029 0.9656
7.8421 3.3356 -2.0029 0.9656
7.5126 4.0226 -2.0028 0.9656
7.1231 4.6775 -2.0028 0.9656
5.6277 6.3979 -2.0026 0.9656
5.0335 6.8747 -2.0025 0.9656
1.4463 7.7369 -1.8498 0.9682
0.7494 7.8348 -1.8498 0.9682
-0.6565 7.8423 -1.8496 0.9682
-1.3543 7.7520 -1.8495 0.9682
-2.8299 7.7087 -1.9299 0.9668
-3.6239 7.6724 -1.9942 0.9657
-5.5475 6.4595 -2.0012 0.9656
-6.6079 5.3691 -2.0010 0.9656
-8.4229 1.2360 -2.0008 0.9656
-8.4996 0.4787 -2.0008 0.9656
-8.5084 -0.2824 -2.0008 0.9656
-8.4492 -1.0413 -2.0008 0.9656
-8.3225 -1.7918 -2.0008 0.9656
-7.8711 -3.2441 -2.0009 0.9656
-6.2374 -5.7955 -2.0011 0.9656
-5.6950 -6.3297 -2.0011 0.9656
-5.1071 -6.8133 -2.0012 0.9656
-3.8136 -7.6139 -2.0014 0.9656
-3.1184 -7.9245 -2.0015 0.9656
-2.3983 -8.1717 -2.0015 0.9656
-0.9061 -8.4688 -2.0017 0.9656
-0.1461 -8.5163 -2.0018 0.9656
0.6152 -8.4958 -2.0019 0.9656
2.1172 -8.2515 -2.0021 0.9656
3.5519 -7.7439 -2.0023 0.9656
4.8735 -6.9889 -2.0025 0.9656
5.4784 -6.5259 -2.0025 0.9656
6.5526 -5.4474 -2.0027 0.9656
7.4177 -4.1949 -2.0028 0.9656
8.0461 -2.8082 -2.0029 0.9656
8.4175 -1.3319 -2.0029 0.9656
8.4695 0.9474 -2.0029 0.9656
7.2264 4.5164 -2.0028 0.9656
6.7939 5.1436 -2.0027 0.9656
6.3071 5.7297 -2.0027 0.9656
4.5620 7.1960 -2.0024 0.9656
3.8904 7.5542 -1.9970 0.9657
0.9252 7.8161 -1.8498 0.9682
0.2236 7.8764 -1.8519 0.9681
-0.4802 7.8552 -1.8496 0.9682
-1.1799 7.7805 -1.8495 0.9682
-1.8885 7.7191 -1.8677 0.9679
-7.3632 4.2739 -2.0009 0.9656
-7.7154 3.5990 -2.0009 0.9656
-8.0059 2.8955 -2.0008 0.9656
-8.2324 2.1688 -2.0008 0.9656
-8.5126 -0.0913 -2.0008 0.9656
-8.4704 -0.8513 -2.0008 0.9656
-8.1840 -2.3448 -2.0008 0.9656
-7.6364 -3.7637 -2.0009 0.9656
-7.2699 -4.4308 -2.0009 0.9656
-6.8453 -5.0626 -2.0010 0.9656
-5.8357 -6.2002 -2.0011 0.9656
-3.9836 -7.5263 -2.0013 0.9656
-2.5811 -8.1157 -2.0015 0.9656
-1.0961 -8.4462 -2.0017 0.9656
0.4243 -8.5073 -2.0019 0.9656
5.3305 -6.6473 -2.0025 0.9656
5.9031 -6.1448 -2.0026 0.9656
6.9027 -4.9967 -2.0027 0.9656
7.3216 -4.3604 -2.0028 0.9656
7.6820 -3.6891 -2.0028 0.9656
7.9809 -2.9882 -2.0029 0.9656
8.4879 -0.7655 -2.0029 0.9656
8.4886 0.7569 -2.0029 0.9656
8.3870 1.5121 -2.0029 0.9656
7.9840 2.9801 -2.0029 0.9656
7.3260 4.3530 -2.0028 0.9656
5.9094 6.1389 -2.0026 0.9656
4.0620 7.4703 -1.9985 0.9657
2.5467 7.7066 -1.9076 0.9672
1.8043 7.7159 -1.8623 0.9680
0.4000 7.8602 -1.8497 0.9682
-1.0049 7.8052 -1.8495 0.9682
-1.7060 7.7206 -1.8583 0.9680
-3.9671 7.5135 -1.9969 0.9657
-4.6325 7.1448 -2.0013 0.9656
-5.2520 6.7022 -2.0012 0.9656
-6.8402 5.0696 -2.0010 0.9656
-7.2655 4.4382 -2.0009 0.9656
-7.6327 3.7714 -2.0009 0.9656
-7.9389 3.0745 -2.0008 0.9656
-8.5125 0.0999 -2.0008 0.9656
-8.2345 -2.1605 -2.0008 0.9656
-7.7190 -3.5912 -2.0009 0.9656
-4.7988 -7.0340 -2.0012 0.9656
-4.1516 -7.4348 -2.0013 0.9656
-2.7627 -8.0556 -2.0015 0.9656
-2.0322 -8.2705 -2.0016 0.9656
-1.2855 -8.4194 -2.0017 0.9656
0.9927 -8.4602 -2.0020 0.9656
1.7445 -8.3381 -2.0021 0.9656
2.4824 -8.1493 -2.0022 0.9656
4.5547 -7.2005 -2.0024 0.9656
5.1798 -6.7652 -2.0025 0.9656
5.7636 -6.2758 -2.0026 0.9656
6.7887 -5.1505 -2.0027 0.9656
7.2218 -4.5236 -2.0028 0.9656
7.5972 -3.8606 -2.0028 0.9656
7.9118 -3.1667 -2.0029 0.9656
-7.2690 -2.6239 -2.0009 0.9686
-6.6864 -3.8755 -2.0010 0.9686
-6.3136 -4.4573 -2.0010 0.9686
-5.4201 -5.5099 -2.0012 0.9686
-4.3536 -6.3868 -2.0013 0.9686
-3.7658 -6.7504 -2.0014 0.9686
-2.5049 -7.3133 -2.0015 0.9686
-1.1638 -7.6429 -2.0017 0.9686
-0.4765 -7.7167 -2.0018 0.9686
0.2146 -7.7287 -2.0019 0.9686
0.9041 -7.6790 -2.0020 0.9686
2.9079 -7.1654 -2.0022 0.9686
3.5365 -6.8773 -2.0023 0.9686
4.1368 -6.5342 -2.0024 0.9686
4.7040 -6.1388 -2.0024 0.9685
5.2337 -5.6943 -2.0025 0.9685
6.1638 -4.6725 -2.0026 0.9685
6.8971 -3.5015 -2.0027 0.9685
7.1824 -2.8715 -2.0028 0.9685
7.5789 -1.5478 -2.0028 0.9685
7.6869 -0.8646 -2.0028 0.9685
7.7181 0.5169 -2.0028 0.9685
7.5029 1.8819 -2.0028 0.9685
6.7352 3.8034 -2.0027 0.9685
6.3685 4.3897 -2.0027 0.9685
5.4855 5.4525 -2.0026 0.9685
4.9764 5.9204 -2.0025 0.9685
4.4275 6.3410 -2.0024 0.9685
-2.1694 7.4089 -1.9988 0.9686
-4.0610 6.5769 -2.0013 0.9686
-4.6321 6.1876 -2.0013 0.9686
-6.1062 4.7378 -2.0011 0.9686
-6.5048 4.1733 -2.0010 0.9686
-7.3780 2.2994 -2.0009 0.9686
-7.5538 1.6312 -2.0009 0.9686
-7.6467 -1.1172 -2.0009 0.9686
-7.5164 -1.7958 -2.0009 0.9686
-7.0771 -3.1045 -2.0010 0.9686
-6.4121 -4.3144 -2.0010 0.9686
-6.0013 -4.8700 -2.0011 0.9686
-4.4959 -6.2873 -2.0013 0.9686
-3.9165 -6.6640 -2.0014 0.9686
-3.3057 -6.9875 -2.0014 0.9686
-2.0099 -7.4648 -2.0016 0.9686
-1.3352 -7.6148 -2.0017 0.9686
-0.6497 -7.7039 -2.0018 0.9686
0.0410 -7.7315 -2.0019 0.9686
0.7315 -7.6973 -2.0019 0.9686
1.4161 -7.6015 -2.0020 0.9686
3.9890 -6.6254 -2.0024 0.9686
4.5650 -6.2429 -2.0024 0.9685
6.4628 -4.2496 -2.0027 0.9685
7.1161 -3.0320 -2.0028 0.9685
7.5422 -1.7176 -2.0028 0.9685
7.7276 -0.3482 -2.0028 0.9685
7.7278 0.3434 -2.0028 0.9685
7.6662 1.0323 -2.0028 0.9685
7.5433 1.7129 -2.0028 0.9685
7.3601 2.3798 -2.0028 0.9685
7.1180 3.0276 -2.0028 0.9685
6.8190 3.6512 -2.0027 0.9685
6.4655 4.2456 -2.0027 0.9685
5.6066 5.3280 -2.0026 0.9685
5.1081 5.8073 -2.0025 0.9685
3.3854 6.9529 -2.0023 0.9686
-2.6638 7.2562 -2.0014 0.9686
-3.9124 6.6665 -2.0014 0.9686
-4.4920 6.2902 -2.0013 0.9686
-5.5391 5.3902 -2.0012 0.9686
-5.9983 4.8737 -2.0011 0.9686
-7.3245 2.4645 -2.0009 0.9686
-7.5153 1.8004 -2.0009 0.9686
-7.6460 1.1219 -2.0009 0.9686
-7.7156 0.4345 -2.0009 0.9686
-7.6698 -0.9452 -2.0009 0.9686
-7.1450 -2.9448 -2.0009 0.9686
-6.5073 -4.1693 -2.0010 0.9686
-5.6620 -5.2609 -2.0011 0.9686
-4.0651 -6.5743 -2.0013 0.9686
-3.4617 -6.9114 -2.0014 0.9686
-2.1770 -7.4177 -2.0016 0.9686
-0.8225 -7.6873 -2.0017 0.9686
-0.1326 -7.7304 -2.0018 0.9686
1.2451 -7.6313 -2.0020 0.9686
1.9218 -7.4899 -2.0021 0.9686
3.2240 -7.0291 -2.0023 0.9686
4.4236 -6.3438 -2.0024 0.9685
4.9727 -5.9235 -2.0025 0.9685
5.4821 -5.4558 -2.0025 0.9685
6.3657 -4.3936 -2.0027 0.9685
7.0462 -3.1910 -2.0027 0.9685
7.3032 -2.5490 -2.0028 0.9685
7.5017 -1.8865 -2.0028 0.9685
7.7336 0.1698 -2.0028 0.9685
7.6875 0.8599 -2.0028 0.9685
7.4117 2.2139 -2.0028 0.9685
6.1667 4.6687 -2.0026 0.9685
5.7249 5.2008 -2.0026 0.9685
5.2373 5.6911 -2.0025 0.9685
4.7079 6.1360 -2.0025 0.9685
4.1408 6.5317 -2.0024 0.9686
3.5408 6.8752 -2.0023 0.9686
2.2580 7.3858 -1.9997 0.9686
1.5871 7.5474 -1.9969 0.9686
0.2184 7.6935 -1.9928 0.9687
-0.4700 7.6880 -1.9943 0.9687
-1.1554 7.6195 -1.9954 0.9687
-1.8333 7.4936 -1.9974 0.9686
-2.4991 7.3109 -2.0005 0.9686
-3.7617 6.7527 -2.0014 0.9686
-6.3109 4.4613 -2.0011 0.9686
-6.6840 3.8796 -2.0010 0.9686
-7.0037 3.2670 -2.0010 0.9686
-7.2674 2.6284 -2.0009 0.9686
-7.4730 1.9687 -2.0009 0.9686
-7.6189 1.2934 -2.0009 0.9686
-7.4290 -2.1285 -2.0009 0.9686
-6.9320 -3.4165 -2.0010 0.9686
-5.7786 -5.1324 -2.0011 0.9686
-4.7736 -6.0790 -2.0012 0.9686
-4.2117 -6.4813 -2.0013 0.9686
-1.6757 -7.5470 -2.0016 0.9686
-0.9949 -7.6668 -2.0017 0.9686
-0.3062 -7.7254 -2.0018 0.9686
2.4189 -7.3447 -2.0022 0.9686
3.0654 -7.0996 -2.0022 0.9686
3.6874 -6.7977 -2.0023 0.9686
4.2800 -6.4414 -2.0024 0.9686
4.8384 -6.0336 -2.0025 0.9685
5.3581 -5.5775 -2.0025 0.9685
6.6456 -3.9578 -2.0027 0.9685
6.9727 -3.3484 -2.0027 0.9685
7.2441 -2.7123 -2.0028 0.9685
7.6112 -1.3802 -2.0028 0.9685
7.7041 -0.6948 -2.0028 0.9685
7.7354 -0.0039 -2.0028 0.9685
7.7049 0.6870 -2.0028 0.9685
7.6126 1.3725 -2.0028 0.9685
7.2468 2.7050 -2.0028 0.9685
6.2700 4.5291 -2.0027 0.9685
5.3638 5.5721 -2.0025 0.9685
4.8445 6.0288 -2.0025 0.9685
3.0725 7.0966 -2.0023 0.9686
2.4244 7.3364 -2.0006 0.9686
1.0775 7.6311 -1.9954 0.9687
0.3914 7.6925 -1.9943 0.9687
-0.9839 7.6421 -1.9950 0.9687
-2.9843 7.1309 -2.0015 0.9686
-3.6092 6.8356 -2.0014 0.9686
-4.7674 6.0839 -2.0013 0.9686
-6.2092 4.6019 -2.0011 0.9686
-6.5952 4.0288 -2.0010 0.9686
-6.9286 3.4235 -2.0010 0.9686
-7.2065 2.7909 -2.0009 0.9686
-7.4269 2.1361 -2.0009 0.9686
-7.6883 0.7805 -2.0009 0.9686
-7.2700 -2.6210 -2.0009 0.9686
-7.0069 -3.2600 -2.0010 0.9686
-6.6879 -3.8729 -2.0010 0.9686
-6.3154 -4.4548 -2.0010 0.9686
-5.4223 -5.5077 -2.0012 0.9686
-4.9088 -5.9702 -2.0012 0.9686
-4.3561 -6.3851 -2.0013 0.9686
-3.7685 -6.7489 -2.0014 0.9686
-3.1508 -7.0588 -2.0014 0.9686
-2.5078 -7.3123 -2.0015 0.9686
-1.8447 -7.5074 -2.0016 0.9686
-1.1668 -7.6425 -2.0017 0.9686
-0.4796 -7.7165 -2.0018 0.9686
0.9011 -7.6793 -2.0020 0.9686
6.8957 -3.5042 -2.0027 0.9685
-6.8362 -1.7965 -2.0010 0.9710
-6.4076 -2.9842 -2.0010 0.9710
-6.1156 -3.5447 -2.0011 0.9710
-5.7747 -4.0768 -2.0011 0.9710
-4.4876 -5.4623 -2.0013 0.9710
-3.9819 -5.8415 -2.0013 0.9710
-2.8792 -6.4572 -2.0015 0.9710
-2.2910 -6.6888 -2.0016 0.9710
-1.6845 -6.8670 -2.0016 0.9710
-1.0644 -6.9903 -2.0017 0.9710
0.1963 -7.0687 -2.0019 0.9710
0.8269 -7.0232 -2.0020 0.9710
2.0635 -6.7645 -2.0021 0.9710
2.6596 -6.5534 -2.0022 0.9710
3.2344 -6.2899 -2.0023 0.9710
4.3022 -5.6145 -2.0024 0.9710
5.2329 -4.7597 -2.0025 0.9710
5.9965 -3.7529 -2.0026 0.9710
6.3079 -3.2023 -2.0027 0.9710
6.5688 -2.6262 -2.0027 0.9710
6.7772 -2.0290 -2.0027 0.9710
6.9314 -1.4155 -2.0027 0.9710
7.0302 -0.7908 -2.0027 0.9710
7.0727 -0.1597 -2.0028 0.9710
7.0587 0.4727 -2.0028 0.9710
6.9883 1.1013 -2.0027 0.9710
6.4460 2.9144 -2.0027 0.9710
4.0493 5.7994 -2.0024 0.9710
3.5150 6.1377 -2.0023 0.9710
2.9527 6.4269 -2.0022 0.9710
1.7619 6.8492 -2.0021 0.9710
1.1430 6.9789 -2.0020 0.9710
0.5151 7.0528 -2.0019 0.9710
-0.1169 7.0704 -2.0018 0.9710
-0.7479 7.0314 -2.0018 0.9710
-1.3729 6.9362 -2.0017 0.9710
-1.9869 6.7856 -2.0016 0.9710
-2.5850 6.5807 -2.0015 0.9710
-4.2366 5.6594 -2.0013 0.9710
-4.7250 5.2582 -2.0013 0.9710
-6.2665 3.2703 -2.0011 0.9710
-6.9090 1.4920 -2.0010 0.9710
-7.0146 0.8689 -2.0010 0.9710
-7.0642 0.2389 -2.0010 0.9710
-7.0573 -0.3931 -2.0010 0.9710
-6.9940 -1.0219 -2.0010 0.9710
-6.4730 -2.8395 -2.0010 0.9710
-5.4889 -4.4543 -2.0012 0.9710
-5.0693 -4.9269 -2.0012 0.9710
-3.0235 -6.3909 -2.0015 0.9710
-2.4406 -6.6356 -2.0015 0.9710
-1.2211 -6.9646 -2.0017 0.9710
-0.5942 -7.0461 -2.0018 0.9710
1.2952 -6.9523 -2.0020 0.9710
1.9111 -6.8091 -2.0021 0.9710
2.5117 -6.6115 -2.0022 0.9710
3.0923 -6.3609 -2.0022 0.9710
3.6482 -6.0595 -2.0023 0.9710
4.1750 -5.7096 -2.0024 0.9710
6.2343 -3.3432 -2.0026 0.9710
6.5082 -2.7730 -2.0027 0.9710
6.7299 -2.1806 -2.0027 0.9710
6.8979 -1.5708 -2.0027 0.9710
6.8989 1.5666 -2.0027 0.9710
6.7313 2.1765 -2.0027 0.9710
6.5099 2.7690 -2.0027 0.9710
5.9131 3.8829 -2.0026 0.9710
3.0963 6.3590 -2.0023 0.9710
1.2995 6.9516 -2.0020 0.9710
-0.5899 7.0465 -2.0018 0.9710
-1.2168 6.9654 -2.0017 0.9710
-3.5783 6.0973 -2.0014 0.9710
-4.1085 5.7531 -2.0013 0.9710
-5.4862 4.4577 -2.0012 0.9710
-5.8623 3.9497 -2.0011 0.9710
-6.1915 3.4103 -2.0011 0.9710
-6.4713 2.8436 -2.0010 0.9710
-6.8738 1.6467 -2.0010 0.9710
-6.9933 1.0262 -2.0010 0.9710
-7.0570 0.3974 -2.0010 0.9710
-7.0151 -0.8645 -2.0010 0.9710
-6.9099 -1.4877 -2.0010 0.9710
-6.5351 -2.6935 -2.0010 0.9710
-6.2685 -3.2665 -2.0011 0.9710
-5.9518 -3.8134 -2.0011 0.9710
-5.5876 -4.3299 -2.0011 0.9710
-4.7283 -5.2552 -2.0012 0.9710
-3.7180 -6.0130 -2.0014 0.9710
-2.5890 -6.5791 -2.0015 0.9710
-0.7523 -7.0309 -2.0018 0.9710
-0.1213 -7.0703 -2.0018 0.9710
1.7577 -6.8502 -2.0021 0.9710
4.0457 -5.8019 -2.0024 0.9710
5.4396 -4.5221 -2.0025 0.9710
5.8219 -4.0183 -2.0026 0.9710
6.4442 -2.9184 -2.0027 0.9710
6.8608 -1.7253 -2.0027 0.9710
6.9876 -1.1056 -2.0027 0.9710
7.0729 0.1553 -2.0028 0.9710
6.9323 1.4112 -2.0027 0.9710
6.7785 2.0248 -2.0027 0.9710
6.3099 3.1984 -2.0027 0.9710
5.2358 4.7565 -2.0025 0.9710
4.7899 5.2050 -2.0025 0.9710
3.7871 5.9738 -2.0023 0.9710
3.2383 6.2880 -2.0023 0.9710
1.4553 6.9207 -2.0020 0.9710
0.8313 7.0227 -2.0020 0.9710
0.2007 7.0686 -2.0019 0.9710
-0.4315 7.0580 -2.0018 0.9710
-1.0601 6.9910 -2.0017 0.9710
-1.6803 6.8681 -2.0016 0.9710
-2.8752 6.4591 -2.0015 0.9710
-3.4405 6.1762 -2.0014 0.9710
-4.4843 5.4651 -2.0013 0.9710
-4.9543 5.0426 -2.0012 0.9710
-5.7722 4.0804 -2.0011 0.9710
-6.8351 1.8007 -2.0010 0.9710
-7.0463 0.5558 -2.0010 0.9710
-7.0678 -0.0758 -2.0010 0.9710
-7.0328 -0.7068 -2.0010 0.9710
-6.9416 -1.3321 -2.0010 0.9710
-6.7949 -1.9468 -2.0010 0.9710
-6.5939 -2.5460 -2.0010 0.9710
-6.3403 -3.1249 -2.0010 0.9710
-6.0359 -3.6787 -2.0011 0.9710
-5.6833 -4.2033 -2.0011 0.9710
-5.2853 -4.6942 -2.0012 0.9710
-4.8451 -5.1477 -2.0012 0.9710
-3.8521 -5.9280 -2.0014 0.9710
-2.7361 -6.5192 -2.0015 0.9710
-2.1429 -6.7378 -2.0016 0.9710
-0.9100 -7.0121 -2.0017 0.9710
-0.2800 -7.0657 -2.0018 0.9710
0.3522 -7.0627 -2.0019 0.9710
1.6034 -6.8879 -2.0021 0.9710
2.8035 -6.4932 -2.0022 0.9710
3.9144 -5.8912 -2.0023 0.9710
4.4251 -5.5182 -2.0024 0.9710
4.9004 -5.1011 -2.0025 0.9710
5.7302 -4.1480 -2.0026 0.9710
6.3770 -3.0624 -2.0027 0.9710
6.8204 -1.8789 -2.0027 0.9710
7.0466 0.6283 -2.0028 0.9710
6.6277 2.4739 -2.0027 0.9710
6.0816 3.6135 -2.0026 0.9710
5.3414 4.6377 -2.0025 0.9710
4.9056 5.0961 -2.0025 0.9710
4.4307 5.5138 -2.0024 0.9710
1.6104 6.8863 -2.0021 0.9710
-0.9029 7.0131 -2.0017 0.9710
-2.1361 6.7400 -2.0016 0.9710
-4.3604 5.5645 -2.0013 0.9710
-5.2806 4.6996 -2.0012 0.9710
-6.0322 3.6849 -2.0011 0.9710
-6.3371 3.1313 -2.0011 0.9710
-6.7929 1.9537 -2.0010 0.9710
-7.0677 0.0829 -2.0010 0.9710
-7.0469 -0.5487 -2.0010 0.9710
-6.9697 -1.1759 -2.0010 0.9710
-6.6494 -2.3973 -2.0010 0.9710
-6.1170 -3.5423 -2.0011 0.9710
-5.7763 -4.0746 -2.0011 0.9710
-5.3894 -4.5743 -2.0012 0.9710
-4.9594 -5.0375 -2.0012 0.9710
-4.4897 -5.4605 -2.0013 0.9710
-3.4468 -6.1727 -2.0014 0.9710
-1.6872 -6.8663 -2.0016 0.9710
-1.0672 -6.9899 -2.0017 0.9710
-0.4386 -7.0575 -2.0018 0.9710
2.6570 -6.5545 -2.0022 0.9710
3.7811 -5.9776 -2.0023 0.9710
5.2310 -4.7617 -2.0025 0.9710
6.3066 -3.2048 -2.0027 0.9710
6.5678 -2.6287 -2.0027 0.9710
-6.4147 -1.0849 -2.0010 0.9731
-6.1194 -2.2089 -2.0011 0.9731
-5.3151 -3.7524 -2.0012 0.9731
-4.5629 -4.6384 -2.0013 0.9731
-1.5504 -6.3204 -2.0017 0.9731
1.3355 -6.3705 -2.0020 0.9731
3.4822 -5.5003 -2.0023 0.9731
4.8162 -4.3807 -2.0025 0.9731
5.5190 -3.4540 -2.0026 0.9731
6.2375 -1.8674 -2.0026 0.9731
6.5095 -0.1469 -2.0027 0.9731
6.4966 0.4351 -2.0027 0.9731
5.3606 3.6950 -2.0025 0.9731
5.0090 4.1589 -2.0025 0.9731
4.1889 4.9836 -2.0024 0.9731
3.7269 5.3376 -2.0023 0.9731
3.2352 5.6490 -2.0023 0.9731
2.1783 6.1341 -2.0021 0.9731
1.0521 6.4233 -2.0020 0.9731
0.4741 6.4914 -2.0019 0.9731
-1.8288 6.2455 -2.0016 0.9731
-2.3792 6.0569 -2.0016 0.9731
-2.9106 5.8200 -2.0015 0.9731
-3.4187 5.5366 -2.0014 0.9731
-4.3490 4.8397 -2.0013 0.9731
-4.7638 4.4318 -2.0013 0.9731
-5.1405 3.9885 -2.0012 0.9731
-5.4760 3.5133 -2.0012 0.9731
-5.7679 3.0101 -2.0011 0.9731
-6.3592 1.3732 -2.0010 0.9731
-6.4564 0.7997 -2.0010 0.9731
-6.5020 0.2198 -2.0010 0.9731
-6.4374 -0.9405 -2.0010 0.9731
-6.3277 -1.5118 -2.0010 0.9731
-5.0521 -4.0998 -2.0012 0.9731
-3.7848 -5.2929 -2.0014 0.9731
-3.2970 -5.6100 -2.0014 0.9731
-2.2464 -6.1075 -2.0016 0.9731
-1.6919 -6.2839 -2.0016 0.9731
-1.1239 -6.4102 -2.0017 0.9731
-0.5469 -6.4852 -2.0018 0.9731
0.6157 -6.4795 -2.0019 0.9731
1.7589 -6.2670 -2.0021 0.9731
2.3117 -6.0851 -2.0021 0.9731
3.8426 -5.2550 -2.0023 0.9731
4.2967 -4.8909 -2.0024 0.9731
5.9899 -2.5522 -2.0026 0.9731
6.1940 -2.0070 -2.0026 0.9731
6.3485 -1.4457 -2.0027 0.9731
6.5045 -0.2931 -2.0027 0.9731
6.5047 0.2891 -2.0027 0.9731
6.3494 1.4418 -2.0027 0.9731
5.9915 2.5485 -2.0026 0.9731
5.7398 3.0734 -2.0026 0.9731
5.4422 3.5737 -2.0026 0.9731
5.1012 4.0454 -2.0025 0.9731
3.8459 5.2526 -2.0024 0.9731
2.3155 6.0837 -2.0022 0.9731
0.6198 6.4792 -2.0019 0.9731
-0.5429 6.4856 -2.0018 0.9731
-1.6881 6.2850 -2.0016 0.9731
-2.2426 6.1089 -2.0016 0.9731
-3.2935 5.6120 -2.0014 0.9731
-3.7815 5.2952 -2.0014 0.9731
-4.2393 4.9362 -2.0013 0.9731
-5.3958 3.6354 -2.0012 0.9731
-5.6988 3.1389 -2.0011 0.9731
-6.1662 2.0748 -2.0011 0.9731
-6.3268 1.5157 -2.0011 0.9731
-6.4368 0.9445 -2.0010 0.9731
-6.4955 0.3658 -2.0010 0.9731
-6.5022 -0.2158 -2.0010 0.9731
-6.4569 -0.7957 -2.0010 0.9731
-6.3601 -1.3693 -2.0010 0.9731
-6.0151 -2.4791 -2.0011 0.9731
-5.7697 -3.0065 -2.0011 0.9731
-5.1429 -3.9853 -2.0012 0.9731
-4.3520 -4.8370 -2.0013 0.9731
-3.9027 -5.2065 -2.0014 0.9731
-3.4221 -5.5345 -2.0014 0.9731
-2.3829 -6.0554 -2.0015 0.9731
-1.8326 -6.2443 -2.0016 0.9731
-0.6924 -6.4712 -2.0018 0.9731
-0.1116 -6.5074 -2.0018 0.9731
1.0481 -6.4239 -2.0020 0.9731
2.1745 -6.1354 -2.0021 0.9731
4.1858 -4.9861 -2.0024 0.9731
4.6145 -4.5924 -2.0024 0.9731
5.0064 -4.1620 -2.0025 0.9731
6.4963 -0.4391 -2.0027 0.9731
6.4708 0.7238 -2.0027 0.9731
6.0472 2.4133 -2.0026 0.9731
5.8074 2.9437 -2.0026 0.9731
5.1908 3.9299 -2.0025 0.9731
4.4085 4.7905 -2.0024 0.9731
3.9629 5.1650 -2.0024 0.9731
3.4856 5.4981 -2.0023 0.9731
2.9805 5.7873 -2.0022 0.9731
2.4516 6.0302 -2.0022 0.9731
1.9031 6.2248 -2.0021 0.9731
0.7651 6.4637 -2.0020 0.9731
0.1847 6.5059 -2.0019 0.9731
-0.9757 6.4345 -2.0017 0.9731
-3.1667 5.6846 -2.0015 0.9731
-4.1274 5.0302 -2.0013 0.9731
-4.9562 4.2153 -2.0012 0.9731
-5.3128 3.7557 -2.0012 0.9731
-5.6269 3.2661 -2.0011 0.9731
-6.4856 0.5116 -2.0010 0.9731
-6.4731 -0.6506 -2.0010 0.9731
-6.2542 -1.7919 -2.0011 0.9731
-5.5556 -3.3860 -2.0011 0.9731
-4.4595 -4.7380 -2.0013 0.9731
-4.0185 -5.1175 -2.0013 0.9731
-3.5455 -5.4562 -2.0014 0.9731
-3.0441 -5.7512 -2.0015 0.9731
-2.5183 -6.0003 -2.0015 0.9731
-1.9723 -6.2015 -2.0016 0.9731
-0.8375 -6.4540 -2.0017 0.9731
-0.2577 -6.5032 -2.0018 0.9731
0.3242 -6.5005 -2.0019 0.9731
2.0361 -6.1826 -2.0021 0.9731
3.1039 -5.7221 -2.0022 0.9731
3.6027 -5.4221 -2.0023 0.9731
4.0727 -5.0788 -2.0024 0.9731
4.5102 -4.6949 -2.0024 0.9731
5.8692 -2.8185 -2.0026 0.9731
6.0976 -2.2830 -2.0026 0.9731
6.2772 -1.7293 -2.0027 0.9731
6.4854 0.5783 -2.0027 0.9731
6.0999 2.2769 -2.0026 0.9731
4.9160 4.2684 -2.0025 0.9731
4.5150 4.6903 -2.0024 0.9731
4.0779 5.0747 -2.0024 0.9731
3.1097 5.7190 -2.0023 0.9731
2.0424 6.1806 -2.0021 0.9731
1.4821 6.3381 -2.0021 0.9731
0.9101 6.4449 -2.0020 0.9731
-0.2512 6.5035 -2.0018 0.9731
-0.8310 6.4548 -2.0018 0.9731
-3.0383 5.7543 -2.0015 0.9731
-4.4547 4.7425 -2.0013 0.9731
-4.8604 4.3256 -2.0012 0.9731
-6.4725 0.6571 -2.0010 0.9731
-6.5053 0.0763 -2.0010 0.9731
-6.4861 -0.5050 -2.0010 0.9731
-6.1203 -2.2065 -2.0011 0.9731
-5.8988 -2.7444 -2.0011 0.9731
-5.6302 -3.2604 -2.0011 0.9731
-5.3166 -3.7503 -2.0012 0.9731
-4.5647 -4.6366 -2.0013 0.9731
-3.6671 -5.3751 -2.0014 0.9731
-2.6524 -5.9422 -2.0015 0.9731
-2.1111 -6.1556 -2.0016 0.9731
-0.9822 -6.4335 -2.0017 0.9731
-0.4037 -6.4957 -2.0018 0.9731
2.9746 -5.7903 -2.0022 0.9731
3.4800 -5.5016 -2.0023 0.9731
3.9576 -5.1690 -2.0024 0.9731
4.8144 -4.3826 -2.0025 0.9731
5.5176 -3.4562 -2.0026 0.9731
6.0447 -2.4194 -2.0026 0.9731
-5.8224 -1.5300 -2.0011 0.9749
-5.6625 -2.0440 -2.0011 0.9749
-5.4574 -2.5416 -2.0012 0.9749
-4.9183 -3.4722 -2.0012 0.9749
-4.2222 -4.2921 -2.0013 0.9749
-3.8220 -4.6522 -2.0014 0.9749
-2.9335 -5.2583 -2.0015 0.9749
-1.9512 -5.6967 -2.0016 0.9749
-1.4346 -5.8484 -2.0017 0.9749
-0.9065 -5.9533 -2.0017 0.9749
0.1672 -6.0200 -2.0019 0.9749
0.7043 -5.9813 -2.0019 0.9749
1.2357 -5.8946 -2.0020 0.9749
1.7574 -5.7609 -2.0021 0.9749
2.2650 -5.5811 -2.0021 0.9749
3.6638 -4.7814 -2.0023 0.9749
4.0764 -4.4351 -2.0024 0.9749
4.8007 -3.6392 -2.0025 0.9749
5.5940 -2.2364 -2.0026 0.9749
5.7714 -1.7279 -2.0026 0.9749
6.0231 -0.1360 -2.0026 0.9749
6.0112 0.4026 -2.0026 0.9749
5.8436 1.4657 -2.0026 0.9749
5.4894 2.4819 -2.0026 0.9749
4.9601 3.4189 -2.0025 0.9749
4.6348 3.8482 -2.0024 0.9749
3.8759 4.6112 -2.0024 0.9749
3.4485 4.9389 -2.0023 0.9749
2.5146 5.4733 -2.0022 0.9749
2.0156 5.6759 -2.0021 0.9749
1.5005 5.8330 -2.0021 0.9749
0.9735 5.9435 -2.0020 0.9749
0.4387 6.0065 -2.0019 0.9749
-0.0996 6.0215 -2.0018 0.9749
-1.1693 5.9073 -2.0017 0.9749
-1.6922 5.7790 -2.0016 0.9749
-2.6932 5.3854 -2.0015 0.9749
-3.1634 5.1232 -2.0015 0.9749
-4.0243 4.4783 -2.0013 0.9749
-5.0672 3.2510 -2.0012 0.9749
-5.5646 2.2975 -2.0011 0.9749
-5.7475 1.7912 -2.0011 0.9749
-6.0107 -0.3348 -2.0011 0.9749
-5.8553 -1.3989 -2.0011 0.9749
-5.7070 -1.9163 -2.0011 0.9749
-5.2751 -2.9012 -2.0012 0.9749
-3.9255 -4.5651 -2.0014 0.9749
-3.0508 -5.1910 -2.0015 0.9749
-2.5750 -5.4429 -2.0015 0.9749
-2.0786 -5.6514 -2.0016 0.9749
-1.0400 -5.9314 -2.0017 0.9749
-0.5061 -6.0008 -2.0018 0.9749
0.5698 -5.9955 -2.0019 0.9749
1.6275 -5.7989 -2.0021 0.9749
2.1390 -5.6305 -2.0021 0.9749
2.6335 -5.4171 -2.0022 0.9749
5.0336 -3.3098 -2.0025 0.9749
5.3092 -2.8470 -2.0025 0.9749
5.5423 -2.3615 -2.0026 0.9749
5.7312 -1.8570 -2.0026 0.9749
5.9702 -0.8077 -2.0026 0.9749
6.0185 -0.2712 -2.0026 0.9749
6.0187 0.2675 -2.0026 0.9749
5.9707 0.8040 -2.0026 0.9749
5.7323 1.8535 -2.0026 0.9749
5.5438 2.3580 -2.0026 0.9749
5.3110 2.8438 -2.0025 0.9749
4.3667 4.1497 -2.0024 0.9749
3.5586 4.8602 -2.0023 0.9749
3.1101 5.1585 -2.0023 0.9749
2.6369 5.4155 -2.0022 0.9749
1.1067 5.9202 -2.0020 0.9749
0.5735 5.9952 -2.0019 0.9749
-3.0476 5.1929 -2.0015 0.9749
-3.4991 4.8998 -2.0014 0.9749
-3.9227 4.5676 -2.0014 0.9749
-4.6726 3.7966 -2.0013 0.9749
-5.5116 2.4219 -2.0012 0.9749
-5.9563 0.8740 -2.0011 0.9749
-6.0167 -0.1997 -2.0011 0.9749
-5.9748 -0.7363 -2.0011 0.9749
-5.5660 -2.2940 -2.0011 0.9749
-4.7589 -3.6877 -2.0012 0.9749
-4.0270 -4.4758 -2.0013 0.9749
-3.6112 -4.8177 -2.0014 0.9749
-2.6966 -5.3837 -2.0015 0.9749
-1.6957 -5.7780 -2.0016 0.9749
-0.6407 -5.9879 -2.0018 0.9749
-0.1033 -6.0214 -2.0018 0.9749
0.4350 -6.0067 -2.0019 0.9749
0.9698 -5.9441 -2.0020 0.9749
1.4969 -5.8339 -2.0020 0.9749
2.0121 -5.6771 -2.0021 0.9749
2.5112 -5.4748 -2.0022 0.9749
2.9902 -5.2288 -2.0022 0.9749
4.2698 -4.2493 -2.0024 0.9749
4.6324 -3.8511 -2.0024 0.9749
4.9579 -3.4220 -2.0025 0.9749
5.4879 -2.4853 -2.0026 0.9749
5.6880 -1.9852 -2.0026 0.9749
5.9506 -0.9415 -2.0026 0.9749
6.0109 -0.4063 -2.0026 0.9749
6.0232 0.1322 -2.0026 0.9749
5.9873 0.6697 -2.0026 0.9749
5.9035 1.2018 -2.0026 0.9749
5.7725 1.7243 -2.0026 0.9749
5.3735 2.7238 -2.0025 0.9749
5.1086 3.1928 -2.0025 0.9749
4.0791 4.4326 -2.0024 0.9749
3.6668 4.7791 -2.0023 0.9749
0.7080 5.9809 -2.0020 0.9749
0.1709 6.0200 -2.0019 0.9749
-0.3675 6.0110 -2.0018 0.9749
-0.9029 5.9539 -2.0017 0.9749
-2.9302 5.2601 -2.0015 0.9749
-4.5862 3.9006 -2.0013 0.9749
-5.6613 2.0475 -2.0011 0.9749
-5.8215 1.5337 -2.0011 0.9749
-5.9351 1.0075 -2.0011 0.9749
-6.0197 -0.0646 -2.0011 0.9749
-5.9899 -0.6020 -2.0011 0.9749
-5.6161 -2.1684 -2.0011 0.9749
-5.4000 -2.6614 -2.0012 0.9749
-5.1408 -3.1332 -2.0012 0.9749
-4.8405 -3.5799 -2.0012 0.9749
-4.5015 -3.9980 -2.0013 0.9749
-3.7185 -4.7354 -2.0014 0.9749
-2.8167 -5.3218 -2.0015 0.9749
-1.8250 -5.7384 -2.0016 0.9749
0.3000 -6.0150 -2.0019 0.9749
1.8840 -5.7208 -2.0021 0.9749
3.7685 -4.6994 -2.0023 0.9749
4.1733 -4.3441 -2.0024 0.9749
4.5447 -3.9541 -2.0024 0.9749
4.8798 -3.5324 -2.0025 0.9749
5.4307 -2.6079 -2.0025 0.9749
5.6420 -2.1125 -2.0026 0.9749
5.8082 -1.6001 -2.0026 0.9749
6.0003 -0.5412 -2.0026 0.9749
6.0008 0.5351 -2.0026 0.9749
5.9290 1.0689 -2.0026 0.9749
5.8098 1.5942 -2.0026 0.9749
5.6441 2.1068 -2.0026 0.9749
5.4333 2.6024 -2.0026 0.9749
5.1791 3.0773 -2.0025 0.9749
4.8834 3.5275 -2.0025 0.9749
4.5487 3.9495 -2.0024 0.9749
4.1777 4.3399 -2.0024 0.9749
3.7732 4.6956 -2.0023 0.9749
3.3387 5.0137 -2.0023 0.9749
1.3714 5.8647 -2.0020 0.9749
0.3061 6.0147 -2.0019 0.9749
-1.8193 5.7403 -2.0016 0.9749
-2.3246 5.5546 -2.0016 0.9749
-4.1221 4.3884 -2.0013 0.9749
-5.1376 3.1384 -2.0012 0.9749
-5.3973 2.6669 -2.0012 0.9749
-6.0196 0.0706 -2.0011 0.9749
-6.0019 -0.4673 -2.0011 0.9749
-5.9362 -1.0015 -2.0011 0.9749
-5.8230 -1.5278 -2.0011 0.9749
-5.6633 -2.0418 -2.0011 0.9749
-5.4584 -2.5395 -2.0012 0.9749
-5.2098 -3.0169 -2.0012 0.9749
-4.9196 -3.4703 -2.0012 0.9749
-4.2239 -4.2904 -2.0013 0.9749
-2.9355 -5.2571 -2.0015 0.9749
-2.4543 -5.4985 -2.0015 0.9749
-1.9534 -5.6959 -2.0016 0.9749
-1.4369 -5.8478 -2.0017 0.9749
-0.9089 -5.9530 -2.0017 0.9749
0.1648 -6.0201 -2.0019 0.9749
1.2334 -5.8951 -2.0020 0.9749
2.7524 -5.3577 -2.0022 0.9749
3.2200 -5.0906 -2.0023 0.9749
3.6620 -4.7828 -2.0023 0.9749
4.0746 -4.4367 -2.0024 0.9749
4.4547 -4.0551 -2.0024 0.9749
4.7993 -3.6411 -2.0025 0.9749
5.1054 -3.1980 -2.0025 0.9749
-5.5176 -0.9331 -2.0012 0.9765
-5.4122 -1.4223 -2.0012 0.9765
-5.0729 -2.3626 -2.0012 0.9765
-4.5718 -3.2276 -2.0013 0.9765
-3.9247 -3.9897 -2.0014 0.9765
-2.2794 -5.1119 -2.0016 0.9765
-1.8137 -5.2953 -2.0016 0.9765
-0.8427 -5.5338 -2.0017 0.9765
1.1486 -5.4792 -2.0020 0.9765
1.6335 -5.3549 -2.0021 0.9765
2.5604 -4.9791 -2.0022 0.9765
3.7890 -4.1225 -2.0023 0.9765
4.9931 -2.5349 -2.0025 0.9765
5.3646 -1.6061 -2.0025 0.9765
5.5648 -0.6259 -2.0026 0.9765
5.5985 -0.1264 -2.0026 0.9765
5.5316 0.8717 -2.0026 0.9765
5.1025 2.3070 -2.0025 0.9765
4.8759 2.7535 -2.0025 0.9765
4.3081 3.5770 -2.0024 0.9765
3.6027 4.2862 -2.0023 0.9765
2.7825 4.8586 -2.0022 0.9765
2.3373 5.0875 -2.0022 0.9765
1.8735 5.2758 -2.0021 0.9765
1.3947 5.4219 -2.0020 0.9765
0.4078 5.5832 -2.0019 0.9765
-0.0925 5.5971 -2.0018 0.9765
-2.0464 5.2097 -2.0016 0.9765
-2.9405 4.7622 -2.0015 0.9765
-3.7407 4.1628 -2.0014 0.9765
-4.0975 3.8119 -2.0013 0.9765
-4.7102 3.0220 -2.0013 0.9765
-5.1725 2.1356 -2.0012 0.9765
-5.3426 1.6651 -2.0012 0.9765
-5.4699 1.1812 -2.0012 0.9765
-5.4428 -1.3004 -2.0012 0.9765
-5.3049 -1.7813 -2.0012 0.9765
-5.1247 -2.2481 -2.0012 0.9765
-4.9035 -2.6969 -2.0012 0.9765
-4.0133 -3.9005 -2.0013 0.9765
-3.6489 -4.2435 -2.0014 0.9765
-3.2554 -4.5526 -2.0014 0.9765
-2.3936 -5.0594 -2.0015 0.9765
-1.9322 -5.2531 -2.0016 0.9765
-1.4553 -5.4049 -2.0017 0.9765
-0.4704 -5.5779 -2.0018 0.9765
0.0297 -5.5978 -2.0019 0.9765
1.9883 -5.2337 -2.0021 0.9765
2.4479 -5.0353 -2.0022 0.9765
3.3049 -4.5197 -2.0023 0.9765
3.6955 -4.2065 -2.0023 0.9765
4.0565 -3.8597 -2.0024 0.9765
4.3852 -3.4820 -2.0024 0.9765
4.6787 -3.0765 -2.0024 0.9765
5.1516 -2.1950 -2.0025 0.9765
5.5493 -0.7507 -2.0026 0.9765
5.5498 0.7473 -2.0026 0.9765
1.9915 5.2325 -2.0021 0.9765
1.0287 5.5030 -2.0020 0.9765
0.5330 5.5727 -2.0019 0.9765
-0.9633 5.5141 -2.0017 0.9765
-1.4519 5.4058 -2.0017 0.9765
-1.9289 5.2544 -2.0016 0.9765
-3.2526 4.5546 -2.0014 0.9765
-3.6463 4.2458 -2.0014 0.9765
-4.0109 3.9030 -2.0013 0.9765
-4.9018 2.6999 -2.0012 0.9765
-5.1233 2.2512 -2.0012 0.9765
-5.3038 1.7846 -2.0012 0.9765
-5.5367 0.8124 -2.0012 0.9765
-5.5539 -0.6845 -2.0011 0.9765
-4.0998 -3.8094 -2.0013 0.9765
-1.5763 -5.3708 -2.0016 0.9765
0.9014 -5.5252 -2.0020 0.9765
1.8702 -5.2770 -2.0021 0.9765
2.3342 -5.0890 -2.0021 0.9765
2.7795 -4.8603 -2.0022 0.9765
3.2026 -4.5927 -2.0023 0.9765
3.6001 -4.2884 -2.0023 0.9765
3.9688 -3.9498 -2.0024 0.9765
4.3058 -3.5796 -2.0024 0.9765
4.6084 -3.1808 -2.0024 0.9765
4.8742 -2.7565 -2.0025 0.9765
5.1010 -2.3101 -2.0025 0.9765
5.4308 -1.3657 -2.0025 0.9765
5.5311 -0.8752 -2.0026 0.9765
5.5986 0.1229 -2.0026 0.9765
5.5652 0.6225 -2.0026 0.9765
4.9947 2.5318 -2.0025 0.9765
4.7485 2.9677 -2.0025 0.9765
3.7916 4.1202 -2.0023 0.9765
3.4083 4.4422 -2.0023 0.9765
2.9979 4.7288 -2.0022 0.9765
2.5634 4.9775 -2.0022 0.9765
0.6581 5.5594 -2.0019 0.9765
0.1589 5.5957 -2.0019 0.9765
-0.3416 5.5874 -2.0018 0.9765
-0.8392 5.5344 -2.0018 0.9765
-2.2762 5.1134 -2.0016 0.9765
-3.9222 3.9921 -2.0014 0.9765
-5.2624 1.9033 -2.0012 0.9765
-5.4113 1.4256 -2.0012 0.9765
-5.5956 -0.0600 -2.0011 0.9765
-5.4957 -1.0547 -2.0012 0.9765
-5.3796 -1.5413 -2.0012 0.9765
-5.2204 -2.0157 -2.0012 0.9765
-4.7786 -2.9124 -2.0012 0.9765
-4.1843 -3.7164 -2.0013 0.9765
-3.4565 -4.4018 -2.0014 0.9765
-2.6183 -4.9468 -2.0015 0.9765
-0.7204 -5.5511 -2.0018 0.9765
0.2788 -5.5911 -2.0019 0.9765
0.7771 -5.5440 -2.0019 0.9765
1.7513 -5.3176 -2.0021 0.9765
2.6696 -4.9214 -2.0022 0.9765
3.8791 -4.0379 -2.0023 0.9765
4.2244 -3.6754 -2.0024 0.9765
4.5358 -3.2834 -2.0024 0.9765
4.8111 -2.8652 -2.0025 0.9765
5.3987 -1.4873 -2.0025 0.9765
5.5999 -0.0028 -2.0026 0.9765
5.5778 0.4974 -2.0026 0.9765
5.5110 0.9936 -2.0026 0.9765
4.8140 2.8604 -2.0025 0.9765
3.8832 4.0340 -2.0024 0.9765
3.5073 4.3646 -2.0023 0.9765
2.6746 4.9187 -2.0022 0.9765
2.2245 5.1378 -2.0021 0.9765
1.7567 5.3158 -2.0021 0.9765
0.2845 5.5908 -2.0019 0.9765
-0.2160 5.5937 -2.0018 0.9765
-1.2078 5.4657 -2.0017 0.9765
-2.1608 5.1632 -2.0016 0.9765
-2.6133 4.9494 -2.0015 0.9765
-3.8316 4.0792 -2.0014 0.9765
-5.5673 0.5652 -2.0011 0.9765
-5.5955 0.0657 -2.0011 0.9765
-5.4128 -1.4201 -2.0012 0.9765
-5.2644 -1.8979 -2.0012 0.9765
-5.0739 -2.3606 -2.0012 0.9765
-4.2667 -3.6214 -2.0013 0.9765
-3.9263 -3.9881 -2.0014 0.9765
-3.5544 -4.3230 -2.0014 0.9765
-1.8158 -5.2945 -2.0016 0.9765
-0.8448 -5.5335 -2.0017 0.9765
0.1532 -5.5959 -2.0019 0.9765
1.6314 -5.3555 -2.0021 0.9765
2.1033 -5.1886 -2.0021 0.9765
3.4038 -4.4457 -2.0023 0.9765
3.7874 -4.1240 -2.0023 0.9765
4.4609 -3.3844 -2.0024 0.9765
4.9921 -2.5368 -2.0025 0.9765
-5.1490 -0.8708 -2.0012 0.9779
-4.7340 -2.2047 -2.0013 0.9779
-4.2663 -3.0119 -2.0013 0.9779
-3.3153 -4.0355 -2.0014 0.9779
-2.1271 -4.7704 -2.0016 0.9779
-1.2444 -5.0730 -2.0017 0.9779
0.6109 -5.1882 -2.0019 0.9779
1.0719 -5.1130 -2.0020 0.9779
2.7947 -4.4144 -2.0022 0.9779
3.8653 -3.5158 -2.0023 0.9779
4.6593 -2.3654 -2.0024 0.9779
4.8520 -1.9398 -2.0025 0.9779
5.0059 -1.4987 -2.0025 0.9779
5.2242 -0.1179 -2.0025 0.9779
5.1618 0.8135 -2.0025 0.9779
5.0685 1.2713 -2.0025 0.9779
4.9346 1.7189 -2.0025 0.9779
4.7613 2.1527 -2.0025 0.9779
4.5500 2.5694 -2.0024 0.9779
3.7058 3.6835 -2.0023 0.9779
2.5965 4.5338 -2.0022 0.9779
2.1811 4.7475 -2.0021 0.9779
1.7483 4.9232 -2.0021 0.9779
0.3805 5.2101 -2.0019 0.9779
-0.5525 5.1943 -2.0018 0.9779
-1.0143 5.1241 -2.0017 0.9779
-1.4678 5.0128 -2.0017 0.9779
-2.3362 4.6714 -2.0016 0.9779
-2.7440 4.4440 -2.0015 0.9779
-3.1299 4.1810 -2.0015 0.9779
-4.1261 3.2014 -2.0013 0.9779
-5.1672 -0.7550 -2.0012 0.9779
-5.0792 -1.2135 -2.0012 0.9779
-4.7823 -2.0979 -2.0012 0.9779
-4.5759 -2.5167 -2.0013 0.9779
-4.0552 -3.2908 -2.0013 0.9779
-2.2336 -4.7213 -2.0016 0.9779
-1.3580 -5.0437 -2.0017 0.9779
0.0277 -5.2237 -2.0019 0.9779
0.9568 -5.1358 -2.0020 0.9779
1.4117 -5.0299 -2.0020 0.9779
2.6949 -4.4760 -2.0022 0.9779
3.7854 -3.6017 -2.0023 0.9779
4.0920 -3.2493 -2.0024 0.9779
4.6050 -2.4694 -2.0024 0.9779
4.8072 -2.0483 -2.0025 0.9779
4.9710 -1.6107 -2.0025 0.9779
5.0951 -1.1603 -2.0025 0.9779
5.2202 -0.2352 -2.0025 0.9779
5.2204 0.2320 -2.0025 0.9779
5.1788 0.6973 -2.0025 0.9779
5.0958 1.1571 -2.0025 0.9779
4.8085 2.0453 -2.0025 0.9779
4.3677 2.8681 -2.0024 0.9779
3.7876 3.5994 -2.0023 0.9779
3.4509 3.9232 -2.0023 0.9779
2.6977 4.4744 -2.0022 0.9779
2.2872 4.6973 -2.0022 0.9779
1.4148 5.0291 -2.0020 0.9779
0.4974 5.2002 -2.0019 0.9779
-0.8989 5.1456 -2.0017 0.9779
-1.8000 4.9033 -2.0016 0.9779
-2.2307 4.7228 -2.0016 0.9779
-3.4027 3.9621 -2.0014 0.9779
-4.0532 3.2933 -2.0013 0.9779
-4.5743 2.5195 -2.0013 0.9779
-4.7810 2.1008 -2.0012 0.9779
-5.2138 0.2936 -2.0012 0.9779
-5.2192 -0.1732 -2.0012 0.9779
-5.1829 -0.6387 -2.0012 0.9779
-5.1051 -1.0991 -2.0012 0.9779
-4.6312 -2.4133 -2.0013 0.9779
-4.3972 -2.8173 -2.0013 0.9779
-4.1281 -3.1989 -2.0013 0.9779
-3.8259 -3.5549 -2.0014 0.9779
-3.4932 -3.8825 -2.0014 0.9779
0.3773 -5.2103 -2.0019 0.9779
1.7452 -4.9242 -2.0021 0.9779
2.9885 -4.2857 -2.0022 0.9779
3.3594 -4.0017 -2.0023 0.9779
4.0180 -3.3403 -2.0024 0.9779
4.9336 -1.7219 -2.0025 0.9779
5.0677 -1.2744 -2.0025 0.9779
5.1613 -0.8167 -2.0025 0.9779
5.2243 0.1147 -2.0025 0.9779
4.8532 1.9368 -2.0025 0.9779
3.8675 3.5134 -2.0024 0.9779
3.5381 3.8447 -2.0023 0.9779
3.1805 4.1453 -2.0023 0.9779
2.7975 4.4127 -2.0022 0.9779
2.3921 4.6448 -2.0022 0.9779
1.5274 4.9961 -2.0021 0.9779
-0.3187 5.2140 -2.0018 0.9779
-1.2413 5.0738 -2.0017 0.9779
-1.6895 4.9425 -2.0016 0.9779
-2.1241 4.7717 -2.0016 0.9779
-3.6602 3.7254 -2.0014 0.9779
-4.7326 2.2077 -2.0013 0.9779
-5.2059 0.4106 -2.0012 0.9779
-4.8716 -1.8810 -2.0012 0.9779
-4.6842 -2.3087 -2.0013 0.9779
-4.4593 -2.7179 -2.0013 0.9779
-4.1988 -3.1053 -2.0013 0.9779
-3.5795 -3.8030 -2.0014 0.9779
-3.2255 -4.1076 -2.0014 0.9779
-2.8458 -4.3794 -2.0015 0.9779
-2.0213 -4.8162 -2.0016 0.9779
-1.5831 -4.9776 -2.0016 0.9779
-1.1322 -5.0992 -2.0017 0.9779
0.2602 -5.2174 -2.0019 0.9779
0.7252 -5.1734 -2.0019 0.9779
1.6342 -4.9622 -2.0021 0.9779
2.0710 -4.7965 -2.0021 0.9779
2.4912 -4.5925 -2.0022 0.9779
4.2326 -3.0639 -2.0024 0.9779
4.4894 -2.6737 -2.0024 0.9779
4.7104 -2.2620 -2.0025 0.9779
4.8937 -1.8323 -2.0025 0.9779
5.0378 -1.3879 -2.0025 0.9779
5.1417 -0.9324 -2.0025 0.9779
5.0392 1.3828 -2.0025 0.9779
4.7127 2.2573 -2.0025 0.9779
4.4922 2.6691 -2.0024 0.9779
4.2357 3.0597 -2.0024 0.9779
3.9454 3.4257 -2.0024 0.9779
3.2728 4.0729 -2.0023 0.9779
2.4958 4.5900 -2.0022 0.9779
1.6392 4.9605 -2.0021 0.9779
0.7304 5.1728 -2.0020 0.9779
-0.2016 5.2199 -2.0018 0.9779
-0.6670 5.1808 -2.0018 0.9779
-1.1271 5.1004 -2.0017 0.9779
-1.5781 4.9792 -2.0017 0.9779
-2.4387 4.6187 -2.0016 0.9779
-2.8414 4.3823 -2.0015 0.9779
-3.2214 4.1109 -2.0015 0.9779
-3.5756 3.8067 -2.0014 0.9779
-3.9012 3.4720 -2.0014 0.9779
-4.4566 2.7224 -2.0013 0.9779
-5.2063 -0.4054 -2.0012 0.9779
-5.1493 -0.8688 -2.0012 0.9779
-4.2675 -3.0103 -2.0013 0.9779
-3.9816 -3.3795 -2.0013 0.9779
-3.6639 -3.7217 -2.0014 0.9779
-3.3169 -4.0342 -2.0014 0.9779
-1.6945 -4.9407 -2.0016 0.9779
-0.7884 -5.1637 -2.0017 0.9779
0.6088 -5.1884 -2.0019 0.9779
1.5224 -4.9976 -2.0020 0.9779
2.3874 -4.6472 -2.0022 0.9779
2.7930 -4.4155 -2.0022 0.9779
3.1763 -4.1485 -2.0023 0.9779
3.5342 -3.8483 -2.0023 0.9779
4.1627 -3.1582 -2.0024 0.9779
4.4283 -2.7738 -2.0024 0.9779
4.6584 -2.3672 -2.0024 0.9779
-4.4327 -2.0644 -2.0013 0.9791
-4.2306 -2.4521 -2.0013 0.9791
-3.9948 -2.8202 -2.0013 0.9791
-3.7269 -3.1658 -2.0014 0.9791
-3.1043 -3.7786 -2.0015 0.9791
-2.7545 -4.0408 -2.0015 0.9791
-1.9916 -4.4667 -2.0016 0.9791
-1.1652 -4.7500 -2.0017 0.9791
-0.7363 -4.8352 -2.0018 0.9791
-0.3015 -4.8818 -2.0018 0.9791
0.1358 -4.8894 -2.0019 0.9791
2.2371 -4.3504 -2.0021 0.9791
2.6168 -4.1333 -2.0022 0.9791
2.9756 -3.8832 -2.0022 0.9791
3.3106 -3.6019 -2.0023 0.9791
3.8988 -2.9555 -2.0023 0.9791
4.3626 -2.2148 -2.0024 0.9791
4.5430 -1.8163 -2.0024 0.9791
4.8621 -0.5469 -2.0025 0.9791
4.8818 0.3269 -2.0025 0.9791
4.8331 0.7617 -2.0025 0.9791
4.7457 1.1903 -2.0025 0.9791
4.0283 2.7766 -2.0024 0.9791
3.7641 3.1253 -2.0023 0.9791
3.4698 3.4489 -2.0023 0.9791
3.1478 3.7450 -2.0023 0.9791
2.4312 4.2451 -2.0022 0.9791
2.0422 4.4452 -2.0021 0.9791
-0.0809 4.8905 -2.0019 0.9791
-0.9497 4.7979 -2.0017 0.9791
-1.7881 4.5521 -2.0016 0.9791
-2.5694 4.1611 -2.0015 0.9791
-3.2686 3.6374 -2.0014 0.9791
-3.8635 2.9977 -2.0014 0.9791
-4.3350 2.2624 -2.0013 0.9791
-4.5197 1.8661 -2.0013 0.9791
-1.9532 0.2419 -0.8055 0.9915
-1.9444 -0.1083 -0.7970 0.9916
-4.6354 -1.5565 -2.0013 0.9791
-4.4779 -1.9643 -2.0013 0.9791
-4.2846 -2.3565 -2.0013 0.9791
-4.0571 -2.7298 -2.0013 0.9791
-3.5067 -3.4082 -2.0014 0.9791
-3.1884 -3.7079 -2.0014 0.9791
-2.8445 -3.9780 -2.0015 0.9791
-2.4779 -4.2162 -2.0015 0.9791
-2.0914 -4.4208 -2.0016 0.9791
-0.4110 -4.8738 -2.0018 0.9791
0.8958 -4.8088 -2.0020 0.9791
1.3218 -4.7096 -2.0020 0.9791
1.7373 -4.5729 -2.0021 0.9791
2.5233 -4.1910 -2.0022 0.9791
2.8876 -3.9490 -2.0022 0.9791
3.2289 -3.6754 -2.0023 0.9791
3.5443 -3.3723 -2.0023 0.9791
3.8314 -3.0423 -2.0023 0.9791
4.6544 -1.5081 -2.0024 0.9791
4.7706 -1.0864 -2.0025 0.9791
4.8878 -0.2202 -2.0025 0.9791
4.8490 0.6529 -2.0025 0.9791
4.7712 1.0834 -2.0025 0.9791
4.5023 1.9150 -2.0024 0.9791
4.3132 2.3095 -2.0024 0.9791
4.0896 2.6855 -2.0024 0.9791
2.8901 3.9472 -2.0022 0.9791
2.5259 4.1895 -2.0022 0.9791
1.7401 4.5718 -2.0021 0.9791
1.3247 4.7088 -2.0020 0.9791
0.8988 4.8082 -2.0020 0.9791
-1.6854 4.5911 -2.0016 0.9791
-3.1861 3.7099 -2.0015 0.9791
-3.5047 3.4104 -2.0014 0.9791
-3.7952 3.0837 -2.0014 0.9791
-4.0554 2.7323 -2.0013 0.9791
-4.4767 1.9671 -2.0013 0.9791
-4.7552 1.1392 -2.0013 0.9791
-1.9447 0.1095 -0.7972 0.9916
-1.9534 -0.2407 -0.8055 0.9915
-4.6692 -1.4520 -2.0013 0.9791
-4.3364 -2.2597 -2.0013 0.9791
-4.1173 -2.6380 -2.0013 0.9791
-3.5824 -3.3286 -2.0014 0.9791
-2.9331 -3.9130 -2.0015 0.9791
-2.5719 -4.1595 -2.0015 0.9791
-1.3773 -4.6928 -2.0017 0.9791
-0.0839 -4.8905 -2.0018 0.9791
0.7876 -4.8276 -2.0020 0.9791
1.6341 -4.6107 -2.0021 0.9791
2.0395 -4.4464 -2.0021 0.9791
2.7982 -4.0128 -2.0022 0.9791
3.7621 -3.1276 -2.0023 0.9791
4.0265 -2.7791 -2.0024 0.9791
4.2587 -2.4084 -2.0024 0.9791
4.4569 -2.0184 -2.0024 0.9791
4.6194 -1.6123 -2.0024 0.9791
4.7450 -1.1932 -2.0025 0.9791
4.8816 -0.3300 -2.0025 0.9791
4.8916 0.1074 -2.0025 0.9791
4.8624 0.5439 -2.0025 0.9791
4.7944 0.9760 -2.0025 0.9791
4.6880 1.4003 -2.0025 0.9791
4.5442 1.8134 -2.0024 0.9791
4.3640 2.2121 -2.0024 0.9791
1.8423 4.5316 -2.0021 0.9791
1.4302 4.6779 -2.0020 0.9791
0.5750 4.8575 -2.0019 0.9791
-0.7333 4.8357 -2.0018 0.9791
-1.1623 4.7508 -2.0017 0.9791
-1.5819 4.6278 -2.0017 0.9791
-3.1020 3.7805 -2.0015 0.9791
-3.4272 3.4883 -2.0014 0.9791
-3.7250 3.1681 -2.0014 0.9791
-4.2291 2.4547 -2.0013 0.9791
-4.4314 2.0672 -2.0013 0.9791
-4.7284 1.2457 -2.0013 0.9791
-2.1277 0.3612 -0.8833 0.9907
-1.9554 0.1542 -0.8028 0.9916
-4.5616 -1.7613 -2.0013 0.9791
-4.1755 -2.5449 -2.0013 0.9791
-3.9316 -2.9077 -2.0014 0.9791
-3.6562 -3.2473 -2.0014 0.9791
-3.3516 -3.5610 -2.0014 0.9791
-2.2878 -4.3224 -2.0016 0.9791
-1.8926 -4.5096 -2.0016 0.9791
-1.0601 -4.7746 -2.0017 0.9791
-0.6294 -4.8503 -2.0018 0.9791
1.9391 -4.4911 -2.0021 0.9791
2.7074 -4.0746 -2.0022 0.9791
3.0606 -3.8166 -2.0022 0.9791
3.3893 -3.5281 -2.0023 0.9791
3.6909 -3.2113 -2.0023 0.9791
4.2035 -2.5034 -2.0024 0.9791
4.4104 -2.1180 -2.0024 0.9791
4.5820 -1.7156 -2.0024 0.9791
4.7170 -1.2995 -2.0025 0.9791
4.8730 -0.4395 -2.0025 0.9791
4.8928 -0.0025 -2.0025 0.9791
