ply
format ascii 1.0
element vertex 1587
property float32 x
property float32 y
property float32 z
property float32 I
end_header
6.5412 11.3051 -1.8506 0.9486
4.4272 12.2857 -1.8503 0.9486
2.1730 12.8747 -1.8500 0.9486
-0.1496 13.0537 -1.8497 0.9486
-1.3135 12.9872 -1.8495 0.9486
-2.4667 12.8171 -1.8494 0.9486
-7.7580 10.4900 -1.8486 0.9487
-10.2569 8.0596 -1.8483 0.9487
-13.0127 5.4711 -2.0001 0.9446
-13.7771 3.0713 -2.0000 0.9446
-14.0982 -0.6865 -1.9999 0.9446
-13.9809 -1.9415 -2.0000 0.9446
-13.7521 -3.1811 -2.0000 0.9446
-12.9686 -5.5748 -2.0001 0.9446
-12.4200 -6.7098 -2.0002 0.9446
-11.0309 -8.8110 -2.0004 0.9446
-4.6072 -12.2097 -1.8490 0.9486
-3.4998 -12.5731 -1.8492 0.9486
1.1194 -13.0075 -1.8498 0.9486
3.3115 -12.2258 -1.7947 0.9501
4.5250 -12.2499 -1.8503 0.9486
5.6003 -11.7983 -1.8505 0.9486
6.6311 -11.2525 -1.8506 0.9486
8.0426 -11.2218 -1.9562 0.9458
9.2281 -10.7107 -2.0032 0.9445
10.1475 -9.8453 -2.0033 0.9445
10.9860 -8.9013 -2.0034 0.9445
11.7369 -7.8861 -2.0035 0.9445
12.3942 -6.8079 -2.0036 0.9445
12.9527 -5.6752 -2.0037 0.9445
13.4078 -4.4972 -2.0038 0.9445
13.7559 -3.2832 -2.0038 0.9445
14.1208 -0.7863 -2.0039 0.9445
13.0741 5.3901 -2.0037 0.9445
11.8696 7.6031 -1.9972 0.9446
10.3288 8.0003 -1.8511 0.9486
8.7416 9.7074 -1.8509 0.9486
3.6893 12.5263 -1.8502 0.9486
1.4043 12.9803 -1.8499 0.9486
-0.9248 13.0210 -1.8496 0.9486
-2.0826 12.8854 -1.8494 0.9486
-5.4189 11.8710 -1.8490 0.9486
-6.4559 11.3394 -1.8488 0.9487
-10.0116 8.3627 -1.8483 0.9487
-11.5907 8.0419 -1.9988 0.9446
-12.2702 6.9805 -2.0002 0.9446
-12.8435 5.8577 -2.0001 0.9446
-13.6792 3.4817 -2.0000 0.9446
-14.0798 0.9952 -1.9999 0.9446
-14.1124 -0.2648 -1.9999 0.9446
-14.0326 -1.5228 -1.9999 0.9446
-13.1293 -5.1846 -2.0001 0.9446
-12.6148 -6.3355 -2.0001 0.9446
-11.2891 -8.4772 -2.0003 0.9446
-10.4884 -9.4511 -2.0004 0.9446
-8.6178 -11.1336 -1.9949 0.9447
-7.1797 -11.2169 -1.8870 0.9476
-4.9698 -12.0662 -1.8490 0.9486
-2.7469 -12.7595 -1.8493 0.9486
0.7301 -13.0348 -1.8498 0.9486
1.8903 -12.9188 -1.8499 0.9486
3.0355 -12.6997 -1.8501 0.9486
5.2450 -11.9601 -1.8504 0.9486
6.2916 -11.4454 -1.8506 0.9486
11.4958 -8.2333 -2.0035 0.9445
12.7771 -6.0597 -2.0037 0.9445
13.6515 -3.6928 -2.0038 0.9445
13.9268 -2.4602 -2.0038 0.9445
14.0909 -1.2079 -2.0039 0.9445
14.0813 1.3155 -2.0039 0.9445
13.6229 3.7969 -2.0038 0.9445
13.2295 4.9970 -2.0037 0.9445
12.7305 6.1571 -2.0037 0.9445
12.1263 7.2658 -2.0030 0.9445
10.5928 7.7095 -1.8563 0.9484
9.8349 8.5995 -1.8511 0.9486
9.0280 9.4420 -1.8510 0.9486
8.1491 10.2091 -1.8508 0.9486
7.2053 10.8946 -1.8507 0.9486
6.2041 11.4932 -1.8506 0.9486
4.0622 12.4108 -1.8503 0.9486
1.7916 12.9329 -1.8500 0.9486
0.6306 13.0401 -1.8498 0.9486
-7.1178 10.9353 -1.8487 0.9487
-8.0644 10.2559 -1.8486 0.9487
-9.7574 8.6584 -1.8483 0.9487
-12.0563 7.3442 -2.0002 0.9446
-12.6629 6.2390 -2.0001 0.9446
-13.1685 5.0843 -2.0001 0.9446
-13.5692 3.8891 -2.0000 0.9446
-14.0718 -1.1027 -1.9999 0.9446
-4.6645 10.2090 -1.8491 0.9555
-5.5563 9.7515 -1.8489 0.9555
-6.4037 9.2164 -1.8488 0.9555
-7.9388 7.9307 -1.8486 0.9555
-9.2899 7.7545 -1.9935 0.9521
-11.0496 5.0349 -2.0004 0.9520
-11.4544 4.0290 -2.0003 0.9520
-11.7679 2.9910 -2.0003 0.9520
-11.2922 -4.4636 -2.0003 0.9520
-10.3198 -6.3998 -2.0005 0.9520
-4.6053 -11.1920 -1.9938 0.9521
-2.4117 -11.2214 -1.8908 0.9545
-1.3808 -11.2277 -1.8636 0.9552
-0.3713 -11.2354 -1.8519 0.9555
0.6332 -11.2349 -1.8538 0.9554
1.6471 -11.2301 -1.8698 0.9550
6.7872 -10.0867 -2.0028 0.9519
9.2174 -7.9307 -2.0032 0.9519
10.9898 -5.2075 -2.0034 0.9519
11.7410 -3.1717 -2.0035 0.9519
11.9773 -2.1116 -2.0036 0.9519
11.9593 2.2112 -2.0036 0.9519
10.9461 5.2987 -2.0034 0.9519
10.4294 6.2539 -2.0034 0.9519
9.8295 7.1591 -2.0033 0.9519
7.7613 8.1228 -1.8508 0.9555
7.0052 8.7823 -1.8507 0.9555
6.1935 9.3717 -1.8506 0.9555
5.3323 9.8862 -1.8504 0.9555
4.4288 10.3218 -1.8503 0.9555
3.4900 10.6750 -1.8502 0.9555
-0.4642 11.2181 -1.8496 0.9555
-2.4501 10.9554 -1.8494 0.9555
-8.7252 7.7371 -1.9211 0.9538
-9.7685 7.2143 -2.0005 0.9520
-10.3727 6.3138 -2.0005 0.9520
-10.8943 5.3630 -2.0004 0.9520
-11.3289 4.3696 -2.0003 0.9520
-11.6733 3.3414 -2.0003 0.9520
-12.1410 0.1310 -2.0002 0.9520
-12.1043 -0.9527 -2.0002 0.9520
-11.9711 -2.0288 -2.0002 0.9520
-11.7426 -3.0887 -2.0003 0.9520
-11.4204 -4.1241 -2.0003 0.9520
-11.0073 -5.1267 -2.0004 0.9520
-10.5064 -6.0884 -2.0004 0.9520
-9.2579 -7.8594 -2.0006 0.9520
-8.5203 -8.6544 -2.0007 0.9520
-7.7146 -9.3805 -2.0008 0.9520
-0.7078 -11.2327 -1.8541 0.9554
0.2968 -11.2365 -1.8517 0.9555
1.3057 -11.2311 -1.8627 0.9552
4.5265 -11.2110 -1.9917 0.9522
6.4825 -10.2848 -2.0028 0.9519
9.6726 -7.3694 -2.0032 0.9519
10.2919 -6.4773 -2.0033 0.9519
10.8291 -5.5335 -2.0034 0.9519
11.6408 -3.5211 -2.0035 0.9519
11.9088 -2.4686 -2.0035 0.9519
11.8067 2.9177 -2.0035 0.9519
11.0997 4.9692 -2.0034 0.9519
10.6118 5.9395 -2.0034 0.9519
7.2647 8.5692 -1.8507 0.9555
6.4709 9.1826 -1.8506 0.9555
5.6255 9.7227 -1.8505 0.9555
4.7354 10.1851 -1.8504 0.9555
2.8496 10.8630 -1.8501 0.9555
1.8689 11.0731 -1.8500 0.9555
-1.1297 11.1702 -1.8496 0.9555
-4.9640 10.0665 -1.8490 0.9555
-5.8419 9.5829 -1.8489 0.9555
-6.6731 9.0230 -1.8488 0.9555
-9.5384 7.4951 -1.9984 0.9520
-10.7292 5.6863 -2.0004 0.9520
-11.5683 3.6888 -2.0003 0.9520
-11.8510 2.6420 -2.0003 0.9520
-12.1273 -0.5905 -2.0002 0.9520
-12.0264 -1.6701 -2.0002 0.9520
-11.8296 -2.7364 -2.0002 0.9520
-11.5385 -3.7809 -2.0003 0.9520
-11.1555 -4.7953 -2.0003 0.9520
-10.1264 -6.7020 -2.0005 0.9520
-9.4885 -7.5790 -2.0006 0.9520
-8.7749 -8.3957 -2.0007 0.9520
-7.9914 -9.1456 -2.0008 0.9520
-7.1440 -9.8226 -2.0009 0.9520
-6.2396 -10.4215 -2.0010 0.9520
-4.2277 -11.2041 -1.9728 0.9526
-2.0674 -11.2238 -1.8801 0.9548
0.9666 -11.2319 -1.8572 0.9553
1.9875 -11.2289 -1.8786 0.9548
3.0400 -11.2234 -1.9155 0.9540
5.2039 -10.9631 -1.9992 0.9520
6.1721 -10.4737 -2.0027 0.9519
7.0823 -9.8820 -2.0029 0.9519
7.9362 -9.2112 -2.0030 0.9519
11.8296 -2.8234 -2.0035 0.9519
12.0345 -1.7568 -2.0036 0.9519
12.1433 -0.6762 -2.0036 0.9519
12.1553 0.4099 -2.0036 0.9519
11.8887 2.5635 -2.0036 0.9519
11.6124 3.6139 -2.0035 0.9519
7.5178 8.3484 -1.8508 0.9555
5.9137 9.5504 -1.8505 0.9555
4.1218 10.4479 -1.8503 0.9555
3.1730 10.7732 -1.8501 0.9555
2.1991 11.0125 -1.8500 0.9555
1.2077 11.1640 -1.8499 0.9555
-1.7912 11.0828 -1.8495 0.9555
-5.5530 9.7534 -1.8489 0.9555
-6.4006 9.2186 -1.8488 0.9555
-7.1970 8.6103 -1.8487 0.9555
-9.2870 7.7574 -1.9934 0.9521
-11.4530 4.0329 -2.0003 0.9520
-11.7669 2.9950 -2.0003 0.9520
-11.9869 1.9332 -2.0002 0.9520
-12.1115 0.8561 -2.0002 0.9520
-12.0709 -1.3099 -2.0002 0.9520
-11.2937 -4.4598 -2.0003 0.9520
-10.3220 -6.3963 -2.0005 0.9520
-9.0218 -8.1296 -2.0006 0.9520
-8.2610 -8.9025 -2.0007 0.9520
-6.5481 -10.2301 -2.0010 0.9520
-5.6086 -10.7721 -2.0007 0.9520
-4.6092 -11.1906 -1.9938 0.9521
-3.4852 -11.2121 -1.9342 0.9535
-1.3847 -11.2277 -1.8636 0.9552
-0.3751 -11.2354 -1.8519 0.9555
0.6293 -11.2349 -1.8537 0.9554
2.6832 -11.2255 -1.9014 0.9543
3.7668 -11.2179 -1.9494 0.9532
5.8562 -10.6533 -2.0027 0.9519
8.4697 -8.7238 -2.0031 0.9519
11.7399 -3.1757 -2.0035 0.9519
11.9766 -2.1157 -2.0036 0.9519
12.1177 -1.0388 -2.0036 0.9519
12.1621 0.0464 -2.0036 0.9519
11.7153 3.2652 -2.0035 0.9519
11.3770 4.2973 -2.0035 0.9519
10.9479 5.2950 -2.0034 0.9519
8.8024 7.6966 -1.9263 0.9537
7.7640 8.1201 -1.8508 0.9555
7.0083 8.7799 -1.8507 0.9555
2.5273 10.9422 -1.8501 0.9555
0.5424 11.2155 -1.8498 0.9555
-0.4603 11.2183 -1.8496 0.9555
-1.4592 11.1316 -1.8495 0.9555
-4.3538 10.3456 -1.8491 0.9555
-6.1223 9.4059 -1.8489 0.9555
-7.6955 8.1672 -1.8486 0.9555
-8.7190 7.7369 -1.9203 0.9538
-10.3706 6.3173 -2.0005 0.9520
-10.8924 5.3667 -2.0004 0.9520
-11.3274 4.3734 -2.0003 0.9520
-11.6722 3.3453 -2.0003 0.9520
-12.1046 -0.9485 -2.0002 0.9520
-3.2740 9.2778 -1.8493 0.9607
-4.0884 8.9481 -1.8491 0.9608
-4.8701 8.5472 -1.8490 0.9608
-7.5156 7.5079 -1.9967 0.9577
-9.2533 5.2599 -2.0006 0.9576
-9.6854 4.4133 -2.0006 0.9576
-10.6408 -0.2033 -2.0004 0.9576
-10.4354 -2.0912 -2.0004 0.9576
-9.5098 -4.7801 -2.0006 0.9576
-9.0457 -5.6096 -2.0006 0.9576
-8.5095 -6.3945 -2.0007 0.9576
-7.9054 -7.1285 -2.0008 0.9576
-6.5133 -8.4207 -2.0010 0.9576
-4.9137 -9.4452 -2.0012 0.9576
-4.0517 -9.8465 -2.0013 0.9576
-3.1573 -10.1694 -2.0014 0.9576
-2.2376 -10.4112 -2.0016 0.9576
-1.2999 -10.5699 -2.0017 0.9576
-0.3518 -10.6445 -2.0018 0.9576
2.4799 -10.3597 -2.0022 0.9576
5.9483 -8.8400 -2.0027 0.9576
6.7136 -8.2745 -2.0028 0.9576
7.4254 -7.6430 -2.0029 0.9576
8.6662 -6.2022 -2.0031 0.9576
9.1853 -5.4045 -2.0032 0.9576
9.6312 -4.5637 -2.0032 0.9576
10.0002 -3.6863 -2.0033 0.9575
10.2894 -2.7795 -2.0033 0.9575
10.4965 -1.8505 -2.0034 0.9575
10.6198 -0.9067 -2.0034 0.9575
10.6119 0.9950 -2.0034 0.9575
10.4807 1.9378 -2.0034 0.9575
10.2659 2.8650 -2.0033 0.9575
9.9692 3.7694 -2.0033 0.9575
9.5929 4.6436 -2.0032 0.9575
7.3342 7.6758 -1.9955 0.9577
6.1542 7.7154 -1.8550 0.9606
5.4280 8.2134 -1.8505 0.9607
4.6733 8.6644 -1.8504 0.9607
3.8815 9.0462 -1.8502 0.9607
1.3472 9.7493 -1.8499 0.9607
0.4720 9.8299 -1.8498 0.9607
-1.2823 9.7561 -1.8495 0.9607
-3.8192 9.0665 -1.8492 0.9607
-4.6126 8.6891 -1.8491 0.9608
-7.2633 7.7032 -1.9900 0.9578
-7.9644 7.0625 -2.0008 0.9576
-9.0921 5.5342 -2.0006 0.9576
-9.9303 3.8301 -2.0005 0.9576
-10.2321 2.9288 -2.0005 0.9576
-10.5895 1.0638 -2.0004 0.9576
-10.6421 0.1148 -2.0004 0.9576
-10.2929 -2.7074 -2.0005 0.9576
-10.0105 -3.6149 -2.0005 0.9576
-8.6967 -6.1373 -2.0007 0.9576
-7.4682 -7.5857 -2.0009 0.9576
-6.7620 -8.2222 -2.0009 0.9576
-6.0018 -8.7931 -2.0011 0.9576
-3.4597 -10.0703 -2.0014 0.9576
-0.6697 -10.6290 -2.0018 0.9576
2.1692 -10.4290 -2.0022 0.9576
3.0911 -10.1945 -2.0023 0.9576
3.9885 -9.8787 -2.0024 0.9576
4.8542 -9.4840 -2.0026 0.9576
5.6813 -9.0137 -2.0027 0.9576
6.4632 -8.4713 -2.0028 0.9576
8.4769 -6.4584 -2.0031 0.9576
9.8854 -3.9835 -2.0033 0.9575
10.2016 -3.0858 -2.0033 0.9575
10.5879 -1.2237 -2.0034 0.9575
10.6369 0.6774 -2.0034 0.9575
10.5340 1.6237 -2.0034 0.9575
9.2999 5.2052 -2.0032 0.9576
8.2262 6.7746 -2.0030 0.9576
7.5738 7.4665 -1.9990 0.9576
1.6380 9.7049 -1.8499 0.9607
0.7656 9.8117 -1.8498 0.9607
-0.1128 9.8402 -1.8497 0.9607
-5.1204 8.3994 -1.8490 0.9608
-5.8490 7.9087 -1.8489 0.9608
-6.8482 7.7123 -1.9386 0.9589
-8.3697 6.5767 -2.0007 0.9576
-8.9227 5.8035 -2.0007 0.9576
-10.6339 0.4328 -2.0004 0.9576
-10.6302 -0.5176 -2.0004 0.9576
-10.5416 -1.4639 -2.0004 0.9576
-10.3691 -2.3986 -2.0005 0.9576
-10.1140 -3.3141 -2.0005 0.9576
-9.7782 -4.2033 -2.0005 0.9576
-9.3645 -5.0591 -2.0006 0.9576
-8.3169 -6.6432 -2.0007 0.9576
-7.6914 -7.3590 -2.0008 0.9576
-7.0046 -8.0163 -2.0009 0.9576
-5.4690 -9.1344 -2.0011 0.9576
-1.9291 -10.4730 -2.0016 0.9576
-0.0371 -10.6505 -2.0019 0.9576
1.8565 -10.4889 -2.0021 0.9576
2.7850 -10.2821 -2.0023 0.9576
4.5685 -9.6247 -2.0025 0.9576
5.4093 -9.1793 -2.0026 0.9576
6.2070 -8.6606 -2.0027 0.9576
7.6481 -7.4204 -2.0030 0.9576
8.2799 -6.7088 -2.0030 0.9576
8.8458 -5.9436 -2.0031 0.9576
10.5466 -1.5396 -2.0034 0.9575
10.6420 -0.5926 -2.0034 0.9575
10.6524 0.3592 -2.0034 0.9575
10.5778 1.3081 -2.0034 0.9575
10.1767 3.1671 -2.0033 0.9575
9.8534 4.0623 -2.0033 0.9575
9.4514 4.9250 -2.0032 0.9576
8.9741 5.7483 -2.0031 0.9576
7.8080 7.2502 -2.0027 0.9576
4.4152 8.7985 -1.8503 0.9607
2.7809 9.4420 -1.8501 0.9607
1.0585 9.7846 -1.8499 0.9607
-0.6971 9.8157 -1.8496 0.9607
-6.4534 7.7206 -1.8913 0.9599
-8.1695 6.8240 -2.0008 0.9576
-9.2515 5.2631 -2.0006 0.9576
-9.6838 4.4166 -2.0006 0.9576
-10.5071 1.6946 -2.0004 0.9576
-10.6409 -0.1997 -2.0004 0.9576
-10.2084 -3.0103 -2.0005 0.9576
-9.8994 -3.9092 -2.0005 0.9576
-9.5114 -4.7769 -2.0006 0.9576
-8.5117 -6.3916 -2.0007 0.9576
-7.9078 -7.1258 -2.0008 0.9576
-7.2409 -7.8032 -2.0009 0.9576
-6.5162 -8.4185 -2.0010 0.9576
-4.0550 -9.8452 -2.0013 0.9576
-3.1608 -10.1683 -2.0014 0.9576
-1.3035 -10.5695 -2.0017 0.9576
0.5957 -10.6343 -2.0020 0.9576
1.5421 -10.5395 -2.0021 0.9576
3.3910 -10.0989 -2.0024 0.9576
4.2787 -9.7567 -2.0025 0.9576
5.9453 -8.8420 -2.0027 0.9576
7.4228 -7.6455 -2.0029 0.9576
8.0756 -6.9531 -2.0030 0.9576
9.1835 -5.4077 -2.0032 0.9576
9.6296 -4.5670 -2.0032 0.9576
10.6195 -0.9104 -2.0034 0.9575
10.6584 0.0407 -2.0034 0.9575
10.6122 0.9914 -2.0034 0.9575
10.4814 1.9342 -2.0034 0.9575
9.5945 4.6404 -2.0032 0.9575
9.1420 5.4777 -2.0032 0.9576
8.6165 6.2712 -2.0031 0.9576
7.3369 7.6734 -1.9955 0.9577
6.1582 7.7150 -1.8554 0.9606
5.4308 8.2115 -1.8505 0.9607
3.8845 9.0449 -1.8502 0.9607
2.2150 9.5901 -1.8500 0.9607
1.3505 9.7488 -1.8499 0.9607
0.4754 9.8298 -1.8498 0.9607
-0.4035 9.8323 -1.8497 0.9607
-1.2790 9.7565 -1.8495 0.9607
-2.9921 9.3727 -1.8493 0.9607
-3.8161 9.0678 -1.8492 0.9607
-4.6096 8.6907 -1.8491 0.9608
-5.3662 8.2443 -1.8490 0.9608
-7.2585 7.7033 -1.9894 0.9578
-8.5602 6.3265 -2.0007 0.9576
-9.0902 5.5373 -2.0006 0.9576
-9.5476 4.7041 -2.0006 0.9576
-10.6421 0.1185 -2.0004 0.9576
-10.6102 -0.8315 -2.0004 0.9576
-3.6355 7.9570 -1.8492 0.9649
-5.3518 7.7024 -1.9826 0.9624
-6.0733 7.2608 -2.0009 0.9620
-7.2669 6.0658 -2.0009 0.9620
-8.9285 3.1405 -2.0007 0.9620
-9.1729 2.3314 -2.0006 0.9620
-9.4088 -1.0243 -2.0006 0.9620
-9.2800 -1.8596 -2.0006 0.9620
-9.0772 -2.6802 -2.0006 0.9620
-8.8021 -3.4793 -2.0007 0.9620
-8.4568 -4.2508 -2.0007 0.9620
-8.0441 -4.9885 -2.0008 0.9620
-7.5672 -5.6864 -2.0008 0.9620
-7.0300 -6.3391 -2.0009 0.9620
-5.1011 -7.9754 -2.0012 0.9620
-4.3695 -8.3991 -2.0013 0.9620
-2.8076 -9.0429 -2.0015 0.9620
-1.9897 -9.2578 -2.0016 0.9620
-0.3128 -9.4652 -2.0018 0.9620
1.3745 -9.3712 -2.0021 0.9620
3.0183 -8.9788 -2.0023 0.9620
3.8075 -8.6742 -2.0024 0.9620
4.5665 -8.3004 -2.0025 0.9620
5.2890 -7.8603 -2.0026 0.9620
5.9695 -7.3574 -2.0027 0.9620
8.1671 -4.8054 -2.0030 0.9620
8.5635 -4.0578 -2.0031 0.9620
8.8915 -3.2777 -2.0031 0.9620
9.3328 -1.6454 -2.0032 0.9620
9.4425 -0.8062 -2.0032 0.9620
9.4768 0.0394 -2.0032 0.9620
9.4354 0.8847 -2.0032 0.9620
9.3188 1.7229 -2.0032 0.9620
9.1278 2.5474 -2.0032 0.9620
8.8640 3.3515 -2.0031 0.9620
8.5295 4.1288 -2.0031 0.9620
8.1269 4.8732 -2.0030 0.9620
5.0864 7.6965 -1.9501 0.9630
2.7198 8.3191 -1.8501 0.9648
1.9666 8.5281 -1.8500 0.9649
1.1979 8.6690 -1.8499 0.9649
0.4197 8.7408 -1.8498 0.9649
-7.6142 5.6233 -2.0008 0.9620
-8.0853 4.9214 -2.0008 0.9620
-9.4170 0.9460 -2.0006 0.9620
-9.4638 0.1021 -2.0006 0.9620
-9.3314 -1.5814 -2.0006 0.9620
-8.5800 -3.9962 -2.0007 0.9620
-7.7337 -5.4577 -2.0008 0.9620
-7.2162 -6.1261 -2.0009 0.9620
-6.0131 -7.3116 -2.0011 0.9620
-5.3371 -7.8193 -2.0011 0.9620
-4.6185 -8.2646 -2.0012 0.9620
-3.8629 -8.6442 -2.0014 0.9620
-3.0765 -8.9548 -2.0015 0.9620
-2.2655 -9.1941 -2.0016 0.9620
-0.5955 -9.4514 -2.0018 0.9620
1.0937 -9.4079 -2.0020 0.9620
1.9288 -9.2734 -2.0022 0.9620
2.7486 -9.0648 -2.0023 0.9620
4.3163 -8.4330 -2.0025 0.9620
5.0517 -8.0147 -2.0026 0.9620
5.7468 -7.5324 -2.0027 0.9620
7.5372 -5.7425 -2.0029 0.9620
8.4383 -4.3118 -2.0031 0.9620
8.7896 -3.5419 -2.0031 0.9620
9.0707 -2.7437 -2.0032 0.9620
9.2794 -1.9236 -2.0032 0.9620
9.4141 -1.0880 -2.0032 0.9620
9.4577 0.6023 -2.0032 0.9620
9.3662 1.4437 -2.0032 0.9620
9.1999 2.2735 -2.0032 0.9620
8.9603 3.0851 -2.0031 0.9620
8.6491 3.8721 -2.0031 0.9620
8.2690 4.6282 -2.0031 0.9620
7.8228 5.3473 -2.0030 0.9620
6.7475 6.6519 -2.0028 0.9620
6.1269 7.2271 -2.0028 0.9620
2.9673 8.2342 -1.8501 0.9648
1.4565 8.6295 -1.8499 0.9649
0.6808 8.7245 -1.8498 0.9649
-3.1538 8.1603 -1.8493 0.9649
-4.7033 7.7151 -1.9100 0.9637
-5.6131 7.5897 -1.9954 0.9621
-7.4429 5.8484 -2.0009 0.9620
-7.9347 5.1609 -2.0008 0.9620
-8.3632 4.4323 -2.0007 0.9620
-8.7251 3.6684 -2.0007 0.9620
-9.0174 2.8754 -2.0006 0.9620
-9.2378 2.0594 -2.0006 0.9620
-9.3846 1.2270 -2.0006 0.9620
-9.4566 0.3849 -2.0006 0.9620
-9.3745 -1.3018 -2.0006 0.9620
-8.6955 -3.7379 -2.0007 0.9620
-7.3960 -5.9076 -2.0009 0.9620
-5.5683 -7.6561 -2.0011 0.9620
-3.3427 -8.8587 -2.0014 0.9620
-2.5392 -9.1221 -2.0015 0.9620
-0.8777 -9.4292 -2.0018 0.9620
1.6508 -9.3267 -2.0021 0.9620
3.2824 -8.8859 -2.0023 0.9620
4.0622 -8.5581 -2.0025 0.9620
4.8098 -8.1619 -2.0026 0.9620
5.5190 -7.7007 -2.0027 0.9620
6.1843 -7.1779 -2.0027 0.9620
6.8003 -6.5979 -2.0028 0.9620
7.3621 -5.9651 -2.0029 0.9620
7.8652 -5.2847 -2.0030 0.9620
8.9846 -3.0136 -2.0031 0.9620
9.4622 -0.5269 -2.0032 0.9620
9.4051 1.1631 -2.0032 0.9620
9.2638 1.9975 -2.0032 0.9620
8.7610 3.6119 -2.0031 0.9620
8.4037 4.3790 -2.0031 0.9620
4.7700 7.7033 -1.9152 0.9636
3.9259 7.8234 -1.8503 0.9648
2.4727 8.3957 -1.8500 0.9649
1.7138 8.5823 -1.8499 0.9649
0.9412 8.7005 -1.8498 0.9649
-2.1609 8.4781 -1.8494 0.9649
-2.9085 8.2511 -1.8493 0.9649
-3.6328 7.9583 -1.8492 0.9649
-4.3957 7.7207 -1.8780 0.9643
-5.3480 7.7025 -1.9821 0.9624
-6.6948 6.6925 -2.0010 0.9620
-7.7770 5.3958 -2.0008 0.9620
-8.6116 3.9276 -2.0007 0.9620
-8.9275 3.1436 -2.0007 0.9620
-9.1722 2.3346 -2.0006 0.9620
-9.4409 0.6673 -2.0006 0.9620
-9.4092 -1.0211 -2.0006 0.9620
-8.8033 -3.4763 -2.0007 0.9620
-8.4582 -4.2479 -2.0007 0.9620
-8.0458 -4.9857 -2.0008 0.9620
-7.0321 -6.3367 -2.0009 0.9620
-5.7946 -7.4862 -2.0011 0.9620
-4.3723 -8.3976 -2.0013 0.9620
-2.8107 -9.0420 -2.0015 0.9620
-1.9929 -9.2572 -2.0016 0.9620
0.5297 -9.4561 -2.0020 0.9620
2.2020 -9.2125 -2.0022 0.9620
3.0153 -8.9798 -2.0023 0.9620
3.8046 -8.6755 -2.0024 0.9620
5.9670 -7.3594 -2.0027 0.9620
6.6000 -6.7981 -2.0028 0.9620
7.1805 -6.1824 -2.0029 0.9620
7.7037 -5.5174 -2.0030 0.9620
8.8904 -3.2807 -2.0031 0.9620
9.4422 -0.8094 -2.0032 0.9620
9.4768 0.0362 -2.0032 0.9620
9.4357 0.8815 -2.0032 0.9620
9.3194 1.7198 -2.0032 0.9620
9.1287 2.5443 -2.0032 0.9620
8.1285 4.8704 -2.0030 0.9620
7.6614 5.5760 -2.0030 0.9620
7.1331 6.2370 -2.0029 0.9620
4.1665 7.7184 -1.8541 0.9648
3.4540 8.0425 -1.8502 0.9648
2.7226 8.3182 -1.8501 0.9648
-0.3588 8.7430 -1.8497 0.9649
-1.1373 8.6757 -1.8495 0.9649
-1.9066 8.5391 -1.8494 0.9649
-3.3934 8.0634 -1.8492 0.9649
-4.1006 7.7312 -1.8499 0.9649
-5.0179 7.7091 -1.9443 0.9631
-7.6123 5.6259 -2.0008 0.9620
-8.0836 4.9242 -2.0008 0.9620
-8.4904 4.1833 -2.0007 0.9620
-8.8296 3.4090 -2.0007 0.9620
-9.0983 2.6077 -2.0006 0.9620
-9.4167 0.9492 -2.0006 0.9620
-9.4355 -0.7394 -2.0006 0.9620
-3.5177 7.6991 -1.9894 0.9658
-4.8587 6.9928 -2.0012 0.9656
-5.4630 6.5311 -2.0011 0.9656
-6.0236 6.0175 -2.0011 0.9656
-6.9967 4.8509 -2.0009 0.9656
-7.4013 4.2072 -2.0009 0.9656
-8.0308 2.8248 -2.0008 0.9656
-8.4919 0.5973 -2.0007 0.9656
-8.5113 -0.1626 -2.0007 0.9656
-8.4629 -0.9213 -2.0007 0.9656
-8.1646 -2.4107 -2.0008 0.9656
-7.6065 -3.8234 -2.0008 0.9656
-6.3231 -5.7017 -2.0010 0.9656
-5.2095 -6.7351 -2.0012 0.9656
-4.5881 -7.1733 -2.0013 0.9656
-3.2405 -7.8753 -2.0014 0.9656
-2.5252 -8.1334 -2.0015 0.9656
-1.7896 -8.3266 -2.0016 0.9656
-1.0396 -8.4535 -2.0017 0.9656
1.2362 -8.4284 -2.0021 0.9656
1.9833 -8.2849 -2.0022 0.9656
3.4244 -7.8014 -2.0024 0.9656
4.1070 -7.4651 -2.0025 0.9656
5.9379 -6.1119 -2.0027 0.9656
6.4597 -5.5580 -2.0028 0.9656
6.9300 -4.9597 -2.0029 0.9656
7.3451 -4.3218 -2.0029 0.9656
7.9966 -2.9478 -2.0030 0.9656
8.2278 -2.2226 -2.0030 0.9656
8.4920 -0.7251 -2.0031 0.9656
8.5228 0.0354 -2.0031 0.9656
8.4857 0.7957 -2.0031 0.9656
7.9718 3.0142 -2.0030 0.9656
7.3089 4.3827 -2.0029 0.9656
6.8885 5.0171 -2.0029 0.9656
5.8869 6.1611 -2.0027 0.9656
5.3135 6.6614 -2.0026 0.9656
4.6979 7.1086 -2.0026 0.9656
2.5199 7.7076 -1.9058 0.9672
1.7795 7.7167 -1.8612 0.9680
1.0774 7.7969 -1.8499 0.9682
-0.3254 7.8634 -1.8497 0.9682
-1.7267 7.7211 -1.8595 0.9680
-3.2450 7.7033 -1.9645 0.9662
-3.9841 7.5052 -1.9970 0.9657
-4.6476 7.1350 -2.0013 0.9656
-5.8411 6.1949 -2.0011 0.9656
-6.3703 5.6489 -2.0010 0.9656
-7.9429 3.0636 -2.0008 0.9656
-8.3606 1.6032 -2.0007 0.9656
-8.4866 -0.6680 -2.0007 0.9656
-8.3932 -1.4224 -2.0007 0.9656
-8.0070 -2.8915 -2.0008 0.9656
-7.7173 -3.5944 -2.0008 0.9656
-7.3660 -4.2686 -2.0009 0.9656
-5.9733 -6.0674 -2.0011 0.9656
-5.4084 -6.5763 -2.0011 0.9656
-4.8004 -7.0329 -2.0012 0.9656
-4.1540 -7.4335 -2.0013 0.9656
-3.4744 -7.7748 -2.0014 0.9656
-2.7671 -8.0541 -2.0015 0.9656
-1.2918 -8.4185 -2.0017 0.9656
-0.5356 -8.5007 -2.0018 0.9656
0.9837 -8.4614 -2.0020 0.9656
1.7348 -8.3404 -2.0021 0.9656
2.4720 -8.1528 -2.0022 0.9656
3.8819 -7.5844 -2.0024 0.9656
5.1685 -6.7744 -2.0026 0.9656
5.7525 -6.2865 -2.0027 0.9656
6.7786 -5.1645 -2.0028 0.9656
7.2126 -4.5393 -2.0029 0.9656
7.9048 -3.1854 -2.0030 0.9656
8.3454 -1.7300 -2.0031 0.9656
8.4665 -0.9785 -2.0031 0.9656
8.5057 0.5417 -2.0031 0.9656
8.4234 1.2983 -2.0031 0.9656
7.4367 4.1624 -2.0029 0.9656
7.0355 4.8091 -2.0029 0.9656
6.5782 5.4174 -2.0028 0.9656
6.0684 5.9824 -2.0027 0.9656
4.9083 6.9651 -2.0026 0.9656
2.7761 7.7038 -1.9246 0.9669
-0.7919 7.8299 -1.8496 0.9682
-1.4874 7.7286 -1.8497 0.9682
-2.2144 7.7166 -1.8868 0.9676
-2.9786 7.7072 -1.9419 0.9666
-4.4316 7.2696 -2.0010 0.9656
-6.6945 5.2603 -2.0010 0.9656
-7.8478 3.2996 -2.0008 0.9656
-8.1107 2.5863 -2.0008 0.9656
-8.3090 1.8521 -2.0007 0.9656
-8.4410 1.1037 -2.0007 0.9656
-8.2940 -1.9185 -2.0007 0.9656
-7.8212 -3.3621 -2.0008 0.9656
-7.4903 -4.0465 -2.0009 0.9656
-7.0996 -4.6987 -2.0009 0.9656
-6.6523 -5.3136 -2.0010 0.9656
-6.1519 -5.8861 -2.0010 0.9656
-5.0083 -6.8862 -2.0012 0.9656
-4.3742 -7.3059 -2.0013 0.9656
-3.7052 -7.6673 -2.0014 0.9656
-1.5428 -8.3760 -2.0017 0.9656
-0.7894 -8.4807 -2.0018 0.9656
-0.0297 -8.5178 -2.0019 0.9656
4.9636 -6.9257 -2.0026 0.9656
5.5620 -6.4556 -2.0027 0.9656
6.1159 -5.9338 -2.0027 0.9656
8.0802 -2.7102 -2.0030 0.9656
8.2899 -1.9786 -2.0030 0.9656
8.4335 -1.2311 -2.0031 0.9656
8.5097 -0.4738 -2.0031 0.9656
8.1377 2.5325 -2.0030 0.9656
7.8792 3.2484 -2.0030 0.9656
6.7373 5.2184 -2.0028 0.9656
6.2446 5.7985 -2.0028 0.9656
5.1143 6.8154 -2.0026 0.9656
3.0376 7.6997 -1.9453 0.9666
2.2711 7.7110 -1.8892 0.9675
1.5423 7.7240 -1.8512 0.9682
0.8466 7.8252 -1.8498 0.9682
-3.5145 7.6991 -1.9891 0.9658
-4.2081 7.3912 -1.9989 0.9657
-6.0215 6.0195 -2.0011 0.9656
-7.3999 4.2098 -2.0009 0.9656
-8.0299 2.8275 -2.0008 0.9656
-8.2500 2.0998 -2.0008 0.9656
-8.4043 1.3554 -2.0007 0.9656
-8.4917 0.6002 -2.0007 0.9656
-8.5113 -0.1597 -2.0007 0.9656
-8.4632 -0.9184 -2.0007 0.9656
-8.3476 -1.6698 -2.0007 0.9656
-7.2368 -4.4844 -2.0009 0.9656
-5.7915 -6.2413 -2.0011 0.9656
-3.2432 -7.8742 -2.0014 0.9656
-2.5279 -8.1325 -2.0015 0.9656
-0.2842 -8.5129 -2.0018 0.9656
0.4764 -8.5048 -2.0020 0.9656
6.4578 -5.5602 -2.0028 0.9656
7.7003 -3.6520 -2.0030 0.9656
7.9956 -2.9505 -2.0030 0.9656
8.4917 -0.7280 -2.0031 0.9656
8.5228 0.0325 -2.0031 0.9656
8.4859 0.7928 -2.0031 0.9656
8.3813 1.5467 -2.0031 0.9656
8.2098 2.2882 -2.0030 0.9656
7.9728 3.0114 -2.0030 0.9656
6.8903 5.0148 -2.0029 0.9656
6.4152 5.6093 -2.0028 0.9656
5.8890 6.1591 -2.0027 0.9656
4.0390 7.4823 -1.9984 0.9657
-2.4625 7.7138 -1.9031 0.9673
-3.2419 7.7034 -1.9643 0.9662
-4.6452 7.1365 -2.0013 0.9656
-5.2631 6.6934 -2.0012 0.9656
-5.8390 6.1969 -2.0011 0.9656
-6.3684 5.6511 -2.0010 0.9656
-6.8469 5.0602 -2.0010 0.9656
-7.2708 4.4291 -2.0009 0.9656
-7.6368 3.7627 -2.0008 0.9656
-7.9418 3.0663 -2.0008 0.9656
-8.1836 2.3455 -2.0008 0.9656
-8.4699 0.8538 -2.0007 0.9656
-8.5123 0.0947 -2.0007 0.9656
-2.5716 7.2874 -2.0009 0.9686
-3.8267 6.7160 -2.0014 0.9686
-4.4104 6.3476 -2.0013 0.9686
-7.2900 2.5642 -2.0009 0.9686
-7.4896 1.9036 -2.0009 0.9686
-7.7086 0.5423 -2.0008 0.9686
-7.7262 -0.1476 -2.0008 0.9686
-7.5771 -1.5184 -2.0008 0.9686
-7.4115 -2.1883 -2.0009 0.9686
-7.1868 -2.8408 -2.0009 0.9686
-6.9049 -3.4707 -2.0009 0.9686
-5.7398 -5.1757 -2.0011 0.9686
-4.7289 -6.1138 -2.0012 0.9686
-4.1648 -6.5115 -2.0013 0.9686
-3.5674 -6.8574 -2.0014 0.9686
-2.9415 -7.1486 -2.0015 0.9686
-2.2922 -7.3829 -2.0016 0.9686
-1.6244 -7.5583 -2.0017 0.9686
-0.9437 -7.6734 -2.0018 0.9686
-0.2554 -7.7274 -2.0019 0.9686
0.4351 -7.7197 -2.0019 0.9686
1.1221 -7.6505 -2.0020 0.9686
2.4641 -7.3300 -2.0022 0.9686
3.1083 -7.0812 -2.0023 0.9686
3.7278 -6.7760 -2.0024 0.9686
5.3897 -5.5476 -2.0026 0.9685
5.8633 -5.0448 -2.0027 0.9685
6.2902 -4.5018 -2.0028 0.9685
6.6669 -3.9227 -2.0028 0.9685
6.9904 -3.3124 -2.0029 0.9685
7.2582 -2.6756 -2.0029 0.9685
7.4681 -2.0174 -2.0029 0.9685
7.6184 -1.3431 -2.0030 0.9685
7.7079 -0.6581 -2.0030 0.9685
7.7021 0.7222 -2.0030 0.9685
7.6069 1.4065 -2.0030 0.9685
7.2357 2.7359 -2.0029 0.9685
6.9627 3.3704 -2.0029 0.9685
6.2525 4.5539 -2.0028 0.9685
5.3434 5.5923 -2.0026 0.9685
4.8230 6.0465 -2.0026 0.9685
4.2642 6.4524 -2.0025 0.9685
3.6714 6.8068 -2.0024 0.9685
3.0493 7.1069 -2.0023 0.9686
-0.3184 7.6945 -1.9940 0.9687
-1.0041 7.6398 -1.9951 0.9687
-4.7796 6.0742 -2.0012 0.9686
-5.3023 5.6234 -2.0012 0.9686
-6.2169 4.5913 -2.0010 0.9686
-7.2102 2.7810 -2.0009 0.9686
-7.5895 1.4553 -2.0008 0.9686
-7.6890 0.7724 -2.0008 0.9686
-7.7272 0.0833 -2.0008 0.9686
-7.4735 -1.9658 -2.0009 0.9686
-7.2685 -2.6248 -2.0009 0.9686
-7.0054 -3.2628 -2.0009 0.9686
-6.3144 -4.4561 -2.0010 0.9686
-5.8918 -5.0018 -2.0011 0.9686
-5.4223 -5.5076 -2.0011 0.9686
-3.1538 -7.0574 -2.0015 0.9686
0.8929 -7.6805 -2.0020 0.9686
1.5746 -7.5706 -2.0021 0.9686
2.8953 -7.1709 -2.0023 0.9686
3.5236 -6.8843 -2.0024 0.9686
6.1528 -4.6877 -2.0027 0.9685
6.5466 -4.1202 -2.0028 0.9685
6.8883 -3.5198 -2.0029 0.9685
7.1750 -2.8913 -2.0029 0.9685
7.6847 -0.8882 -2.0030 0.9685
7.7334 -0.1990 -2.0030 0.9685
7.6456 1.1785 -2.0030 0.9685
7.5099 1.8558 -2.0029 0.9685
7.0603 3.1608 -2.0029 0.9685
6.7500 3.7780 -2.0028 0.9685
6.3859 4.3650 -2.0028 0.9685
5.9709 4.9172 -2.0027 0.9685
5.5082 5.4301 -2.0027 0.9685
5.0016 5.8997 -2.0026 0.9685
4.4552 6.3221 -2.0025 0.9685
2.6210 7.2733 -2.0017 0.9686
1.2830 7.6015 -1.9960 0.9686
-0.7752 7.6648 -1.9947 0.9687
-1.4570 7.5708 -1.9962 0.9686
-2.1293 7.4199 -1.9987 0.9686
-2.7867 7.2106 -2.0015 0.9686
-4.0234 6.6000 -2.0013 0.9686
-5.6269 5.2984 -2.0011 0.9686
-6.0769 4.7751 -2.0011 0.9686
-6.4785 4.2138 -2.0010 0.9686
-7.1239 2.9952 -2.0009 0.9686
-7.6625 1.0019 -2.0008 0.9686
-7.7212 0.3143 -2.0008 0.9686
-7.7185 -0.3758 -2.0008 0.9686
-7.0998 -3.0519 -2.0009 0.9686
-5.0856 -5.8202 -2.0012 0.9686
-3.3633 -6.9599 -2.0014 0.9686
-0.0270 -7.7317 -2.0019 0.9686
0.6630 -7.7036 -2.0020 0.9686
2.6796 -7.2541 -2.0023 0.9686
3.3162 -6.9864 -2.0023 0.9686
3.9265 -6.6630 -2.0024 0.9685
5.0485 -5.8596 -2.0026 0.9685
6.4205 -4.3140 -2.0028 0.9685
6.7799 -3.7241 -2.0028 0.9685
7.3341 -2.4600 -2.0029 0.9685
7.6547 -1.1175 -2.0030 0.9685
7.7239 -0.4301 -2.0030 0.9685
7.7315 0.2607 -2.0030 0.9685
7.5620 1.6306 -2.0029 0.9685
7.3863 2.2987 -2.0029 0.9685
5.6681 5.2631 -2.0027 0.9685
5.1758 5.7476 -2.0026 0.9685
4.6422 6.1862 -2.0025 0.9685
3.4686 6.9122 -2.0024 0.9686
2.8380 7.1938 -2.0023 0.9686
2.1817 7.4075 -1.9994 0.9686
1.5101 7.5624 -1.9967 0.9686
0.8287 7.6603 -1.9950 0.9687
-1.2297 7.6087 -1.9956 0.9687
-1.9057 7.4767 -1.9977 0.9686
-2.5691 7.2882 -2.0009 0.9686
-3.2100 7.0321 -2.0015 0.9686
-4.4083 6.3491 -2.0013 0.9686
-5.9315 4.9546 -2.0011 0.9686
-6.3497 4.4056 -2.0010 0.9686
-7.2892 2.5667 -2.0009 0.9686
-7.4890 1.9062 -2.0009 0.9686
-7.7084 0.5449 -2.0008 0.9686
-7.5776 -1.5158 -2.0008 0.9686
-7.4122 -2.1858 -2.0009 0.9686
-6.5692 -4.0708 -2.0010 0.9686
-6.1800 -4.6407 -2.0010 0.9686
-5.7415 -5.1737 -2.0011 0.9686
-4.7310 -6.1121 -2.0012 0.9686
-4.1670 -6.5101 -2.0013 0.9686
-2.2947 -7.3821 -2.0016 0.9686
-1.6270 -7.5577 -2.0017 0.9686
-0.2580 -7.7273 -2.0019 0.9686
0.4324 -7.7199 -2.0019 0.9686
1.7977 -7.5209 -2.0021 0.9686
2.4616 -7.3308 -2.0022 0.9686
3.1059 -7.0823 -2.0023 0.9686
3.7255 -6.7773 -2.0024 0.9686
6.2886 -4.5039 -2.0028 0.9685
7.6179 -1.3457 -2.0030 0.9685
7.7024 0.7196 -2.0030 0.9685
7.6074 1.4038 -2.0030 0.9685
7.4518 2.0769 -2.0029 0.9685
7.2367 2.7334 -2.0029 0.9685
6.9638 3.3680 -2.0029 0.9685
6.6354 3.9758 -2.0028 0.9685
4.2664 6.4509 -2.0025 0.9685
3.6737 6.8055 -2.0024 0.9686
1.7362 7.5169 -1.9975 0.9686
1.0575 7.6339 -1.9954 0.9687
-0.3157 7.6945 -1.9939 0.9687
-1.6807 7.5272 -1.9969 0.9686
-2.9985 7.1250 -2.0015 0.9686
-4.2166 6.4781 -2.0013 0.9686
-4.7775 6.0759 -2.0012 0.9686
-6.6001 4.0205 -2.0010 0.9686
-7.4287 2.1291 -2.0009 0.9686
-7.6887 0.7750 -2.0008 0.9686
-7.7040 -0.6037 -2.0008 0.9686
-2.3528 6.6674 -2.0016 0.9710
-2.9382 6.4307 -2.0015 0.9710
-4.5356 5.4225 -2.0013 0.9710
-5.0011 4.9960 -2.0012 0.9710
-6.4321 2.9309 -2.0010 0.9710
-6.8504 1.7411 -2.0009 0.9710
-7.0506 0.4960 -2.0009 0.9710
-6.9303 -1.3888 -2.0009 0.9710
-6.7789 -2.0015 -2.0010 0.9710
-5.6510 -4.2465 -2.0011 0.9710
-4.3252 -5.5918 -2.0013 0.9710
-3.8092 -5.9556 -2.0014 0.9710
-3.2628 -6.2719 -2.0014 0.9710
-2.6904 -6.5383 -2.0015 0.9710
-2.0965 -6.7525 -2.0016 0.9710
-0.8631 -7.0182 -2.0018 0.9710
1.6465 -6.8780 -2.0021 0.9710
3.9489 -5.8686 -2.0024 0.9710
4.4568 -5.4931 -2.0025 0.9710
5.7528 -4.1172 -2.0027 0.9710
6.0973 -3.5876 -2.0027 0.9710
6.3932 -3.0294 -2.0028 0.9710
6.8300 -1.8451 -2.0028 0.9710
7.0749 0.0294 -2.0029 0.9710
6.9570 1.2863 -2.0029 0.9710
6.8145 1.9018 -2.0028 0.9710
6.0673 3.6382 -2.0027 0.9710
5.7184 4.1649 -2.0027 0.9710
5.3239 4.6583 -2.0026 0.9710
4.4110 5.5300 -2.0025 0.9710
2.1978 6.7225 -2.0022 0.9710
0.9680 7.0054 -2.0020 0.9710
0.3392 7.0636 -2.0020 0.9710
-0.2923 7.0654 -2.0019 0.9710
-1.5432 6.9003 -2.0017 0.9710
-3.3149 6.2446 -2.0014 0.9710
-4.3716 5.5557 -2.0013 0.9710
-4.8496 5.1433 -2.0012 0.9710
-5.2890 4.6900 -2.0012 0.9710
-5.6862 4.1994 -2.0011 0.9710
-6.9417 1.3311 -2.0009 0.9710
-7.0676 0.0762 -2.0009 0.9710
-7.0463 -0.5546 -2.0009 0.9710
-6.9687 -1.1810 -2.0009 0.9710
-5.7754 -4.0757 -2.0011 0.9710
-5.3889 -4.5748 -2.0011 0.9710
-4.9594 -5.0375 -2.0012 0.9710
-4.4904 -5.4600 -2.0013 0.9710
-3.9855 -5.8390 -2.0013 0.9710
-3.4488 -6.1716 -2.0014 0.9710
-2.8846 -6.4549 -2.0015 0.9710
-2.2973 -6.6867 -2.0016 0.9710
-1.0725 -6.9892 -2.0017 0.9710
1.4402 -6.9240 -2.0021 0.9710
4.2906 -5.6237 -2.0025 0.9710
4.7754 -5.2187 -2.0026 0.9710
5.2221 -4.7720 -2.0026 0.9710
5.9873 -3.7682 -2.0027 0.9710
6.2998 -3.2191 -2.0028 0.9710
6.7718 -2.0483 -2.0028 0.9710
7.0726 -0.1820 -2.0029 0.9710
6.9924 1.0778 -2.0029 0.9710
6.6894 2.3032 -2.0028 0.9710
5.8404 3.9922 -2.0027 0.9710
5.4608 4.4971 -2.0027 0.9710
4.0746 5.7821 -2.0025 0.9710
2.3978 6.6539 -2.0022 0.9710
-0.0810 7.0710 -2.0019 0.9710
-0.7115 7.0353 -2.0018 0.9710
-1.3363 6.9435 -2.0017 0.9710
-2.5488 6.5949 -2.0015 0.9710
-3.1268 6.3410 -2.0015 0.9710
-5.5582 4.3675 -2.0011 0.9710
-5.9255 3.8541 -2.0011 0.9710
-6.2456 3.3100 -2.0010 0.9710
-6.5158 2.7396 -2.0010 0.9710
-6.7342 2.1473 -2.0010 0.9710
-6.8988 1.5379 -2.0009 0.9710
-6.8863 -1.5929 -2.0009 0.9710
-6.7168 -2.2009 -2.0010 0.9710
-6.2190 -3.3597 -2.0010 0.9710
-5.8946 -3.9012 -2.0011 0.9710
-5.5231 -4.4117 -2.0011 0.9710
-5.1077 -4.8869 -2.0012 0.9710
-3.0761 -6.3657 -2.0015 0.9710
-2.4961 -6.6150 -2.0015 0.9710
-1.8961 -6.8116 -2.0016 0.9710
-1.2809 -6.9539 -2.0017 0.9710
-0.6554 -7.0407 -2.0018 0.9710
1.8490 -6.8264 -2.0021 0.9710
2.4507 -6.6345 -2.0022 0.9710
5.4964 -4.4535 -2.0027 0.9710
5.8720 -3.9454 -2.0027 0.9710
6.7075 -2.2498 -2.0028 0.9710
6.8816 -1.6425 -2.0029 0.9710
7.0007 -1.0220 -2.0029 0.9710
7.0215 0.8683 -2.0029 0.9710
6.9160 1.4912 -2.0029 0.9710
6.2739 3.2692 -2.0028 0.9710
5.9571 3.8158 -2.0027 0.9710
5.1839 4.8135 -2.0026 0.9710
4.2456 5.6578 -2.0025 0.9710
3.1723 6.3218 -2.0023 0.9710
1.9982 6.7844 -2.0022 0.9710
0.7606 7.0309 -2.0020 0.9710
0.1303 7.0704 -2.0019 0.9710
-4.0319 5.8071 -2.0013 0.9710
-6.6670 2.3476 -2.0010 0.9710
-6.8498 1.7435 -2.0009 0.9710
-7.0668 -0.1326 -2.0009 0.9710
-7.0268 -0.7625 -2.0009 0.9710
-6.7796 -1.9992 -2.0010 0.9710
-6.5743 -2.5961 -2.0010 0.9710
-6.3165 -3.1723 -2.0010 0.9710
-6.0085 -3.7233 -2.0011 0.9710
-5.6525 -4.2446 -2.0011 0.9710
-5.2514 -4.7321 -2.0012 0.9710
-4.8085 -5.1819 -2.0012 0.9710
-4.3271 -5.5904 -2.0013 0.9710
-3.2650 -6.2708 -2.0014 0.9710
-2.6926 -6.5374 -2.0015 0.9710
-0.8655 -7.0179 -2.0018 0.9710
-0.2360 -7.0674 -2.0019 0.9710
0.3955 -7.0606 -2.0019 0.9710
1.6441 -6.8785 -2.0021 0.9710
2.2513 -6.7047 -2.0022 0.9710
3.4073 -6.1984 -2.0024 0.9710
3.9468 -5.8699 -2.0024 0.9710
5.3609 -4.6157 -2.0026 0.9710
6.0961 -3.5897 -2.0027 0.9710
6.3922 -3.0316 -2.0028 0.9710
6.6373 -2.4493 -2.0028 0.9710
6.9671 -1.2308 -2.0029 0.9710
7.0749 0.0270 -2.0029 0.9710
6.9575 1.2839 -2.0029 0.9710
6.8151 1.8995 -2.0028 0.9710
6.6184 2.4999 -2.0028 0.9710
6.0685 3.6361 -2.0027 0.9710
5.3255 4.6565 -2.0026 0.9710
4.4129 5.5284 -2.0025 0.9710
2.7911 6.4989 -2.0023 0.9710
1.5916 6.8909 -2.0021 0.9710
0.9704 7.0051 -2.0020 0.9710
-1.5408 6.9009 -2.0017 0.9710
-2.7425 6.5166 -2.0015 0.9710
-3.8566 5.9251 -2.0014 0.9710
-4.3697 5.5572 -2.0013 0.9710
-5.2874 4.6918 -2.0012 0.9710
-6.0367 3.6773 -2.0011 0.9710
-6.3406 3.1240 -2.0010 0.9710
-6.5939 2.5458 -2.0010 0.9710
-7.0324 0.7089 -2.0009 0.9710
-7.0465 -0.5522 -2.0009 0.9710
-2.1656 6.1367 -2.0016 0.9731
-3.2214 5.6538 -2.0015 0.9731
-3.7129 5.3436 -2.0014 0.9731
-4.1747 4.9909 -2.0013 0.9731
-4.9949 4.1693 -2.0012 0.9731
-5.6561 3.2151 -2.0011 0.9731
-5.9203 2.6977 -2.0011 0.9731
-6.1372 2.1587 -2.0010 0.9731
-6.3053 1.6026 -2.0010 0.9731
-6.4230 1.0337 -2.0010 0.9731
-6.4896 0.4565 -2.0010 0.9731
-6.3789 -1.2783 -2.0010 0.9731
-5.5292 -3.4289 -2.0011 0.9731
-5.2013 -3.9086 -2.0012 0.9731
-4.8048 -4.3326 -1.9900 0.9733
-3.9810 -5.1468 -2.0013 0.9731
-3.5061 -5.4816 -2.0014 0.9731
-3.0031 -5.7728 -2.0015 0.9731
-1.9296 -6.2150 -2.0016 0.9731
-0.2150 -6.5049 -2.0019 0.9731
0.3662 -6.4984 -2.0019 0.9731
1.5154 -6.3304 -2.0021 0.9731
2.6165 -5.9608 -2.0023 0.9731
3.1379 -5.7038 -2.0023 0.9731
4.5367 -4.6697 -2.0025 0.9731
5.2947 -3.7893 -2.0026 0.9731
5.6118 -3.3019 -2.0027 0.9731
5.8841 -2.7881 -2.0027 0.9731
6.4126 -1.1305 -2.0028 0.9731
6.4879 -0.5539 -2.0028 0.9731
6.5115 0.0271 -2.0028 0.9731
6.4029 1.1838 -2.0028 0.9731
6.2717 1.7503 -2.0028 0.9731
6.0905 2.3028 -2.0027 0.9731
5.2630 3.8332 -2.0026 0.9731
4.8999 4.2873 -2.0026 0.9731
2.5668 5.9823 -2.0023 0.9731
2.0228 6.1872 -2.0022 0.9731
0.8910 6.4477 -2.0020 0.9731
-0.2691 6.5029 -2.0019 0.9731
-0.8481 6.4527 -2.0018 0.9731
-1.9812 6.1988 -2.0016 0.9731
-2.5262 5.9971 -2.0016 0.9731
-4.8681 4.3168 -2.0012 0.9731
-5.2337 3.8652 -2.0012 0.9731
-5.8370 2.8734 -2.0011 0.9731
-6.2546 1.7903 -2.0010 0.9731
-6.3893 1.2252 -2.0010 0.9731
-6.4731 0.6503 -2.0010 0.9731
-6.5053 0.0702 -2.0010 0.9731
-6.2917 -1.6550 -2.0010 0.9731
-6.1190 -2.2097 -2.0010 0.9731
-4.5647 -4.6366 -2.0013 0.9731
-4.1330 -5.0255 -2.0013 0.9731
-3.6683 -5.3743 -2.0014 0.9731
-2.1144 -6.1545 -2.0016 0.9731
-1.5570 -6.3188 -2.0017 0.9731
-0.9871 -6.4328 -2.0018 0.9731
-0.4093 -6.4955 -2.0018 0.9731
0.7516 -6.4653 -2.0020 0.9731
1.3255 -6.3728 -2.0021 0.9731
1.8888 -6.2293 -2.0022 0.9731
2.9660 -5.7949 -2.0023 0.9731
3.4713 -5.5074 -2.0024 0.9731
4.3951 -4.8031 -2.0025 0.9731
4.8062 -4.3920 -2.0026 0.9731
5.7981 -2.9627 -2.0027 0.9731
6.2325 -1.8852 -2.0028 0.9731
6.4684 -0.7476 -2.0028 0.9731
6.5094 -0.1675 -2.0028 0.9731
6.4983 0.4138 -2.0028 0.9731
6.1566 2.1198 -2.0028 0.9731
5.6817 3.1801 -2.0027 0.9731
5.3752 3.6742 -2.0026 0.9731
4.6365 4.5708 -2.0025 0.9731
4.2101 4.9660 -2.0025 0.9731
3.7501 5.3217 -2.0024 0.9731
2.7445 5.9030 -2.0023 0.9731
2.2069 6.1241 -2.0022 0.9731
0.5063 6.4891 -2.0020 0.9731
-0.0746 6.5081 -2.0019 0.9731
-1.2299 6.3908 -2.0017 0.9731
-1.7951 6.2553 -2.0017 0.9731
-2.8780 5.8363 -2.0015 0.9731
-3.8691 5.2316 -2.0014 0.9731
-4.3203 4.8654 -2.0013 0.9731
-4.7369 4.4604 -2.0012 0.9731
-5.1159 4.0199 -2.0012 0.9731
-5.4540 3.5474 -2.0011 0.9731
-5.7486 3.0466 -2.0011 0.9731
-5.9973 2.5216 -2.0011 0.9731
-6.4508 0.8434 -2.0010 0.9731
-6.5002 0.2646 -2.0010 0.9731
-6.4438 -0.8948 -2.0010 0.9731
-5.9770 -2.5693 -2.0011 0.9731
-5.4255 -3.5908 -2.0011 0.9731
-4.7012 -4.4980 -2.0012 0.9731
-4.2813 -4.8997 -2.0013 0.9731
-3.8272 -5.2622 -2.0014 0.9731
-2.8313 -5.8590 -2.0015 0.9731
-0.6032 -6.4803 -2.0018 0.9731
-0.0227 -6.5085 -2.0019 0.9731
1.7018 -6.2829 -2.0021 0.9731
2.2556 -6.1063 -2.0022 0.9731
4.6728 -4.5336 -2.0025 0.9731
5.4044 -3.6312 -2.0026 0.9731
5.9639 -2.6131 -2.0027 0.9731
6.3335 -1.5117 -2.0028 0.9731
6.4432 -0.9406 -2.0028 0.9731
6.5014 -0.3620 -2.0028 0.9731
6.5078 0.2195 -2.0028 0.9731
6.4623 0.7992 -2.0028 0.9731
5.7743 3.0089 -2.0027 0.9731
4.7711 4.4302 -2.0026 0.9731
3.9075 5.2073 -2.0024 0.9731
3.4273 5.5349 -2.0024 0.9731
2.9197 5.8184 -2.0023 0.9731
2.3889 6.0555 -2.0022 0.9731
1.8391 6.2442 -2.0022 0.9731
1.2746 6.3831 -2.0021 0.9731
-0.4611 6.4920 -2.0018 0.9731
-1.0384 6.4248 -2.0018 0.9731
-2.7023 5.9198 -2.0015 0.9731
-3.2195 5.6549 -2.0015 0.9731
-3.7110 5.3449 -2.0014 0.9731
-4.6016 4.6000 -2.0013 0.9731
-6.4227 1.0358 -2.0010 0.9731
-6.5045 -0.1221 -2.0010 0.9731
-6.4677 -0.7019 -2.0010 0.9731
-6.3793 -1.2761 -2.0010 0.9731
-6.2401 -1.8401 -2.0010 0.9731
-6.0511 -2.3895 -2.0011 0.9731
-4.4258 -4.7695 -2.0013 0.9731
-3.9827 -5.1454 -2.0013 0.9731
-3.5079 -5.4804 -2.0014 0.9731
-1.9317 -6.2144 -2.0016 0.9731
-1.3697 -6.3622 -2.0017 0.9731
-0.7966 -6.4593 -2.0018 0.9731
0.3640 -6.4985 -2.0019 0.9731
1.5132 -6.3309 -2.0021 0.9731
2.0721 -6.1709 -2.0022 0.9731
2.6144 -5.9617 -2.0023 0.9731
3.1360 -5.7048 -2.0023 0.9731
3.6326 -5.4025 -2.0024 0.9731
4.5351 -4.6712 -2.0025 0.9731
5.6106 -3.3038 -2.0027 0.9731
5.8831 -2.7902 -2.0027 0.9731
6.1087 -2.2542 -2.0027 0.9731
6.4122 -1.1327 -2.0028 0.9731
6.4877 -0.5562 -2.0028 0.9731
6.5115 0.0248 -2.0028 0.9731
6.4833 0.6057 -2.0028 0.9731
6.4033 1.1816 -2.0028 0.9731
6.0913 2.3008 -2.0027 0.9731
5.5852 3.3465 -2.0027 0.9731
4.9014 4.2857 -2.0026 0.9731
4.4994 4.7057 -2.0025 0.9731
3.0924 5.7286 -2.0023 0.9731
2.0249 6.1865 -2.0022 0.9731
0.8932 6.4474 -2.0020 0.9731
0.3144 6.5011 -2.0019 0.9731
-0.2668 6.5030 -2.0019 0.9731
-2.5242 5.9980 -2.0016 0.9731
-3.0491 5.7486 -2.0015 0.9731
-4.4621 4.7355 -2.0013 0.9731
-6.2540 1.7924 -2.0010 0.9731
-6.4729 0.6525 -2.0010 0.9731
-6.4858 -0.5082 -2.0010 0.9731
-3.4356 4.9446 -2.0014 0.9749
-4.2594 4.2551 -2.0013 0.9749
-4.9476 3.4302 -2.0012 0.9749
-5.2338 2.9751 -2.0012 0.9749
-5.8345 1.4829 -2.0011 0.9749
-5.9435 0.9565 -2.0011 0.9749
-6.0051 0.4224 -2.0011 0.9749
-5.9846 -0.6515 -2.0011 0.9749
-5.3789 -2.7037 -2.0011 0.9749
-4.4712 -4.0318 -2.0013 0.9749
-4.0938 -4.4147 -2.0013 0.9749
-3.6837 -4.7625 -2.0014 0.9749
-1.7855 -5.7509 -2.0016 0.9749
-0.7351 -5.9771 -2.0018 0.9749
-0.1989 -6.0191 -2.0019 0.9749
0.3389 -6.0130 -2.0019 0.9749
1.4022 -5.8575 -2.0021 0.9749
1.9192 -5.7093 -2.0022 0.9749
2.4210 -5.5155 -2.0022 0.9749
2.9035 -5.2777 -2.0023 0.9749
3.3629 -4.9978 -2.0024 0.9749
4.1978 -4.3208 -2.0025 0.9749
4.5667 -3.9292 -2.0025 0.9749
4.8991 -3.5062 -2.0026 0.9749
5.1925 -3.0552 -2.0026 0.9749
5.4444 -2.5798 -2.0027 0.9749
5.8164 -1.5712 -2.0027 0.9749
6.0031 -0.5126 -2.0027 0.9749
5.9986 0.5625 -2.0027 0.9749
5.6354 2.1308 -2.0027 0.9749
5.4228 2.6250 -2.0027 0.9749
4.8698 3.5468 -2.0026 0.9749
4.1617 4.3556 -2.0025 0.9749
3.7564 4.7094 -2.0024 0.9749
2.8596 5.3017 -2.0023 0.9749
2.3751 5.5354 -2.0022 0.9749
1.8717 5.7251 -2.0022 0.9749
1.3534 5.8690 -2.0021 0.9749
0.2889 6.0157 -2.0019 0.9749
-0.2490 6.0172 -2.0019 0.9749
-0.7848 5.9708 -2.0018 0.9749
-1.3143 5.8767 -2.0017 0.9749
-3.2863 5.0451 -2.0014 0.9749
-3.7232 4.7317 -2.0014 0.9749
-4.1304 4.3806 -2.0013 0.9749
-4.5046 3.9945 -2.0013 0.9749
-4.8429 3.5766 -2.0012 0.9749
-5.4012 2.6589 -2.0011 0.9749
-5.6168 2.1664 -2.0011 0.9749
-6.0196 0.0649 -2.0011 0.9749
-6.0014 -0.4724 -2.0011 0.9749
-5.2088 -3.0185 -2.0012 0.9749
-4.9189 -3.4713 -2.0012 0.9749
-4.5897 -3.8963 -2.0013 0.9749
-4.2239 -4.2904 -2.0013 0.9749
-3.8244 -4.6502 -2.0014 0.9749
-2.4567 -5.4975 -2.0015 0.9749
-1.4407 -5.8470 -2.0017 0.9749
-0.9134 -5.9524 -2.0018 0.9749
-0.3787 -6.0104 -2.0018 0.9749
0.1590 -6.0204 -2.0019 0.9749
0.6955 -5.9824 -2.0020 0.9749
2.2551 -5.5853 -2.0022 0.9749
3.6539 -4.7892 -2.0024 0.9749
4.0667 -4.4443 -2.0025 0.9749
5.0988 -3.2090 -2.0026 0.9749
5.3649 -2.7414 -2.0026 0.9749
5.5881 -2.2518 -2.0027 0.9749
5.7668 -1.7444 -2.0027 0.9749
5.8995 -1.2229 -2.0027 0.9749
5.9546 0.9178 -2.0027 0.9749
5.8489 1.4454 -2.0027 0.9749
5.6966 1.9614 -2.0027 0.9749
5.4988 2.4618 -2.0027 0.9749
4.2901 4.2293 -2.0025 0.9749
3.4700 4.9241 -2.0024 0.9749
2.5395 5.4620 -2.0023 0.9749
1.0024 5.9389 -2.0020 0.9749
0.4685 6.0044 -2.0020 0.9749
-0.6060 5.9917 -2.0018 0.9749
-1.1381 5.9135 -2.0017 0.9749
-1.6610 5.7882 -2.0017 0.9749
-2.1707 5.6167 -2.0016 0.9749
-2.6630 5.4004 -2.0015 0.9749
-3.5802 4.8409 -2.0014 0.9749
-4.7339 3.7198 -2.0012 0.9749
-5.0468 3.2825 -2.0012 0.9749
-5.3194 2.8191 -2.0012 0.9749
-5.5496 2.3333 -2.0011 0.9749
-5.9627 -0.8280 -2.0011 0.9749
-5.8651 -1.3567 -2.0011 0.9749
-5.5308 -2.3775 -2.0011 0.9749
-5.2967 -2.8615 -2.0012 0.9749
-4.7040 -3.7574 -2.0012 0.9749
-2.6199 -5.4215 -2.0015 0.9749
0.5164 -6.0005 -2.0020 0.9749
1.0497 -5.9307 -2.0020 0.9749
1.5747 -5.8136 -2.0021 0.9749
3.0582 -5.1896 -2.0023 0.9749
3.5091 -4.8963 -2.0024 0.9749
3.9321 -4.5638 -2.0024 0.9749
5.0006 -3.3599 -2.0026 0.9749
5.5183 -2.4178 -2.0027 0.9749
5.7121 -1.9159 -2.0027 0.9749
5.8603 -1.3987 -2.0027 0.9749
6.0215 0.2030 -2.0027 0.9749
5.9794 0.7394 -2.0027 0.9749
5.8896 1.2699 -2.0027 0.9749
5.7527 1.7903 -2.0027 0.9749
5.5700 2.2963 -2.0027 0.9749
5.3428 2.7841 -2.0026 0.9749
5.0731 3.2495 -2.0026 0.9749
4.0312 4.4766 -2.0025 0.9749
3.6156 4.8182 -2.0024 0.9749
2.7016 5.3838 -2.0023 0.9749
2.2105 5.6031 -2.0022 0.9749
1.1794 5.9063 -2.0021 0.9749
-1.4873 5.8353 -2.0017 0.9749
-2.5005 5.4777 -2.0016 0.9749
-2.9791 5.2326 -2.0015 0.9749
-3.8614 4.6196 -2.0014 0.9749
-4.9464 3.4319 -2.0012 0.9749
-5.2328 2.9769 -2.0012 0.9749
-5.4774 2.4981 -2.0011 0.9749
-5.8340 1.4849 -2.0011 0.9749
-5.9432 0.9585 -2.0011 0.9749
-6.0050 0.4245 -2.0011 0.9749
-5.9848 -0.6495 -2.0011 0.9749
-5.9030 -1.1808 -2.0011 0.9749
-5.7742 -1.7027 -2.0011 0.9749
-4.8142 -3.6151 -2.0012 0.9749
-4.4726 -4.0303 -2.0013 0.9749
-3.2460 -5.0712 -2.0014 0.9749
-2.7807 -5.3407 -2.0015 0.9749
-0.7371 -5.9768 -2.0018 0.9749
0.8720 -5.9594 -2.0020 0.9749
1.4002 -5.8580 -2.0021 0.9749
2.4191 -5.5163 -2.0022 0.9749
3.3612 -4.9989 -2.0024 0.9749
3.7939 -4.6792 -2.0024 0.9749
4.8979 -3.5079 -2.0026 0.9749
5.1914 -3.0570 -2.0026 0.9749
5.4435 -2.5817 -2.0027 0.9749
5.8158 -1.5732 -2.0027 0.9749
6.0029 -0.5146 -2.0027 0.9749
6.0249 0.0230 -2.0027 0.9749
5.9249 1.0933 -2.0027 0.9749
5.8037 1.6176 -2.0027 0.9749
5.4237 2.6232 -2.0027 0.9749
5.1679 3.0965 -2.0026 0.9749
4.1632 4.3542 -2.0025 0.9749
3.7581 4.7081 -2.0024 0.9749
2.3770 5.5346 -2.0022 0.9749
1.8737 5.7244 -2.0022 0.9749
1.3554 5.8685 -2.0021 0.9749
0.8265 5.9658 -2.0020 0.9749
-0.2469 6.0173 -2.0019 0.9749
-0.7827 5.9711 -2.0018 0.9749
-3.7216 4.7330 -2.0014 0.9749
-4.8417 3.5782 -2.0012 0.9749
-5.1415 3.1320 -2.0012 0.9749
-5.4003 2.6607 -2.0011 0.9749
-5.7870 1.6586 -2.0011 0.9749
-5.9896 0.6037 -2.0011 0.9749
-6.0015 -0.4703 -2.0011 0.9749
-2.7709 4.8630 -2.0015 0.9765
-4.2963 3.5862 -2.0013 0.9765
-4.5990 3.1886 -2.0013 0.9765
-4.8651 2.7655 -2.0012 0.9765
-5.0923 2.3204 -2.0012 0.9765
-5.4235 1.3785 -2.0011 0.9765
-5.5821 0.3927 -2.0011 0.9765
-5.5630 -0.6056 -2.0011 0.9765
-5.3669 -1.5846 -2.0011 0.9765
-5.2042 -2.0571 -2.0012 0.9765
-5.0000 -2.5133 -2.0012 0.9765
-4.7559 -2.9493 -2.0012 0.9765
-4.1562 -3.7478 -2.0013 0.9765
-1.6597 -5.3457 -2.0017 0.9765
-0.6833 -5.5559 -2.0018 0.9765
-0.1849 -5.5949 -2.0019 0.9765
0.3150 -5.5893 -2.0019 0.9765
1.7840 -5.3069 -2.0021 0.9765
2.2504 -5.1267 -2.0022 0.9765
2.6989 -4.9057 -2.0023 0.9765
3.9019 -4.0162 -2.0024 0.9765
4.8264 -2.8398 -2.0026 0.9765
5.2544 -1.9369 -2.0026 0.9765
5.5151 -0.9723 -2.0027 0.9765
5.5799 -0.4764 -2.0027 0.9765
5.6002 0.0233 -2.0027 0.9765
5.5757 0.5228 -2.0027 0.9765
5.3940 1.5054 -2.0026 0.9765
5.2381 1.9806 -2.0026 0.9765
4.8026 2.8799 -2.0026 0.9765
4.5265 3.2968 -2.0025 0.9765
4.2142 3.6874 -2.0025 0.9765
3.8684 4.0485 -2.0024 0.9765
3.4917 4.3774 -2.0024 0.9765
2.6580 4.9280 -2.0023 0.9765
-0.2314 5.5932 -2.0019 0.9765
-0.7295 5.5500 -2.0018 0.9765
-1.2217 5.4626 -2.0017 0.9765
-2.1729 5.1582 -2.0016 0.9765
-4.5017 3.3246 -2.0013 0.9765
-5.0207 2.4716 -2.0012 0.9765
-5.4958 1.0538 -2.0011 0.9765
-5.5679 0.5593 -2.0011 0.9765
-5.5955 0.0604 -2.0011 0.9765
-5.5172 -0.9350 -2.0011 0.9765
-5.0728 -2.3627 -2.0012 0.9765
-4.8419 -2.8059 -2.0012 0.9765
-4.5723 -3.2267 -2.0013 0.9765
-3.9263 -3.9881 -2.0013 0.9765
-3.5549 -4.3226 -2.0014 0.9765
-2.7303 -4.8858 -2.0015 0.9765
-1.8187 -5.2936 -2.0016 0.9765
-1.3392 -5.4349 -2.0017 0.9765
0.1478 -5.5961 -2.0019 0.9765
1.1400 -5.4812 -2.0020 0.9765
2.5510 -4.9841 -2.0022 0.9765
3.3964 -4.4517 -2.0024 0.9765
4.7394 -2.9828 -2.0026 0.9765
4.9866 -2.5481 -2.0026 0.9765
5.1942 -2.0931 -2.0026 0.9765
5.3602 -1.6214 -2.0026 0.9765
5.4836 -1.1367 -2.0027 0.9765
5.5632 -0.6430 -2.0027 0.9765
5.5983 -0.1441 -2.0027 0.9765
5.5348 0.8531 -2.0027 0.9765
5.4366 1.3435 -2.0027 0.9765
5.1112 2.2882 -2.0026 0.9765
3.9877 3.9312 -2.0025 0.9765
3.2254 4.5770 -2.0023 0.9765
2.8041 4.8464 -2.0023 0.9765
2.3605 5.0770 -2.0022 0.9765
1.4206 5.4154 -2.0021 0.9765
0.9317 5.5203 -2.0020 0.9765
0.4355 5.5812 -2.0020 0.9765
-1.0579 5.4968 -2.0018 0.9765
-1.5440 5.3803 -2.0017 0.9765
-2.9133 4.7789 -2.0015 0.9765
-3.7160 4.1849 -2.0014 0.9765
-4.0744 3.8366 -2.0013 0.9765
-4.6912 3.0513 -2.0012 0.9765
-4.9446 2.6205 -2.0012 0.9765
-5.1586 2.1689 -2.0012 0.9765
-5.3315 1.7000 -2.0012 0.9765
-5.4618 1.2176 -2.0011 0.9765
-5.5427 -0.7697 -2.0011 0.9765
-4.9236 -2.6599 -2.0012 0.9765
-1.9760 -5.2368 -2.0016 0.9765
-1.5010 -5.3924 -2.0017 0.9765
-1.0140 -5.5050 -2.0017 0.9765
-0.5188 -5.5737 -2.0018 0.9765
0.4800 -5.5776 -2.0020 0.9765
2.4009 -5.0581 -2.0022 0.9765
3.6549 -4.2421 -2.0024 0.9765
4.0189 -3.8992 -2.0025 0.9765
4.6481 -3.1231 -2.0025 0.9765
5.3094 -1.7808 -2.0026 0.9765
5.4471 -1.3001 -2.0027 0.9765
5.5414 -0.8089 -2.0027 0.9765
5.5915 -0.3113 -2.0027 0.9765
5.4743 1.1804 -2.0027 0.9765
5.1773 2.1344 -2.0026 0.9765
4.7154 3.0205 -2.0026 0.9765
4.1034 3.8102 -2.0025 0.9765
3.3608 4.4786 -2.0024 0.9765
2.9477 4.7604 -2.0023 0.9765
2.5112 5.0043 -2.0023 0.9765
1.5818 5.3706 -2.0021 0.9765
0.6021 5.5658 -2.0020 0.9765
-0.3966 5.5838 -2.0018 0.9765
-0.8931 5.5260 -2.0018 0.9765
-2.3243 5.0917 -2.0016 0.9765
-2.7692 4.8639 -2.0015 0.9765
-3.1920 4.5973 -2.0015 0.9765
-3.5893 4.2941 -2.0014 0.9765
-3.9580 3.9567 -2.0014 0.9765
-4.8641 2.7672 -2.0012 0.9765
-5.0915 2.3221 -2.0012 0.9765
-5.2783 1.8586 -2.0012 0.9765
-5.4230 1.3803 -2.0011 0.9765
-5.5245 0.8910 -2.0011 0.9765
-5.4872 -1.0976 -2.0011 0.9765
-5.3674 -1.5828 -2.0011 0.9765
-5.0008 -2.5115 -2.0012 0.9765
-4.7569 -2.9477 -2.0012 0.9765
-3.8068 -4.1024 -2.0014 0.9765
-3.0173 -4.7139 -2.0015 0.9765
-2.5848 -4.9644 -2.0015 0.9765
-1.1781 -5.4722 -2.0017 0.9765
-0.6852 -5.5557 -2.0018 0.9765
0.3131 -5.5894 -2.0019 0.9765
0.8105 -5.5393 -2.0020 0.9765
1.7822 -5.3075 -2.0021 0.9765
2.6972 -4.9066 -2.0023 0.9765
3.1243 -4.6465 -2.0023 0.9765
3.5264 -4.3494 -2.0024 0.9765
4.2435 -3.6536 -2.0025 0.9765
4.8254 -2.8415 -2.0026 0.9765
5.0598 -2.3997 -2.0026 0.9765
5.5148 -0.9742 -2.0027 0.9765
5.5797 -0.4783 -2.0027 0.9765
5.5759 0.5209 -2.0027 0.9765
5.3945 1.5035 -2.0026 0.9765
5.0413 2.4382 -2.0026 0.9765
4.8036 2.8782 -2.0026 0.9765
4.5276 3.2952 -2.0025 0.9765
4.2155 3.6859 -2.0025 0.9765
3.8697 4.0472 -2.0024 0.9765
3.0887 4.6703 -2.0023 0.9765
2.6597 4.9270 -2.0023 0.9765
2.2094 5.1445 -2.0022 0.9765
1.2599 5.4549 -2.0021 0.9765
0.7682 5.5454 -2.0020 0.9765
-0.2295 5.5933 -2.0019 0.9765
-2.1711 5.1590 -2.0016 0.9765
-2.6226 4.9446 -2.0015 0.9765
-3.4594 4.3995 -2.0014 0.9765
-4.5006 3.3262 -2.0013 0.9765
-4.7793 2.9113 -2.0012 0.9765
-5.0199 2.4733 -2.0012 0.9765
-5.4954 1.0557 -2.0011 0.9765
-5.5788 -0.4372 -2.0011 0.9765
-1.7382 4.9256 -2.0017 0.9779
-2.5857 4.5380 -2.0015 0.9779
-2.9802 4.2891 -2.0015 0.9779
-3.3508 4.0060 -2.0014 0.9779
-4.0093 3.3466 -2.0013 0.9779
-4.5400 2.5807 -2.0013 0.9779
-4.7521 2.1654 -2.0012 0.9779
-5.0612 1.2864 -2.0012 0.9779
-5.1557 0.8297 -2.0012 0.9779
-5.2092 0.3664 -2.0012 0.9779
-5.2211 -0.0998 -2.0012 0.9779
-5.1914 -0.5652 -2.0012 0.9779
-5.1203 -1.0260 -2.0012 0.9779
-4.6659 -2.3453 -2.0012 0.9779
-4.4382 -2.7523 -2.0013 0.9779
-3.1954 -4.1312 -2.0014 0.9779
-2.8142 -4.3999 -2.0015 0.9779
-2.4105 -4.6335 -2.0016 0.9779
-1.9876 -4.8302 -2.0016 0.9779
-0.6376 -5.1846 -2.0018 0.9779
0.7581 -5.1689 -2.0020 0.9779
1.2163 -5.0808 -2.0021 0.9779
3.2921 -4.0575 -2.0023 0.9779
4.2493 -3.0411 -2.0025 0.9779
4.9032 -1.8074 -2.0026 0.9779
5.0449 -1.3628 -2.0026 0.9779
