ply
format ascii 1.0
element vertex 1594
property float32 x
property float32 y
property float32 z
property float32 I
end_header
-0.4441 7.0523 -2.0004 0.9711
-1.0724 6.9858 -2.0008 0.9710
-1.6923 6.8634 -2.0012 0.9710
-2.2990 6.6861 -2.0016 0.9710
-3.4532 6.1729 -2.0024 0.9710
-3.9915 5.8410 -2.0028 0.9710
-6.1303 3.5440 -2.0046 0.9710
-6.4234 2.9828 -2.0049 0.9710
-6.6651 2.3975 -2.0052 0.9710
-6.8535 1.7929 -2.0055 0.9710
-7.0647 0.5451 -2.0059 0.9710
-7.0501 -0.7205 -2.0062 0.9710
-6.9580 -1.3474 -2.0064 0.9710
-6.3523 -3.1439 -2.0065 0.9710
-6.0461 -3.6986 -2.0065 0.9710
-5.6914 -4.2237 -2.0064 0.9710
-5.2912 -4.7149 -2.0063 0.9710
-2.1360 -6.7529 -2.0050 0.9710
-0.9002 -7.0229 -2.0044 0.9710
-0.2693 -7.0741 -2.0041 0.9710
6.8092 -1.8654 -1.9987 0.9711
6.9477 -1.2496 -1.9984 0.9711
7.0578 0.0064 -1.9980 0.9711
7.0285 0.6367 -1.9979 0.9711
6.9431 1.2618 -1.9978 0.9711
6.8024 1.8768 -1.9977 0.9711
-6.4328 1.0630 -2.0054 0.9731
-6.5026 0.4843 -2.0056 0.9731
-6.4860 -0.6804 -2.0059 0.9731
-6.3997 -1.2570 -2.0060 0.9731
-6.2621 -1.8236 -2.0061 0.9731
-6.0743 -2.3757 -2.0061 0.9731
-5.8378 -2.9087 -2.0061 0.9731
-5.5547 -3.4184 -2.0061 0.9731
-4.8575 -4.3518 -2.0060 0.9731
-2.4971 -6.0216 -2.0051 0.9731
-1.9491 -6.2198 -2.0048 0.9731
-0.8112 -6.4654 -2.0042 0.9731
-0.2305 -6.5110 -2.0039 0.9731
0.3519 -6.5045 -2.0036 0.9731
0.9312 -6.4459 -2.0032 0.9731
2.0624 -6.1752 -2.0025 0.9731
3.1270 -5.7077 -2.0018 0.9731
4.0911 -5.0585 -2.0011 0.9731
4.5258 -4.6721 -2.0007 0.9731
4.9241 -4.2485 -2.0004 0.9731
5.2830 -3.7911 -2.0000 0.9732
5.5996 -3.3036 -1.9997 0.9732
5.8715 -2.7899 -1.9994 0.9732
6.2725 -1.7004 -1.9989 0.9732
6.4736 -0.5572 -1.9985 0.9732
6.3884 1.1786 -1.9981 0.9732
6.2574 1.7444 -1.9980 0.9732
5.5710 3.3406 -1.9980 0.9732
5.2505 3.8249 -1.9980 0.9732
4.8881 4.2788 -1.9981 0.9732
3.5798 5.4227 -1.9986 0.9732
1.4552 6.3359 -1.9995 0.9732
0.8836 6.4415 -1.9998 0.9732
0.3049 6.4957 -2.0001 0.9732
-0.2766 6.4980 -2.0005 0.9731
-1.9903 6.1955 -2.0015 0.9731
-2.5361 5.9941 -2.0019 0.9731
-4.0365 5.1102 -2.0030 0.9731
-4.8829 4.3120 -2.0037 0.9731
-5.2494 3.8593 -2.0040 0.9731
-5.5740 3.3756 -2.0043 0.9731
-5.8540 2.8647 -2.0046 0.9731
-6.0873 2.3307 -2.0049 0.9731
-6.4064 1.2108 -2.0054 0.9731
-6.4999 -0.5309 -2.0059 0.9731
-6.4268 -1.1093 -2.0060 0.9731
-6.1273 -2.2352 -2.0061 0.9731
-5.6319 -3.2896 -2.0061 0.9731
-5.3155 -3.7794 -2.0061 0.9731
-4.5579 -4.6643 -2.0059 0.9731
-4.1228 -5.0524 -2.0057 0.9731
-2.6352 -5.9627 -2.0051 0.9731
-1.5319 -6.3347 -2.0046 0.9731
-0.3803 -6.5042 -2.0040 0.9731
1.3567 -6.3691 -2.0030 0.9731
1.9198 -6.2214 -2.0026 0.9731
2.9949 -5.7785 -2.0019 0.9731
4.8252 -4.3609 -2.0004 0.9731
5.1945 -3.9119 -2.0001 0.9732
5.5223 -3.4318 -1.9998 0.9732
5.8059 -2.9244 -1.9995 0.9732
6.4592 -0.7061 -1.9985 0.9732
6.4959 -0.1264 -1.9984 0.9732
6.4807 0.4543 -1.9982 0.9732
6.4139 1.0312 -1.9981 0.9732
6.2959 1.5998 -1.9980 0.9732
6.1277 2.1557 -1.9980 0.9732
5.9106 2.6943 -1.9980 0.9732
5.3371 3.7030 -1.9980 0.9732
4.9853 4.1650 -1.9981 0.9732
4.5936 4.5939 -1.9982 0.9732
4.1653 4.9862 -1.9983 0.9732
3.7036 5.3387 -1.9985 0.9732
3.2123 5.6487 -1.9987 0.9732
2.6953 5.9137 -1.9989 0.9732
1.6006 6.3005 -1.9995 0.9732
1.0317 6.4192 -1.9997 0.9732
-1.2821 6.3783 -2.0011 0.9731
-1.8470 6.2394 -2.0014 0.9731
-2.3973 6.0506 -2.0018 0.9731
-2.9286 5.8134 -2.0022 0.9731
-4.3673 4.8317 -2.0032 0.9731
-4.7822 4.4231 -2.0036 0.9731
-6.0319 2.4702 -2.0048 0.9731
-6.2292 1.9218 -2.0051 0.9731
-6.5178 0.2019 -2.0057 0.9731
-6.5102 -0.3811 -2.0058 0.9731
-6.1771 -2.0935 -2.0061 0.9731
-5.7062 -3.1591 -2.0061 0.9731
-5.4011 -3.6560 -2.0061 0.9731
-5.0528 -4.1236 -2.0060 0.9731
-4.2381 -4.9562 -2.0058 0.9731
-3.7782 -5.3145 -2.0056 0.9731
-3.2881 -5.6301 -2.0054 0.9731
-2.7718 -5.9006 -2.0052 0.9731
0.0521 -6.5143 -2.0037 0.9731
0.6336 -6.4826 -2.0034 0.9731
1.7762 -6.2642 -2.0027 0.9731
2.3281 -6.0794 -2.0023 0.9731
3.3713 -5.5662 -2.0016 0.9731
3.8543 -5.2419 -2.0012 0.9731
4.3063 -4.8759 -2.0009 0.9731
4.7237 -4.4710 -2.0005 0.9731
5.1033 -4.0306 -2.0002 0.9732
5.7372 -3.0574 -1.9996 0.9732
6.1880 -1.9874 -1.9990 0.9732
6.3400 -1.4267 -1.9988 0.9732
6.4896 0.3049 -1.9983 0.9732
6.4360 0.8833 -1.9981 0.9732
6.3311 1.4545 -1.9980 0.9732
6.1757 2.0141 -1.9980 0.9732
5.7188 3.0806 -1.9980 0.9732
5.4209 3.5791 -1.9980 0.9732
5.0798 4.0491 -1.9981 0.9732
4.6981 4.4869 -1.9982 0.9732
4.2789 4.8888 -1.9983 0.9732
1.7452 6.2617 -1.9994 0.9732
1.1791 6.3935 -1.9997 0.9732
-1.1349 6.4058 -2.0010 0.9731
-1.7028 6.2800 -2.0013 0.9731
-2.7939 5.8790 -2.0021 0.9731
-3.7966 5.2901 -2.0028 0.9731
-4.6789 4.5318 -2.0035 0.9731
-5.0658 4.0965 -2.0038 0.9731
-5.4122 3.6283 -2.0042 0.9731
-5.9732 2.6083 -2.0047 0.9731
-6.4532 0.9319 -2.0055 0.9731
-6.5113 0.3519 -2.0056 0.9731
-6.4709 -0.8123 -2.0059 0.9731
-6.3728 -1.3870 -2.0060 0.9731
-5.7774 -3.0269 -2.0061 0.9731
-3.8996 -5.2262 -2.0056 0.9731
-2.3740 -6.0710 -2.0050 0.9731
-1.2557 -6.3948 -2.0044 0.9731
-0.6794 -6.4804 -2.0041 0.9731
-0.0979 -6.5141 -2.0038 0.9731
0.4842 -6.4957 -2.0035 0.9731
2.7260 -5.9107 -2.0021 0.9731
3.7328 -5.3295 -2.0013 0.9731
4.1931 -4.9740 -2.0010 0.9731
4.6198 -4.5788 -2.0006 0.9731
5.6655 -3.1888 -1.9997 0.9732
5.9268 -2.6697 -1.9994 0.9732
6.3057 -1.5723 -1.9989 0.9732
6.4202 -1.0027 -1.9986 0.9732
6.4835 -0.4253 -1.9985 0.9732
6.4950 0.1555 -1.9983 0.9732
6.3630 1.3083 -1.9981 0.9732
6.2205 1.8713 -1.9980 0.9732
6.0284 2.4194 -1.9980 0.9732
5.5019 3.4534 -1.9980 0.9732
5.1716 3.9311 -1.9980 0.9732
4.8001 4.3774 -1.9981 0.9732
2.9645 5.7830 -1.9988 0.9732
2.4364 6.0253 -1.9990 0.9732
1.3260 6.3644 -1.9996 0.9732
0.7524 6.4584 -1.9999 0.9732
-0.4088 6.4913 -2.0005 0.9731
-1.5577 6.3172 -2.0012 0.9731
-3.6737 5.3758 -2.0027 0.9731
-4.5731 4.6381 -2.0034 0.9731
-5.3271 3.7518 -2.0041 0.9731
-5.6417 3.2615 -2.0044 0.9731
-5.9113 2.7450 -2.0047 0.9731
-6.1337 2.2064 -2.0049 0.9731
-6.4299 1.0802 -2.0054 0.9731
-6.5013 0.5017 -2.0056 0.9731
-6.5207 -0.0810 -2.0058 0.9731
-6.4878 -0.6631 -2.0059 0.9731
-5.5638 -3.4036 -2.0061 0.9731
-5.2374 -3.8868 -2.0060 0.9731
-4.4619 -4.7560 -2.0058 0.9731
-3.5440 -5.4731 -2.0055 0.9731
-1.4026 -6.3644 -2.0045 0.9731
-0.8285 -6.4633 -2.0042 0.9731
0.3345 -6.5054 -2.0036 0.9731
0.9140 -6.4484 -2.0032 0.9731
1.4860 -6.3399 -2.0029 0.9731
3.1118 -5.7161 -2.0018 0.9731
3.6092 -5.4143 -2.0014 0.9731
4.5133 -4.6842 -2.0007 0.9731
5.5908 -3.3186 -1.9997 0.9732
5.8640 -2.8056 -1.9994 0.9732
6.2680 -1.7171 -1.9989 0.9732
6.4970 0.0059 -1.9983 0.9732
6.0825 2.2800 -1.9980 0.9732
-5.9516 0.9835 -2.0052 0.9749
-6.0326 -0.0910 -2.0055 0.9749
-6.0007 -0.6295 -2.0056 0.9749
-5.9208 -1.1630 -2.0057 0.9749
-5.4010 -2.6910 -2.0058 0.9749
-4.4941 -4.0261 -2.0057 0.9749
-3.7056 -4.7609 -2.0054 0.9749
-3.2653 -5.0724 -2.0052 0.9749
-2.7990 -5.3432 -2.0050 0.9749
-2.3104 -5.5712 -2.0048 0.9749
-1.8033 -5.7546 -2.0046 0.9749
-0.7506 -5.9820 -2.0041 0.9749
0.3256 -6.0183 -2.0034 0.9749
1.3907 -5.8625 -2.0028 0.9749
3.3531 -5.0011 -2.0015 0.9749
3.7857 -4.6809 -2.0011 0.9749
4.8888 -3.5082 -2.0002 0.9750
5.1818 -3.0571 -1.9999 0.9750
5.8047 -1.5735 -1.9992 0.9750
6.0125 0.0215 -1.9986 0.9750
5.6234 2.1250 -1.9983 0.9750
5.4111 2.6187 -1.9983 0.9750
4.1522 4.3482 -1.9985 0.9750
3.7475 4.7020 -1.9987 0.9750
3.3129 5.0183 -1.9988 0.9750
2.3677 5.5287 -1.9992 0.9750
1.8647 5.7188 -1.9995 0.9750
0.8177 5.9609 -2.0000 0.9750
0.2821 6.0110 -2.0003 0.9750
-0.2559 6.0131 -2.0006 0.9749
-0.7920 5.9671 -2.0009 0.9749
-1.8416 5.7329 -2.0016 0.9749
-2.8331 5.3156 -2.0022 0.9749
-3.2971 5.0422 -2.0026 0.9749
-3.7349 4.7283 -2.0029 0.9749
-4.1429 4.3766 -2.0032 0.9749
-4.5180 3.9897 -2.0035 0.9749
-4.8570 3.5708 -2.0038 0.9749
-5.6321 2.1564 -2.0047 0.9749
-5.8028 1.6450 -2.0049 0.9749
-6.0041 0.5865 -2.0053 0.9749
-6.0330 0.0479 -2.0055 0.9749
-6.0135 -0.4911 -2.0056 0.9749
-5.8307 -1.5533 -2.0058 0.9749
-5.6688 -2.0679 -2.0058 0.9749
-5.2105 -3.0435 -2.0058 0.9749
-4.9177 -3.4966 -2.0058 0.9749
-4.5856 -3.9217 -2.0057 0.9749
-1.9354 -5.7118 -2.0047 0.9749
-1.4174 -5.8610 -2.0044 0.9749
-0.3519 -6.0180 -2.0038 0.9749
0.1869 -6.0245 -2.0035 0.9749
2.2830 -5.5740 -2.0022 0.9749
2.7713 -5.3469 -2.0019 0.9749
3.2372 -5.0772 -2.0015 0.9749
3.6771 -4.7670 -2.0012 0.9749
4.4651 -4.0354 -2.0006 0.9750
4.8069 -3.6200 -2.0003 0.9750
5.1103 -3.1757 -2.0000 0.9750
5.7671 -1.7068 -1.9992 0.9750
5.8959 -1.1848 -1.9990 0.9750
6.0115 -0.1169 -1.9986 0.9750
5.9357 0.9543 -1.9984 0.9750
5.8265 1.4806 -1.9983 0.9750
5.6709 1.9950 -1.9983 0.9750
5.4700 2.4935 -1.9983 0.9750
4.9393 3.4270 -1.9983 0.9750
3.4274 4.9406 -1.9988 0.9750
1.9958 5.6742 -1.9994 0.9750
1.4812 5.8305 -1.9996 0.9750
0.9547 5.9403 -1.9999 0.9750
0.4204 6.0027 -2.0002 0.9750
-0.1174 6.0171 -2.0005 0.9750
-0.6544 5.9835 -2.0008 0.9749
-1.7091 5.7735 -2.0015 0.9749
-2.7099 5.3792 -2.0021 0.9749
-3.1800 5.1165 -2.0025 0.9749
-3.6249 4.8129 -2.0028 0.9749
-4.4247 4.0925 -2.0035 0.9749
-4.7733 3.6815 -2.0038 0.9749
-5.5808 2.2854 -2.0046 0.9749
-5.8997 1.2564 -2.0051 0.9749
-6.0232 -0.3526 -2.0056 0.9749
-5.9679 -0.8891 -2.0057 0.9749
-5.5191 -2.4395 -2.0058 0.9749
-4.9970 -3.3824 -2.0058 0.9749
-3.4955 -4.9169 -2.0053 0.9749
-3.0422 -5.2090 -2.0051 0.9749
-2.5645 -5.4593 -2.0049 0.9749
-2.0665 -5.6659 -2.0047 0.9749
-1.0252 -5.9416 -2.0042 0.9749
-0.4904 -6.0085 -2.0039 0.9749
0.5862 -5.9981 -2.0033 0.9749
2.1542 -5.6253 -2.0023 0.9749
3.9848 -4.5119 -2.0010 0.9749
4.7225 -3.7298 -2.0003 0.9750
5.8672 -1.3203 -1.9990 0.9750
5.9611 -0.7909 -1.9989 0.9750
6.0074 -0.2553 -1.9987 0.9750
6.0057 0.2822 -1.9985 0.9750
5.8591 1.3460 -1.9983 0.9750
4.3478 4.1523 -1.9985 0.9750
3.9598 4.5243 -1.9986 0.9750
3.5402 4.8603 -1.9987 0.9750
3.0923 5.1575 -1.9989 0.9750
2.6195 5.4136 -1.9991 0.9750
1.6150 5.7946 -1.9996 0.9750
1.0912 5.9165 -1.9998 0.9750
0.5585 5.9912 -2.0001 0.9750
0.0212 6.0180 -2.0004 0.9750
-0.5165 5.9968 -2.0007 0.9749
-1.5756 5.8111 -2.0014 0.9749
-3.0613 5.1882 -2.0024 0.9749
-3.9367 4.5623 -2.0031 0.9749
-4.3292 4.1931 -2.0034 0.9749
-5.5265 2.4132 -2.0045 0.9749
-5.7206 1.9102 -2.0048 0.9749
-5.8690 1.3919 -2.0050 0.9749
-5.9705 0.8622 -2.0052 0.9749
-6.0296 -0.2138 -2.0055 0.9749
-5.9867 -0.7515 -2.0056 0.9749
-5.7580 -1.8047 -2.0058 0.9749
-5.3451 -2.8004 -2.0058 0.9749
-4.0256 -4.4940 -2.0055 0.9749
-3.6079 -4.8352 -2.0054 0.9749
-2.6896 -5.3989 -2.0050 0.9749
-0.6286 -5.9959 -2.0040 0.9749
-0.0906 -6.0272 -2.0037 0.9749
0.9828 -5.9452 -2.0031 0.9749
2.0242 -5.6737 -2.0024 0.9749
3.0003 -5.2213 -2.0017 0.9749
5.2428 -2.9509 -1.9998 0.9750
5.4847 -2.4706 -1.9996 0.9750
5.6827 -1.9706 -1.9993 0.9750
5.8354 -1.4550 -1.9991 0.9750
5.9414 -0.9279 -1.9989 0.9750
5.8886 1.2108 -1.9984 0.9750
5.7568 1.7318 -1.9983 0.9750
5.3567 2.7283 -1.9983 0.9750
5.0917 3.1959 -1.9983 0.9750
4.0629 4.4319 -1.9985 0.9750
3.2101 5.0848 -1.9989 0.9750
2.7434 5.3517 -1.9991 0.9750
2.2547 5.5759 -1.9993 0.9750
0.6962 5.9765 -2.0001 0.9750
-0.3783 6.0068 -2.0007 0.9749
-1.9580 5.6944 -2.0016 0.9749
-2.4592 5.4977 -2.0020 0.9749
-2.9409 5.2570 -2.0023 0.9749
-3.8305 4.6515 -2.0030 0.9749
-5.2199 3.0176 -2.0042 0.9749
-5.9489 0.9994 -2.0052 0.9749
-6.0149 0.4641 -2.0053 0.9749
-6.0328 -0.0749 -2.0055 0.9749
-6.0024 -0.6135 -2.0056 0.9749
-5.9239 -1.1472 -2.0057 0.9749
-5.4082 -2.6766 -2.0058 0.9749
-4.5048 -4.0141 -2.0057 0.9749
-3.7183 -4.7510 -2.0054 0.9749
-0.7665 -5.9800 -2.0041 0.9749
-0.2293 -6.0237 -2.0038 0.9749
0.8457 -5.9666 -2.0031 0.9749
1.8931 -5.7190 -2.0025 0.9749
3.7732 -4.6910 -2.0011 0.9749
4.1764 -4.3345 -2.0008 0.9749
5.6360 -2.1010 -1.9994 0.9750
5.9186 -1.0645 -1.9990 0.9750
5.9895 -0.5316 -1.9988 0.9750
5.9877 0.5424 -1.9985 0.9750
5.9150 1.0749 -1.9984 0.9750
5.7952 1.5989 -1.9983 0.9750
-5.4273 1.4044 -2.0047 0.9765
-5.5771 -0.5850 -2.0054 0.9765
-5.5028 -1.0809 -2.0055 0.9765
-5.3845 -1.5680 -2.0055 0.9765
-4.1768 -3.7419 -2.0054 0.9765
-3.0349 -4.7144 -2.0050 0.9765
-2.6015 -4.9661 -2.0048 0.9765
-2.1473 -5.1781 -2.0046 0.9765
-1.6761 -5.3486 -2.0044 0.9765
-1.1916 -5.4762 -2.0042 0.9765
-0.6976 -5.5601 -2.0039 0.9765
-0.1982 -5.5994 -2.0036 0.9765
0.3026 -5.5939 -2.0033 0.9765
0.8009 -5.5437 -2.0031 0.9765
1.2926 -5.4492 -2.0027 0.9765
1.7739 -5.3112 -2.0024 0.9765
2.6896 -4.9093 -2.0018 0.9765
3.1168 -4.6487 -2.0015 0.9765
3.5190 -4.3511 -2.0012 0.9765
4.5446 -3.2612 -2.0003 0.9765
5.3962 -1.4628 -1.9994 0.9765
5.5693 -0.4793 -1.9990 0.9765
5.5895 0.0200 -1.9989 0.9765
5.5650 0.5191 -1.9987 0.9765
5.0305 2.4345 -1.9985 0.9765
4.2054 3.6812 -1.9987 0.9765
3.8601 4.0423 -1.9988 0.9765
3.0797 4.6652 -1.9990 0.9765
2.6510 4.9220 -1.9992 0.9765
0.7601 5.5412 -2.0001 0.9765
-0.2379 5.5896 -2.0007 0.9765
-1.7119 5.3290 -2.0016 0.9765
-2.6335 4.9409 -2.0022 0.9765
-3.0647 4.6867 -2.0025 0.9765
-3.8508 4.0680 -2.0031 0.9765
-4.1993 3.7083 -2.0034 0.9765
-4.5144 3.3189 -2.0037 0.9765
-4.7934 2.9029 -2.0040 0.9765
-5.0342 2.4635 -2.0042 0.9765
-5.2347 2.0043 -2.0045 0.9765
-5.3933 1.5289 -2.0047 0.9765
-5.5089 1.0412 -2.0049 0.9765
-5.5803 0.5451 -2.0051 0.9765
-5.4191 -1.4437 -2.0055 0.9765
-5.0760 -2.3848 -2.0056 0.9765
-4.8426 -2.8286 -2.0055 0.9765
-3.9192 -4.0107 -2.0053 0.9765
-3.5451 -4.3444 -2.0052 0.9765
-2.7152 -4.9050 -2.0049 0.9765
-2.2660 -5.1274 -2.0047 0.9765
-0.3271 -5.5935 -2.0037 0.9765
0.6731 -5.5609 -2.0031 0.9765
1.6512 -5.3508 -2.0025 0.9765
4.4684 -3.3651 -2.0004 0.9765
4.9945 -2.5158 -1.9999 0.9765
5.5756 0.3908 -1.9988 0.9765
5.5181 0.8872 -1.9987 0.9765
5.0852 2.3181 -1.9985 0.9765
4.2890 3.5833 -1.9986 0.9765
3.9520 3.9523 -1.9987 0.9765
2.3187 5.0875 -1.9994 0.9765
1.8553 5.2748 -1.9996 0.9765
1.3769 5.4200 -1.9998 0.9765
0.8875 5.5220 -2.0001 0.9765
-0.1091 5.5934 -2.0006 0.9765
-0.6083 5.5621 -2.0009 0.9765
-2.0619 5.2042 -2.0018 0.9765
-2.9559 4.7559 -2.0025 0.9765
-3.3693 4.4736 -2.0028 0.9765
-4.7252 3.0124 -2.0039 0.9765
-4.9760 2.5786 -2.0042 0.9765
-5.1870 2.1242 -2.0044 0.9765
-5.5662 0.6734 -2.0050 0.9765
-5.5980 -0.3277 -2.0053 0.9765
-5.5466 -0.8264 -2.0054 0.9765
-5.4509 -1.3185 -2.0055 0.9765
-5.3115 -1.8001 -2.0055 0.9765
-5.1295 -2.2673 -2.0056 0.9765
-4.9065 -2.7164 -2.0055 0.9765
-4.6442 -3.1437 -2.0055 0.9765
-4.3447 -3.5458 -2.0054 0.9765
-3.6442 -4.2617 -2.0052 0.9765
-3.2488 -4.5698 -2.0051 0.9765
-2.8275 -4.8413 -2.0049 0.9765
-1.9206 -5.2661 -2.0045 0.9765
-0.4558 -5.5847 -2.0038 0.9765
0.0448 -5.6023 -2.0035 0.9765
0.5449 -5.5751 -2.0032 0.9765
1.0405 -5.5034 -2.0029 0.9765
1.5276 -5.3876 -2.0026 0.9765
2.0024 -5.2288 -2.0023 0.9765
2.8998 -4.7877 -2.0017 0.9765
3.7041 -4.1941 -2.0010 0.9765
4.0633 -3.8460 -2.0007 0.9765
4.9354 -2.6302 -1.9999 0.9765
5.1500 -2.1786 -1.9997 0.9765
5.3234 -1.7097 -1.9995 0.9765
5.4543 -1.2273 -1.9993 0.9765
5.5832 0.2623 -1.9988 0.9765
5.5371 0.7599 -1.9987 0.9765
5.3133 1.7328 -1.9986 0.9765
4.9202 2.6504 -1.9985 0.9765
4.3703 3.4836 -1.9986 0.9765
4.0419 3.8602 -1.9987 0.9765
3.2911 4.5183 -1.9990 0.9765
2.8747 4.7945 -1.9991 0.9765
1.9762 5.2305 -1.9995 0.9765
1.5013 5.3867 -1.9998 0.9765
0.5191 5.5693 -2.0003 0.9765
-0.4801 5.5744 -2.0008 0.9765
-3.6592 4.2406 -2.0030 0.9765
-4.0239 3.8974 -2.0033 0.9765
-4.6544 3.1202 -2.0039 0.9765
-4.9151 2.6924 -2.0041 0.9765
-5.4548 1.2936 -2.0048 0.9765
-5.5491 0.8013 -2.0050 0.9765
-5.5989 0.3026 -2.0051 0.9765
-5.6040 -0.1987 -2.0053 0.9765
-5.5641 -0.6985 -2.0054 0.9765
-5.4797 -1.1927 -2.0055 0.9765
-5.3515 -1.6773 -2.0055 0.9765
-5.1803 -2.1486 -2.0056 0.9765
-4.9677 -2.6027 -2.0056 0.9765
-4.7154 -3.0359 -2.0055 0.9765
-4.0998 -3.8261 -2.0054 0.9765
-3.7414 -4.1768 -2.0053 0.9765
-3.3532 -4.4939 -2.0051 0.9765
-2.9382 -4.7751 -2.0050 0.9765
-2.0414 -5.2206 -2.0046 0.9765
-1.5668 -5.3815 -2.0044 0.9765
-1.0798 -5.4992 -2.0041 0.9765
-0.0842 -5.6021 -2.0036 0.9765
0.4164 -5.5864 -2.0033 0.9765
1.4032 -5.4216 -2.0027 0.9765
1.8815 -5.2738 -2.0024 0.9765
2.3447 -5.0838 -2.0021 0.9765
2.7889 -4.8534 -2.0017 0.9765
3.2107 -4.5842 -2.0014 0.9765
3.9739 -3.9386 -2.0008 0.9765
4.8737 -2.7432 -2.0000 0.9765
5.0986 -2.2966 -1.9997 0.9765
5.2828 -1.8319 -1.9995 0.9765
5.4247 -1.3526 -1.9993 0.9765
5.5778 -0.3659 -1.9990 0.9765
5.4744 1.1256 -1.9986 0.9765
5.3518 1.6100 -1.9986 0.9765
5.1865 2.0815 -1.9985 0.9765
4.1297 3.7661 -1.9987 0.9765
3.3942 4.4412 -1.9989 0.9765
2.9842 4.7270 -1.9991 0.9765
2.5503 4.9751 -1.9993 0.9765
1.6249 5.3506 -1.9997 0.9765
1.1407 5.4750 -1.9999 0.9765
0.6472 5.5557 -2.0002 0.9765
0.1484 5.5921 -2.0005 0.9765
-1.3398 5.4338 -2.0014 0.9765
-3.1596 4.6236 -2.0026 0.9765
-3.9329 3.9889 -2.0032 0.9765
-4.2741 3.6222 -2.0035 0.9765
-4.5812 3.2265 -2.0038 0.9765
-4.8517 2.8048 -2.0041 0.9765
-5.4235 1.4188 -2.0047 0.9765
-5.5904 0.4314 -2.0051 0.9765
-5.6070 -0.0696 -2.0052 0.9765
-5.5787 -0.5702 -2.0054 0.9765
-5.5057 -1.0662 -2.0055 0.9765
-5.3886 -1.5537 -2.0055 0.9765
-4.7841 -2.9266 -2.0055 0.9765
-4.1868 -3.7308 -2.0054 0.9765
-3.8367 -4.0896 -2.0053 0.9765
-2.1611 -5.1724 -2.0046 0.9765
-1.2062 -5.4731 -2.0042 0.9765
-0.7125 -5.5582 -2.0039 0.9765
-0.2132 -5.5989 -2.0036 0.9765
0.7861 -5.5459 -2.0031 0.9765
1.2781 -5.4526 -2.0028 0.9765
1.7597 -5.3159 -2.0024 0.9765
2.2271 -5.1367 -2.0021 0.9765
3.1044 -4.6571 -2.0015 0.9765
4.5359 -3.2733 -2.0003 0.9765
5.5895 0.0051 -1.9989 0.9765
5.4989 0.9993 -1.9986 0.9765
-5.1613 0.8529 -2.0047 0.9778
-5.2315 -0.0789 -2.0050 0.9778
-5.1345 -1.0085 -2.0052 0.9778
-4.8734 -1.9060 -2.0053 0.9778
-4.6837 -2.3336 -2.0053 0.9778
-4.4565 -2.7426 -2.0053 0.9778
-3.8972 -3.4915 -2.0052 0.9778
-3.5697 -3.8254 -2.0051 0.9778
-2.8318 -4.3989 -2.0048 0.9778
-2.4274 -4.6338 -2.0046 0.9778
-2.0036 -4.8316 -2.0045 0.9778
-0.6509 -5.1882 -2.0038 0.9779
-0.1850 -5.2249 -2.0035 0.9779
0.2824 -5.2198 -2.0033 0.9779
0.7473 -5.1730 -2.0030 0.9779
1.2062 -5.0849 -2.0027 0.9779
1.6553 -4.9561 -2.0024 0.9779
2.5099 -4.5812 -2.0018 0.9779
2.9086 -4.3381 -2.0015 0.9779
3.2839 -4.0604 -2.0012 0.9779
3.6329 -3.7504 -2.0010 0.9779
3.9528 -3.4105 -2.0007 0.9779
4.2411 -3.0434 -2.0004 0.9779
4.8944 -1.8097 -1.9997 0.9779
5.1373 -0.9098 -1.9994 0.9779
5.1976 -0.4474 -1.9992 0.9779
5.1937 0.4844 -1.9990 0.9779
5.1294 0.9463 -1.9989 0.9779
4.8790 1.8437 -1.9988 0.9779
4.6948 2.2721 -1.9988 0.9779
4.4732 2.6823 -1.9988 0.9779
3.6025 3.7725 -1.9990 0.9779
3.2513 4.0794 -1.9991 0.9779
2.8742 4.3538 -1.9992 0.9779
2.4741 4.5935 -1.9994 0.9779
1.6177 4.9614 -1.9998 0.9779
0.2447 5.2146 -2.0005 0.9779
-0.2220 5.2163 -2.0008 0.9779
-2.4575 4.6107 -2.0022 0.9779
-3.2395 4.1011 -2.0028 0.9779
-3.5933 3.7960 -2.0031 0.9779
-3.9185 3.4603 -2.0033 0.9779
-4.4728 2.7087 -2.0039 0.9778
-4.8844 1.8702 -2.0043 0.9778
-5.0325 1.4266 -2.0045 0.9778
-5.1402 0.9715 -2.0047 0.9778
-5.2149 -0.4259 -2.0051 0.9778
-5.0564 -1.3470 -2.0053 0.9778
-4.5185 -2.6393 -2.0053 0.9778
-4.2646 -3.0322 -2.0053 0.9778
-3.6569 -3.7422 -2.0051 0.9778
-2.1144 -4.7843 -2.0045 0.9778
-1.6785 -4.9535 -2.0043 0.9778
-1.2292 -5.0831 -2.0041 0.9778
-0.7702 -5.1720 -2.0038 0.9778
0.6281 -5.1891 -2.0031 0.9779
1.0889 -5.1115 -2.0028 0.9779
1.9803 -4.8348 -2.0022 0.9779
2.8080 -4.4041 -2.0016 0.9779
3.1897 -4.1351 -2.0013 0.9779
4.4333 -2.7550 -2.0002 0.9779
4.8516 -1.9219 -1.9998 0.9779
5.0033 -1.4808 -1.9996 0.9779
5.1861 -0.5669 -1.9992 0.9779
5.2156 -0.1015 -1.9991 0.9779
5.2035 0.3647 -1.9990 0.9779
5.1499 0.8280 -1.9989 0.9779
4.9202 1.7309 -1.9988 0.9779
4.7459 2.1634 -1.9988 0.9779
4.5337 2.5786 -1.9988 0.9779
4.0028 3.3442 -1.9989 0.9779
3.6883 3.6885 -1.9990 0.9779
3.3443 4.0034 -1.9991 0.9779
2.9736 4.2864 -1.9992 0.9779
2.5791 4.5352 -1.9994 0.9779
2.1640 4.7479 -1.9995 0.9779
1.7314 4.9227 -1.9997 0.9779
1.2850 5.0582 -2.0000 0.9779
-0.5677 5.1906 -2.0010 0.9779
-1.4825 5.0082 -2.0015 0.9779
-1.9242 4.8565 -2.0018 0.9779
-2.3506 4.6659 -2.0021 0.9779
-3.1441 4.1745 -2.0027 0.9779
-4.1399 3.1930 -2.0035 0.9779
-4.6431 2.4061 -2.0040 0.9778
-4.9982 1.5420 -2.0045 0.9778
-4.7861 -2.1155 -2.0053 0.9778
-3.7421 -3.6571 -2.0051 0.9778
-3.4003 -3.9765 -2.0050 0.9778
-1.7921 -4.9137 -2.0044 0.9778
-1.3460 -5.0536 -2.0041 0.9778
-0.8891 -5.1530 -2.0039 0.9778
0.0418 -5.2277 -2.0034 0.9779
0.5085 -5.2023 -2.0031 0.9779
0.9709 -5.1354 -2.0028 0.9779
1.4255 -5.0275 -2.0026 0.9779
1.8685 -4.8793 -2.0023 0.9779
2.2965 -4.6923 -2.0020 0.9779
3.0938 -4.2076 -2.0014 0.9779
3.4567 -3.9139 -2.0011 0.9779
4.0968 -3.2356 -2.0006 0.9779
4.8062 -2.0332 -1.9998 0.9779
4.9681 -1.5956 -1.9996 0.9779
5.0902 -1.1454 -1.9994 0.9779
5.2120 -0.2215 -1.9991 0.9779
5.2106 0.2448 -1.9990 0.9779
5.1677 0.7092 -1.9989 0.9779
4.3527 2.8738 -1.9988 0.9779
3.7722 3.6026 -1.9989 0.9779
3.0715 4.2167 -1.9992 0.9779
1.8443 4.8814 -1.9997 0.9779
0.4845 5.1974 -2.0004 0.9779
0.0184 5.2206 -2.0006 0.9779
-0.4480 5.2021 -2.0009 0.9779
-0.9110 5.1420 -2.0012 0.9779
-1.8118 4.8993 -2.0018 0.9779
-2.2424 4.7186 -2.0021 0.9779
-2.6553 4.5001 -2.0024 0.9779
-3.0470 4.2456 -2.0026 0.9779
-3.4145 3.9571 -2.0029 0.9779
-3.7548 3.6368 -2.0032 0.9779
-4.3431 2.9115 -2.0037 0.9779
-5.1777 0.7477 -2.0048 0.9778
-5.2242 0.2823 -2.0049 0.9778
-5.2289 -0.1854 -2.0051 0.9778
-4.3997 -2.8327 -2.0053 0.9778
-4.1291 -3.2142 -2.0052 0.9778
-2.7416 -4.4555 -2.0048 0.9778
-1.9048 -4.8713 -2.0044 0.9778
-0.5452 -5.2002 -2.0037 0.9779
-0.0786 -5.2274 -2.0035 0.9779
0.3886 -5.2128 -2.0032 0.9779
0.8525 -5.1566 -2.0029 0.9779
1.7557 -4.9213 -2.0023 0.9779
2.9962 -4.2779 -2.0015 0.9779
3.7084 -3.6756 -2.0009 0.9779
4.0213 -3.3292 -2.0006 0.9779
4.5483 -2.5600 -2.0001 0.9779
4.7582 -2.1433 -1.9999 0.9779
4.9301 -1.7096 -1.9997 0.9779
5.0626 -1.2623 -1.9995 0.9779
5.2056 -0.3415 -1.9992 0.9779
5.2149 0.1248 -1.9990 0.9779
4.9947 1.5026 -1.9988 0.9779
4.8405 1.9426 -1.9988 0.9779
4.4177 2.7728 -1.9988 0.9779
3.8541 3.5148 -1.9989 0.9779
3.5250 3.8451 -1.9990 0.9779
3.1677 4.1448 -1.9991 0.9779
1.5164 4.9934 -1.9998 0.9779
1.0645 5.1094 -2.0001 0.9779
0.1385 5.2186 -2.0006 0.9779
-1.2503 5.0707 -2.0014 0.9779
-1.6984 4.9395 -2.0017 0.9779
-2.1331 4.7688 -2.0020 0.9779
-2.9484 4.3145 -2.0026 0.9779
-3.3224 4.0345 -2.0029 0.9779
-4.2748 3.0106 -2.0037 0.9779
-4.7433 2.2026 -2.0041 0.9778
-4.9216 1.7704 -2.0044 0.9778
-5.1590 0.8667 -2.0047 0.9778
-5.2162 0.4025 -2.0049 0.9778
-5.1372 -0.9948 -2.0052 0.9778
-5.0279 -1.4497 -2.0053 0.9778
-4.4638 -2.7307 -2.0053 0.9778
-4.2020 -3.1183 -2.0053 0.9778
-3.9066 -3.4811 -2.0052 0.9778
-3.5799 -3.8159 -2.0051 0.9778
-2.8435 -4.3913 -2.0048 0.9778
-2.4397 -4.6273 -2.0047 0.9778
-2.0165 -4.8263 -2.0045 0.9778
-0.6648 -5.1864 -2.0038 0.9779
-0.1989 -5.2244 -2.0035 0.9779
1.6421 -4.9606 -2.0024 0.9779
2.0782 -4.7934 -2.0021 0.9779
2.4977 -4.5879 -2.0018 0.9779
3.9437 -3.4210 -2.0007 0.9779
4.2330 -3.0547 -2.0004 0.9779
5.0323 -1.3786 -1.9995 0.9779
5.2165 0.0047 -1.9991 0.9779
5.1320 0.9326 -1.9989 0.9779
4.8839 1.8307 -1.9988 0.9779
-4.6124 1.6453 -2.0042 0.9791
-4.7413 1.2269 -2.0044 0.9791
-1.9131 -0.0289 -0.7831 0.9918
-4.8071 -0.9442 -2.0050 0.9790
-4.1723 -2.5677 -2.0051 0.9790
-3.3421 -3.5815 -2.0049 0.9791
-3.0087 -3.8655 -2.0048 0.9791
-2.6512 -4.1184 -2.0046 0.9791
-1.8759 -4.5237 -2.0043 0.9791
-1.4643 -4.6727 -2.0041 0.9791
-0.1732 -4.8920 -2.0034 0.9791
0.6997 -4.8436 -2.0029 0.9791
2.3501 -4.2896 -2.0018 0.9791
2.7235 -4.0620 -2.0016 0.9791
3.0749 -3.8020 -2.0013 0.9791
3.4018 -3.5117 -2.0010 0.9791
3.9713 -2.8498 -2.0005 0.9791
4.2094 -2.4834 -2.0003 0.9791
4.4139 -2.0973 -2.0001 0.9791
4.5831 -1.6946 -1.9999 0.9791
4.7157 -1.2784 -1.9997 0.9791
4.8107 -0.8520 -1.9995 0.9791
4.8635 0.4536 -1.9991 0.9791
3.3734 3.5327 -1.9992 0.9791
1.9235 4.4915 -1.9997 0.9791
1.5148 4.6458 -1.9999 0.9791
1.0940 4.7630 -2.0001 0.9791
0.6643 4.8423 -2.0004 0.9791
-0.2079 4.8844 -2.0009 0.9791
-0.6434 4.8469 -2.0011 0.9791
-1.0738 4.7707 -2.0014 0.9791
-1.4958 4.6564 -2.0016 0.9791
-1.9060 4.5048 -2.0019 0.9791
-2.6777 4.0949 -2.0025 0.9791
-3.3644 3.5542 -2.0030 0.9791
-3.6689 3.2399 -2.0033 0.9791
-3.9441 2.8996 -2.0035 0.9791
-4.1878 2.5361 -2.0037 0.9791
-4.3980 2.1522 -2.0040 0.9791
-2.2051 0.4168 -0.9184 0.9903
-1.9061 0.0151 -0.7801 0.9918
-1.9564 -0.1598 -0.8034 0.9916
-2.1390 -0.3692 -0.8884 0.9907
-4.7340 -1.2611 -2.0051 0.9790
-4.4342 -2.0833 -2.0051 0.9790
-4.2304 -2.4710 -2.0051 0.9790
-3.9927 -2.8389 -2.0051 0.9790
-3.7231 -3.1840 -2.0050 0.9790
-3.4237 -3.5036 -2.0049 0.9791
-3.0969 -3.7952 -2.0048 0.9791
-0.2858 -4.8869 -2.0035 0.9791
0.5881 -4.8585 -2.0030 0.9791
1.8542 -4.5270 -2.0022 0.9791
2.9867 -3.8719 -2.0014 0.9791
3.3201 -3.5893 -2.0011 0.9791
3.9047 -2.9406 -2.0006 0.9791
4.1513 -2.5798 -2.0004 0.9791
4.3646 -2.1985 -2.0001 0.9791
4.8840 -0.0950 -1.9993 0.9791
4.8727 0.3416 -1.9992 0.9791
4.8225 0.7753 -1.9991 0.9791
4.7339 1.2029 -1.9990 0.9791
4.6074 1.6209 -1.9990 0.9791
4.4442 2.0259 -1.9990 0.9791
3.4538 3.4541 -1.9992 0.9791
2.0264 4.4459 -1.9997 0.9791
1.2033 4.7365 -2.0001 0.9791
0.7755 4.8255 -2.0003 0.9791
0.3415 4.8761 -2.0005 0.9791
-0.5316 4.8603 -2.0010 0.9791
-1.3882 4.6894 -2.0016 0.9791
-1.8017 4.5473 -2.0019 0.9791
-2.2009 4.3688 -2.0021 0.9791
-2.9438 3.9086 -2.0027 0.9791
-3.8762 2.9896 -2.0034 0.9791
-4.1282 2.6318 -2.0037 0.9791
-4.5315 1.8557 -2.0041 0.9791
-4.6796 1.4438 -2.0043 0.9791
-1.9541 0.2364 -0.8056 0.9915
-1.9271 0.0597 -0.7891 0.9917
-1.9460 -0.1139 -0.7978 0.9916
-4.6399 -1.5725 -2.0051 0.9790
-4.4810 -1.9806 -2.0051 0.9790
-4.2861 -2.3729 -2.0051 0.9790
-4.0570 -2.7462 -2.0051 0.9790
-3.5035 -3.4239 -2.0049 0.9790
-3.1835 -3.7230 -2.0048 0.9791
-2.4701 -4.2294 -2.0046 0.9791
-1.6779 -4.6005 -2.0042 0.9791
-0.8325 -4.8247 -2.0038 0.9791
-0.3982 -4.8792 -2.0036 0.9791
0.0391 -4.8946 -2.0033 0.9791
0.4761 -4.8710 -2.0031 0.9791
0.9091 -4.8083 -2.0028 0.9791
1.3347 -4.7073 -2.0025 0.9791
2.5338 -4.1834 -2.0017 0.9791
3.2367 -3.6649 -2.0012 0.9791
3.5506 -3.3607 -2.0009 0.9791
3.8361 -3.0298 -2.0007 0.9791
4.0909 -2.6747 -2.0004 0.9791
4.5005 -1.9038 -2.0000 0.9791
4.6521 -1.4941 -1.9998 0.9791
4.7665 -1.0726 -1.9996 0.9791
4.8429 -0.6425 -1.9995 0.9791
4.8793 0.2293 -1.9992 0.9791
4.8391 0.6641 -1.9991 0.9791
4.7603 1.0936 -1.9990 0.9791
4.6435 1.5144 -1.9990 0.9791
4.4897 1.9230 -1.9990 0.9791
4.3000 2.3163 -1.9990 0.9791
4.0760 2.6911 -1.9990 0.9791
2.8762 3.9486 -1.9994 0.9791
2.1281 4.3980 -1.9997 0.9791
0.8864 4.8063 -2.0003 0.9791
0.0172 4.8884 -2.0007 0.9791
-2.0997 4.4182 -2.0021 0.9791
-2.4862 4.2136 -2.0023 0.9791
-4.2941 2.3522 -2.0039 0.9791
-4.7654 1.1301 -2.0044 0.9791
-1.9434 0.1050 -0.7965 0.9916
-4.7869 -1.0419 -2.0050 0.9790
-4.6749 -1.4653 -2.0051 0.9790
-4.5254 -1.8770 -2.0051 0.9790
-4.1192 -2.6521 -2.0051 0.9790
-3.8658 -3.0093 -2.0050 0.9790
-3.2684 -3.6487 -2.0049 0.9791
-1.7834 -4.5608 -2.0043 0.9791
-1.3688 -4.7014 -2.0041 0.9791
-0.9434 -4.8044 -2.0038 0.9791
-0.5104 -4.8688 -2.0036 0.9791
-0.0736 -4.8944 -2.0034 0.9791
1.6440 -4.6079 -2.0023 0.9791
2.0487 -4.4420 -2.0020 0.9791
2.4369 -4.2407 -2.0018 0.9791
3.4724 -3.4417 -2.0010 0.9791
3.7655 -3.1174 -2.0007 0.9791
4.2590 -2.3972 -2.0002 0.9791
4.4556 -2.0070 -2.0000 0.9791
4.7407 -1.1821 -1.9997 0.9791
4.8834 0.1169 -1.9992 0.9791
4.7843 0.9837 -1.9991 0.9791
4.5328 1.8191 -1.9990 0.9791
4.1368 2.5966 -1.9990 0.9791
3.8885 2.9557 -1.9990 0.9791
3.3009 3.6007 -1.9992 0.9791
2.9663 3.8813 -1.9993 0.9791
2.2288 4.3478 -1.9996 0.9791
1.8317 4.5298 -1.9998 0.9791
1.4200 4.6758 -2.0000 0.9791
0.1297 4.8866 -2.0007 0.9791
-0.3073 4.8793 -2.0009 0.9791
-1.9973 4.4652 -2.0020 0.9791
-2.3885 4.2695 -2.0023 0.9791
-3.7342 3.1646 -2.0033 0.9791
-4.2386 2.4504 -2.0038 0.9791
-4.4410 2.0623 -2.0040 0.9791
-4.6079 1.6576 -2.0042 0.9791
-2.1031 0.3533 -0.8728 0.9908
-1.9548 0.1508 -0.8024 0.9916
-1.9105 -0.0237 -0.7820 0.9918
-4.7073 -1.3572 -2.0051 0.9790
-4.5674 -1.7723 -2.0051 0.9790
-4.3908 -2.1731 -2.0051 0.9790
-3.9341 -2.9195 -2.0050 0.9790
-3.0190 -3.8574 -2.0048 0.9791
-2.6622 -4.1114 -2.0046 0.9791
-0.6224 -4.8560 -2.0037 0.9791
-0.1862 -4.8916 -2.0034 0.9791
0.2514 -4.8880 -2.0032 0.9791
0.6868 -4.8454 -2.0029 0.9791
1.1167 -4.7641 -2.0027 0.9791
1.9459 -4.4882 -2.0021 0.9791
2.3387 -4.2959 -2.0018 0.9791
3.0648 -3.8102 -2.0013 0.9791
3.9637 -2.8604 -2.0005 0.9791
4.5786 -1.7068 -1.9999 0.9791
4.7123 -1.2909 -1.9997 0.9791
4.8084 -0.8648 -1.9995 0.9791
4.8647 0.4407 -1.9992 0.9791
4.7084 1.2990 -1.9990 0.9791
4.5734 1.7143 -1.9990 0.9791
-1.5948 0.5689 -0.7379 0.9926
-1.5507 0.4013 -0.6981 0.9930
-1.5254 -0.1600 -0.6684 0.9933
-4.2844 -1.6756 -2.0049 0.9801
-4.1176 -2.0516 -2.0049 0.9801
-3.9179 -2.4111 -2.0049 0.9801
-3.6868 -2.7513 -2.0049 0.9801
-1.3750 -4.3878 -2.0040 0.9801
-0.9775 -4.4926 -2.0038 0.9801
0.2483 -4.5895 -2.0031 0.9801
1.4555 -4.3579 -2.0024 0.9802
2.8877 -3.5706 -2.0013 0.9802
3.4761 -2.9991 -2.0009 0.9802
3.7296 -2.6764 -2.0006 0.9802
3.9533 -2.3323 -2.0004 0.9802
4.4289 -1.2006 -1.9998 0.9802
4.5877 0.0164 -1.9994 0.9802
4.5112 0.8323 -1.9992 0.9802
4.4187 1.2318 -1.9992 0.9802
3.7077 2.7010 -1.9992 0.9802
2.8594 3.5877 -1.9995 0.9802
2.5277 3.8290 -1.9996 0.9802
2.1758 4.0398 -1.9997 0.9802
0.2152 4.5856 -2.0007 0.9802
-1.0084 4.4802 -2.0014 0.9802
-1.4047 4.3728 -2.0017 0.9802
-2.8484 3.6060 -2.0027 0.9801
-3.4453 3.0425 -2.0032 0.9801
-3.9325 2.3815 -2.0036 0.9801
-4.1299 2.0210 -2.0038 0.9801
-4.2944 1.6442 -2.0040 0.9801
-1.5653 0.4437 -0.7091 0.9929
-1.5240 0.0121 -0.6642 0.9934
-1.5286 -0.1248 -0.6684 0.9933
-3.9724 -2.3203 -2.0049 0.9801
-3.7492 -2.6657 -2.0049 0.9801
-3.2149 -3.2900 -2.0047 0.9801
-2.9081 -3.5638 -2.0046 0.9801
-2.5780 -3.8090 -2.0045 0.9801
-1.4757 -4.3551 -2.0040 0.9801
-1.0807 -4.4691 -2.0038 0.9801
-0.2684 -4.5891 -2.0034 0.9801
0.1426 -4.5942 -2.0032 0.9801
0.5522 -4.5625 -2.0029 0.9801
0.9574 -4.4944 -2.0027 0.9801
1.3548 -4.3904 -2.0024 0.9802
2.4692 -3.8727 -2.0017 0.9802
3.1180 -3.3708 -2.0012 0.9802
3.4062 -3.0784 -2.0009 0.9802
3.6671 -2.7616 -2.0007 0.9802
3.8987 -2.4228 -2.0005 0.9802
4.0990 -2.0647 -2.0003 0.9802
4.4001 -1.3023 -1.9999 0.9802
4.5764 0.3208 -1.9993 0.9802
4.4460 1.1298 -1.9992 0.9802
4.1739 1.9027 -1.9992 0.9802
3.2438 3.2440 -1.9993 0.9802
1.9031 4.1755 -1.9998 0.9802
0.7283 4.5319 -2.0004 0.9802
-0.4992 4.5644 -2.0011 0.9802
-2.4253 3.9023 -2.0024 0.9802
-2.7645 3.6705 -2.0026 0.9801
-3.0817 3.4094 -2.0029 0.9801
-3.3743 3.1209 -2.0031 0.9801
-3.6399 2.8074 -2.0034 0.9801
-3.8766 2.4714 -2.0036 0.9801
-4.0822 2.1155 -2.0038 0.9801
-1.5778 0.4868 -0.7196 0.9928
-1.5279 0.0473 -0.6662 0.9934
-1.5896 -0.5387 -0.7315 0.9927
-4.0247 -2.2282 -2.0049 0.9801
-3.8096 -2.5787 -2.0049 0.9801
-3.2898 -3.2151 -2.0048 0.9801
-2.9894 -3.4959 -2.0047 0.9801
-2.3194 -3.9715 -2.0044 0.9801
0.4471 -4.5742 -2.0030 0.9801
2.0193 -4.1260 -2.0020 0.9802
2.3795 -3.9286 -2.0017 0.9802
2.7205 -3.7000 -2.0015 0.9802
3.3345 -3.1561 -2.0010 0.9802
4.0505 -2.1586 -2.0003 0.9802
4.3691 -1.4032 -1.9999 0.9802
4.4766 -1.0073 -1.9998 0.9802
4.5483 -0.6035 -1.9996 0.9802
4.5837 -0.1948 -1.9995 0.9802
4.5826 0.2153 -1.9994 0.9802
4.5448 0.6237 -1.9993 0.9802
4.3611 1.4223 -1.9992 0.9802
4.2166 1.8061 -1.9992 0.9802
4.0385 2.1754 -1.9992 0.9802
3.5872 2.8593 -1.9992 0.9802
3.3176 3.1684 -1.9993 0.9802
3.0215 3.4522 -1.9994 0.9802
2.3594 3.9352 -1.9996 0.9802
1.6219 4.2928 -2.0000 0.9802
0.4260 4.5706 -2.0006 0.9802
0.0161 4.5909 -2.0008 0.9802
-0.8011 4.5216 -2.0013 0.9802
-1.9718 4.1491 -2.0021 0.9802
-2.3348 3.9569 -2.0023 0.9802
-2.6792 3.7331 -2.0026 0.9802
-3.8185 2.5599 -2.0035 0.9801
-4.2139 1.8401 -2.0039 0.9801
-1.5362 0.3643 -0.6881 0.9931
-1.5284 -0.0542 -0.6665 0.9933
-1.5215 -0.3312 -0.6786 0.9932
-3.8680 -2.4903 -2.0049 0.9801
-3.0691 -3.4262 -2.0047 0.9801
-2.7507 -3.6864 -2.0046 0.9801
-2.0507 -4.1164 -2.0043 0.9801
-1.6747 -4.2828 -2.0041 0.9801
-0.8859 -4.5115 -2.0037 0.9801
-0.0691 -4.5961 -2.0033 0.9801
0.7495 -4.5340 -2.0028 0.9801
1.1513 -4.4484 -2.0026 0.9802
1.9239 -4.1715 -2.0020 0.9802
2.2885 -3.9825 -2.0018 0.9802
2.6347 -3.7617 -2.0015 0.9802
3.2611 -3.2322 -2.0010 0.9802
3.5363 -2.9277 -2.0008 0.9802
4.4523 -1.1102 -1.9998 0.9802
4.5333 -0.7080 -1.9996 0.9802
4.5781 -0.3003 -1.9995 0.9802
4.5864 0.1098 -1.9994 0.9802
4.4933 0.9239 -1.9992 0.9802
4.3927 1.3215 -1.9992 0.9802
3.6520 2.7760 -1.9992 0.9802
2.4493 3.8797 -1.9996 0.9802
2.0932 4.0833 -1.9998 0.9802
-0.2886 4.5823 -2.0010 0.9802
-1.0995 4.4589 -2.0015 0.9802
-1.4935 4.3435 -2.0017 0.9802
-2.2430 4.0095 -2.0022 0.9802
-2.5924 3.7936 -2.0025 0.9802
-3.7585 2.6470 -2.0035 0.9801
-3.9803 2.3010 -2.0037 0.9801
-4.1703 1.9365 -2.0039 0.9801
-1.5290 0.1180 -0.6683 0.9933
-1.5249 -0.0189 -0.6646 0.9934
-1.5015 -0.2908 -0.6666 0.9933
-1.5679 -0.4521 -0.7112 0.9929
-4.1231 -2.0406 -2.0049 0.9801
-3.9243 -2.4006 -2.0049 0.9801
-3.4344 -3.0603 -2.0048 0.9801
-3.1472 -3.3547 -2.0047 0.9801
-2.8349 -3.6222 -2.0046 0.9801
-2.1450 -4.0682 -2.0043 0.9801
-0.5845 -4.5600 -2.0036 0.9801
-0.1749 -4.5935 -2.0034 0.9801
0.2360 -4.5902 -2.0031 0.9801
2.5474 -3.8215 -2.0016 0.9802
2.8782 -3.5783 -2.0013 0.9802
3.1859 -3.3065 -2.0011 0.9802
3.7225 -2.6863 -2.0006 0.9802
4.1401 -1.9808 -2.0002 0.9802
4.4257 -1.2124 -1.9998 0.9802
4.5159 -0.8122 -1.9997 0.9802
4.5878 0.0042 -1.9994 0.9802
4.5134 0.8202 -1.9993 0.9802
4.4220 1.2200 -1.9992 0.9802
-1.3334 0.4756 -0.6553 0.9938
-1.3383 0.0997 -0.6212 0.9941
-1.3355 -0.0202 -0.6183 0.9941
-1.3355 -0.1401 -0.6216 0.9941
-1.3100 -0.2573 -0.6180 0.9941
-1.3234 -0.3854 -0.6380 0.9939
-3.4709 -2.5902 -2.0047 0.9811
-3.2256 -2.8898 -2.0046 0.9811
-2.9545 -3.1662 -2.0046 0.9811
-2.6598 -3.4172 -2.0045 0.9811
-2.3438 -3.6409 -2.0043 0.9811
-0.1531 -4.3251 -2.0033 0.9811
0.2338 -4.3210 -2.0030 0.9811
0.6187 -4.2824 -2.0028 0.9811
1.3703 -4.1030 -2.0023 0.9811
2.4081 -3.5917 -2.0016 0.9811
2.7189 -3.3618 -2.0014 0.9811
3.5116 -2.5200 -2.0007 0.9811
3.7223 -2.1960 -2.0005 0.9811
3.9032 -1.8546 -2.0003 0.9811
4.1701 -1.1305 -2.0000 0.9811
4.2541 -0.7534 -1.9998 0.9811
4.2478 0.7837 -1.9994 0.9811
3.2502 2.8450 -1.9994 0.9811
2.3801 3.6054 -1.9997 0.9811
2.0487 3.8038 -1.9999 0.9811
1.7009 3.9719 -2.0000 0.9811
1.3395 4.1083 -2.0002 0.9811
0.5874 4.2818 -2.0006 0.9811
0.2026 4.3176 -2.0008 0.9811
-0.1838 4.3190 -2.0010 0.9811
-0.5689 4.2858 -2.0012 0.9811
-1.3226 4.1172 -2.0017 0.9811
-2.0345 3.8171 -2.0022 0.9811
-2.3675 3.6206 -2.0024 0.9811
-2.6818 3.3951 -2.0027 0.9811
-3.4870 2.5636 -2.0033 0.9811
-1.3212 0.3745 -0.6357 0.9940
-1.3366 0.1305 -0.6216 0.9941
-1.3157 -0.3505 -0.6302 0.9940
-3.5297 -2.5096 -2.0047 0.9811
-3.2913 -2.8148 -2.0047 0.9811
-2.7378 -3.3551 -2.0045 0.9811
-2.0970 -3.7882 -2.0042 0.9811
-1.7501 -3.9601 -2.0041 0.9811
-1.3893 -4.1002 -2.0039 0.9811
-1.0175 -4.2075 -2.0037 0.9811
-0.2526 -4.3205 -2.0033 0.9811
0.1342 -4.3254 -2.0031 0.9811
0.9014 -4.2315 -2.0026 0.9811
1.2756 -4.1336 -2.0024 0.9811
1.9901 -3.8398 -2.0019 0.9811
2.6409 -3.4236 -2.0014 0.9811
3.4528 -2.6002 -2.0008 0.9811
3.6708 -2.2812 -2.0006 0.9811
3.8595 -1.9441 -2.0004 0.9811
4.0174 -1.5914 -2.0002 0.9811
4.2357 -0.8512 -1.9999 0.9811
4.2945 -0.4695 -1.9997 0.9811
4.3190 -0.0840 -1.9996 0.9811
4.2647 0.6857 -1.9994 0.9811
4.0745 1.4334 -1.9993 0.9811
3.9302 1.7916 -1.9993 0.9811
3.3148 2.7694 -1.9994 0.9811
3.0543 3.0545 -1.9995 0.9811
2.7695 3.3153 -1.9996 0.9811
1.7919 3.9316 -2.0000 0.9811
1.4337 4.0762 -2.0001 0.9811
1.0640 4.1884 -2.0003 0.9811
-0.4700 4.2976 -2.0012 0.9811
-0.8521 4.2389 -2.0014 0.9811
-2.6028 3.4558 -2.0026 0.9811
-2.9014 3.2099 -2.0028 0.9811
-3.1768 2.9383 -2.0031 0.9811
-3.6497 2.3267 -2.0035 0.9811
-1.3272 0.5435 -0.6639 0.9937
-1.3033 0.2775 -0.6168 0.9941
-1.3372 0.0414 -0.6193 0.9941
-1.3385 -0.0784 -0.6206 0.9941
-1.3064 -0.3160 -0.6221 0.9941
-1.3333 -0.4519 -0.6517 0.9938
-1.3195 -0.5832 -0.6678 0.9937
-3.3553 -2.7383 -2.0047 0.9811
-1.8409 -3.9188 -2.0041 0.9811
0.0346 -4.3274 -2.0032 0.9811
0.4209 -4.3066 -2.0029 0.9811
0.8038 -4.2513 -2.0027 0.9811
1.1801 -4.1620 -2.0025 0.9811
1.5469 -4.0395 -2.0022 0.9811
2.8620 -3.2406 -2.0013 0.9811
3.6174 -2.3652 -2.0006 0.9811
3.8138 -2.0325 -2.0004 0.9811
4.2151 -0.9485 -1.9999 0.9811
4.1064 1.3392 -1.9993 0.9811
3.9704 1.7006 -1.9993 0.9811
3.8026 2.0484 -1.9993 0.9811
3.3777 2.6924 -1.9994 0.9811
2.8450 3.2506 -1.9996 0.9811
2.2216 3.7053 -1.9998 0.9811
1.8819 3.8892 -1.9999 0.9811
1.5272 4.0421 -2.0001 0.9811
1.1602 4.1627 -2.0003 0.9811
0.4011 4.3035 -2.0007 0.9811
0.0152 4.3226 -2.0009 0.9811
-0.3710 4.3072 -2.0011 0.9811
-1.8565 3.9065 -2.0021 0.9811
-2.1982 3.7255 -2.0023 0.9811
-2.8266 3.2758 -2.0028 0.9811
-3.1083 3.0106 -2.0030 0.9811
-3.3651 2.7212 -2.0032 0.9811
-3.5951 2.4101 -2.0034 0.9811
-3.7963 2.0796 -2.0036 0.9811
-1.3044 0.3093 -0.6205 0.9941
-1.3271 0.1916 -0.6207 0.9941
-1.3385 0.0723 -0.6205 0.9941
-1.3012 -0.2832 -0.6164 0.9941
-1.3288 -0.4165 -0.6446 0.9939
-1.3262 -0.5501 -0.6646 0.9937
-3.6415 -2.3445 -2.0047 0.9811
-3.4175 -2.6603 -2.0047 0.9811
-3.1661 -2.9548 -2.0046 0.9811
-2.8894 -3.2256 -2.0045 0.9811
-1.9306 -3.8755 -2.0042 0.9811
-1.5767 -4.0321 -2.0040 0.9811
-1.2102 -4.1564 -2.0038 0.9811
0.3217 -4.3152 -2.0030 0.9811
0.7057 -4.2688 -2.0028 0.9811
2.1547 -3.7496 -2.0018 0.9811
3.3296 -2.7566 -2.0009 0.9811
3.5621 -2.4479 -2.0007 0.9811
3.7661 -2.1198 -2.0005 0.9811
3.9400 -1.7748 -2.0003 0.9811
4.0824 -1.4157 -2.0001 0.9811
4.1922 -1.0453 -1.9999 0.9811
4.2685 -0.6667 -1.9998 0.9811
4.3185 0.1034 -1.9996 0.9811
4.1362 1.2443 -1.9994 0.9811
4.0085 1.6087 -1.9993 0.9811
3.1916 2.9106 -1.9994 0.9811
2.9191 3.1842 -1.9995 0.9811
2.6231 3.4323 -1.9996 0.9811
2.3063 3.6531 -1.9998 0.9811
1.2557 4.1348 -2.0002 0.9811
0.8814 4.2308 -2.0004 0.9811
0.5001 4.2930 -2.0006 0.9811
0.1147 4.3210 -2.0008 0.9811
-1.0352 4.1982 -2.0015 0.9811
-2.1118 3.7750 -2.0022 0.9811
-2.4408 3.5717 -2.0025 0.9811
-2.7504 3.3399 -2.0027 0.9811
-3.0380 3.0812 -2.0029 0.9811
-3.3015 2.7979 -2.0032 0.9811
-3.5385 2.4921 -2.0034 0.9811
-3.7474 2.1664 -2.0036 0.9811
-1.3125 0.6095 -0.6699 0.9936
-1.3333 0.4796 -0.6559 0.9938
-1.3140 0.3438 -0.6287 0.9940
-1.3352 -0.0166 -0.6181 0.9941
-3.8816 -1.9211 -2.0048 0.9811
-3.4778 -2.5809 -2.0047 0.9811
-2.6689 -3.4101 -2.0045 0.9811
-2.3535 -3.6346 -2.0043 0.9811
-2.0194 -3.8301 -2.0042 0.9811
-1.6691 -3.9948 -2.0040 0.9811
-0.5503 -4.2931 -2.0035 0.9811
0.2222 -4.3216 -2.0031 0.9811
1.3594 -4.1067 -2.0024 0.9811
2.0678 -3.7984 -2.0019 0.9811
2.3985 -3.5981 -2.0016 0.9811
2.9997 -3.1132 -2.0012 0.9811
3.2654 -2.8326 -2.0009 0.9811
3.7164 -2.2060 -2.0005 0.9811
3.8982 -1.8650 -2.0003 0.9811
4.1671 -1.1416 -2.0000 0.9811
4.2521 -0.7648 -1.9998 0.9811
4.3031 -0.3819 -1.9997 0.9811
4.3198 0.0039 -1.9996 0.9811
4.3020 0.3897 -1.9995 0.9811
4.2499 0.7723 -1.9994 0.9811
4.1638 1.1488 -1.9994 0.9811
4.0445 1.5160 -1.9993 0.9811
-1.1560 0.4124 -0.6021 0.9945
-1.1580 0.2996 -0.5867 0.9947
-1.1952 0.0890 -0.5879 0.9947
-1.1961 -0.0181 -0.5868 0.9947
-1.1752 -0.2308 -0.5875 0.9947
-1.1520 -0.4506 -0.6068 0.9945
-1.1298 -0.5629 -0.6192 0.9944
-3.4804 -2.1419 -2.0046 0.9820
-3.2751 -2.4441 -2.0045 0.9820
-2.7878 -2.9876 -2.0044 0.9820
-2.5098 -3.2245 -2.0043 0.9820
-2.2116 -3.4355 -2.0042 0.9820
-1.5649 -3.7737 -2.0039 0.9820
-0.8684 -3.9912 -2.0036 0.9820
-0.1445 -4.0812 -2.0032 0.9820
0.2206 -4.0774 -2.0030 0.9820
0.5838 -4.0410 -2.0028 0.9820
1.2931 -3.8718 -2.0023 0.9820
2.2724 -3.3893 -2.0016 0.9820
3.3139 -2.3781 -2.0008 0.9820
3.5127 -2.0724 -2.0006 0.9820
3.8247 -1.4141 -2.0002 0.9820
4.0147 -0.7110 -1.9999 0.9820
4.0767 0.0146 -1.9997 0.9820
4.0589 0.3786 -1.9996 0.9820
3.4959 2.0963 -1.9995 0.9820
3.2948 2.4002 -1.9995 0.9820
3.0673 2.6849 -1.9996 0.9820
2.8153 2.9483 -1.9997 0.9820
2.2461 3.4024 -1.9999 0.9820
1.9334 3.5897 -2.0000 0.9820
1.2641 3.8770 -2.0003 0.9820
0.9129 3.9747 -2.0005 0.9820
-0.1735 4.0757 -2.0011 0.9820
-0.5368 4.0444 -2.0013 0.9820
-1.2481 3.8852 -2.0017 0.9820
-1.5903 3.7587 -2.0019 0.9820
-2.2341 3.4166 -2.0024 0.9820
-2.5306 3.2037 -2.0026 0.9820
-2.8069 2.9652 -2.0028 0.9820
-3.0609 2.7030 -2.0031 0.9820
-3.2904 2.4191 -2.0033 0.9820
-1.1321 0.5540 -0.6183 0.9944
-1.1531 0.4415 -0.6057 0.9945
-1.1771 0.2225 -0.5876 0.9947
-1.1932 0.1165 -0.5881 0.9947
-1.1958 0.0095 -0.5866 0.9947
-1.1946 -0.0976 -0.5879 0.9947
-1.1809 -0.2038 -0.5878 0.9947
-1.1584 -0.3086 -0.5880 0.9947
-1.1552 -0.4214 -0.6032 0.9945
-3.1056 -2.6560 -2.0045 0.9820
-2.5834 -3.1659 -2.0043 0.9820
-2.2902 -3.3838 -2.0042 0.9820
-1.9787 -3.5745 -2.0041 0.9820
-1.6514 -3.7367 -2.0040 0.9820
-1.3110 -3.8690 -2.0038 0.9820
-0.6016 -4.0398 -2.0035 0.9820
-0.2384 -4.0770 -2.0033 0.9820
1.2037 -3.9007 -2.0024 0.9820
1.8780 -3.6234 -2.0019 0.9820
2.1939 -3.4408 -2.0017 0.9820
2.4921 -3.2308 -2.0015 0.9820
3.4641 -2.1528 -2.0006 0.9820
3.6422 -1.8346 -2.0005 0.9820
3.7912 -1.5019 -2.0003 0.9820
3.9973 -0.8033 -2.0000 0.9820
4.0528 -0.4430 -1.9998 0.9820
4.0247 0.6471 -1.9996 0.9820
3.8452 1.3527 -1.9995 0.9820
3.7090 1.6907 -1.9995 0.9820
2.8824 2.8826 -1.9996 0.9820
2.6136 3.1287 -1.9997 0.9820
2.3238 3.3498 -1.9998 0.9820
2.0155 3.5441 -1.9999 0.9820
1.6910 3.7103 -2.0001 0.9820
1.3530 3.8468 -2.0002 0.9820
1.0041 3.9526 -2.0004 0.9820
-0.0796 4.0785 -2.0010 0.9820
-1.1583 3.9128 -2.0017 0.9820
-1.5033 3.7942 -2.0019 0.9820
-1.8363 3.6452 -2.0021 0.9820
-2.1548 3.4670 -2.0023 0.9820
-2.7378 3.0290 -2.0028 0.9820
-3.2337 2.4941 -2.0032 0.9820
-1.1492 0.4706 -0.6092 0.9945
-1.1964 0.0371 -0.5872 0.9947
-1.1960 -0.0700 -0.5877 0.9947
-1.1620 -0.2811 -0.5864 0.9947
-1.1575 -0.3923 -0.5995 0.9946
-1.1432 -0.5053 -0.6131 0.9944
-1.1079 -0.6133 -0.6211 0.9944
-3.3842 -2.2907 -2.0046 0.9820
-2.6556 -3.1056 -2.0044 0.9820
-1.3997 -3.8378 -2.0039 0.9820
-0.3322 -4.0705 -2.0033 0.9820
0.0326 -4.0835 -2.0031 0.9820
0.3972 -4.0638 -2.0029 0.9820
1.1136 -3.9274 -2.0024 0.9820
1.7941 -3.6658 -2.0020 0.9820
2.1141 -3.4905 -2.0018 0.9820
2.7008 -3.0581 -2.0013 0.9820
2.9628 -2.8043 -2.0011 0.9820
3.2011 -2.5282 -2.0009 0.9820
3.4138 -2.2320 -2.0007 0.9820
3.7557 -1.5888 -2.0003 0.9820
3.8823 -1.2469 -2.0002 0.9820
3.9778 -0.8951 -2.0000 0.9820
4.0721 0.1913 -1.9997 0.9820
3.9728 0.9127 -1.9995 0.9820
3.7470 1.6049 -1.9995 0.9820
3.4017 2.2459 -1.9995 0.9820
3.1876 2.5408 -1.9995 0.9820
2.9480 2.8155 -1.9996 0.9820
2.4003 3.2953 -1.9998 0.9820
2.0965 3.4968 -1.9999 0.9820
1.0948 3.9283 -2.0004 0.9820
-0.7118 4.0175 -2.0014 0.9820
-1.0678 3.9383 -2.0016 0.9820
-1.4155 3.8277 -2.0018 0.9820
-1.7519 3.6864 -2.0021 0.9820
-2.0744 3.5156 -2.0023 0.9820
-3.3924 2.2742 -2.0034 0.9820
-1.1866 0.1713 -0.5881 0.9947
-1.1896 -0.1493 -0.5881 0.9947
-1.1587 -0.3632 -0.5956 0.9946
-1.1483 -0.4763 -0.6098 0.9945
-1.1210 -0.5873 -0.6208 0.9944
-2.7264 -3.0437 -2.0044 0.9820
-2.4436 -3.2748 -2.0043 0.9820
-2.1412 -3.4798 -2.0042 0.9820
-1.8217 -3.6569 -2.0040 0.9820
-1.1419 -3.9220 -2.0037 0.9820
-0.0614 -4.0833 -2.0032 0.9820
0.6659 -4.0282 -2.0027 0.9820
2.3409 -3.3423 -2.0016 0.9820
2.8975 -2.8719 -2.0011 0.9820
3.1421 -2.6013 -2.0009 0.9820
3.3615 -2.3101 -2.0007 0.9820
3.5541 -2.0004 -2.0005 0.9820
3.7182 -1.6749 -2.0004 0.9820
3.8526 -1.3360 -2.0002 0.9820
4.0283 -0.6291 -1.9999 0.9820
3.9928 0.8210 -1.9995 0.9820
3.9035 1.1743 -1.9995 0.9820
3.7829 1.5182 -1.9995 0.9820
3.6322 1.8500 -1.9995 0.9820
3.4525 2.1670 -1.9995 0.9820
2.7548 3.0050 -1.9997 0.9820
2.4755 3.2392 -1.9998 0.9820
2.1765 3.4475 -1.9999 0.9820
0.8318 3.9926 -2.0005 0.9820
-0.2564 4.0715 -2.0011 0.9820
-0.6191 4.0327 -2.0013 0.9820
-1.3269 3.8591 -2.0018 0.9820
-2.3033 3.3705 -2.0025 0.9820
-2.5954 3.1516 -2.0027 0.9820
-2.8668 2.9076 -2.0029 0.9820
-3.1153 2.6402 -2.0031 0.9820
-1.1383 0.5286 -0.6156 0.9944
-1.1582 0.3030 -0.5872 0.9947
-1.1819 0.1986 -0.5879 0.9947
-1.1950 0.0922 -0.5879 0.9947
-1.1927 -0.1219 -0.5881 0.9947
-1.1759 -0.2277 -0.5875 0.9947
-1.1590 -0.3342 -0.5917 0.9946
-3.4861 -2.1326 -2.0046 0.9820
-3.2816 -2.4353 -2.0045 0.9820
-3.0509 -2.7186 -2.0045 0.9820
-2.2208 -3.4296 -2.0042 0.9820
-1.2319 -3.8948 -2.0038 0.9820
-0.1554 -4.0809 -2.0032 0.9820
0.2097 -4.0780 -2.0030 0.9820
0.5730 -4.0425 -2.0028 0.9820
0.9317 -3.9748 -2.0026 0.9820
2.2634 -3.3954 -2.0016 0.9820
2.5573 -3.1793 -2.0014 0.9820
3.0815 -2.6730 -2.0010 0.9820
3.5072 -2.0818 -2.0006 0.9820
3.8209 -1.4243 -2.0002 0.9820
3.9326 -1.0773 -2.0001 0.9820
4.0128 -0.7217 -1.9999 0.9820
4.0609 -0.3604 -1.9998 0.9820
4.0767 0.0037 -1.9997 0.9820
4.0599 0.3677 -1.9996 0.9820
4.0107 0.7289 -1.9996 0.9820
3.8169 1.4307 -1.9995 0.9820
-1.1053 0.0823 -0.5750 0.9950
-1.1064 -0.0167 -0.5740 0.9950
-1.0869 -0.2135 -0.5746 0.9950
-1.0637 -0.3098 -0.5747 0.9950
-1.0551 -0.4127 -0.5878 0.9949
-0.9819 -0.6043 -0.5981 0.9948
-2.6358 -2.8247 -2.0043 0.9827
-2.0910 -3.2482 -2.0041 0.9827
-0.8211 -3.7737 -2.0035 0.9827
0.5520 -3.8208 -2.0027 0.9828
1.2227 -3.6609 -2.0023 0.9828
1.5446 -3.5367 -2.0021 0.9828
1.8541 -3.3842 -2.0019 0.9828
2.1487 -3.2048 -2.0017 0.9828
2.4261 -2.9997 -2.0015 0.9828
2.6840 -2.7708 -2.0012 0.9828
3.1335 -2.2486 -2.0008 0.9828
3.3215 -1.9596 -2.0007 0.9828
3.4830 -1.6550 -2.0005 0.9828
3.6166 -1.3372 -2.0003 0.9828
3.7962 -0.6723 -2.0001 0.9828
3.8409 -0.3306 -1.9999 0.9828
3.8381 0.3580 -1.9998 0.9828
3.7906 0.6993 -1.9997 0.9828
3.6056 1.3625 -1.9996 0.9828
3.4695 1.6791 -1.9996 0.9828
3.3057 1.9823 -1.9996 0.9828
2.9004 2.5389 -1.9997 0.9828
2.6622 2.7878 -1.9998 0.9828
1.8282 3.3944 -2.0001 0.9828
1.1953 3.6660 -2.0004 0.9828
0.8632 3.7584 -2.0005 0.9828
0.1808 3.8527 -2.0009 0.9828
-0.5076 3.8242 -2.0013 0.9828
-1.1801 3.6736 -2.0017 0.9828
-1.5037 3.5539 -2.0019 0.9828
-2.1124 3.2304 -2.0024 0.9828
-2.3927 3.0292 -2.0026 0.9828
-2.8941 2.5557 -2.0030 0.9828
-3.1111 2.2872 -2.0032 0.9828
-1.0563 0.4044 -0.5868 0.9949
-1.0886 0.2057 -0.5748 0.9950
-1.1048 -0.0902 -0.5751 0.9950
-1.0921 -0.1885 -0.5750 0.9950
-1.0586 -0.3862 -0.5846 0.9949
-3.1489 -2.2389 -2.0044 0.9827
-2.9363 -2.5111 -2.0044 0.9827
-2.7002 -2.7633 -2.0043 0.9827
-2.1653 -3.1993 -2.0041 0.9827
-1.8708 -3.3797 -2.0040 0.9827
-1.2395 -3.6581 -2.0037 0.9827
-0.9078 -3.7538 -2.0035 0.9827
-0.5688 -3.8196 -2.0034 0.9827
-0.2254 -3.8548 -2.0032 0.9828
0.1197 -3.8591 -2.0030 0.9828
0.4639 -3.8326 -2.0028 0.9828
1.4628 -3.5714 -2.0022 0.9828
1.7757 -3.4261 -2.0019 0.9828
2.0744 -3.2535 -2.0017 0.9828
2.6196 -2.8319 -2.0013 0.9828
2.8617 -2.5864 -2.0011 0.9828
3.0810 -2.3202 -2.0009 0.9828
3.2756 -2.0356 -2.0007 0.9828
3.5849 -1.4201 -2.0004 0.9828
3.7798 -0.7596 -2.0001 0.9828
3.8323 -0.4189 -2.0000 0.9828
3.8542 -0.0750 -1.9999 0.9828
3.8058 0.6119 -1.9997 0.9828
3.7358 0.9493 -1.9997 0.9828
3.5072 1.5988 -1.9996 0.9828
3.1669 2.1973 -1.9997 0.9828
2.9581 2.4714 -1.9997 0.9828
2.1974 3.1675 -1.9999 0.9828
1.9058 3.3513 -2.0001 0.9828
1.5990 3.5084 -2.0002 0.9828
0.9495 3.7374 -2.0005 0.9828
0.6119 3.8076 -2.0007 0.9828
0.2695 3.8474 -2.0009 0.9828
-0.0752 3.8565 -2.0011 0.9828
-0.4194 3.8347 -2.0013 0.9828
-1.4214 3.5875 -2.0019 0.9828
-2.0374 3.2781 -2.0023 0.9828
-2.5887 2.8640 -2.0027 0.9828
-2.8344 2.6216 -2.0030 0.9828
-3.0575 2.3582 -2.0031 0.9828
-0.9719 0.6196 -0.5979 0.9948
-1.0230 0.5301 -0.5977 0.9948
-1.0522 0.4309 -0.5899 0.9949
-1.0631 0.3280 -0.5772 0.9950
-1.1066 0.0343 -0.5744 0.9950
-1.1061 -0.0648 -0.5748 0.9950
-1.0461 -0.4624 -0.5934 0.9949
-3.1996 -2.1658 -2.0044 0.9827
-2.9934 -2.4429 -2.0044 0.9827
-2.7631 -2.7004 -2.0043 0.9827
-2.5108 -2.9363 -2.0042 0.9827
-2.2384 -3.1486 -2.0041 0.9827
-1.9482 -3.3358 -2.0040 0.9827
-0.9940 -3.7320 -2.0036 0.9827
0.7171 -3.7931 -2.0026 0.9828
1.0529 -3.7135 -2.0024 0.9828
1.3802 -3.6042 -2.0022 0.9828
1.9990 -3.3005 -2.0018 0.9828
2.2855 -3.1084 -2.0016 0.9828
2.8015 -2.6516 -2.0011 0.9828
3.0268 -2.3906 -2.0009 0.9828
3.4032 -1.8136 -2.0006 0.9828
3.6710 -1.1790 -2.0003 0.9828
3.7614 -0.8464 -2.0001 0.9828
3.8217 -0.5071 -2.0000 0.9828
3.8515 -0.1637 -1.9999 0.9828
3.7567 0.8630 -1.9997 0.9828
3.6645 1.1951 -1.9996 0.9828
3.3934 1.8280 -1.9996 0.9828
3.2167 2.1238 -1.9996 0.9828
3.0142 2.4026 -1.9997 0.9828
2.7876 2.6623 -1.9997 0.9828
2.5388 2.9007 -1.9998 0.9828
2.2697 3.1160 -1.9999 0.9828
1.9825 3.3065 -2.0000 0.9828
1.3628 3.6069 -2.0003 0.9828
1.0353 3.7145 -2.0005 0.9828
0.0136 3.8571 -2.0010 0.9828
-1.3384 3.6192 -2.0018 0.9828
-1.6565 3.4856 -2.0021 0.9828
-1.9614 3.3241 -2.0023 0.9828
-2.2506 3.1359 -2.0025 0.9828
-2.7732 2.6861 -2.0029 0.9828
-3.0023 2.4279 -2.0031 0.9828
-1.0111 0.5539 -0.5981 0.9948
-1.0472 0.4573 -0.5928 0.9949
-1.1002 -0.1381 -0.5752 0.9950
-1.0814 -0.2354 -0.5741 0.9950
-1.0629 -0.3332 -0.5779 0.9950
-1.0513 -0.4361 -0.5905 0.9949
-1.0207 -0.5348 -0.5978 0.9948
-3.2487 -2.0916 -2.0044 0.9827
-3.0488 -2.3733 -2.0044 0.9827
