ply
format ascii 1.0
element vertex 1600
property float32 x
property float32 y
property float32 z
property float32 I
end_header
-2.4751 -6.0445 -2.0090 0.9730
-1.9251 -6.2411 -2.0089 0.9730
-0.2014 -6.5262 -2.0083 0.9730
0.3824 -6.5171 -2.0080 0.9730
0.9629 -6.4557 -2.0076 0.9731
2.6384 -5.9654 -2.0063 0.9731
3.6559 -5.3979 -2.0052 0.9731
4.1223 -5.0483 -2.0047 0.9731
4.5554 -4.6585 -2.0041 0.9731
4.9519 -4.2316 -2.0035 0.9731
5.3085 -3.7712 -2.0028 0.9731
6.1127 -2.2266 -2.0010 0.9731
6.4977 0.0551 -1.9986 0.9732
6.4651 0.6352 -1.9981 0.9732
6.3809 1.2099 -1.9976 0.9732
6.2459 1.7747 -1.9971 0.9732
6.0611 2.3250 -1.9967 0.9732
5.8280 2.8566 -1.9963 0.9732
5.2250 3.8469 -1.9957 0.9732
4.8599 4.2978 -1.9955 0.9732
4.4562 4.7143 -1.9953 0.9732
2.5226 5.9758 -1.9951 0.9732
1.4191 6.3301 -1.9953 0.9732
0.2701 6.4830 -1.9958 0.9732
-0.3102 6.4822 -1.9961 0.9732
-1.4592 6.3259 -1.9968 0.9732
-4.8986 4.2785 -2.0005 0.9731
-5.5853 3.3405 -2.0017 0.9731
-5.8632 2.8291 -2.0024 0.9731
-6.0944 2.2948 -2.0030 0.9731
-6.2769 1.7417 -2.0036 0.9731
-6.4094 1.1744 -2.0042 0.9731
-6.5198 0.0151 -2.0053 0.9731
-6.4217 -1.1459 -2.0064 0.9731
-6.1181 -2.2714 -2.0073 0.9731
-5.6183 -3.3251 -2.0080 0.9730
-4.5372 -4.6975 -2.0088 0.9730
-4.0997 -5.0844 -2.0089 0.9730
-3.6293 -5.4305 -2.0090 0.9730
-3.1297 -5.7331 -2.0090 0.9730
-2.6050 -5.9897 -2.0090 0.9730
-2.0595 -6.1982 -2.0089 0.9730
0.8233 -6.4753 -2.0077 0.9731
1.3982 -6.3746 -2.0073 0.9731
1.9616 -6.2229 -2.0069 0.9731
2.5091 -6.0214 -2.0064 0.9731
3.0362 -5.7717 -2.0059 0.9731
3.5387 -5.4759 -2.0054 0.9731
4.0126 -5.1365 -2.0048 0.9731
4.4541 -4.7561 -2.0042 0.9731
4.8597 -4.3379 -2.0036 0.9731
5.2262 -3.8852 -2.0030 0.9731
6.2481 -1.8066 -2.0005 0.9731
6.3826 -1.2408 -1.9999 0.9732
6.4661 -0.6655 -1.9993 0.9732
6.4978 -0.0852 -1.9988 0.9732
6.4777 0.4955 -1.9982 0.9732
6.2831 1.6395 -1.9972 0.9732
5.8886 2.7303 -1.9964 0.9732
5.6202 3.2448 -1.9961 0.9732
5.3071 3.7334 -1.9958 0.9732
4.9517 4.1920 -1.9955 0.9732
4.5570 4.6171 -1.9953 0.9732
3.6622 5.3537 -1.9951 0.9732
2.6510 5.9199 -1.9951 0.9732
-0.1701 6.4871 -1.9960 0.9732
-0.7491 6.4471 -1.9963 0.9732
-1.8851 6.2134 -1.9971 0.9732
-3.4677 5.4952 -1.9986 0.9732
-3.9458 5.1649 -1.9992 0.9732
-4.3927 4.7932 -1.9998 0.9732
-6.0430 2.4256 -2.0028 0.9731
-6.3820 1.3123 -2.0041 0.9731
-6.5175 0.1558 -2.0052 0.9731
-6.4446 -1.0070 -2.0063 0.9731
-5.6885 -3.2029 -2.0080 0.9730
-5.3805 -3.6989 -2.0083 0.9730
-5.0292 -4.1653 -2.0085 0.9730
-4.6375 -4.5984 -2.0087 0.9730
-4.2085 -4.9946 -2.0089 0.9730
-3.2527 -5.6642 -2.0090 0.9730
-2.1928 -6.1524 -2.0089 0.9730
-1.6343 -6.3233 -2.0088 0.9730
-0.4829 -6.5118 -2.0084 0.9730
0.1007 -6.5280 -2.0081 0.9730
0.6834 -6.4918 -2.0078 0.9731
1.8270 -6.2641 -2.0070 0.9731
2.3787 -6.0745 -2.0065 0.9731
2.9111 -5.8362 -2.0060 0.9731
3.4199 -5.5514 -2.0055 0.9731
3.9011 -5.2222 -2.0049 0.9731
4.7653 -4.4421 -2.0038 0.9731
5.4764 -3.5210 -2.0025 0.9731
6.0118 -2.4888 -2.0013 0.9731
6.4506 -0.8050 -1.9995 0.9732
6.4949 -0.2254 -1.9989 0.9732
6.4873 0.3556 -1.9984 0.9732
6.4280 0.9334 -1.9978 0.9732
6.1564 2.0614 -1.9969 0.9732
5.0412 4.0843 -1.9956 0.9732
4.6557 4.5178 -1.9954 0.9732
4.2332 4.9152 -1.9952 0.9732
3.7769 5.2735 -1.9951 0.9732
1.6910 6.2627 -1.9952 0.9732
0.5497 6.4649 -1.9956 0.9732
-0.0301 6.4891 -1.9959 0.9732
-0.6097 6.4615 -1.9962 0.9732
-1.1847 6.3824 -1.9966 0.9732
-1.7505 6.2523 -1.9970 0.9732
-3.3481 5.5685 -1.9985 0.9732
-3.8332 5.2486 -1.9990 0.9732
-4.2879 4.8865 -1.9996 0.9732
-4.7087 4.4853 -2.0002 0.9732
-5.0921 4.0479 -2.0008 0.9731
-5.4350 3.5780 -2.0014 0.9731
-5.9887 2.5553 -2.0027 0.9731
3.1482 -5.1459 -2.0053 0.9749
5.0572 -3.2737 -2.0025 0.9749
5.5558 -2.3202 -2.0014 0.9749
5.8767 -1.2938 -2.0002 0.9750
5.9671 -0.7634 -1.9997 0.9750
5.7036 1.8902 -1.9973 0.9750
4.9958 3.3332 -1.9963 0.9750
4.3220 4.1680 -1.9959 0.9750
3.9321 4.5371 -1.9957 0.9750
3.5108 4.8700 -1.9956 0.9750
3.0617 5.1640 -1.9956 0.9750
2.0939 5.6266 -1.9956 0.9750
1.5830 5.7915 -1.9957 0.9750
1.0594 5.9102 -1.9959 0.9750
0.5273 5.9819 -1.9961 0.9750
-0.0092 6.0058 -1.9964 0.9750
-0.5458 5.9818 -1.9967 0.9750
-3.0824 5.1628 -1.9987 0.9750
-4.3444 4.1640 -2.0003 0.9750
-5.0189 3.3263 -2.0015 0.9749
-5.5339 2.3815 -2.0026 0.9749
-5.7262 1.8782 -2.0032 0.9749
-5.8727 1.3595 -2.0037 0.9749
-5.9723 0.8297 -2.0043 0.9749
-6.0278 -0.2465 -2.0053 0.9749
-5.8905 -1.3158 -2.0063 0.9749
-5.5645 -2.3439 -2.0071 0.9749
-5.3338 -2.8321 -2.0074 0.9749
-5.0602 -3.2978 -2.0077 0.9749
-4.7460 -3.7371 -2.0080 0.9749
-4.3936 -4.1466 -2.0082 0.9749
-2.6636 -5.4235 -2.0085 0.9749
-1.6558 -5.8105 -2.0083 0.9749
-1.1301 -5.9348 -2.0082 0.9749
-0.5953 -6.0114 -2.0080 0.9749
-0.0559 -6.0398 -2.0077 0.9749
1.5467 -5.8355 -2.0067 0.9749
2.5593 -5.4647 -2.0059 0.9749
3.0366 -5.2130 -2.0054 0.9749
3.4892 -4.9196 -2.0049 0.9749
3.9137 -4.5871 -2.0043 0.9749
4.3067 -4.2179 -2.0038 0.9749
4.9857 -3.3823 -2.0026 0.9749
5.2664 -2.9226 -2.0021 0.9749
5.5048 -2.4397 -2.0015 0.9749
6.0040 -0.3569 -1.9993 0.9750
6.0103 0.1808 -1.9988 0.9750
5.7434 1.7667 -1.9974 0.9750
5.5615 2.2723 -1.9970 0.9750
5.0667 3.2246 -1.9964 0.9750
4.7578 3.6639 -1.9961 0.9750
4.0291 4.4513 -1.9958 0.9750
3.1725 5.0968 -1.9956 0.9750
2.7045 5.3598 -1.9956 0.9750
1.7077 5.7559 -1.9957 0.9750
0.6562 5.9689 -1.9961 0.9750
0.1204 6.0044 -1.9963 0.9750
-0.4165 5.9920 -1.9966 0.9750
-0.9503 5.9318 -1.9969 0.9750
-1.9915 5.6703 -1.9977 0.9750
-2.9701 5.2278 -1.9986 0.9750
-3.4260 4.9428 -1.9991 0.9750
-3.8549 4.6182 -1.9996 0.9750
-4.6178 3.8606 -2.0007 0.9749
-4.9456 3.4337 -2.0013 0.9749
-5.4808 2.5002 -2.0025 0.9749
-5.8416 1.4859 -2.0036 0.9749
-5.6136 -2.2232 -2.0070 0.9749
-5.1301 -3.1877 -2.0077 0.9749
-4.4820 -4.0507 -2.0081 0.9749
-4.1026 -4.4352 -2.0083 0.9749
-3.2482 -5.0950 -2.0085 0.9749
-1.2579 -5.9091 -2.0082 0.9749
-0.1863 -6.0373 -2.0078 0.9749
0.3537 -6.0290 -2.0075 0.9749
0.8908 -5.9723 -2.0072 0.9749
1.9386 -5.7163 -2.0064 0.9749
2.9235 -5.2776 -2.0055 0.9749
3.3824 -4.9941 -2.0050 0.9749
3.8140 -4.6708 -2.0045 0.9749
4.2149 -4.3102 -2.0039 0.9749
4.5818 -3.9154 -2.0034 0.9749
4.9118 -3.4894 -2.0028 0.9749
5.2024 -3.0358 -2.0022 0.9749
5.8161 -1.5464 -2.0005 0.9750
5.9952 -0.4865 -1.9994 0.9750
6.0132 0.0510 -1.9989 0.9750
5.9831 0.5878 -1.9984 0.9750
5.9053 1.1197 -1.9979 0.9750
5.7804 1.6424 -1.9975 0.9750
5.6095 2.1518 -1.9971 0.9750
5.3939 2.6438 -1.9968 0.9750
5.1353 3.1146 -1.9964 0.9750
4.8359 3.5604 -1.9962 0.9750
4.4980 3.9778 -1.9960 0.9750
2.8195 5.3001 -1.9956 0.9750
2.3348 5.5309 -1.9956 0.9750
1.3135 5.8587 -1.9958 0.9750
0.7849 5.9532 -1.9960 0.9750
0.2500 6.0002 -1.9962 0.9750
-0.8220 5.9507 -1.9968 0.9750
-1.3505 5.8545 -1.9972 0.9750
-2.3718 5.5231 -1.9980 0.9750
-2.8563 5.2904 -1.9985 0.9750
-3.7541 4.7000 -1.9995 0.9750
-4.1601 4.3471 -2.0001 0.9750
-4.5330 3.9592 -2.0006 0.9749
-5.1682 3.0911 -2.0018 0.9749
-5.4252 2.6178 -2.0023 0.9749
-5.9302 1.0866 -2.0040 0.9749
-6.0051 0.5526 -2.0046 0.9749
-6.0321 0.0140 -2.0051 0.9749
-5.4506 -2.5991 -2.0073 0.9749
-5.1975 -3.0761 -2.0076 0.9749
-4.5683 -3.9529 -2.0081 0.9749
-4.1973 -4.3455 -2.0083 0.9749
-3.3574 -5.0236 -2.0085 0.9749
-2.8952 -5.3035 -2.0085 0.9749
-0.8543 -5.9804 -2.0081 0.9749
0.2235 -6.0354 -2.0076 0.9749
2.3213 -5.5707 -2.0061 0.9749
3.2740 -5.0663 -2.0051 0.9749
3.7125 -4.7523 -2.0046 0.9749
4.1211 -4.4005 -2.0040 0.9749
5.3951 -2.6755 -2.0018 0.9749
5.6109 -2.1822 -2.0012 0.9749
5.9284 0.9920 -1.9980 0.9750
5.6549 2.0303 -1.9972 0.9750
5.4499 2.5269 -1.9968 0.9750
5.2016 3.0031 -1.9965 0.9750
3.8188 4.6327 -1.9957 0.9750
3.3895 4.9551 -1.9956 0.9750
2.9333 5.2380 -1.9956 0.9750
1.4396 5.8289 -1.9958 0.9750
-0.1575 6.0040 -1.9964 0.9750
-0.6933 5.9668 -1.9967 0.9750
-1.2238 5.8821 -1.9971 0.9750
-2.2519 5.5727 -1.9979 0.9750
-3.2091 5.0855 -1.9989 0.9750
-3.6515 4.7797 -1.9994 0.9750
-4.0650 4.4356 -1.9999 0.9750
-4.4462 4.0558 -2.0005 0.9750
-4.7921 3.6434 -2.0010 0.9749
-5.7712 1.7364 -2.0033 0.9749
-5.9049 1.2142 -2.0039 0.9749
-5.9914 0.6821 -2.0044 0.9749
-6.0203 -0.3952 -2.0055 0.9749
-5.7038 -1.9786 -2.0068 0.9749
-5.5052 -2.4807 -2.0072 0.9749
-4.9775 -3.4218 -2.0078 0.9749
-4.6524 -3.8532 -2.0080 0.9749
-4.2900 -4.2538 -2.0082 0.9749
-3.4650 -4.9499 -2.0085 0.9749
-2.0285 -5.6914 -2.0084 0.9749
-0.9832 -5.9607 -2.0081 0.9749
0.6322 -6.0057 -2.0074 0.9749
1.1660 -5.9242 -2.0070 0.9749
2.2007 -5.6198 -2.0062 0.9749
2.6933 -5.3995 -2.0057 0.9749
3.1641 -5.1361 -2.0052 0.9749
3.6093 -4.8317 -2.0047 0.9749
4.0254 -4.4887 -2.0042 0.9749
5.7448 -1.7963 -2.0008 0.9749
6.0105 -0.2086 -1.9991 0.9750
5.8465 1.3915 -1.9977 0.9750
5.6977 1.9078 -1.9973 0.9750
5.2654 2.8903 -1.9966 0.9750
4.9854 3.3486 -1.9963 0.9750
4.3090 4.1814 -1.9959 0.9750
3.4957 4.8809 -1.9956 0.9750
3.0457 5.1735 -1.9956 0.9750
1.0411 5.9135 -1.9959 0.9750
-0.5643 5.9802 -1.9967 0.9750
-1.0965 5.9068 -1.9970 0.9750
-3.0984 5.1532 -1.9987 0.9750
-3.5473 4.8571 -1.9993 0.9750
-3.9680 4.5220 -1.9998 0.9750
-5.0292 3.3108 -2.0015 0.9749
-5.3064 2.8491 -2.0021 0.9749
-5.5413 2.3644 -2.0026 0.9749
2.0291 -5.2294 -2.0059 0.9765
2.9260 -4.7827 -2.0050 0.9765
3.3408 -4.5012 -2.0045 0.9765
4.4113 -3.4516 -2.0030 0.9765
4.9524 -2.6101 -2.0019 0.9765
5.3350 -1.6863 -2.0009 0.9765
5.5471 -0.7097 -1.9998 0.9765
5.4394 1.2768 -1.9980 0.9765
4.9036 2.6719 -1.9970 0.9766
3.2642 4.5278 -1.9961 0.9766
2.8466 4.8012 -1.9960 0.9766
2.4063 5.0363 -1.9960 0.9766
0.9850 5.4949 -1.9963 0.9766
-0.0086 5.5836 -1.9968 0.9766
-1.0023 5.4946 -1.9974 0.9766
-1.4895 5.3841 -1.9977 0.9765
-2.4248 5.0351 -1.9985 0.9765
-2.8655 4.7995 -1.9990 0.9765
-3.2836 4.5254 -1.9994 0.9765
-4.3693 3.4955 -2.0010 0.9765
-5.5510 0.7712 -2.0041 0.9765
-5.5991 0.2723 -2.0046 0.9765
-5.6023 -0.2291 -2.0051 0.9765
-5.5607 -0.7288 -2.0056 0.9765
-5.4745 -1.2229 -2.0060 0.9765
-5.1715 -2.1784 -2.0067 0.9764
-4.4106 -3.4730 -2.0076 0.9764
-3.7228 -4.2032 -2.0079 0.9764
-2.4753 -5.0402 -2.0080 0.9764
0.4496 -5.5944 -2.0071 0.9764
1.4375 -5.4233 -2.0064 0.9764
1.9158 -5.2722 -2.0060 0.9765
2.3787 -5.0789 -2.0056 0.9765
2.8222 -4.8450 -2.0051 0.9765
3.2430 -4.5725 -2.0047 0.9765
3.6376 -4.2635 -2.0042 0.9765
4.0029 -3.9204 -2.0037 0.9765
5.1170 -2.2678 -2.0015 0.9765
5.2977 -1.8012 -2.0010 0.9765
5.4360 -1.3204 -2.0005 0.9765
5.5308 -0.8293 -2.0000 0.9765
5.5814 -0.3318 -1.9995 0.9765
5.5874 0.1681 -1.9990 0.9765
5.5488 0.6664 -1.9985 0.9765
5.4659 1.1592 -1.9981 0.9765
5.1705 2.1125 -1.9974 0.9766
4.7106 2.9980 -1.9968 0.9766
4.4234 3.4064 -1.9965 0.9766
3.7460 4.1385 -1.9962 0.9766
3.3612 4.4563 -1.9961 0.9766
2.9496 4.7387 -1.9960 0.9766
2.0593 5.1880 -1.9961 0.9766
0.6101 5.5494 -1.9965 0.9766
0.1120 5.5824 -1.9967 0.9766
-0.3872 5.5708 -1.9970 0.9766
-0.8835 5.5148 -1.9973 0.9766
-1.8514 5.2715 -1.9980 0.9765
-2.3154 5.0860 -1.9984 0.9765
-2.7611 4.8599 -1.9989 0.9765
-3.1849 4.5949 -1.9993 0.9765
-3.5835 4.2931 -1.9998 0.9765
-5.0945 2.3240 -2.0024 0.9765
-5.6056 -0.1081 -2.0050 0.9765
-5.3798 -1.5915 -2.0063 0.9764
-5.2171 -2.0661 -2.0066 0.9764
-4.7676 -2.9624 -2.0073 0.9764
-3.8126 -4.1217 -2.0079 0.9764
-1.6550 -5.3654 -2.0079 0.9764
-1.1690 -5.4915 -2.0078 0.9764
-0.1731 -5.6107 -2.0074 0.9764
0.3287 -5.6030 -2.0071 0.9764
1.3201 -5.4533 -2.0065 0.9764
1.8017 -5.3126 -2.0061 0.9765
2.2686 -5.1294 -2.0057 0.9765
3.1437 -4.6417 -2.0048 0.9765
3.9176 -4.0062 -2.0038 0.9765
4.2587 -3.6393 -2.0033 0.9765
5.2579 -1.9153 -2.0011 0.9765
5.4066 -1.4375 -2.0006 0.9765
5.5119 -0.9486 -2.0001 0.9765
5.5732 -0.4523 -1.9996 0.9765
5.5900 0.0474 -1.9991 0.9765
5.4899 1.0409 -1.9982 0.9765
5.3739 1.5269 -1.9978 0.9765
4.7744 2.8957 -1.9968 0.9766
4.1819 3.6982 -1.9964 0.9766
3.8345 4.0567 -1.9962 0.9766
3.4566 4.3828 -1.9961 0.9766
2.6214 4.9277 -1.9960 0.9766
2.1708 5.1423 -1.9961 0.9766
1.2212 5.4470 -1.9963 0.9766
0.7298 5.5348 -1.9964 0.9766
0.2324 5.5785 -1.9966 0.9766
-0.7642 5.5324 -1.9972 0.9766
-1.2556 5.4429 -1.9975 0.9766
-2.6554 4.9181 -1.9987 0.9765
-3.4898 4.3692 -1.9997 0.9765
-3.8672 4.0410 -2.0002 0.9765
-4.2138 3.6803 -2.0007 0.9765
-4.5269 3.2901 -2.0012 0.9765
-5.3982 1.4979 -2.0034 0.9765
-5.5814 0.5136 -2.0044 0.9765
-5.5217 -0.9853 -2.0058 0.9765
-5.0656 -2.4154 -2.0069 0.9764
-4.5562 -3.2792 -2.0074 0.9764
-4.2454 -3.6735 -2.0077 0.9764
-3.9006 -4.0384 -2.0078 0.9764
-3.1201 -4.6685 -2.0080 0.9764
-2.2395 -5.1492 -2.0080 0.9764
-0.2942 -5.6058 -2.0075 0.9764
0.7079 -5.5672 -2.0069 0.9764
1.2022 -5.4808 -2.0066 0.9764
2.1574 -5.1774 -2.0058 0.9765
3.8304 -4.0901 -2.0039 0.9765
4.4948 -3.3414 -2.0029 0.9765
5.0150 -2.4869 -2.0018 0.9765
5.2157 -2.0284 -2.0013 0.9765
5.4905 -1.0674 -2.0002 0.9765
5.5625 -0.5725 -1.9997 0.9765
5.5901 -0.0733 -1.9992 0.9765
5.5114 0.9222 -1.9983 0.9765
5.4059 1.4106 -1.9979 0.9765
5.2573 1.8875 -1.9975 0.9766
4.5666 3.2125 -1.9966 0.9766
3.9213 3.9731 -1.9963 0.9766
3.5505 4.3072 -1.9961 0.9766
3.1514 4.6070 -1.9961 0.9766
2.2813 5.0942 -1.9960 0.9766
1.8171 5.2778 -1.9961 0.9766
1.3385 5.4193 -1.9962 0.9766
0.8490 5.5177 -1.9964 0.9766
0.3528 5.5720 -1.9966 0.9766
-1.1377 5.4685 -1.9974 0.9766
-2.5485 4.9741 -1.9986 0.9765
-2.9833 4.7276 -1.9991 0.9765
-4.1331 3.7702 -2.0006 0.9765
-4.7405 2.9761 -2.0016 0.9765
-4.9888 2.5414 -2.0022 0.9765
-5.4884 1.1286 -2.0038 0.9765
-5.5687 0.6339 -2.0043 0.9765
-5.5414 -0.8659 -2.0057 0.9765
-5.4430 -1.3577 -2.0061 0.9765
-5.1163 -2.3054 -2.0068 0.9764
-4.3237 -3.5809 -2.0076 0.9764
-3.6180 -4.2938 -2.0079 0.9764
-3.2201 -4.6001 -2.0080 0.9764
-2.7963 -4.8694 -2.0080 0.9764
-1.4050 -5.4361 -2.0079 0.9764
-0.9137 -5.5394 -2.0077 0.9764
0.5875 -5.5814 -2.0070 0.9764
2.9408 -4.7736 -2.0050 0.9765
3.3546 -4.4907 -2.0045 0.9765
3.7415 -4.1721 -2.0040 0.9765
4.4219 -3.4379 -2.0030 0.9765
5.4665 -1.1857 -2.0003 0.9765
5.5492 -0.6925 -1.9998 0.9765
5.4353 1.2936 -1.9980 0.9765
5.1165 2.2394 -1.9973 0.9766
4.8953 2.6871 -1.9970 0.9766
4.3379 3.5144 -1.9965 0.9766
4.0062 3.8876 -1.9963 0.9766
3.6427 4.2296 -1.9962 0.9766
2.3907 5.0437 -1.9960 0.9766
1.9306 5.2373 -1.9961 0.9766
1.4551 5.3891 -1.9962 0.9766
-0.0259 5.5836 -1.9968 0.9766
-2.8804 4.7906 -1.9990 0.9765
-3.6887 4.2036 -1.9999 0.9765
-4.0505 3.8583 -2.0005 0.9765
-4.3801 3.4819 -2.0010 0.9765
2.3211 -4.6897 -2.0052 0.9778
2.7302 -4.4626 -2.0048 0.9778
3.8131 -3.5765 -2.0034 0.9779
4.8194 -2.0126 -2.0014 0.9779
4.9786 -1.5737 -2.0009 0.9779
5.0981 -1.1223 -2.0005 0.9779
5.1767 -0.6623 -2.0000 0.9779
5.0765 1.1916 -1.9983 0.9779
4.9489 1.6401 -1.9979 0.9779
4.5766 2.4938 -1.9973 0.9779
3.7504 3.6169 -1.9967 0.9779
3.4121 3.9372 -1.9966 0.9779
3.0466 4.2261 -1.9965 0.9779
2.6569 4.4812 -1.9964 0.9779
1.8171 4.8826 -1.9965 0.9779
1.3737 5.0257 -1.9966 0.9779
0.9193 5.1286 -1.9967 0.9779
-0.0080 5.2114 -1.9971 0.9779
-0.4736 5.1905 -1.9974 0.9779
-0.9355 5.1282 -1.9977 0.9779
-1.3901 5.0250 -1.9980 0.9779
-2.2630 4.6992 -1.9987 0.9779
-4.0774 3.2620 -2.0010 0.9779
-4.3536 2.8854 -2.0015 0.9779
-4.5951 2.4856 -2.0020 0.9779
-4.8000 2.0656 -2.0025 0.9779
-4.9665 1.6290 -2.0030 0.9779
-5.0934 1.1791 -2.0035 0.9779
-5.2274 -0.2137 -2.0049 0.9778
-5.1885 -0.6800 -2.0053 0.9778
-5.1080 -1.1410 -2.0057 0.9778
-4.8251 -2.0325 -2.0064 0.9778
-4.3876 -2.8594 -2.0070 0.9778
-4.1151 -3.2403 -2.0072 0.9778
-3.4733 -3.9215 -2.0075 0.9778
-2.3094 -4.7024 -2.0076 0.9778
-1.8801 -4.8898 -2.0076 0.9778
-1.4357 -5.0380 -2.0075 0.9778
-0.9798 -5.1457 -2.0074 0.9778
-0.5162 -5.2122 -2.0072 0.9778
-0.0485 -5.2369 -2.0070 0.9778
1.7876 -4.9192 -2.0057 0.9778
2.2194 -4.7389 -2.0053 0.9778
2.6333 -4.5208 -2.0049 0.9778
3.3943 -3.9782 -2.0040 0.9778
4.0461 -3.3091 -2.0031 0.9779
4.7751 -2.1163 -2.0016 0.9779
4.9438 -1.6809 -2.0011 0.9779
5.0730 -1.2322 -2.0006 0.9779
5.2088 -0.3097 -1.9996 0.9779
5.2145 0.1568 -1.9992 0.9779
5.1013 1.0818 -1.9984 0.9779
4.8257 1.9717 -1.9977 0.9779
4.6295 2.3945 -1.9974 0.9779
4.3966 2.7981 -1.9971 0.9779
4.1286 3.1793 -1.9969 0.9779
3.8277 3.5351 -1.9967 0.9779
3.4964 3.8626 -1.9966 0.9779
3.1372 4.1593 -1.9965 0.9779
1.4818 4.9948 -1.9965 0.9779
1.0298 5.1075 -1.9967 0.9779
0.5695 5.1795 -1.9968 0.9779
0.1045 5.2102 -1.9971 0.9779
-1.7279 4.9198 -1.9983 0.9779
-2.5768 4.5356 -1.9991 0.9779
-2.9723 4.2882 -1.9995 0.9779
-3.6897 3.6926 -2.0004 0.9779
-4.0058 3.3490 -2.0009 0.9779
-4.2900 2.9785 -2.0014 0.9779
-4.5401 2.5840 -2.0019 0.9779
-4.7540 2.1687 -2.0024 0.9779
-4.9299 1.7357 -2.0029 0.9779
-5.2305 -0.1008 -2.0048 0.9778
-5.2017 -0.5678 -2.0052 0.9778
-5.1312 -1.0304 -2.0056 0.9778
-5.0195 -1.4850 -2.0060 0.9778
-4.6767 -2.3552 -2.0066 0.9778
-4.4482 -2.7640 -2.0069 0.9778
-4.1840 -3.1506 -2.0071 0.9778
-3.8861 -3.5121 -2.0073 0.9778
-3.1995 -4.1481 -2.0076 0.9778
-2.8163 -4.4175 -2.0076 0.9778
-2.4104 -4.6514 -2.0076 0.9778
-1.0907 -5.1235 -2.0074 0.9778
-0.6286 -5.2000 -2.0072 0.9778
1.2317 -5.0881 -2.0062 0.9778
1.6810 -4.9569 -2.0058 0.9778
2.9334 -4.3311 -2.0046 0.9778
3.6555 -3.7382 -2.0037 0.9779
4.5125 -2.6332 -2.0022 0.9779
4.7286 -2.2190 -2.0017 0.9779
5.0455 -1.3415 -2.0007 0.9779
5.1910 0.5100 -1.9989 0.9779
5.1237 0.9715 -1.9985 0.9779
4.8673 1.8671 -1.9978 0.9779
4.6803 2.2941 -1.9975 0.9779
4.1963 3.0895 -1.9970 0.9779
3.9032 3.4517 -1.9968 0.9779
3.5790 3.7863 -1.9966 0.9779
2.8478 4.3624 -1.9964 0.9779
2.4467 4.5993 -1.9964 0.9779
2.0261 4.7996 -1.9965 0.9779
1.5893 4.9616 -1.9965 0.9779
1.1398 5.0840 -1.9966 0.9779
0.2169 5.2066 -1.9970 0.9779
-0.2491 5.2058 -1.9972 0.9779
-1.1718 5.0799 -1.9978 0.9779
-1.6212 4.9558 -1.9982 0.9779
-2.4782 4.5900 -1.9990 0.9779
-3.2568 4.0775 -1.9998 0.9779
-3.6089 3.7712 -2.0003 0.9779
-4.2245 3.0703 -2.0013 0.9779
-4.4830 2.6813 -2.0018 0.9779
-4.7058 2.2706 -2.0023 0.9779
-5.0372 1.3977 -2.0033 0.9779
-5.2312 0.0121 -2.0047 0.9778
-5.1520 -0.9194 -2.0055 0.9778
-4.9079 -1.8221 -2.0063 0.9778
-4.5067 -2.6672 -2.0068 0.9778
-2.9110 -4.3556 -2.0076 0.9778
-2.0894 -4.8041 -2.0076 0.9778
-1.6518 -4.9714 -2.0075 0.9778
-1.2010 -5.0988 -2.0074 0.9778
-0.2745 -5.2303 -2.0071 0.9778
1.5737 -4.9922 -2.0059 0.9778
2.0130 -4.8308 -2.0055 0.9778
2.4360 -4.6307 -2.0051 0.9778
2.8393 -4.3936 -2.0047 0.9778
3.2197 -4.1215 -2.0042 0.9778
3.5742 -3.8165 -2.0038 0.9779
4.1943 -3.1180 -2.0028 0.9779
4.4549 -2.7302 -2.0023 0.9779
4.8672 -1.8929 -2.0013 0.9779
5.1239 -0.9961 -2.0003 0.9779
5.1912 -0.5343 -1.9999 0.9779
5.2170 -0.0684 -1.9994 0.9779
5.1437 0.8607 -1.9986 0.9779
4.9067 1.7616 -1.9978 0.9779
4.7289 2.1926 -1.9975 0.9779
4.2622 2.9983 -1.9970 0.9779
3.9769 3.3667 -1.9968 0.9779
3.6599 3.7082 -1.9966 0.9779
3.3138 4.0201 -1.9965 0.9779
2.1292 4.7547 -1.9964 0.9779
1.6960 4.9260 -1.9965 0.9779
1.2493 5.0581 -1.9966 0.9779
-0.1366 5.2098 -1.9972 0.9779
-1.0619 5.1038 -1.9977 0.9779
-1.5138 4.9894 -1.9981 0.9779
-1.9538 4.8351 -1.9985 0.9779
-2.3784 4.6422 -1.9989 0.9779
-3.1679 4.1466 -1.9997 0.9779
-3.8571 3.5184 -2.0007 0.9779
-4.1570 3.1605 -2.0012 0.9779
-4.4238 2.7772 -2.0017 0.9779
-4.9459 -1.7157 -2.0062 0.9778
-4.5631 -2.5692 -2.0068 0.9778
-4.0340 -3.3410 -2.0072 0.9778
-3.7197 -3.6883 -2.0074 0.9778
-2.6089 -4.5431 -2.0076 0.9778
-2.1926 -4.7579 -2.0076 0.9778
-1.3109 -5.0718 -2.0075 0.9778
-0.3874 -5.2232 -2.0071 0.9778
0.5482 -5.2075 -2.0066 0.9778
1.9083 -4.8733 -2.0056 0.9778
2.3356 -4.6824 -2.0052 0.9778
3.8241 -3.5647 -2.0034 0.9779
4.1262 -3.2080 -2.0029 0.9779
4.6289 -2.4214 -2.0019 0.9779
5.2146 -0.1810 -1.9995 0.9779
5.2087 0.2855 -1.9991 0.9779
5.1613 0.7495 -1.9987 0.9779
5.0728 1.2074 -1.9983 0.9779
4.0487 3.2802 -1.9968 0.9779
2.6430 4.4894 -1.9964 0.9779
1.8019 4.8882 -1.9965 0.9779
1.3581 5.0299 -1.9966 0.9779
0.9034 5.1315 -1.9967 0.9779
-1.4057 5.0207 -1.9980 0.9779
-2.2775 4.6922 -1.9988 0.9779
-2.6881 4.4709 -1.9992 0.9779
-3.0775 4.2138 -1.9996 0.9779
-3.4424 3.9230 -2.0001 0.9779
-3.7800 3.6006 -2.0006 0.9779
-4.0875 3.2493 -2.0010 0.9779
-4.3625 2.8719 -2.0015 0.9779
-4.6028 2.4713 -2.0020 0.9779
-4.9716 1.6136 -2.0030 0.9779
1.7725 -4.5681 -2.0054 0.9790
2.5561 -4.1782 -2.0046 0.9791
2.9185 -3.9323 -2.0042 0.9791
3.5701 -3.3487 -2.0033 0.9791
4.1072 -2.6587 -2.0024 0.9791
4.3272 -2.2806 -2.0019 0.9791
4.7737 -1.0509 -2.0006 0.9791
4.8824 -0.1846 -1.9997 0.9791
4.8784 0.2522 -1.9993 0.9791
4.6344 1.5359 -1.9982 0.9791
4.4780 1.9434 -1.9979 0.9791
4.2859 2.3354 -1.9976 0.9791
3.8011 3.0601 -1.9972 0.9791
3.5122 3.3872 -1.9970 0.9791
3.1954 3.6872 -1.9969 0.9791
2.8532 3.9577 -1.9968 0.9791
2.4882 4.1967 -1.9968 0.9791
2.1033 4.4022 -1.9968 0.9791
1.2865 4.7065 -1.9969 0.9791
0.4285 4.8610 -1.9972 0.9791
-0.0075 4.8804 -1.9974 0.9791
-2.5042 4.1944 -1.9993 0.9791
-3.2120 3.6834 -2.0002 0.9791
-3.8179 3.0544 -2.0011 0.9791
-4.4943 1.9341 -2.0025 0.9791
-4.6502 1.5252 -2.0030 0.9791
-4.7689 1.1040 -2.0034 0.9791
-1.9400 0.0943 -0.7949 0.9916
-1.9347 -0.0791 -0.7925 0.9917
-1.9507 -0.2557 -0.8052 0.9915
-4.7822 -1.0682 -2.0055 0.9790
-4.6685 -1.4914 -2.0058 0.9790
-4.3298 -2.2990 -2.0064 0.9790
-3.2516 -3.6712 -2.0071 0.9790
-2.9108 -3.9471 -2.0072 0.9790
-2.5466 -4.1915 -2.0073 0.9790
-0.9173 -4.8173 -2.0070 0.9790
-0.4832 -4.8796 -2.0069 0.9790
1.2557 -4.7374 -2.0058 0.9790
1.6736 -4.6055 -2.0055 0.9790
2.0779 -4.4368 -2.0051 0.9790
2.4655 -4.2326 -2.0047 0.9791
2.8331 -3.9946 -2.0043 0.9791
3.1780 -3.7247 -2.0039 0.9791
3.4972 -3.4252 -2.0035 0.9791
3.7883 -3.0984 -2.0030 0.9791
4.0490 -2.7469 -2.0025 0.9791
4.6292 -1.5739 -2.0011 0.9791
4.8332 -0.7247 -2.0002 0.9791
4.8776 -0.2900 -1.9998 0.9791
4.8830 0.1469 -1.9994 0.9791
4.6667 1.4355 -1.9983 0.9791
3.8663 2.9774 -1.9972 0.9791
3.5846 3.3106 -1.9971 0.9791
3.2743 3.6174 -1.9969 0.9791
2.9379 3.8952 -1.9968 0.9791
2.5782 4.1420 -1.9968 0.9791
2.1978 4.3557 -1.9968 0.9791
0.9644 4.7831 -1.9970 0.9791
0.5333 4.8505 -1.9972 0.9791
-0.7722 4.8200 -1.9979 0.9791
-1.1998 4.7325 -1.9982 0.9791
-1.6181 4.6072 -1.9985 0.9791
-2.0235 4.4450 -1.9989 0.9791
-2.4130 4.2473 -1.9992 0.9791
-3.7509 3.1359 -2.0010 0.9791
-4.0170 2.7889 -2.0014 0.9791
-4.2510 2.4195 -2.0019 0.9791
-4.4512 2.0306 -2.0024 0.9791
-4.6159 1.6252 -2.0029 0.9791
-2.0454 0.3293 -0.8479 0.9911
-1.9519 0.1372 -0.8008 0.9916
-1.9170 -0.0370 -0.7847 0.9917
-4.8040 -0.9647 -2.0054 0.9790
-4.1643 -2.5876 -2.0066 0.9790
-3.6381 -3.2880 -2.0070 0.9790
-3.3301 -3.6001 -2.0071 0.9790
-2.2565 -4.3545 -2.0073 0.9790
-1.4455 -4.6863 -2.0072 0.9790
-1.0211 -4.7965 -2.0071 0.9790
-0.5885 -4.8681 -2.0069 0.9790
0.2871 -4.8941 -2.0065 0.9790
1.5738 -4.6407 -2.0056 0.9790
2.3736 -4.2850 -2.0048 0.9791
2.7464 -4.0550 -2.0044 0.9791
4.2252 -2.4656 -2.0022 0.9791
4.4276 -2.0778 -2.0017 0.9791
4.5944 -1.6736 -2.0012 0.9791
4.8167 -0.8289 -2.0003 0.9791
4.8704 -0.3952 -1.9999 0.9791
4.8852 0.0414 -1.9995 0.9791
4.8610 0.4776 -1.9991 0.9791
4.7980 0.9097 -1.9987 0.9791
4.5580 1.7485 -1.9980 0.9791
3.9298 2.8933 -1.9973 0.9791
3.3517 3.5459 -1.9970 0.9791
3.0214 3.8309 -1.9969 0.9791
2.6670 4.0854 -1.9968 0.9791
1.8974 4.4948 -1.9968 0.9791
1.0674 4.7611 -1.9970 0.9791
0.6379 4.8378 -1.9971 0.9791
0.2032 4.8759 -1.9973 0.9791
-2.3206 4.2982 -1.9992 0.9791
-2.6959 4.0745 -1.9996 0.9791
-3.0497 3.8182 -2.0000 0.9791
-3.9556 2.8748 -2.0013 0.9791
-4.7163 1.3087 -2.0032 0.9791
-2.1816 0.3997 -0.9078 0.9905
-1.9002 0.0044 -0.7777 0.9918
-2.1624 -0.3859 -0.8990 0.9906
-4.5948 -1.7059 -2.0060 0.9790
-4.4247 -2.1099 -2.0063 0.9790
-4.2191 -2.4970 -2.0065 0.9790
-3.9796 -2.8643 -2.0068 0.9790
-3.7082 -3.2086 -2.0069 0.9790
-3.4070 -3.5273 -2.0071 0.9790
-3.0784 -3.8178 -2.0072 0.9790
-2.7251 -4.0776 -2.0073 0.9790
-1.5464 -4.6541 -2.0072 0.9790
-1.1244 -4.7734 -2.0071 0.9790
-0.2570 -4.8965 -2.0068 0.9790
0.1814 -4.8993 -2.0065 0.9790
1.0501 -4.7875 -2.0060 0.9790
2.2807 -4.3355 -2.0049 0.9790
2.6583 -4.1136 -2.0045 0.9791
3.0145 -3.8588 -2.0041 0.9791
3.3465 -3.5733 -2.0037 0.9791
3.6515 -3.2593 -2.0032 0.9791
3.9271 -2.9194 -2.0028 0.9791
4.1713 -2.5564 -2.0023 0.9791
4.6965 -1.3579 -2.0009 0.9791
4.8610 -0.5003 -2.0000 0.9791
4.8852 -0.0640 -1.9996 0.9791
4.8704 0.3726 -1.9992 0.9791
4.8168 0.8060 -1.9988 0.9791
4.7247 1.2328 -1.9984 0.9791
4.5949 1.6497 -1.9981 0.9791
3.7243 3.1529 -1.9971 0.9791
3.4275 3.4728 -1.9970 0.9791
3.1034 3.7648 -1.9969 0.9791
2.7546 4.0269 -1.9968 0.9791
2.3838 4.2568 -1.9968 0.9791
1.9940 4.4528 -1.9968 0.9791
1.1699 4.7369 -1.9970 0.9791
-0.1280 4.8789 -1.9975 0.9791
-0.5634 4.8485 -1.9977 0.9791
-0.9944 4.7795 -1.9980 0.9791
-1.8296 4.5278 -1.9987 0.9791
-2.2272 4.3471 -1.9991 0.9791
-2.6072 4.1315 -1.9995 0.9791
-2.9664 3.8829 -1.9999 0.9791
-3.6116 3.2945 -2.0008 0.9791
-4.1422 2.6005 -2.0017 0.9791
-4.3590 2.2205 -2.0022 0.9791
-4.6867 1.4101 -2.0031 0.9791
-1.9558 0.2227 -0.8056 0.9915
-4.7546 -1.1860 -2.0056 0.9790
-4.4691 -2.0138 -2.0062 0.9790
-3.4823 -3.4529 -2.0071 0.9790
-3.1601 -3.7504 -2.0072 0.9790
-1.6465 -4.6197 -2.0072 0.9790
-1.2272 -4.7481 -2.0071 0.9790
-0.3626 -4.8899 -2.0068 0.9790
0.5132 -4.8753 -2.0063 0.9790
0.9465 -4.8092 -2.0061 0.9790
1.3722 -4.7047 -2.0057 0.9790
1.7866 -4.5625 -2.0054 0.9790
2.5690 -4.1702 -2.0046 0.9791
2.9307 -3.9232 -2.0042 0.9791
3.2687 -3.6449 -2.0038 0.9791
3.5805 -3.3376 -2.0033 0.9791
3.8634 -3.0037 -2.0029 0.9791
4.1153 -2.6460 -2.0024 0.9791
4.5184 -1.8705 -2.0015 0.9791
4.6663 -1.4591 -2.0010 0.9791
4.8829 -0.1695 -1.9997 0.9791
4.8776 0.2673 -1.9993 0.9791
4.8333 0.7019 -1.9989 0.9791
4.7504 1.1306 -1.9985 0.9791
4.6296 1.5502 -1.9982 0.9791
4.4719 1.9573 -1.9979 0.9791
3.1840 3.6970 -1.9969 0.9791
2.0897 4.4087 -1.9968 0.9791
0.8460 4.8056 -1.9971 0.9791
-0.0226 4.8803 -1.9974 0.9791
-0.8909 4.7997 -1.9979 0.9791
-1.3163 4.7016 -1.9983 0.9791
-1.7314 4.5660 -1.9986 0.9791
-2.1327 4.3939 -1.9990 0.9791
-2.5172 4.1866 -1.9994 0.9791
-2.8818 3.9459 -1.9998 0.9791
-3.5395 3.3715 -2.0007 0.9791
-4.5003 1.9202 -2.0025 0.9791
-4.6549 1.5109 -2.0030 0.9791
2.0406 -4.1229 -2.0049 0.9801
2.7406 -3.6926 -2.0041 0.9801
3.0589 -3.4323 -2.0037 0.9801
3.3526 -3.1446 -2.0033 0.9801
3.6193 -2.8319 -2.0028 0.9801
3.8570 -2.4968 -2.0024 0.9802
4.0637 -2.1418 -2.0020 0.9802
4.2379 -1.7698 -2.0015 0.9802
4.3781 -1.3838 -2.0011 0.9802
4.4832 -0.9870 -2.0006 0.9802
4.5525 -0.5824 -2.0002 0.9802
4.4648 1.0481 -1.9987 0.9802
4.3527 1.4425 -1.9984 0.9802
4.2058 1.8253 -1.9981 0.9802
4.0254 2.1934 -1.9979 0.9802
3.5701 2.8742 -1.9975 0.9802
3.2988 3.1814 -1.9973 0.9802
3.0013 3.4631 -1.9972 0.9802
0.4024 4.5657 -1.9975 0.9802
-0.4165 4.5654 -1.9979 0.9802
-1.9903 4.1329 -1.9991 0.9802
-2.3519 3.9393 -1.9995 0.9802
-2.6949 3.7141 -1.9999 0.9802
-3.0166 3.4592 -2.0003 0.9802
-3.3142 3.1766 -2.0007 0.9802
-3.8283 2.5372 -2.0016 0.9802
-4.0405 2.1856 -2.0020 0.9802
-1.5858 0.5201 -0.7273 0.9927
-1.5321 0.3547 -0.6854 0.9932
-1.5167 0.2107 -0.6674 0.9933
-1.5260 -0.3409 -0.6814 0.9932
-1.5825 -0.5055 -0.7240 0.9928
-4.0656 -2.1587 -2.0061 0.9801
-3.6173 -2.8483 -2.0066 0.9801
-3.0531 -3.4471 -2.0068 0.9801
-2.7331 -3.7062 -2.0069 0.9801
-1.2620 -4.4285 -2.0068 0.9801
-0.8613 -4.5232 -2.0067 0.9801
0.3688 -4.5884 -2.0062 0.9801
0.7771 -4.5365 -2.0059 0.9801
1.1791 -4.4483 -2.0056 0.9801
2.3151 -3.9745 -2.0046 0.9801
3.2841 -3.2164 -2.0034 0.9801
3.5575 -2.9096 -2.0029 0.9801
3.8024 -2.5796 -2.0025 0.9802
4.4611 -1.0836 -2.0007 0.9802
4.5391 -0.6806 -2.0003 0.9802
4.5808 -0.2723 -1.9999 0.9802
4.3830 1.3482 -1.9985 0.9802
4.2444 1.7341 -1.9982 0.9802
3.8671 2.4611 -1.9977 0.9802
3.0754 3.3976 -1.9972 0.9802
2.7595 3.6586 -1.9972 0.9802
2.0643 4.0911 -1.9971 0.9802
1.6906 4.2592 -1.9971 0.9802
1.3034 4.3934 -1.9972 0.9802
0.9058 4.4925 -1.9973 0.9802
0.5009 4.5558 -1.9975 0.9802
0.0919 4.5828 -1.9976 0.9802
-0.7252 4.5271 -1.9981 0.9802
-1.1269 4.4448 -1.9984 0.9802
-2.2662 3.9889 -1.9994 0.9802
-2.6140 3.7713 -1.9998 0.9802
-2.9410 3.5234 -2.0002 0.9802
-3.2447 3.2472 -2.0006 0.9802
-3.5226 2.9450 -2.0010 0.9802
-3.7724 2.6191 -2.0015 0.9802
-3.9922 2.2722 -2.0019 0.9802
-4.1801 1.9069 -2.0024 0.9802
-1.5087 0.2429 -0.6660 0.9934
-1.5294 0.1075 -0.6682 0.9933
-1.5246 -0.1664 -0.6684 0.9933
-1.5077 -0.3028 -0.6702 0.9933
-4.2791 -1.6946 -2.0058 0.9801
-3.9102 -2.4297 -2.0063 0.9801
-3.6779 -2.7695 -2.0065 0.9801
-3.4160 -3.0873 -2.0067 0.9801
-3.1268 -3.3803 -2.0068 0.9801
-2.8124 -3.6463 -2.0069 0.9801
-2.4755 -3.8830 -2.0069 0.9801
-1.7450 -4.2615 -2.0069 0.9801
-1.3573 -4.4002 -2.0069 0.9801
-0.5525 -4.5710 -2.0066 0.9801
-0.1420 -4.6016 -2.0064 0.9801
0.2696 -4.5954 -2.0062 0.9801
1.4778 -4.3576 -2.0054 0.9801
1.8609 -4.2075 -2.0050 0.9801
2.2289 -4.0237 -2.0047 0.9801
2.5789 -3.8078 -2.0043 0.9801
2.9082 -3.5615 -2.0039 0.9801
3.2140 -3.2867 -2.0035 0.9801
3.9679 -2.3154 -2.0022 0.9802
4.1580 -1.9513 -2.0017 0.9802
4.3147 -1.5717 -2.0013 0.9802
4.5741 -0.3712 -2.0000 0.9802
4.5063 0.8544 -1.9989 0.9802
4.4112 1.2534 -1.9986 0.9802
4.1166 2.0178 -1.9980 0.9802
3.9194 2.3772 -1.9978 0.9802
3.6910 2.7175 -1.9976 0.9802
3.4332 3.0361 -1.9974 0.9802
2.8378 3.5982 -1.9972 0.9802
2.5050 3.8372 -1.9971 0.9802
2.1522 4.0456 -1.9971 0.9802
1.3980 4.3642 -1.9972 0.9802
1.0026 4.4719 -1.9973 0.9802
0.5991 4.5438 -1.9974 0.9802
-0.6273 4.5415 -1.9981 0.9802
-2.5319 3.8266 -1.9997 0.9802
-2.8642 3.5859 -2.0001 0.9802
-3.1737 3.3164 -2.0005 0.9802
-3.4580 3.0202 -2.0009 0.9802
-3.7148 2.6998 -2.0014 0.9802
-3.9420 2.3577 -2.0018 0.9802
-4.1377 1.9966 -2.0023 0.9802
-4.3005 1.6193 -2.0027 0.9801
-1.5280 -0.1335 -0.6685 0.9933
-1.5591 -0.4249 -0.7043 0.9930
-4.1547 -1.9811 -2.0060 0.9801
-3.9616 -2.3446 -2.0063 0.9801
-3.7367 -2.6894 -2.0065 0.9801
-3.1990 -3.3120 -2.0068 0.9801
-2.2065 -4.0420 -2.0070 0.9801
-1.0558 -4.4820 -2.0068 0.9801
-0.6511 -4.5581 -2.0066 0.9801
-0.2413 -4.5976 -2.0065 0.9801
0.1704 -4.6003 -2.0063 0.9801
0.5806 -4.5661 -2.0060 0.9801
1.7697 -4.2468 -2.0051 0.9801
2.4962 -3.8627 -2.0044 0.9801
2.8308 -3.6236 -2.0040 0.9801
3.1425 -3.3555 -2.0036 0.9801
3.4290 -3.0607 -2.0031 0.9801
3.6879 -2.7416 -2.0027 0.9801
4.1151 -2.0407 -2.0018 0.9802
4.2800 -1.6645 -2.0014 0.9802
4.5652 -0.4698 -2.0001 0.9802
4.5880 -0.0601 -1.9997 0.9802
4.5239 0.7570 -1.9990 0.9802
4.3156 1.5494 -1.9983 0.9802
4.1593 1.9285 -1.9981 0.9802
3.9699 2.2920 -1.9978 0.9802
3.7489 2.6373 -1.9976 0.9802
3.4980 2.9613 -1.9974 0.9802
3.2193 3.2618 -1.9973 0.9802
2.5872 3.7823 -1.9971 0.9802
1.8729 4.1823 -1.9971 0.9802
-1.7184 4.2525 -1.9989 0.9802
-2.0918 4.0827 -1.9992 0.9802
-2.7859 3.6467 -2.0000 0.9802
-3.1012 3.3839 -2.0004 0.9802
-3.3918 3.0940 -2.0008 0.9802
-3.6554 2.7792 -2.0013 0.9802
-3.8900 2.4421 -2.0017 0.9802
-4.0935 2.0853 -2.0021 0.9802
-1.5742 0.4736 -0.7165 0.9929
-1.5117 0.3109 -0.6726 0.9933
-1.5269 0.0365 -0.6656 0.9934
-1.5295 -0.1004 -0.6680 0.9933
-1.5106 -0.2360 -0.6663 0.9934
-1.5447 -0.3853 -0.6938 0.9931
-4.1964 -1.8909 -2.0060 0.9801
-3.7938 -2.6081 -2.0064 0.9801
-3.5460 -2.9368 -2.0066 0.9801
-2.2933 -3.9934 -2.0070 0.9801
-1.9274 -4.1823 -2.0069 0.9801
-0.7494 -4.5430 -2.0067 0.9801
-0.3405 -4.5914 -2.0065 0.9801
0.0710 -4.6030 -2.0063 0.9801
0.8888 -4.5158 -2.0058 0.9801
1.2884 -4.4177 -2.0055 0.9801
1.6777 -4.2842 -2.0052 0.9801
2.4124 -3.9159 -2.0045 0.9801
3.6280 -2.8207 -2.0028 0.9801
4.0703 -2.1291 -2.0019 0.9802
4.2433 -1.7566 -2.0015 0.9802
4.5809 0.2511 -1.9994 0.9802
4.5393 0.6592 -1.9991 0.9802
4.4615 1.0619 -1.9987 0.9802
3.8050 2.5558 -1.9977 0.9802
3.5612 2.8852 -1.9975 0.9802
3.2890 3.1916 -1.9973 0.9802
2.6683 3.7255 -1.9971 0.9802
2.3248 3.9489 -1.9971 0.9802
1.9627 4.1408 -1.9971 0.9802
1.5850 4.2997 -1.9971 0.9802
0.7947 4.5136 -1.9974 0.9802
-0.4307 4.5641 -1.9979 0.9802
-0.8368 4.5079 -1.9982 0.9802
-1.6261 4.2884 -1.9988 0.9802
-2.0030 4.1267 -1.9992 0.9802
-2.3641 3.9320 -1.9995 0.9802
-3.0273 3.4499 -2.0003 0.9802
-3.3241 3.1664 -2.0007 0.9802
-3.5944 2.8574 -2.0012 0.9802
-4.0473 2.1731 -2.0020 0.9802
-4.2262 1.8032 -2.0025 0.9802
-1.5845 0.5143 -0.7260 0.9928
1.5669 -4.0382 -2.0050 0.9811
1.9211 -3.8815 -2.0047 0.9811
2.2597 -3.6937 -2.0043 0.9811
2.8799 -3.2314 -2.0036 0.9811
3.6314 -2.3507 -2.0024 0.9811
3.8261 -2.0165 -2.0020 0.9811
4.1222 -1.3029 -2.0011 0.9811
4.2865 -0.5484 -2.0003 0.9811
4.3176 -0.1633 -2.0000 0.9811
4.2762 0.6075 -1.9992 0.9811
3.9603 1.7188 -1.9984 0.9812
3.1064 2.9957 -1.9976 0.9812
2.8262 3.2611 -1.9975 0.9812
2.2006 3.7118 -1.9974 0.9812
1.5050 4.0442 -1.9974 0.9812
0.7614 4.2479 -1.9976 0.9812
0.3789 4.2992 -1.9978 0.9812
-0.0066 4.3163 -1.9980 0.9812
-1.1513 4.1616 -1.9987 0.9811
-1.5186 4.0427 -1.9990 0.9811
-1.8740 3.8915 -1.9993 0.9811
-2.5375 3.4972 -2.0000 0.9811
-3.1205 2.9910 -2.0008 0.9811
-3.3759 2.7008 -2.0012 0.9811
-3.6044 2.3889 -2.0016 0.9811
-1.3285 0.1846 -0.6209 0.9941
-1.3383 0.0651 -0.6202 0.9941
-1.3379 -0.0547 -0.6198 0.9941
-1.2987 -0.2901 -0.6159 0.9942
-1.3248 -0.5580 -0.6654 0.9937
-3.4053 -2.6814 -2.0063 0.9811
-3.1524 -2.9751 -2.0064 0.9811
-2.8742 -3.2450 -2.0065 0.9811
-2.2510 -3.7049 -2.0067 0.9811
-1.5557 -4.0463 -2.0066 0.9811
-1.1880 -4.1689 -2.0066 0.9811
-0.4271 -4.3132 -2.0063 0.9811
1.1100 -4.1878 -2.0054 0.9811
1.4794 -4.0713 -2.0051 0.9811
1.8369 -3.9222 -2.0048 0.9811
2.1796 -3.7418 -2.0044 0.9811
2.5047 -3.5315 -2.0041 0.9811
3.0919 -3.0282 -2.0033 0.9811
3.5800 -2.4287 -2.0025 0.9811
4.0933 -1.3917 -2.0012 0.9811
4.3132 -0.2564 -2.0000 0.9811
4.3181 0.1299 -1.9997 0.9811
4.2885 0.5150 -1.9993 0.9811
4.2246 0.8959 -1.9990 0.9811
4.1271 1.2695 -1.9987 0.9811
3.9966 1.6329 -1.9984 0.9812
3.4195 2.6333 -1.9978 0.9812
2.5985 3.4451 -1.9974 0.9812
2.2803 3.6634 -1.9974 0.9812
1.2274 4.1371 -1.9975 0.9812
0.8530 4.2304 -1.9976 0.9812
0.0865 4.3153 -1.9979 0.9812
-0.6829 4.2628 -1.9983 0.9812
-1.0611 4.1853 -1.9986 0.9811
-1.7895 3.9309 -1.9992 0.9811
-2.1339 3.7560 -1.9996 0.9811
-2.7692 3.3175 -2.0003 0.9811
-3.0551 3.0575 -2.0007 0.9811
-1.3152 0.6000 -0.6691 0.9936
-1.3113 0.3335 -0.6263 0.9941
-1.3224 0.2129 -0.6200 0.9941
-1.3385 0.0941 -0.6211 0.9941
-1.3348 -0.1457 -0.6215 0.9941
-1.3083 -0.2627 -0.6177 0.9941
-3.4623 -2.6072 -2.0062 0.9811
-3.2158 -2.9063 -2.0064 0.9811
-2.3304 -3.6554 -2.0067 0.9811
-1.2777 -4.1423 -2.0066 0.9811
-0.9026 -4.2397 -2.0065 0.9811
-0.5202 -4.3031 -2.0063 0.9811
-0.1337 -4.3320 -2.0062 0.9811
0.2538 -4.3262 -2.0060 0.9811
0.6392 -4.2857 -2.0057 0.9811
1.0194 -4.2109 -2.0055 0.9811
1.3913 -4.1024 -2.0052 0.9811
2.0984 -3.7881 -2.0045 0.9811
2.4280 -3.5849 -2.0041 0.9811
2.7380 -3.3530 -2.0038 0.9811
3.0260 -3.0944 -2.0034 0.9811
3.2896 -2.8112 -2.0030 0.9811
3.5269 -2.5055 -2.0026 0.9811
3.9148 -1.8372 -2.0017 0.9811
4.3201 0.0366 -1.9998 0.9811
4.2988 0.4223 -1.9994 0.9811
4.1537 1.1802 -1.9988 0.9811
3.8763 1.9000 -1.9982 0.9812
3.4756 2.5589 -1.9978 0.9812
3.2329 2.8589 -1.9977 0.9812
2.9644 3.1361 -1.9975 0.9812
1.6782 3.9754 -1.9974 0.9812
1.3164 4.1096 -1.9975 0.9812
0.9441 4.2109 -1.9976 0.9812
0.5641 4.2787 -1.9977 0.9812
0.1797 4.3124 -1.9979 0.9812
-0.2063 4.3116 -1.9981 0.9812
-1.7042 3.9685 -1.9991 0.9811
-2.9882 3.1226 -2.0006 0.9811
-3.2559 2.8437 -2.0010 0.9811
-3.4976 2.5420 -2.0014 0.9811
-3.7115 2.2198 -2.0018 0.9811
-1.3193 0.3661 -0.6338 0.9940
-1.3373 0.1231 -0.6216 0.9941
-1.3325 -0.4947 -0.6579 0.9938
-3.9113 -1.8650 -2.0058 0.9811
-3.7295 -2.2073 -2.0060 0.9811
-1.7290 -3.9754 -2.0066 0.9811
-1.3669 -4.1138 -2.0066 0.9811
-0.9939 -4.2193 -2.0065 0.9811
-0.6129 -4.2909 -2.0064 0.9811
0.1604 -4.3308 -2.0060 0.9811
0.5466 -4.2986 -2.0058 0.9811
0.9283 -4.2321 -2.0055 0.9811
1.3024 -4.1316 -2.0052 0.9811
2.0162 -3.8327 -2.0046 0.9811
2.3501 -3.6366 -2.0042 0.9811
2.6651 -3.4115 -2.0039 0.9811
2.9586 -3.1592 -2.0035 0.9811
3.4722 -2.5812 -2.0027 0.9811
3.8745 -1.9214 -2.0018 0.9811
4.0298 -1.5672 -2.0014 0.9811
4.1528 -1.2007 -2.0010 0.9811
4.2426 -0.8248 -2.0006 0.9811
4.3071 0.3295 -1.9995 0.9811
4.2597 0.7128 -1.9992 0.9811
4.0636 1.4590 -1.9986 0.9811
3.7382 2.1583 -1.9981 0.9812
3.5301 2.4834 -1.9979 0.9812
2.7448 3.3298 -1.9975 0.9812
2.4363 3.5616 -1.9974 0.9812
2.1084 3.7649 -1.9974 0.9812
1.7636 3.9383 -1.9974 0.9812
1.4048 4.0802 -1.9974 0.9812
0.2727 4.3074 -1.9978 0.9812
-0.1132 4.3149 -1.9980 0.9812
-0.4982 4.2881 -1.9982 0.9812
-1.9696 3.8442 -1.9994 0.9811
-2.3055 3.6536 -1.9998 0.9811
-2.6232 3.4336 -2.0001 0.9811
-2.9200 3.1862 -2.0005 0.9811
-1.3287 0.5333 -0.6627 0.9937
-1.3259 0.3989 -0.6409 0.9939
-1.3385 -0.0879 -0.6209 0.9941
-1.3238 -0.2069 -0.6202 0.9941
-1.3170 -0.5934 -0.6686 0.9937
-3.7762 -2.1262 -2.0060 0.9811
-3.3382 -2.7647 -2.0063 0.9811
-2.1589 -3.7593 -2.0067 0.9811
-1.8144 -3.9372 -2.0067 0.9811
0.0669 -4.3333 -2.0061 0.9811
1.2130 -4.1589 -2.0053 0.9811
1.5794 -4.0333 -2.0050 0.9811
1.9331 -3.8755 -2.0047 0.9811
2.2712 -3.6867 -2.0043 0.9811
2.8899 -3.2225 -2.0036 0.9811
3.6386 -2.3395 -2.0024 0.9811
4.1261 -1.2902 -2.0011 0.9811
4.2240 -0.9162 -2.0007 0.9811
4.2882 -0.5351 -2.0003 0.9811
4.3180 -0.1499 -1.9999 0.9811
3.9550 1.7310 -1.9984 0.9812
3.5830 2.4066 -1.9979 0.9812
3.0971 3.0053 -1.9976 0.9812
2.8161 3.2698 -1.9975 0.9812
2.5126 3.5082 -1.9974 0.9812
2.1891 3.7185 -1.9974 0.9812
1.4925 4.0488 -1.9974 0.9812
1.1249 4.1662 -1.9975 0.9812
0.3656 4.3004 -1.9978 0.9812
-0.4055 4.2977 -1.9982 0.9812
-0.7879 4.2448 -1.9984 0.9812
-1.5312 4.0380 -1.9990 0.9811
-1.8861 3.8857 -1.9993 0.9811
-2.5483 3.4893 -2.0000 0.9811
-2.8504 3.2483 -2.0004 0.9811
-3.1298 2.9813 -2.0008 0.9811
-3.6118 2.3777 -2.0016 0.9811
1.4785 -3.8104 -2.0048 0.9820
1.8127 -3.6625 -2.0045 0.9820
2.1323 -3.4853 -2.0042 0.9820
2.9785 -2.7937 -2.0031 0.9820
3.7653 -1.5724 -2.0016 0.9820
3.8900 -1.2296 -2.0012 0.9820
4.0745 -0.1541 -2.0001 0.9820
4.0713 0.2105 -1.9997 0.9820
4.0356 0.5733 -1.9994 0.9820
2.6673 3.0777 -1.9977 0.9820
2.0769 3.5031 -1.9976 0.9820
1.7557 3.6746 -1.9977 0.9820
0.3576 4.0575 -1.9980 0.9820
-0.3702 4.0571 -1.9984 0.9820
-1.0865 3.9275 -1.9989 0.9820
-2.0899 3.5004 -1.9998 0.9820
-2.3947 3.3003 -2.0001 0.9820
-2.6804 3.0737 -2.0005 0.9820
-3.1858 2.5487 -2.0012 0.9820
-1.1653 0.2698 -0.5867 0.9947
-1.1964 -0.0489 -0.5874 0.9947
-1.1888 -0.1558 -0.5881 0.9947
-1.1678 -0.2609 -0.5869 0.9947
-1.1585 -0.3701 -0.5966 0.9946
-1.1180 -0.5936 -0.6209 0.9944
-3.4259 -2.2327 -2.0059 0.9819
-3.2131 -2.5300 -2.0060 0.9819
-2.9744 -2.8071 -2.0062 0.9819
-1.8031 -3.6715 -2.0064 0.9819
-1.4679 -3.8178 -2.0064 0.9819
-1.1209 -3.9335 -2.0063 0.9819
-0.4030 -4.0697 -2.0061 0.9819
0.3276 -4.0757 -2.0057 0.9819
0.6903 -4.0297 -2.0055 0.9819
1.3960 -3.8415 -2.0049 0.9820
1.7333 -3.7009 -2.0046 0.9820
2.0566 -3.5307 -2.0043 0.9820
2.3634 -3.3323 -2.0039 0.9820
2.6512 -3.1073 -2.0036 0.9820
3.5688 -1.9805 -2.0021 0.9820
3.7307 -1.6534 -2.0017 0.9820
3.8627 -1.3133 -2.0013 0.9820
4.0751 0.1226 -1.9998 0.9820
4.0471 0.4860 -1.9995 0.9820
3.9869 0.8455 -1.9992 0.9820
3.8949 1.1981 -1.9989 0.9820
3.7718 1.5411 -1.9986 0.9820
3.6186 1.8716 -1.9984 0.9820
3.2272 2.4852 -1.9980 0.9820
2.9921 2.7634 -1.9979 0.9820
2.7331 3.0195 -1.9978 0.9820
2.4524 3.2514 -1.9977 0.9820
2.1521 3.4574 -1.9977 0.9820
1.8346 3.6358 -1.9976 0.9820
1.1584 3.9045 -1.9977 0.9820
0.4451 4.0487 -1.9980 0.9820
-0.2825 4.0641 -1.9983 0.9820
-0.6445 4.0230 -1.9986 0.9820
-2.0138 3.5446 -1.9997 0.9820
-2.3228 3.3511 -2.0000 0.9820
-2.6133 3.1307 -2.0004 0.9820
-3.1299 2.6167 -2.0012 0.9820
-1.1401 0.5201 -0.6147 0.9944
-1.1565 0.4072 -0.6014 0.9946
-1.1578 0.2945 -0.5860 0.9947
-1.1954 0.0840 -0.5878 0.9947
-1.1962 -0.0231 -0.5869 0.9947
-1.1919 -0.1301 -0.5881 0.9947
-1.1590 -0.3429 -0.5929 0.9946
-1.1513 -0.4560 -0.6074 0.9945
-3.4733 -2.1582 -2.0058 0.9819
-3.2669 -2.4600 -2.0060 0.9819
-3.0343 -2.7422 -2.0062 0.9819
-2.7773 -3.0025 -2.0063 0.9819
-2.1988 -3.4490 -2.0064 0.9819
-1.5500 -3.7852 -2.0064 0.9819
-1.2056 -3.9084 -2.0063 0.9819
-0.1261 -4.0874 -2.0059 0.9819
0.2395 -4.0820 -2.0057 0.9819
1.3127 -3.8709 -2.0050 0.9820
2.2910 -3.3827 -2.0040 0.9820
2.5836 -3.1639 -2.0037 0.9820
3.3281 -2.3643 -2.0025 0.9820
3.5253 -2.0572 -2.0021 0.9820
3.6943 -1.7337 -2.0018 0.9820
3.8336 -1.3964 -2.0014 0.9820
3.9423 -1.0482 -2.0010 0.9820
4.0769 0.0346 -1.9999 0.9820
3.6583 1.7931 -1.9984 0.9820
2.7977 2.9598 -1.9978 0.9820
2.2262 3.4102 -1.9977 0.9820
1.9127 3.5954 -1.9976 0.9820
1.5838 3.7519 -1.9977 0.9820
-0.5575 4.0359 -1.9985 0.9820
-1.2671 3.8733 -1.9990 0.9820
-1.6083 3.7452 -1.9993 0.9820
-2.5450 3.1863 -2.0003 0.9820
-2.8200 2.9467 -2.0007 0.9820
-1.1539 0.4345 -0.6048 0.9945
-1.1588 0.3215 -0.5899 0.9947
-1.1956 0.0028 -0.5864 0.9947
-1.1586 -0.3157 -0.5891 0.9947
-3.5190 -2.0827 -2.0058 0.9819
-2.8415 -2.9418 -2.0062 0.9819
-2.2728 -3.4007 -2.0064 0.9819
-1.9599 -3.5902 -2.0064 0.9819
-1.2897 -3.8815 -2.0063 0.9819
0.1513 -4.0863 -2.0058 0.9819
0.5157 -4.0560 -2.0056 0.9819
1.5720 -3.7726 -2.0048 0.9820
1.9025 -3.6165 -2.0044 0.9820
2.2175 -3.4315 -2.0041 0.9820
3.0464 -2.7192 -2.0030 0.9820
3.8028 -1.4790 -2.0015 0.9820
3.9189 -1.1331 -2.0011 0.9820
4.0037 -0.7783 -2.0007 0.9820
4.0565 -0.4175 -2.0003 0.9820
4.0769 -0.0534 -2.0000 0.9820
4.0200 0.6727 -1.9993 0.9820
3.9433 1.0289 -1.9990 0.9820
3.5280 2.0369 -1.9983 0.9820
3.3316 2.3437 -1.9981 0.9820
3.1087 2.6317 -1.9979 0.9820
2.5905 3.1426 -1.9977 0.9820
2.2993 3.3613 -1.9977 0.9820
1.9898 3.5533 -1.9976 0.9820
1.6645 3.7168 -1.9977 0.9820
1.3258 3.8508 -1.9977 0.9820
0.6195 4.0256 -1.9979 0.9820
-0.1068 4.0723 -1.9982 0.9820
-1.1831 3.8996 -1.9989 0.9820
-1.5270 3.7789 -1.9992 0.9820
-1.8588 3.6279 -1.9995 0.9820
-2.4755 3.2403 -2.0002 0.9820
-3.2479 2.4694 -2.0014 0.9820
-1.1590 0.3487 -0.5937 0.9946
-1.1728 0.2412 -0.5873 0.9947
-1.1964 0.0286 -0.5870 0.9947
-1.1843 -0.1851 -0.5880 0.9947
-1.1569 -0.4013 -0.6007 0.9946
-3.5630 -2.0062 -2.0057 0.9819
-2.9043 -2.8798 -2.0062 0.9819
-2.0370 -3.5471 -2.0064 0.9819
-1.7119 -3.7148 -2.0064 0.9819
-1.3732 -3.8528 -2.0064 0.9819
-1.0235 -3.9599 -2.0063 0.9819
-0.6656 -4.0353 -2.0062 0.9819
0.0631 -4.0887 -2.0058 0.9819
0.4280 -4.0663 -2.0056 0.9819
1.1445 -3.9242 -2.0051 0.9820
1.4903 -3.8058 -2.0048 0.9820
2.7269 -3.0407 -2.0035 0.9820
2.9871 -2.7845 -2.0031 0.9820
3.7701 -1.5608 -2.0016 0.9820
3.9862 -0.8646 -2.0008 0.9820
4.0467 -0.5050 -2.0004 0.9820
4.0749 -0.1414 -2.0001 0.9820
4.0706 0.2231 -1.9997 0.9820
4.0337 0.5858 -1.9994 0.9820
3.5712 1.9603 -1.9983 0.9820
3.3815 2.2713 -1.9981 0.9820
3.1648 2.5641 -1.9980 0.9820
2.6577 3.0860 -1.9977 0.9820
1.7443 3.6800 -1.9977 0.9820
1.4086 3.8212 -1.9977 0.9820
1.0617 3.9319 -1.9978 0.9820
0.7062 4.0112 -1.9979 0.9820
0.3451 4.0586 -1.9980 0.9820
-0.0189 4.0735 -1.9982 0.9820
-1.7799 3.6670 -1.9995 0.9820
-2.4049 3.2929 -2.0001 0.9820
-2.6899 3.0654 -2.0005 0.9820
-2.9536 2.8134 -2.0009 0.9820
-3.1937 2.5388 -2.0013 0.9820
-3.4084 2.2438 -2.0016 0.9820
-1.1154 0.5989 -0.6210 0.9944
-1.1462 0.4891 -0.6113 0.9945
1.3979 -3.6026 -2.0047 0.9827
2.0160 -3.2953 -2.0041 0.9827
2.3020 -3.1015 -2.0038 0.9827
2.5694 -2.8830 -2.0034 0.9827
2.8162 -2.6415 -2.0031 0.9828
3.2401 -2.0974 -2.0023 0.9828
3.4139 -1.7993 -2.0020 0.9828
3.5603 -1.4868 -2.0016 0.9828
3.7667 -0.8292 -2.0009 0.9828
3.8498 0.1991 -1.9999 0.9828
3.6576 1.2122 -1.9990 0.9828
3.3828 1.8433 -1.9985 0.9828
3.0003 2.4154 -1.9982 0.9828
1.9640 3.3127 -1.9979 0.9828
1.6603 3.4749 -1.9979 0.9828
1.0155 3.7151 -1.9980 0.9828
0.6796 3.7911 -1.9981 0.9828
-2.5345 2.9064 -2.0006 0.9828
-2.7845 2.6689 -2.0009 0.9828
-1.0485 0.4512 -0.5921 0.9949
-1.0620 0.3483 -0.5798 0.9950
-1.0982 0.1526 -0.5752 0.9950
-1.1064 0.0538 -0.5747 0.9950
-1.0626 -0.3395 -0.5787 0.9950
-1.0179 -0.5405 -0.5979 0.9948
-3.0377 -2.3920 -2.0058 0.9827
-2.5639 -2.8947 -2.0061 0.9827
-2.2951 -3.1123 -2.0061 0.9827
-2.0080 -3.3049 -2.0062 0.9827
-1.7047 -3.4711 -2.0062 0.9827
-1.0598 -3.7188 -2.0061 0.9827
-0.3810 -3.8476 -2.0058 0.9827
0.3097 -3.8534 -2.0055 0.9827
0.6526 -3.8099 -2.0053 0.9827
1.3198 -3.6320 -2.0048 0.9827
1.9445 -3.3382 -2.0042 0.9827
2.7586 -2.7018 -2.0031 0.9828
2.9884 -2.4441 -2.0028 0.9828
3.6524 -1.2418 -2.0013 0.9828
3.7481 -0.9104 -2.0010 0.9828
3.8137 -0.5718 -2.0006 0.9828
3.8489 -0.2288 -2.0003 0.9828
3.8270 0.4596 -1.9996 0.9828
3.7701 0.7995 -1.9993 0.9828
3.6831 1.1330 -1.9991 0.9828
3.4219 1.7699 -1.9986 0.9828
2.5846 2.8553 -1.9980 0.9828
1.7349 3.4382 -1.9979 0.9828
1.4208 3.5795 -1.9979 0.9828
0.0772 3.8512 -1.9983 0.9828
-0.6094 3.8043 -1.9987 0.9828
-0.9470 3.7351 -1.9990 0.9828
-1.2770 3.6360 -1.9992 0.9828
-1.5969 3.5079 -1.9995 0.9828
-1.9042 3.3517 -1.9998 0.9828
-2.1964 3.1687 -2.0002 0.9828
-1.0021 0.5704 -0.5982 0.9948
-1.0431 0.4758 -0.5948 0.9948
-1.1065 -0.0213 -0.5741 0.9950
-1.0636 -0.3146 -0.5754 0.9950
-1.0544 -0.4176 -0.5883 0.9949
-1.0286 -0.5180 -0.5975 0.9948
-0.9792 -0.6085 -0.5981 0.9948
-2.8687 -2.5926 -2.0059 0.9827
-2.0788 -3.2608 -2.0062 0.9827
-1.7792 -3.4335 -2.0062 0.9827
-1.4654 -3.5786 -2.0061 0.9827
0.2264 -3.8592 -2.0055 0.9827
0.9094 -3.7565 -2.0051 0.9827
1.5629 -3.5338 -2.0045 0.9827
2.1661 -3.1983 -2.0039 0.9827
2.9351 -2.5081 -2.0029 0.9828
3.3333 -1.9451 -2.0021 0.9828
3.8551 0.0327 -2.0000 0.9828
3.8361 0.3769 -1.9997 0.9828
3.7866 0.7180 -1.9994 0.9828
3.7068 1.0532 -1.9991 0.9828
3.1019 2.2837 -1.9983 0.9828
2.1052 3.2248 -1.9979 0.9828
1.8087 3.4000 -1.9979 0.9828
1.1748 3.6677 -1.9980 0.9828
0.8425 3.7581 -1.9980 0.9828
-0.1841 3.8479 -1.9985 0.9828
-0.8661 3.7545 -1.9989 0.9828
-1.1982 3.6626 -1.9992 0.9828
-1.5208 3.5414 -1.9995 0.9828
-1.8313 3.3919 -1.9998 0.9828
-2.1274 3.2153 -2.0001 0.9828
-3.1209 2.2682 -2.0015 0.9828
-1.0364 0.5001 -0.5970 0.9948
-1.0572 0.3981 -0.5860 0.9949
-1.0638 0.2952 -0.5727 0.9950
-1.1059 0.0026 -0.5737 0.9950
-1.1044 -0.0965 -0.5751 0.9950
-1.0384 -0.4951 -0.5968 0.9948
-2.6864 -2.7813 -2.0060 0.9827
-2.4273 -3.0103 -2.0061 0.9827
-2.1487 -3.2151 -2.0061 0.9827
-1.2193 -3.6697 -2.0061 0.9827
-0.8866 -3.7638 -2.0060 0.9827
-0.5468 -3.8277 -2.0059 0.9827
0.1431 -3.8633 -2.0056 0.9827
0.4876 -3.8347 -2.0054 0.9827
0.8281 -3.7754 -2.0051 0.9827
1.4863 -3.5668 -2.0046 0.9827
1.7987 -3.4193 -2.0043 0.9827
2.3777 -3.0436 -2.0037 0.9827
2.6396 -2.8186 -2.0033 0.9827
2.8804 -2.5710 -2.0030 0.9828
3.2907 -2.0167 -2.0022 0.9828
3.5957 -1.3984 -2.0015 0.9828
3.7056 -1.0714 -2.0011 0.9828
3.7858 -0.7360 -2.0008 0.9828
3.8358 -0.3948 -2.0004 0.9828
3.8550 -0.0505 -2.0001 0.9828
3.7288 0.9730 -1.9992 0.9828
3.6265 1.3020 -1.9989 0.9828
3.4953 1.6206 -1.9987 0.9828
3.3362 1.9261 -1.9985 0.9828
3.1505 2.2163 -1.9983 0.9828
1.5740 3.5148 -1.9979 0.9828
1.2537 3.6414 -1.9979 0.9828
0.9235 3.7390 -1.9980 0.9828
0.5858 3.8068 -1.9981 0.9828
0.2434 3.8442 -1.9983 0.9828
-0.1010 3.8509 -1.9984 0.9828
-2.8497 2.5995 -2.0010 0.9828
-3.0711 2.3349 -2.0014 0.9828
-0.9763 0.6129 -0.5980 0.9948
-1.0264 0.5229 -0.5976 0.9948
-1.0536 0.4229 -0.5890 0.9949
-1.1065 0.0265 -0.5742 0.9950
-1.1058 -0.0726 -0.5749 0.9950
-1.0953 -0.1711 -0.5751 0.9950
-1.0443 -0.4706 -0.5942 0.9949
-2.9778 -2.4663 -2.0059 0.9827
-2.4917 -2.9571 -2.0061 0.9827
-2.2176 -3.1680 -2.0061 0.9827
-0.9676 -3.7438 -2.0060 0.9827
-0.6293 -3.8151 -2.0059 0.9827
0.4047 -3.8444 -2.0054 0.9827
1.7246 -3.4574 -2.0044 0.9827
2.8243 -2.6327 -2.0030 0.9828
3.0476 -2.3695 -2.0027 0.9828
3.2465 -2.0874 -2.0023 0.9828
3.4194 -1.7887 -2.0019 0.9828
3.5649 -1.4758 -2.0016 0.9828
3.7692 -0.8176 -2.0009 0.9828
3.8265 -0.4775 -2.0005 0.9828
3.8491 0.2110 -1.9998 0.9828
3.8143 0.5539 -1.9995 0.9828
3.6539 1.2235 -1.9990 0.9828
3.3771 1.8537 -1.9985 0.9828
2.9928 2.4247 -1.9982 0.9828
2.7640 2.6822 -1.9981 0.9828
2.5133 2.9182 -1.9980 0.9828
2.2425 3.1310 -1.9979 0.9828
1.6495 3.4800 -1.9979 0.9828
1.3321 3.6135 -1.9979 0.9828
1.0040 3.7182 -1.9980 0.9828
0.6678 3.7932 -1.9981 0.9828
0.3263 3.8379 -1.9982 0.9828
-0.0178 3.8521 -1.9984 0.9828
-0.3619 3.8354 -1.9986 0.9828
-0.7032 3.7882 -1.9988 0.9828
-1.0389 3.7107 -1.9991 0.9828
-1.3664 3.6035 -1.9993 0.9828
-1.6831 3.4676 -1.9996 0.9828
-1.9865 3.3038 -1.9999 0.9828
-3.2228 2.1216 -2.0017 0.9828
-1.0155 0.5453 -0.5980 0.9948
-1.0492 0.4477 -0.5918 0.9949
1.9094 -3.1211 -2.0040 0.9835
2.4336 -2.7306 -2.0033 0.9835
2.6674 -2.5019 -2.0030 0.9835
2.8797 -2.2532 -2.0027 0.9835
3.2336 -1.7042 -2.0020 0.9835
3.3723 -1.4083 -2.0016 0.9835
3.4840 -1.1012 -2.0013 0.9835
3.5679 -0.7855 -2.0009 0.9835
3.6495 -0.1380 -2.0003 0.9835
3.6147 0.5135 -1.9997 0.9835
3.5539 0.8342 -1.9994 0.9835
3.4648 1.1482 -1.9992 0.9835
3.3480 1.4530 -1.9989 0.9835
2.8421 2.2881 -1.9984 0.9835
2.6262 2.5327 -1.9983 0.9835
2.3894 2.7570 -1.9982 0.9835
2.1334 2.9594 -1.9981 0.9835
1.8605 3.1381 -1.9981 0.9835
0.9619 3.5192 -1.9982 0.9835
0.3204 3.6346 -1.9984 0.9835
-0.0056 3.6490 -1.9986 0.9835
-0.6550 3.5905 -1.9990 0.9835
-1.2838 3.4174 -1.9995 0.9835
-1.5841 3.2895 -1.9997 0.9835
