ply
format ascii 1.0
element vertex 1594
property float32 x
property float32 y
property float32 z
property float32 I
end_header
8.6717 3.8652 -2.0069 0.9619
7.8451 5.3429 -2.0064 0.9619
4.4823 7.7133 -1.8857 0.9642
3.7082 7.9359 -1.8516 0.9648
2.9850 8.2330 -1.8511 0.9648
1.4742 8.6280 -1.8502 0.9648
-0.8616 8.7036 -1.8488 0.9649
-3.8471 7.8464 -1.8472 0.9649
-4.6811 7.7188 -1.9082 0.9638
-5.5885 7.5935 -1.9929 0.9622
-6.2580 7.0813 -1.9976 0.9621
-8.9885 2.8918 -1.9959 0.9621
-9.4309 -0.4335 -1.9956 0.9621
-9.3549 -1.2728 -1.9956 0.9621
-9.2045 -2.1021 -1.9957 0.9621
-8.6860 -3.7044 -1.9961 0.9621
-8.3220 -4.4647 -1.9963 0.9621
-7.3986 -5.8738 -1.9969 0.9621
-6.8465 -6.5113 -1.9972 0.9621
-6.2397 -7.0973 -1.9976 0.9621
-4.1412 -8.5013 -1.9989 0.9621
-3.3674 -8.8389 -1.9994 0.9621
-0.0645 -9.4681 -2.0014 0.9620
1.6194 -9.3338 -2.0025 0.9620
3.2534 -8.9022 -2.0035 0.9620
4.0353 -8.5787 -2.0040 0.9620
6.7859 -6.6319 -2.0057 0.9620
7.3516 -6.0014 -2.0060 0.9619
7.8587 -5.3227 -2.0063 0.9619
8.6815 -3.8430 -2.0069 0.9619
8.9905 -3.0538 -2.0071 0.9619
9.4796 -0.5651 -2.0074 0.9619
9.4291 1.1279 -2.0073 0.9619
9.2906 1.9642 -2.0073 0.9619
8.7925 3.5828 -2.0069 0.9619
7.5276 5.7802 -2.0062 0.9619
6.9810 6.4274 -2.0058 0.9619
6.3788 7.0230 -2.0055 0.9620
4.8183 7.7063 -1.9212 0.9635
3.2500 8.1329 -1.8513 0.9648
0.9806 8.6964 -1.8499 0.9649
0.2011 8.7470 -1.8494 0.9649
-2.1198 8.4815 -1.8480 0.9649
-2.8670 8.2566 -1.8475 0.9649
-5.3055 7.7203 -1.9801 0.9624
-6.0261 7.2806 -1.9977 0.9621
-6.6500 6.7129 -1.9974 0.9621
-7.2209 6.0920 -1.9970 0.9621
-8.1858 4.7109 -1.9964 0.9621
-8.5723 3.9617 -1.9961 0.9621
-8.8905 3.1811 -1.9959 0.9621
-9.1380 2.3754 -1.9958 0.9621
-9.4139 0.7142 -1.9956 0.9621
-9.3910 -0.9695 -1.9956 0.9621
-8.8010 -3.4213 -1.9960 0.9621
-8.4618 -4.1930 -1.9962 0.9621
-8.0551 -4.9315 -1.9964 0.9621
-7.5843 -5.6311 -1.9967 0.9621
-7.0531 -6.2860 -1.9971 0.9621
-5.8264 -7.4418 -1.9978 0.9621
-5.1407 -7.9335 -1.9983 0.9621
-3.6512 -8.7245 -1.9992 0.9621
-2.8593 -9.0176 -1.9997 0.9621
-2.0443 -9.2390 -2.0002 0.9621
-0.3707 -9.4601 -2.0012 0.9620
1.3165 -9.3804 -2.0023 0.9620
2.9634 -9.0020 -2.0033 0.9620
3.7554 -8.7039 -2.0038 0.9620
7.1531 -6.2357 -2.0059 0.9619
7.6820 -5.5739 -2.0062 0.9619
8.1496 -4.8673 -2.0065 0.9619
8.5523 -4.1217 -2.0068 0.9619
8.8867 -3.3429 -2.0070 0.9619
9.1502 -2.5373 -2.0072 0.9619
9.4563 -0.8715 -2.0073 0.9619
8.9041 3.2966 -2.0070 0.9619
6.6031 6.8134 -2.0056 0.9620
5.9617 7.3659 -2.0031 0.9620
5.1673 7.6988 -1.9599 0.9628
4.2348 7.7181 -1.8609 0.9646
3.5117 8.0242 -1.8515 0.9648
2.0294 8.5162 -1.8506 0.9648
-0.2970 8.7427 -1.8491 0.9649
-1.0752 8.6792 -1.8486 0.9649
-1.8444 8.5465 -1.8481 0.9649
-2.5986 8.3458 -1.8477 0.9649
-3.3317 8.0788 -1.8472 0.9649
-4.0391 7.7500 -1.8473 0.9649
-6.4298 6.9250 -1.9975 0.9621
-7.0205 6.3228 -1.9971 0.9621
-7.5551 5.6706 -1.9968 0.9621
-8.0295 4.9735 -1.9965 0.9621
-8.7832 3.4672 -1.9960 0.9621
-9.4391 0.1773 -1.9956 0.9621
-8.2100 -4.6682 -1.9964 0.9621
-7.7621 -5.3825 -1.9966 0.9621
-7.2523 -6.0542 -1.9969 0.9621
-6.0637 -7.2489 -1.9977 0.9621
-5.3942 -7.7624 -1.9981 0.9621
-4.6815 -8.2143 -1.9985 0.9621
-3.1493 -8.9196 -1.9995 0.9621
-0.6764 -9.4423 -2.0010 0.9620
0.1683 -9.4675 -2.0015 0.9620
1.0122 -9.4172 -2.0021 0.9620
2.6705 -9.0923 -2.0031 0.9620
3.4715 -8.8201 -2.0036 0.9620
5.6863 -7.5918 -2.0050 0.9620
7.9875 -5.1281 -2.0064 0.9619
8.4142 -4.3960 -2.0067 0.9619
9.4231 -1.1769 -2.0073 0.9619
9.4907 -0.3319 -2.0074 0.9619
9.4825 0.5158 -2.0074 0.9619
9.3985 1.3593 -2.0073 0.9619
9.2393 2.1920 -2.0072 0.9619
9.0064 3.0070 -2.0071 0.9619
8.3273 4.5581 -2.0067 0.9619
7.8865 5.2819 -2.0064 0.9619
7.3829 5.9632 -2.0061 0.9619
6.8205 6.5967 -2.0057 0.9619
6.2039 7.1773 -2.0053 0.9620
5.5178 7.6723 -1.9976 0.9621
3.7698 7.9071 -1.8516 0.9648
3.0489 8.2098 -1.8512 0.9648
0.7665 8.7173 -1.8498 0.9649
-0.7939 8.7102 -1.8488 0.9649
-2.3275 8.4263 -1.8478 0.9649
-3.0689 8.1831 -1.8474 0.9649
-4.6004 7.7203 -1.8997 0.9639
-5.5274 7.6340 -1.9922 0.9622
-6.2029 7.1299 -1.9976 0.9621
-6.8127 6.5470 -1.9973 0.9621
-7.3681 5.9124 -1.9969 0.9621
-7.8648 5.2309 -1.9966 0.9621
-9.1935 2.1500 -1.9958 0.9621
-9.4285 0.4826 -1.9956 0.9621
-9.2205 -2.0305 -1.9957 0.9621
-8.7145 -3.6368 -1.9960 0.9621
-8.3564 -4.3999 -1.9963 0.9621
-6.2946 -7.0485 -1.9975 0.9621
3.2985 7.6992 -1.9686 0.9662
2.5168 7.7115 -1.9065 0.9672
1.0740 7.7978 -1.8500 0.9682
-1.0277 7.7984 -1.8487 0.9682
-2.4688 7.7172 -1.9043 0.9673
-3.2485 7.7067 -1.9656 0.9662
-5.2585 6.6810 -1.9982 0.9657
-7.9257 3.0577 -1.9965 0.9657
-8.1662 2.3386 -1.9964 0.9657
-8.4931 0.0935 -1.9962 0.9657
-8.3749 -1.4168 -1.9963 0.9657
-7.7027 -3.5838 -1.9967 0.9657
-6.9452 -4.8963 -1.9971 0.9657
-5.4040 -6.5632 -1.9981 0.9657
-4.7981 -7.0203 -1.9985 0.9657
-4.1537 -7.4217 -1.9989 0.9657
-2.7704 -8.0450 -1.9997 0.9656
-2.0424 -8.2619 -2.0002 0.9656
-0.5424 -8.4972 -2.0011 0.9656
0.2176 -8.5138 -2.0016 0.9656
3.1835 -7.9076 -2.0034 0.9656
3.8769 -7.5938 -2.0039 0.9656
4.5396 -7.2193 -2.0043 0.9656
6.7820 -5.1800 -2.0057 0.9655
7.5963 -3.8939 -2.0062 0.9655
8.4806 -0.9924 -2.0067 0.9655
8.5355 -0.2321 -2.0068 0.9655
8.2919 2.0353 -2.0066 0.9655
7.7972 3.4755 -2.0063 0.9655
6.5967 5.4134 -2.0056 0.9655
6.0867 5.9792 -2.0053 0.9655
5.5283 6.4971 -2.0049 0.9656
4.2801 7.3653 -2.0021 0.9656
3.5950 7.6938 -1.9959 0.9657
2.0409 7.7176 -1.8762 0.9677
0.6284 7.8451 -1.8497 0.9682
-0.0737 7.8680 -1.8492 0.9682
-0.7749 7.8282 -1.8488 0.9682
-2.1971 7.7202 -1.8865 0.9676
-2.9603 7.7109 -1.9412 0.9666
-4.4098 7.2713 -1.9986 0.9657
-5.6295 6.3702 -1.9980 0.9657
-7.4971 3.9975 -1.9968 0.9657
-7.8229 3.3126 -1.9966 0.9657
-8.2858 1.8700 -1.9963 0.9657
-8.4856 0.3682 -1.9962 0.9657
-8.0798 -2.6223 -1.9964 0.9657
-7.8144 -3.3326 -1.9966 0.9657
-7.4868 -4.0166 -1.9968 0.9657
-6.6559 -5.2841 -1.9973 0.9657
-5.6131 -6.3845 -1.9980 0.9657
-3.7251 -7.6471 -1.9991 0.9657
-2.3084 -8.1908 -2.0000 0.9656
-1.5691 -8.3659 -2.0005 0.9656
-0.8170 -8.4745 -2.0009 0.9656
1.4564 -8.3944 -2.0024 0.9656
2.9258 -8.0058 -2.0033 0.9656
3.6289 -7.7147 -2.0037 0.9656
5.5449 -6.4828 -2.0049 0.9656
6.6105 -5.3964 -2.0056 0.9655
7.0664 -4.7861 -2.0059 0.9655
7.8061 -3.4554 -2.0063 0.9655
8.0838 -2.7458 -2.0065 0.9655
8.4781 1.0141 -2.0067 0.9655
8.3535 1.7661 -2.0067 0.9655
7.9058 3.2215 -2.0064 0.9655
7.5863 3.9133 -2.0062 0.9655
6.2773 5.7795 -2.0054 0.9655
5.7360 6.3152 -2.0051 0.9656
5.1490 6.8004 -2.0047 0.9656
4.5211 7.2310 -2.0043 0.9656
0.8819 7.8213 -1.8498 0.9682
-1.9301 7.7228 -1.8709 0.9678
-4.1679 7.4025 -1.9966 0.9657
-4.8161 7.0081 -1.9985 0.9657
-5.4208 6.5494 -1.9981 0.9657
-5.9823 6.0388 -1.9978 0.9657
-6.4959 5.4804 -1.9974 0.9657
-7.9983 2.8619 -1.9965 0.9657
-8.4928 -0.1153 -1.9962 0.9657
-8.4488 -0.8722 -1.9962 0.9657
-8.1602 -2.3594 -1.9964 0.9657
-7.9178 -3.0780 -1.9965 0.9657
-7.6125 -3.7722 -1.9967 0.9657
-6.3450 -5.6549 -1.9975 0.9657
-4.6243 -7.1365 -1.9986 0.9657
-3.9702 -7.5220 -1.9990 0.9657
-2.5719 -8.1112 -1.9998 0.9656
-1.0906 -8.4429 -2.0008 0.9656
-0.3334 -8.5085 -2.0012 0.9656
0.4268 -8.5064 -2.0017 0.9656
1.9321 -8.2991 -2.0026 0.9656
5.3319 -6.6583 -2.0048 0.9656
5.9055 -6.1574 -2.0051 0.9656
6.4321 -5.6072 -2.0055 0.9655
6.9075 -5.0120 -2.0058 0.9655
7.6899 -3.7060 -2.0062 0.9655
7.9905 -3.0058 -2.0064 0.9655
8.5025 -0.7836 -2.0068 0.9655
8.4064 1.4949 -2.0067 0.9655
8.0062 2.9642 -2.0065 0.9655
7.7092 3.6660 -2.0063 0.9655
5.9376 6.1267 -2.0052 0.9656
4.7530 7.0815 -2.0044 0.9656
1.8396 7.7199 -1.8652 0.9679
-0.9671 7.8063 -1.8487 0.9682
-3.1786 7.7077 -1.9595 0.9663
-3.9224 7.5261 -1.9946 0.9657
-4.5872 7.1607 -1.9986 0.9657
-5.7842 6.2296 -1.9979 0.9657
-6.3156 5.6880 -1.9976 0.9657
-7.5929 3.8119 -1.9968 0.9657
-8.3291 1.6657 -1.9963 0.9657
-8.4921 0.1595 -1.9962 0.9657
-8.4725 -0.5984 -1.9962 0.9657
-8.2320 -2.0942 -1.9963 0.9657
-8.0130 -2.8202 -1.9965 0.9657
-7.7303 -3.5238 -1.9967 0.9657
-6.9829 -4.8422 -1.9971 0.9657
-5.4547 -6.5209 -1.9981 0.9657
-2.8327 -8.0231 -1.9997 0.9656
-2.1064 -8.2456 -2.0001 0.9656
-1.3630 -8.4025 -2.0006 0.9656
-0.6084 -8.4926 -2.0011 0.9656
0.1514 -8.5150 -2.0015 0.9656
0.9104 -8.4696 -2.0020 0.9656
2.4016 -8.1769 -2.0029 0.9656
3.8177 -7.6236 -2.0038 0.9656
4.4833 -7.2542 -2.0042 0.9656
5.1133 -6.8269 -2.0046 0.9656
5.7028 -6.3448 -2.0050 0.9656
6.2470 -5.8120 -2.0053 0.9655
7.1822 -4.6111 -2.0059 0.9655
7.5657 -3.9527 -2.0062 0.9655
7.8889 -3.2626 -2.0064 0.9655
8.3442 -1.8095 -2.0067 0.9655
8.4726 -1.0582 -2.0067 0.9655
8.5260 0.4637 -2.0068 0.9655
8.4505 1.2222 -2.0067 0.9655
7.8241 3.4148 -2.0063 0.9655
7.4876 4.0985 -2.0061 0.9655
7.0914 4.7494 -2.0059 0.9655
6.1331 5.9318 -2.0053 0.9655
5.5787 6.4540 -2.0050 0.9656
4.9800 6.9245 -2.0046 0.9656
4.3384 7.3340 -2.0026 0.9656
3.6560 7.6683 -1.9966 0.9657
2.8620 7.7064 -1.9320 0.9668
2.1049 7.7169 -1.8799 0.9677
1.3861 7.7492 -1.8502 0.9682
-2.1326 7.7208 -1.8825 0.9676
-2.8921 7.7118 -1.9357 0.9667
-3.6732 7.6414 -1.9926 0.9658
-4.3521 7.3035 -1.9981 0.9657
-4.9867 6.8872 -1.9984 0.9657
-5.5800 6.4139 -1.9980 0.9657
-6.1286 5.8897 -1.9977 0.9657
-6.6284 5.3188 -1.9974 0.9657
-7.0753 4.7059 -1.9971 0.9657
-7.4659 4.0556 -1.9968 0.9657
-8.2710 1.9343 -1.9963 0.9657
-8.4102 1.1889 -1.9962 0.9657
-8.4825 0.4342 -1.9962 0.9657
-8.2953 -1.8268 -1.9963 0.9657
-7.8400 -3.2718 -1.9966 0.9657
-7.5177 -3.9583 -1.9968 0.9657
-7.1356 -4.6135 -1.9970 0.9657
-6.6967 -5.2322 -1.9973 0.9657
-6.2043 -5.8094 -1.9976 0.9657
-5.0754 -6.8216 -1.9983 0.9657
5.8244 5.1037 -2.0051 0.9685
4.8236 6.0554 -2.0045 0.9685
3.0470 7.1123 -2.0034 0.9685
0.3663 7.6932 -1.9942 0.9687
-0.3212 7.6936 -1.9937 0.9687
-1.0063 7.6364 -1.9943 0.9687
-1.6846 7.5221 -1.9958 0.9687
-3.6218 6.8194 -1.9992 0.9686
-4.2147 6.4681 -1.9989 0.9686
-6.5896 4.0111 -1.9974 0.9686
-7.1959 2.7762 -1.9970 0.9686
-7.4143 2.1232 -1.9969 0.9686
-7.6038 -1.2863 -1.9967 0.9686
-4.3559 -6.3733 -1.9987 0.9686
-1.8540 -7.4998 -2.0003 0.9686
-1.1780 -7.6369 -2.0007 0.9686
-0.4924 -7.7132 -2.0011 0.9686
0.1975 -7.7280 -2.0016 0.9686
3.5187 -6.8923 -2.0036 0.9685
4.1201 -6.5522 -2.0040 0.9685
4.6888 -6.1598 -2.0044 0.9685
5.7103 -5.2305 -2.0050 0.9685
6.5504 -4.1340 -2.0055 0.9685
7.1820 -2.9051 -2.0059 0.9685
7.7459 -0.2107 -2.0063 0.9685
7.5249 1.8471 -2.0062 0.9685
7.3297 2.5106 -2.0060 0.9685
7.0761 3.1540 -2.0059 0.9685
6.4019 4.3600 -2.0055 0.9685
5.9868 4.9129 -2.0052 0.9685
5.5240 5.4264 -2.0049 0.9685
4.4707 6.3194 -2.0043 0.9685
3.8886 6.6917 -2.0039 0.9685
3.2758 7.0105 -2.0035 0.9685
1.9738 7.4641 -1.9990 0.9686
1.2985 7.6001 -1.9963 0.9686
0.6151 7.6789 -1.9946 0.9687
-0.0721 7.6982 -1.9933 0.9687
-0.7586 7.6638 -1.9940 0.9687
-1.4399 7.5701 -1.9952 0.9687
-4.5755 6.2170 -1.9986 0.9686
-5.1108 5.7832 -1.9983 0.9686
-6.8067 3.6293 -1.9972 0.9686
-7.3419 2.3620 -1.9969 0.9686
-7.7035 -0.3541 -1.9967 0.9686
-7.5185 -1.7170 -1.9968 0.9686
-7.3358 -2.3808 -1.9969 0.9686
-7.0948 -3.0258 -1.9970 0.9686
-6.4457 -4.2389 -1.9974 0.9686
-3.9865 -6.6116 -1.9990 0.9686
-2.0955 -7.4354 -2.0001 0.9686
-0.7416 -7.6926 -2.0010 0.9686
0.6371 -7.7053 -2.0018 0.9686
3.9057 -6.6816 -2.0039 0.9685
4.4868 -6.3078 -2.0042 0.9685
6.4130 -4.3435 -2.0054 0.9685
7.5295 -1.8278 -2.0061 0.9685
7.6629 -1.1491 -2.0062 0.9685
7.7350 -0.4611 -2.0063 0.9685
7.6938 0.9203 -2.0063 0.9685
7.1746 2.9235 -2.0059 0.9685
6.8847 3.5514 -2.0058 0.9685
6.1429 4.7169 -2.0053 0.9685
5.6970 5.2452 -2.0050 0.9685
4.6731 6.1718 -2.0044 0.9685
4.1034 6.5628 -2.0040 0.9685
3.5011 6.9013 -2.0037 0.9685
2.8711 7.1847 -2.0033 0.9685
2.2156 7.4009 -2.0002 0.9686
0.8634 7.6569 -1.9951 0.9687
-0.5103 7.6836 -1.9938 0.9687
-2.5327 7.2941 -1.9992 0.9686
-3.1736 7.0403 -1.9995 0.9686
-5.4311 5.4825 -1.9981 0.9686
-6.3169 4.4292 -1.9976 0.9686
-7.0018 3.2359 -1.9971 0.9686
-7.2619 2.5984 -1.9970 0.9686
-7.4642 1.9403 -1.9968 0.9686
-7.6071 1.2668 -1.9967 0.9686
-7.6896 0.5834 -1.9967 0.9686
-7.5700 -1.4729 -1.9968 0.9686
-6.9115 -3.4248 -1.9972 0.9686
-6.5792 -4.0279 -1.9974 0.9686
-5.7604 -5.1340 -1.9979 0.9686
-5.2805 -5.6280 -1.9982 0.9686
-4.1981 -6.4788 -1.9988 0.9686
-3.6042 -6.8286 -1.9992 0.9686
-0.9900 -7.6640 -2.0008 0.9686
-0.3026 -7.7234 -2.0013 0.9686
1.0747 -7.6576 -2.0021 0.9686
3.0652 -7.1044 -2.0034 0.9685
3.6873 -6.8040 -2.0037 0.9685
6.2688 -4.5485 -2.0054 0.9685
6.9787 -3.3633 -2.0058 0.9685
7.2515 -2.7278 -2.0060 0.9685
7.4663 -2.0704 -2.0061 0.9685
7.6216 -1.3963 -2.0062 0.9685
7.7487 -0.0202 -2.0063 0.9685
7.7196 0.6709 -2.0063 0.9685
7.6288 1.3566 -2.0062 0.9685
7.4771 2.0315 -2.0061 0.9685
7.2656 2.6900 -2.0060 0.9685
6.9962 3.3269 -2.0058 0.9685
6.2925 4.5159 -2.0054 0.9685
5.8640 5.0584 -2.0051 0.9685
5.3887 5.5604 -2.0048 0.9685
2.4555 7.3302 -2.0016 0.9686
1.1110 7.6275 -1.9957 0.9687
0.4260 7.6905 -1.9943 0.9687
-0.2614 7.6959 -1.9937 0.9687
-2.9444 7.1398 -1.9997 0.9686
-3.5687 6.8475 -1.9993 0.9686
-4.1644 6.5007 -1.9989 0.9686
-4.7267 6.1024 -1.9985 0.9686
-5.2512 5.6556 -1.9982 0.9686
-6.1706 4.6314 -1.9976 0.9686
-6.8937 3.4608 -1.9972 0.9686
-7.1742 2.8320 -1.9970 0.9686
-7.5623 1.5123 -1.9968 0.9686
-7.6667 0.8318 -1.9967 0.9686
-7.7102 0.1448 -1.9967 0.9686
-7.6136 -1.2272 -1.9967 0.9686
-7.4741 -1.9014 -1.9968 0.9686
-6.7058 -3.8129 -1.9973 0.9686
-6.3398 -4.3962 -1.9975 0.9686
-4.4052 -6.3392 -1.9987 0.9686
-1.9122 -7.4851 -2.0003 0.9686
-1.2373 -7.6274 -2.0007 0.9686
0.1374 -7.7292 -2.0015 0.9686
0.8263 -7.6878 -2.0020 0.9686
1.5090 -7.5850 -2.0024 0.9686
2.1798 -7.4218 -2.0028 0.9685
2.8336 -7.1993 -2.0032 0.9685
6.1181 -4.7487 -2.0053 0.9685
6.5180 -4.1847 -2.0055 0.9685
6.8660 -3.5871 -2.0057 0.9685
7.1592 -2.9608 -2.0059 0.9685
7.5723 -1.6421 -2.0062 0.9685
7.6888 -0.9603 -2.0062 0.9685
7.7440 -0.2708 -2.0063 0.9685
7.7373 0.4208 -2.0063 0.9685
7.3490 2.4536 -2.0060 0.9685
7.1004 3.0990 -2.0059 0.9685
6.4356 4.3102 -2.0055 0.9685
6.0248 4.8663 -2.0052 0.9685
5.0630 5.8575 -2.0046 0.9685
2.6933 7.2522 -2.0030 0.9685
2.0320 7.4496 -1.9993 0.9686
0.6747 7.6743 -1.9947 0.9687
-0.6991 7.6692 -1.9939 0.9687
-1.3810 7.5805 -1.9950 0.9687
-2.7121 7.2319 -1.9998 0.9686
-3.9522 6.6325 -1.9990 0.9686
-4.5271 6.2525 -1.9987 0.9686
-5.5640 5.3471 -1.9980 0.9686
-6.0178 4.8289 -1.9977 0.9686
-6.7784 3.6821 -1.9973 0.9686
-7.3234 2.4190 -1.9969 0.9686
-7.6359 1.0794 -1.9967 0.9686
-7.6492 -0.9803 -1.9967 0.9686
-7.5316 -1.6586 -1.9968 0.9686
-6.8254 -3.5938 -1.9972 0.9686
-6.4784 -4.1886 -1.9974 0.9686
-6.0798 -4.7502 -1.9977 0.9686
-5.1407 -5.7564 -1.9983 0.9686
-4.6076 -6.1929 -1.9986 0.9686
5.3262 4.6672 -2.0048 0.9710
4.8881 5.1229 -2.0045 0.9710
4.4111 5.5376 -2.0042 0.9710
3.3562 6.2311 -2.0036 0.9710
2.7866 6.5044 -2.0032 0.9710
2.1951 6.7258 -2.0029 0.9710
0.9650 7.0061 -2.0021 0.9710
-0.2949 7.0633 -2.0013 0.9710
-2.7438 6.5094 -1.9998 0.9711
-3.3128 6.2377 -1.9994 0.9711
-4.3668 5.5481 -1.9988 0.9711
-6.0279 3.6692 -1.9977 0.9711
-6.7825 1.9423 -1.9973 0.9711
-7.0541 0.0777 -1.9971 0.9711
-7.0329 -0.5517 -1.9971 0.9711
-6.9559 -1.1767 -1.9971 0.9711
-6.8235 -1.7924 -1.9972 0.9711
-6.3974 -2.9765 -1.9975 0.9711
-5.7680 -4.0664 -1.9979 0.9711
-3.9844 -5.8297 -1.9990 0.9711
-3.4492 -6.1628 -1.9993 0.9711
-2.8863 -6.4470 -1.9997 0.9711
-2.3003 -6.6799 -2.0000 0.9711
-1.6957 -6.8597 -2.0004 0.9711
-1.0775 -6.9850 -2.0008 0.9710
0.1806 -7.0680 -2.0016 0.9710
1.4339 -6.9262 -2.0023 0.9710
3.2179 -6.3031 -2.0035 0.9710
3.7679 -5.9920 -2.0038 0.9710
4.2879 -5.6331 -2.0041 0.9710
4.7739 -5.2290 -2.0044 0.9710
6.5675 -2.6565 -2.0055 0.9710
6.7787 -2.0604 -2.0057 0.9710
6.9357 -1.4478 -2.0058 0.9710
7.0374 -0.8235 -2.0058 0.9710
7.0719 0.4398 -2.0059 0.9710
7.0043 1.0687 -2.0058 0.9710
6.7025 2.2958 -2.0056 0.9710
6.4706 2.8841 -2.0055 0.9710
5.4747 4.4926 -2.0049 0.9710
5.0516 4.9623 -2.0046 0.9710
3.5562 6.1196 -2.0037 0.9710
1.8085 6.8390 -2.0026 0.9710
1.1912 6.9717 -2.0022 0.9710
-0.0663 7.0696 -2.0014 0.9710
-0.6963 7.0342 -2.0011 0.9710
-1.9341 6.7960 -2.0003 0.9711
-2.5320 6.5952 -1.9999 0.9711
-4.6750 5.2901 -1.9986 0.9711
-5.1274 4.8514 -1.9983 0.9711
-6.2265 3.3200 -1.9976 0.9711
-6.4972 2.7513 -1.9974 0.9711
-6.8818 1.5531 -1.9972 0.9711
-6.9927 0.9332 -1.9971 0.9711
-7.0471 -0.3239 -1.9971 0.9711
-6.7107 -2.1779 -1.9973 0.9711
-6.4901 -2.7679 -1.9974 0.9711
-6.2180 -3.3359 -1.9976 0.9711
-5.8963 -3.8775 -1.9978 0.9711
-5.5276 -4.3884 -1.9980 0.9711
-5.1149 -4.8645 -1.9983 0.9711
-4.1706 -5.6974 -1.9989 0.9711
-3.6465 -6.0476 -1.9992 0.9711
-3.0932 -6.3498 -1.9995 0.9711
-2.5150 -6.6016 -1.9999 0.9711
-1.9166 -6.8008 -2.0003 0.9711
-1.3028 -6.9460 -2.0006 0.9710
-0.0481 -7.0697 -2.0014 0.9710
1.2090 -6.9685 -2.0022 0.9710
3.5718 -6.1104 -2.0037 0.9710
4.6020 -5.3804 -2.0043 0.9710
5.4861 -4.4786 -2.0049 0.9710
6.1958 -3.4335 -2.0053 0.9710
6.7083 -2.2786 -2.0056 0.9710
7.0730 -0.4217 -2.0059 0.9710
6.5607 2.6734 -2.0056 0.9710
6.2956 3.2475 -2.0054 0.9710
5.9803 3.7957 -2.0052 0.9710
5.2097 4.7965 -2.0047 0.9710
4.7605 5.2413 -2.0044 0.9710
4.2735 5.6441 -2.0041 0.9710
3.7525 6.0017 -2.0038 0.9710
3.2018 6.3114 -2.0035 0.9710
2.6257 6.5706 -2.0031 0.9710
2.0289 6.7773 -2.0027 0.9710
0.7924 7.0273 -2.0020 0.9710
0.1625 7.0686 -2.0016 0.9710
-0.4684 7.0535 -2.0012 0.9710
-1.0954 6.9823 -2.0008 0.9710
-1.7133 6.8554 -2.0004 0.9711
-3.4650 6.1540 -1.9993 0.9711
-3.9993 5.8196 -1.9990 0.9711
-4.5017 5.4389 -1.9987 0.9711
-4.9680 5.0150 -1.9984 0.9711
-5.7784 4.0517 -1.9979 0.9711
-6.1161 3.5198 -1.9977 0.9711
-6.6430 2.3769 -1.9973 0.9711
-7.0539 -0.0958 -1.9971 0.9711
-6.5761 -2.5564 -1.9974 0.9711
-6.3224 -3.1329 -1.9975 0.9711
-6.0184 -3.6846 -1.9977 0.9711
-5.6665 -4.2071 -1.9979 0.9711
-5.2693 -4.6963 -1.9982 0.9711
-4.3525 -5.5592 -1.9987 0.9711
-2.1355 -6.7348 -2.0001 0.9711
-1.5267 -6.8997 -2.0005 0.9711
-0.9055 -7.0097 -2.0009 0.9710
-0.2768 -7.0639 -2.0013 0.9710
0.3543 -7.0618 -2.0017 0.9710
0.9829 -7.0035 -2.0021 0.9710
1.6038 -6.8892 -2.0024 0.9710
2.2122 -6.7200 -2.0028 0.9710
3.3721 -6.2224 -2.0035 0.9710
4.9012 -5.1103 -2.0045 0.9710
5.3381 -4.6535 -2.0048 0.9710
6.3816 -3.0755 -2.0054 0.9710
6.6309 -2.4943 -2.0056 0.9710
6.8274 -1.8932 -2.0057 0.9710
7.0556 -0.6502 -2.0059 0.9710
6.9759 1.2405 -2.0058 0.9710
6.3976 3.0423 -2.0055 0.9710
6.1002 3.6003 -2.0053 0.9710
5.3624 4.6257 -2.0048 0.9710
4.9278 5.0848 -2.0045 0.9710
4.4541 5.5032 -2.0043 0.9710
3.9450 5.8776 -2.0039 0.9710
3.4045 6.2049 -2.0036 0.9710
2.8371 6.4827 -2.0033 0.9710
2.2473 6.7086 -2.0029 0.9710
1.6397 6.8810 -2.0025 0.9710
1.0194 6.9985 -2.0021 0.9710
0.3911 7.0601 -2.0017 0.9710
-2.1005 6.7460 -2.0002 0.9711
-3.2643 6.2633 -1.9995 0.9711
-3.8092 5.9462 -1.9991 0.9711
-4.8034 5.1734 -1.9985 0.9711
-5.2449 4.7237 -1.9982 0.9711
-5.6446 4.2366 -1.9980 0.9711
-6.3061 3.1658 -1.9976 0.9711
-6.9179 1.3834 -1.9972 0.9711
-7.0134 0.7610 -1.9971 0.9711
-6.4203 -2.9267 -1.9975 0.9711
-5.7994 -4.0214 -1.9979 0.9711
-5.4183 -4.5231 -1.9981 0.9711
-4.9940 -4.9890 -1.9984 0.9711
-4.0295 -5.7985 -1.9989 0.9711
-2.3521 -6.6617 -2.0000 0.9711
-1.7490 -6.8462 -2.0004 0.9711
-0.5051 -7.0508 -2.0011 0.9710
0.1257 -7.0691 -2.0015 0.9710
0.7558 -7.0311 -2.0019 0.9710
1.3801 -6.9370 -2.0023 0.9710
2.5914 -6.5840 -2.0031 0.9710
3.1688 -6.3278 -2.0034 0.9710
4.2439 -5.6661 -2.0041 0.9710
4.7331 -5.2659 -2.0044 0.9710
5.1845 -4.8235 -2.0047 0.9710
5.5947 -4.3425 -2.0049 0.9710
6.2785 -3.2802 -2.0054 0.9710
6.5466 -2.7075 -2.0055 0.9710
6.7624 -2.1130 -2.0057 0.9710
7.0751 0.3848 -2.0059 0.9710
7.0125 1.0142 -2.0058 0.9710
6.8938 1.6355 -2.0058 0.9710
6.4928 2.8338 -2.0055 0.9710
6.2137 3.4012 -2.0053 0.9710
5.5095 4.4500 -2.0049 0.9710
5.0900 4.9230 -2.0046 0.9710
4.6300 5.3565 -2.0044 0.9710
4.1333 5.7472 -2.0041 0.9710
2.4633 6.6328 -2.0030 0.9710
1.2453 6.9623 -2.0023 0.9710
0.6194 7.0443 -2.0019 0.9710
-1.2666 6.9529 -2.0007 0.9710
-3.0602 6.3660 -1.9996 0.9711
-3.6151 6.0667 -1.9992 0.9711
-4.1410 5.7192 -1.9989 0.9711
-5.5048 4.4172 -1.9981 0.9711
-5.8761 3.9083 -1.9978 0.9711
-6.9852 0.9875 -1.9971 0.9711
-7.0494 -0.2692 -1.9971 0.9711
-6.9974 -0.8967 -1.9971 0.9711
-6.8898 -1.5172 -1.9972 0.9711
-6.7273 -2.1257 -1.9973 0.9711
-6.2437 -3.2875 -1.9976 0.9711
-5.9262 -3.8316 -1.9978 0.9711
-4.2147 -5.6648 -1.9988 0.9711
4.4985 4.7145 -2.0043 0.9731
4.0595 5.0962 -2.0040 0.9731
3.0887 5.7346 -2.0034 0.9731
2.0202 6.1900 -2.0027 0.9731
0.8881 6.4482 -2.0020 0.9731
0.3095 6.5005 -2.0017 0.9731
-0.2714 6.5010 -2.0013 0.9731
-0.8499 6.4498 -2.0010 0.9731
-2.5255 5.9916 -1.9999 0.9732
-3.5487 5.4459 -1.9993 0.9732
-4.0196 5.1070 -1.9990 0.9732
-4.4584 4.7275 -1.9987 0.9732
-5.2260 3.8594 -1.9982 0.9732
-5.5488 3.3776 -1.9980 0.9732
-5.8275 2.8691 -1.9979 0.9732
-6.0596 2.3378 -1.9977 0.9732
-6.2436 1.7880 -1.9976 0.9732
-6.4615 0.6503 -1.9975 0.9732
-6.4742 -0.5079 -1.9974 0.9732
-5.8890 -2.7400 -1.9978 0.9732
-4.9552 -4.2023 -1.9984 0.9732
-4.1309 -5.0170 -1.9989 0.9732
-3.6675 -5.3662 -1.9992 0.9732
-3.1749 -5.6727 -1.9995 0.9732
-2.1173 -6.1485 -2.0001 0.9732
-1.5608 -6.3139 -2.0005 0.9731
-0.9917 -6.4291 -2.0008 0.9731
-0.4145 -6.4931 -2.0012 0.9731
0.1662 -6.5053 -2.0016 0.9731
0.7458 -6.4658 -2.0019 0.9731
1.8833 -6.2326 -2.0026 0.9731
3.4676 -5.5145 -2.0036 0.9731
3.9461 -5.1841 -2.0039 0.9731
4.3933 -4.8122 -2.0042 0.9731
5.1796 -3.9562 -2.0047 0.9731
5.5123 -3.4789 -2.0049 0.9731
5.8011 -2.9737 -2.0051 0.9731
6.0437 -2.4447 -2.0052 0.9731
6.3825 -1.3323 -2.0054 0.9731
6.5179 -0.1773 -2.0055 0.9731
6.4456 0.9834 -2.0055 0.9731
6.3320 1.5543 -2.0054 0.9731
5.9545 2.6541 -2.0052 0.9731
5.0382 4.1344 -2.0046 0.9731
3.7626 5.3185 -2.0038 0.9731
3.2728 5.6320 -2.0035 0.9731
1.6645 6.2942 -2.0025 0.9731
0.5196 6.4875 -2.0018 0.9731
-0.0610 6.5068 -2.0014 0.9731
-1.2155 6.3902 -2.0007 0.9731
-1.7802 6.2553 -2.0004 0.9731
-3.3708 5.5582 -1.9994 0.9732
-4.3033 4.8695 -1.9988 0.9732
-4.7198 4.4658 -1.9985 0.9732
-5.0987 4.0266 -1.9983 0.9732
-5.4369 3.5555 -1.9981 0.9732
-5.7317 3.0562 -1.9979 0.9732
-6.3351 1.4297 -1.9975 0.9732
-6.4872 -0.2982 -1.9974 0.9732
-6.3314 -1.4459 -1.9975 0.9732
-6.1775 -2.0049 -1.9976 0.9732
-5.0883 -4.0396 -1.9983 0.9732
-4.7083 -4.4778 -1.9985 0.9732
-4.2908 -4.8805 -1.9988 0.9732
-2.3150 -6.0764 -2.0000 0.9732
-1.7641 -6.2597 -2.0004 0.9732
-0.6243 -6.4758 -2.0011 0.9731
-0.0443 -6.5069 -2.0014 0.9731
1.1127 -6.4136 -2.0021 0.9731
1.6806 -6.2899 -2.0025 0.9731
2.2352 -6.1160 -2.0028 0.9731
3.7762 -5.3088 -2.0038 0.9731
4.6605 -4.5547 -2.0044 0.9731
5.7017 -3.1597 -2.0050 0.9731
5.9613 -2.6388 -2.0052 0.9731
6.3360 -1.5380 -2.0054 0.9731
6.4481 -0.9669 -2.0055 0.9731
6.5175 0.1940 -2.0055 0.9731
5.5034 3.4930 -2.0049 0.9731
5.1695 3.9694 -2.0047 0.9731
3.9329 5.1942 -2.0039 0.9731
2.4165 6.0471 -2.0030 0.9731
1.8673 6.2375 -2.0026 0.9731
1.3034 6.3781 -2.0023 0.9731
0.7293 6.4677 -2.0019 0.9731
0.1496 6.5058 -2.0016 0.9731
-0.4311 6.4921 -2.0012 0.9731
-1.0082 6.4266 -2.0009 0.9731
-1.5770 6.3100 -2.0005 0.9731
-4.9659 4.1896 -1.9984 0.9732
-5.8961 2.7249 -1.9978 0.9732
-6.1152 2.1881 -1.9977 0.9732
-6.4060 1.0668 -1.9975 0.9732
-6.4598 -0.6669 -1.9975 0.9732
-6.2390 -1.8040 -1.9976 0.9732
-6.0536 -2.3533 -1.9977 0.9732
-5.8200 -2.8840 -1.9978 0.9732
-5.5401 -3.3918 -1.9980 0.9732
-5.2161 -3.8727 -1.9982 0.9732
-4.0064 -5.1172 -1.9990 0.9732
-3.5346 -5.4549 -1.9993 0.9732
-3.0346 -5.7493 -1.9996 0.9732
-2.5102 -5.9980 -1.9999 0.9732
-1.9656 -6.1990 -2.0002 0.9732
-0.2548 -6.5016 -2.0013 0.9731
0.3261 -6.4996 -2.0017 0.9731
1.4761 -6.3406 -2.0024 0.9731
2.5799 -5.9795 -2.0031 0.9731
3.6023 -5.4278 -2.0037 0.9731
4.0725 -5.0857 -2.0040 0.9731
5.2754 -3.8277 -2.0047 0.9731
5.8726 -2.8302 -2.0051 0.9731
6.2828 -1.7422 -2.0054 0.9731
6.4134 -1.1750 -2.0055 0.9731
6.4928 -0.5984 -2.0055 0.9731
6.5203 -0.0170 -2.0055 0.9731
6.4195 1.1416 -2.0055 0.9731
6.2918 1.7094 -2.0054 0.9731
5.2954 3.8003 -2.0048 0.9731
2.6110 5.9662 -2.0031 0.9731
2.0683 6.1742 -2.0028 0.9731
1.5091 6.3330 -2.0024 0.9731
0.9382 6.4412 -2.0021 0.9731
-0.2209 6.5030 -2.0013 0.9731
-0.7998 6.4563 -2.0010 0.9731
-2.4790 6.0111 -1.9999 0.9732
-3.0047 5.7652 -1.9996 0.9732
-5.1960 3.8999 -1.9982 0.9732
-5.5225 3.4206 -1.9980 0.9732
-5.8050 2.9143 -1.9979 0.9732
-6.0413 2.3848 -1.9977 0.9732
-6.2296 1.8364 -1.9976 0.9732
-6.3682 1.2735 -1.9975 0.9732
-6.4562 0.7005 -1.9975 0.9732
-6.4929 0.1220 -1.9974 0.9732
-6.4779 -0.4576 -1.9974 0.9732
-6.4115 -1.0335 -1.9975 0.9732
-6.2940 -1.6012 -1.9976 0.9732
-5.9101 -2.6941 -1.9978 0.9732
-5.6468 -3.2107 -1.9979 0.9732
-5.3384 -3.7018 -1.9981 0.9732
-4.5970 -4.5924 -1.9986 0.9732
-4.1697 -4.9847 -1.9989 0.9732
-3.7090 -5.3374 -1.9991 0.9732
-2.7027 -5.9133 -1.9998 0.9732
-1.6098 -6.3015 -2.0005 0.9731
-1.0416 -6.4211 -2.0008 0.9731
-0.4649 -6.4895 -2.0012 0.9731
0.1157 -6.5063 -2.0015 0.9731
0.6956 -6.4713 -2.0019 0.9731
1.8348 -6.2470 -2.0026 0.9731
3.4246 -5.5412 -2.0036 0.9731
3.9057 -5.2145 -2.0039 0.9731
4.3558 -4.8461 -2.0042 0.9731
4.7712 -4.4389 -2.0044 0.9731
5.7778 -3.0186 -2.0051 0.9731
6.2230 -1.9445 -2.0053 0.9731
6.3719 -1.3818 -2.0054 0.9731
6.5164 -0.2279 -2.0055 0.9731
6.5107 0.3541 -2.0055 0.9731
6.1841 2.0647 -2.0053 0.9731
5.9750 2.6078 -2.0052 0.9731
5.7182 3.1300 -2.0050 0.9731
5.4158 3.6271 -2.0048 0.9731
4.6842 4.5305 -2.0044 0.9731
4.2610 4.9295 -2.0041 0.9731
2.8029 5.8789 -2.0032 0.9731
1.7133 6.2812 -2.0026 0.9731
-0.0104 6.5072 -2.0015 0.9731
-0.5906 6.4792 -2.0011 0.9731
-2.2834 6.0886 -2.0001 0.9732
-2.8167 5.8597 -1.9997 0.9732
-3.3276 5.5842 -1.9994 0.9732
-5.4091 3.5976 -1.9981 0.9732
-6.1670 2.0370 -1.9976 0.9732
-6.3238 1.4789 -1.9975 0.9732
-6.4303 0.9090 -1.9975 0.9732
-6.4856 0.3319 -1.9974 0.9732
-6.4893 -0.2478 -1.9974 0.9732
-6.4415 -0.8255 -1.9975 0.9732
-5.9940 -2.5015 -1.9977 0.9732
-5.4552 -3.5271 -1.9981 0.9732
-4.3285 -4.8470 -1.9988 0.9732
-3.8796 -5.2144 -1.9990 0.9732
4.5350 3.9738 -2.0043 0.9749
3.7560 4.7151 -2.0038 0.9749
3.3201 5.0306 -2.0035 0.9749
2.8578 5.3059 -2.0033 0.9749
2.3729 5.5388 -2.0030 0.9749
1.8692 5.7274 -2.0026 0.9749
1.3508 5.8703 -2.0023 0.9749
0.2864 6.0149 -2.0017 0.9749
-0.2511 6.0155 -2.0013 0.9749
-0.7865 5.9681 -2.0010 0.9749
-1.3154 5.8733 -2.0007 0.9749
-1.8336 5.7316 -2.0003 0.9750
-2.8218 5.3131 -1.9997 0.9750
-3.2839 5.0396 -1.9994 0.9750
-5.6078 2.1635 -1.9980 0.9750
-5.9798 0.6019 -1.9978 0.9750
-5.9915 -0.4700 -1.9977 0.9750
-5.8131 -1.5270 -1.9979 0.9750
-4.9136 -3.4641 -1.9984 0.9750
-3.8227 -4.6427 -1.9991 0.9750
-2.9379 -5.2494 -1.9996 0.9750
-1.4443 -5.8425 -2.0006 0.9750
0.1538 -6.0194 -2.0015 0.9749
0.6901 -5.9827 -2.0019 0.9749
2.2502 -5.5894 -2.0029 0.9749
3.2083 -5.1022 -2.0035 0.9749
3.6511 -4.7965 -2.0037 0.9749
4.0648 -4.4523 -2.0040 0.9749
5.3671 -2.7512 -2.0048 0.9749
6.0208 0.3744 -2.0052 0.9749
5.8582 1.4380 -2.0051 0.9749
3.0281 5.2109 -2.0034 0.9749
2.5510 5.4594 -2.0031 0.9749
2.0536 5.6643 -2.0028 0.9749
1.5401 5.8239 -2.0024 0.9749
0.4808 6.0029 -2.0018 0.9749
-0.5930 5.9908 -2.0011 0.9749
-2.1566 5.6174 -2.0001 0.9750
-3.5650 4.8441 -1.9993 0.9750
-3.9823 4.5063 -1.9990 0.9750
-4.3678 4.1327 -1.9988 0.9750
-5.3043 2.8283 -1.9982 0.9750
-5.5350 2.3438 -1.9980 0.9750
-5.7217 1.8408 -1.9979 0.9750
-5.9572 0.7950 -1.9978 0.9750
-6.0036 -0.2759 -1.9977 0.9750
-5.9552 -0.8102 -1.9978 0.9750
-5.7169 -1.8554 -1.9979 0.9750
-5.5290 -2.3580 -1.9980 0.9750
-5.2971 -2.8419 -1.9982 0.9750
-5.0229 -3.3032 -1.9983 0.9750
-4.7088 -3.7383 -1.9985 0.9750
-4.3571 -4.1438 -1.9987 0.9750
-3.9707 -4.5164 -1.9990 0.9750
-2.6347 -5.4086 -1.9998 0.9750
-2.1422 -5.6229 -2.0001 0.9750
-1.1096 -5.9159 -2.0008 0.9749
0.4962 -6.0016 -2.0018 0.9749
1.0296 -5.9344 -2.0021 0.9749
1.5550 -5.8199 -2.0024 0.9749
2.0681 -5.6589 -2.0027 0.9749
2.5649 -5.4528 -2.0030 0.9749
3.0414 -5.2031 -2.0033 0.9749
3.4938 -4.9118 -2.0036 0.9749
3.9184 -4.5813 -2.0039 0.9749
4.3119 -4.2141 -2.0041 0.9749
4.6711 -3.8132 -2.0044 0.9749
5.2752 -2.9233 -2.0047 0.9749
5.5153 -2.4414 -2.0049 0.9749
5.8619 -1.4230 -2.0051 0.9749
5.9656 -0.8946 -2.0052 0.9749
5.9897 0.7165 -2.0052 0.9749
5.9018 1.2477 -2.0051 0.9749
5.7667 1.7690 -2.0051 0.9749
4.7828 3.6725 -2.0045 0.9749
4.4358 4.0840 -2.0042 0.9749
4.0534 4.4628 -2.0040 0.9749
3.1953 5.1105 -2.0035 0.9749
2.7264 5.3743 -2.0032 0.9749
2.2359 5.5952 -2.0029 0.9749
1.7278 5.7714 -2.0026 0.9749
1.2060 5.9015 -2.0022 0.9749
0.6748 5.9846 -2.0019 0.9749
0.1384 6.0199 -2.0016 0.9749
-0.3989 6.0072 -2.0012 0.9749
-0.9329 5.9467 -2.0009 0.9749
-1.4593 5.8389 -2.0006 0.9750
-1.9739 5.6846 -2.0003 0.9750
-2.4725 5.4851 -1.9999 0.9750
-3.8346 4.6330 -1.9991 0.9750
-4.2320 4.2720 -1.9988 0.9750
-4.5956 3.8771 -1.9986 0.9750
-4.9225 3.4515 -1.9984 0.9750
-5.2102 2.9985 -1.9982 0.9750
-5.4564 2.5217 -1.9981 0.9750
-5.9284 0.9873 -1.9978 0.9750
-5.9927 0.4547 -1.9977 0.9750
-6.0094 -0.0816 -1.9977 0.9750
-5.8995 -1.1479 -1.9978 0.9750
-5.7738 -1.6695 -1.9979 0.9750
-5.6022 -2.1778 -1.9980 0.9750
-4.4887 -4.0005 -1.9987 0.9750
-4.1146 -4.3854 -1.9989 0.9750
-3.7075 -4.7355 -1.9992 0.9750
-3.2709 -5.0479 -1.9994 0.9750
-2.8081 -5.3203 -1.9997 0.9750
-2.3228 -5.5503 -2.0000 0.9750
-1.8189 -5.7363 -2.0003 0.9750
-1.3003 -5.8765 -2.0006 0.9749
0.3018 -6.0141 -2.0016 0.9749
0.8370 -5.9642 -2.0020 0.9749
1.8839 -5.7225 -2.0026 0.9749
2.8714 -5.2985 -2.0032 0.9749
3.3329 -5.0220 -2.0035 0.9749
3.7680 -4.7054 -2.0038 0.9749
4.1731 -4.3512 -2.0041 0.9749
4.8808 -3.5414 -2.0045 0.9749
5.1777 -3.0923 -2.0047 0.9749
5.4333 -2.6185 -2.0048 0.9749
5.6455 -2.1236 -2.0050 0.9749
5.8127 -1.6118 -2.0051 0.9749
5.9335 -1.0871 -2.0052 0.9749
6.0069 -0.5536 -2.0052 0.9749
6.0324 -0.0157 -2.0052 0.9749
5.9391 1.0562 -2.0052 0.9749
5.8211 1.5815 -2.0051 0.9749
5.4469 2.5902 -2.0049 0.9749
5.1938 3.0654 -2.0047 0.9749
4.8993 3.5160 -2.0045 0.9749
4.5657 3.9385 -2.0043 0.9749
3.3591 5.0047 -2.0036 0.9749
2.8990 5.2836 -2.0033 0.9749
1.3964 5.8597 -2.0024 0.9749
-2.7804 5.3349 -1.9998 0.9750
-3.2447 5.0650 -1.9995 0.9750
-3.6829 4.7548 -1.9992 0.9750
-5.1107 3.1656 -1.9983 0.9750
-5.3722 2.6970 -1.9981 0.9750
-5.8935 1.1786 -1.9978 0.9750
-5.9950 -0.4234 -1.9977 0.9750
-5.9335 -0.9564 -1.9978 0.9750
-5.4694 -2.4932 -1.9981 0.9750
-4.9403 -3.4258 -1.9984 0.9750
-4.6156 -3.8531 -1.9986 0.9750
-3.8586 -4.6128 -1.9991 0.9750
-3.4323 -4.9392 -1.9993 0.9750
-2.5010 -5.4720 -1.9999 0.9750
-2.0034 -5.6741 -2.0002 0.9750
-1.4896 -5.8311 -2.0005 0.9750
-0.9638 -5.9417 -2.0009 0.9749
0.1071 -6.0204 -2.0015 0.9749
2.6983 -5.3883 -2.0031 0.9749
3.1686 -5.1269 -2.0034 0.9749
3.6136 -4.8246 -2.0037 0.9749
4.0300 -4.4837 -2.0040 0.9749
5.0748 -3.2581 -2.0046 0.9749
5.7574 -1.7990 -2.0050 0.9749
5.8952 -1.2784 -2.0051 0.9749
5.9858 -0.7476 -2.0052 0.9749
6.0287 -0.2108 -2.0052 0.9749
5.9702 0.8635 -2.0052 0.9749
5.5280 2.4127 -2.0049 0.9749
5.2904 2.8958 -2.0048 0.9749
5.0106 3.3558 -2.0046 0.9749
4.6909 3.7889 -2.0044 0.9749
3.9423 4.5609 -2.0039 0.9749
3.5194 4.8937 -2.0037 0.9749
3.0685 5.1873 -2.0034 0.9749
2.5933 5.4395 -2.0031 0.9749
1.5853 5.8118 -2.0025 0.9749
1.0605 5.9291 -2.0021 0.9749
0.5275 5.9991 -2.0018 0.9749
-0.0097 6.0212 -2.0015 0.9749
-0.5465 5.9953 -2.0011 0.9749
-1.0788 5.9217 -2.0008 0.9749
-1.6023 5.8010 -2.0005 0.9750
-2.1129 5.6341 -2.0002 0.9750
-3.0793 5.1676 -1.9996 0.9750
-3.5273 4.8717 -1.9993 0.9750
-3.9472 4.5371 -1.9990 0.9750
-4.3356 4.1665 -1.9988 0.9750
-4.6894 3.7629 -1.9986 0.9750
-5.0057 3.3294 -1.9984 0.9750
-5.5167 2.3868 -1.9980 0.9750
-5.8523 1.3686 -1.9978 0.9750
-5.9509 0.8412 -1.9978 0.9750
-6.0056 -0.2293 -1.9977 0.9750
-5.9613 -0.7640 -1.9978 0.9750
-5.8695 -1.2926 -1.9978 0.9750
-5.7311 -1.8109 -1.9979 0.9750
-5.0484 -3.2641 -1.9983 0.9750
-4.7377 -3.7016 -1.9985 0.9750
-3.5901 -4.8254 -1.9992 0.9750
4.2149 3.6934 -2.0041 0.9765
3.8684 4.0541 -2.0039 0.9765
3.4910 4.3825 -2.0037 0.9765
3.0859 4.6757 -2.0034 0.9765
-1.2227 5.4595 -2.0007 0.9765
-2.1725 5.1539 -2.0001 0.9765
-2.6231 4.9390 -1.9999 0.9765
-3.0527 4.6847 -1.9996 0.9765
-3.4578 4.3933 -1.9993 0.9765
-4.4960 3.3202 -1.9987 0.9765
-5.0134 2.4683 -1.9984 0.9765
-5.2133 2.0113 -1.9982 0.9765
-5.3716 1.5383 -1.9981 0.9765
-5.4872 1.0531 -1.9981 0.9765
-5.4041 -1.4196 -1.9981 0.9765
-5.2562 -1.8959 -1.9982 0.9765
-5.0665 -2.3572 -1.9983 0.9765
-4.8364 -2.7999 -1.9985 0.9765
-4.2628 -3.6152 -1.9988 0.9765
-3.9239 -3.9813 -1.9990 0.9765
-3.5536 -4.3159 -1.9992 0.9765
-3.1550 -4.6162 -1.9995 0.9765
-2.7311 -4.8798 -1.9998 0.9765
-0.8530 -5.5299 -2.0009 0.9765
-0.3565 -5.5848 -2.0012 0.9765
0.1430 -5.5952 -2.0015 0.9765
1.1350 -5.4825 -2.0022 0.9765
1.6197 -5.3603 -2.0025 0.9765
4.4540 -3.4019 -2.0042 0.9765
4.7400 -2.9915 -2.0044 0.9765
5.3638 -1.6304 -2.0048 0.9765
5.4881 -1.1456 -2.0049 0.9765
5.5685 -0.6516 -2.0049 0.9765
5.5423 0.8456 -2.0049 0.9765
4.6326 3.1550 -2.0044 0.9765
3.6311 4.2674 -2.0037 0.9765
2.8145 4.8434 -2.0032 0.9765
0.9429 5.5185 -2.0021 0.9765
-0.5512 5.5687 -2.0011 0.9765
-2.0047 5.2218 -2.0002 0.9765
-2.4620 5.0215 -2.0000 0.9765
-4.0604 3.8418 -1.9990 0.9765
-4.3863 3.4640 -1.9988 0.9765
-4.6774 3.0588 -1.9986 0.9765
-4.9311 2.6293 -1.9984 0.9765
-5.3191 1.7112 -1.9982 0.9765
-5.4503 1.2300 -1.9981 0.9765
-5.4471 -1.2440 -1.9981 0.9765
-5.1400 -2.1921 -1.9983 0.9765
-4.9243 -2.6419 -1.9984 0.9765
-4.6695 -3.0708 -1.9986 0.9765
-4.3774 -3.4752 -1.9987 0.9765
-4.0505 -3.8522 -1.9989 0.9765
-3.6912 -4.1985 -1.9992 0.9765
-3.3025 -4.5115 -1.9994 0.9765
-2.8874 -4.7886 -1.9997 0.9765
-2.4491 -5.0277 -1.9999 0.9765
-1.5175 -5.3844 -2.0005 0.9765
-1.0314 -5.4991 -2.0008 0.9765
-0.0381 -5.5966 -2.0014 0.9765
0.9570 -5.5161 -2.0020 0.9765
1.4454 -5.4096 -2.0024 0.9765
3.6420 -4.2581 -2.0037 0.9765
4.6406 -3.1431 -2.0043 0.9765
5.4481 -1.3225 -2.0049 0.9765
5.5445 -0.8314 -2.0049 0.9765
5.5966 -0.3336 -2.0049 0.9765
5.5668 0.6659 -2.0049 0.9765
4.7324 3.0036 -2.0044 0.9765
4.4453 3.4134 -2.0042 0.9765
2.9699 4.7500 -2.0033 0.9765
2.5341 4.9953 -2.0031 0.9765
1.1210 5.4855 -2.0022 0.9765
0.6272 5.5627 -2.0019 0.9765
-0.8672 5.5278 -2.0009 0.9765
-1.3565 5.4276 -2.0006 0.9765
-3.1668 4.6081 -1.9995 0.9765
-4.5761 3.2086 -1.9986 0.9765
-4.8436 2.7875 -1.9985 0.9765
-5.2611 1.8825 -1.9982 0.9765
-5.4077 1.4057 -1.9981 0.9765
-5.5114 0.9178 -1.9980 0.9765
-5.5711 0.4227 -1.9980 0.9765
-5.5576 -0.5738 -1.9980 0.9765
-5.4844 -1.0671 -1.9981 0.9765
-5.3676 -1.5520 -1.9981 0.9765
-4.4874 -3.3317 -1.9987 0.9765
-3.4465 -4.4021 -1.9993 0.9765
-2.6104 -4.9456 -1.9998 0.9765
-2.1592 -5.1594 -2.0001 0.9765
-1.2087 -5.4626 -2.0007 0.9765
0.2805 -5.5902 -2.0016 0.9765
0.7780 -5.5438 -2.0019 0.9765
2.2187 -5.1424 -2.0028 0.9765
3.0978 -4.6678 -2.0034 0.9765
3.8787 -4.0442 -2.0039 0.9765
4.5364 -3.2915 -2.0043 0.9765
5.0498 -2.4337 -2.0046 0.9765
5.4024 -1.4980 -2.0048 0.9765
5.5146 -1.0103 -2.0049 0.9765
5.6066 -0.0146 -2.0050 0.9765
5.4101 1.4699 -2.0048 0.9765
5.2572 1.9464 -2.0047 0.9765
5.0624 2.4074 -2.0046 0.9765
4.8272 2.8490 -2.0045 0.9765
3.1221 4.6517 -2.0034 0.9765
2.6945 4.9109 -2.0032 0.9765
2.2455 5.1309 -2.0029 0.9765
1.7787 5.3100 -2.0026 0.9765
1.2979 5.4466 -2.0023 0.9765
0.8069 5.5398 -2.0020 0.9765
0.3096 5.5888 -2.0017 0.9765
-1.1803 5.4689 -2.0007 0.9765
-1.6630 5.3411 -2.0004 0.9765
-2.1324 5.1707 -2.0002 0.9765
-2.5846 4.9593 -1.9999 0.9765
-3.0162 4.7084 -1.9996 0.9765
-3.8037 4.0967 -1.9991 0.9765
-4.1535 3.7407 -1.9989 0.9765
-4.4701 3.3551 -1.9987 0.9765
-5.1975 2.0517 -1.9982 0.9765
-5.3595 1.5800 -1.9981 0.9765
-5.5546 0.6027 -1.9980 0.9765
-5.5861 0.1049 -1.9980 0.9765
-5.4149 -1.3775 -1.9981 0.9765
-5.0846 -2.3178 -1.9983 0.9765
-4.8580 -2.7622 -1.9984 0.9765
-4.5927 -3.1847 -1.9986 0.9765
-4.2908 -3.5819 -1.9988 0.9765
-3.9547 -3.9507 -1.9990 0.9765
-3.1907 -4.5915 -1.9995 0.9765
-1.8623 -5.2744 -2.0003 0.9765
-1.3847 -5.4203 -2.0006 0.9765
-0.8959 -5.5230 -2.0009 0.9765
0.0995 -5.5961 -2.0015 0.9765
0.5982 -5.5658 -2.0018 0.9765
2.5080 -5.0083 -2.0030 0.9765
2.9451 -4.7653 -2.0033 0.9765
4.1029 -3.8172 -2.0040 0.9765
4.7166 -3.0282 -2.0044 0.9765
5.5983 0.3045 -2.0050 0.9765
5.3176 1.7754 -2.0048 0.9765
4.9170 2.6914 -2.0045 0.9765
4.6570 3.1190 -2.0044 0.9765
4.3599 3.5215 -2.0042 0.9765
3.6642 4.2391 -2.0038 0.9765
2.4104 5.0559 -2.0030 0.9765
1.9497 5.2499 -2.0027 0.9765
1.4735 5.4021 -2.0024 0.9765
0.9858 5.5111 -2.0021 0.9765
0.4903 5.5762 -2.0018 0.9765
-0.5080 5.5729 -2.0012 0.9765
-1.0028 5.5045 -2.0009 0.9765
-2.4230 5.0405 -2.0000 0.9765
-2.8625 4.8037 -1.9997 0.9765
-3.2790 4.5287 -1.9994 0.9765
-3.6694 4.2177 -1.9992 0.9765
-4.6535 3.0951 -1.9986 0.9765
-4.9106 2.6675 -1.9984 0.9765
-5.1285 2.2188 -1.9983 0.9765
-5.3057 1.7525 -1.9982 0.9765
-5.5322 0.7821 -1.9980 0.9765
-5.5798 0.2856 -1.9980 0.9765
-5.4566 -1.2016 -1.9981 0.9765
-5.3279 -1.6835 -1.9982 0.9765
-4.9447 -2.6035 -1.9984 0.9765
-4.0802 -3.8205 -1.9989 0.9765
-3.3374 -4.4856 -1.9994 0.9765
3.9329 3.4463 -2.0039 0.9778
3.2575 4.0893 -2.0035 0.9779
2.8795 4.3630 -2.0033 0.9779
2.4786 4.6018 -2.0030 0.9779
2.0581 4.8039 -2.0028 0.9779
0.7128 5.1751 -2.0019 0.9779
0.2484 5.2173 -2.0016 0.9779
-0.6822 5.1770 -2.0011 0.9779
-1.5906 4.9720 -2.0005 0.9779
-2.8488 4.3719 -1.9997 0.9779
-3.5794 3.7954 -1.9993 0.9779
-4.1959 3.0986 -1.9989 0.9779
-4.6789 2.3036 -1.9986 0.9779
-5.0132 1.4356 -1.9984 0.9779
-5.1210 0.9828 -1.9983 0.9779
-5.1882 0.5222 -1.9982 0.9779
-5.1414 -0.8698 -1.9983 0.9779
-4.9055 -1.7694 -1.9984 0.9779
-4.5136 -2.6130 -1.9987 0.9779
-4.2630 -3.0054 -1.9988 0.9779
-3.6619 -3.7156 -1.9992 0.9779
-2.1327 -4.7637 -2.0001 0.9779
-0.7960 -5.1604 -2.0010 0.9779
1.0591 -5.1160 -2.0021 0.9779
1.9517 -4.8478 -2.0027 0.9779
2.3765 -4.6551 -2.0029 0.9779
3.5252 -3.8613 -2.0037 0.9779
4.1559 -3.1743 -2.0040 0.9778
4.8490 -1.9614 -2.0045 0.9778
5.0802 1.2470 -2.0046 0.9778
4.9486 1.6950 -2.0046 0.9778
4.0425 3.3174 -2.0040 0.9778
3.7302 3.6643 -2.0038 0.9779
3.0192 4.2677 -2.0034 0.9779
2.6263 4.5194 -2.0031 0.9779
2.2125 4.7350 -2.0029 0.9779
-0.0489 5.2225 -2.0015 0.9779
-0.5144 5.1966 -2.0012 0.9779
-0.9756 5.1293 -2.0009 0.9779
-1.4290 5.0211 -2.0006 0.9779
-1.8708 4.8730 -2.0003 0.9779
-2.2976 4.6861 -2.0001 0.9779
-2.7060 4.4620 -1.9998 0.9779
-3.0928 4.2024 -1.9996 0.9779
-3.7893 3.5854 -1.9991 0.9779
-4.3652 2.8547 -1.9988 0.9779
-4.8022 2.0335 -1.9985 0.9779
-5.1686 0.6898 -1.9983 0.9779
-5.2094 0.2261 -1.9982 0.9779
-4.9600 -1.6098 -1.9984 0.9779
-4.7970 -2.0458 -1.9985 0.9779
-4.5957 -2.4656 -1.9986 0.9779
-3.7801 -3.5950 -1.9991 0.9779
-3.4448 -3.9182 -1.9993 0.9779
-2.6946 -4.4689 -1.9998 0.9779
-2.2856 -4.6920 -2.0000 0.9779
-0.5011 -5.1978 -2.0011 0.9779
0.4304 -5.2057 -2.0017 0.9779
1.3487 -5.0479 -2.0023 0.9779
3.0301 -4.2599 -2.0033 0.9779
3.3983 -3.9732 -2.0036 0.9779
3.7395 -3.6547 -2.0038 0.9779
4.0509 -3.3070 -2.0040 0.9778
4.3301 -2.9328 -2.0042 0.9778
4.9529 -1.6823 -2.0045 0.9778
5.0834 -1.2340 -2.0046 0.9778
5.2220 -0.3113 -2.0047 0.9778
5.0009 1.5341 -2.0046 0.9778
4.1478 3.1849 -2.0041 0.9778
3.8469 3.5418 -2.0039 0.9778
1.4986 5.0058 -2.0024 0.9779
1.0461 5.1187 -2.0021 0.9779
-0.3461 5.2108 -2.0013 0.9779
-0.8093 5.1584 -2.0010 0.9779
-2.1449 4.7582 -2.0001 0.9779
-2.5604 4.5474 -1.9999 0.9779
-2.9553 4.3004 -1.9996 0.9779
-3.6715 3.7062 -1.9992 0.9779
-3.9870 3.3637 -1.9990 0.9779
-4.5204 2.6015 -1.9987 0.9779
-5.0469 1.3119 -1.9983 0.9779
-5.1994 0.3945 -1.9982 0.9779
-5.2139 -0.0708 -1.9982 0.9779
-5.1868 -0.5355 -1.9982 0.9779
-5.1185 -0.9959 -1.9983 0.9779
-4.8605 -1.8895 -1.9984 0.9779
-4.4481 -2.7233 -1.9987 0.9779
-3.2164 -4.1082 -1.9995 0.9779
-2.8376 -4.3792 -1.9997 0.9779
-2.4361 -4.6154 -1.9999 0.9779
-1.5778 -4.9760 -2.0005 0.9779
-1.1279 -5.0976 -2.0008 0.9779
-0.2045 -5.2184 -2.0013 0.9779
0.7260 -5.1732 -2.0019 0.9779
1.1846 -5.0886 -2.0022 0.9779
2.4904 -4.5954 -2.0030 0.9779
2.8906 -4.3555 -2.0033 0.9779
3.2679 -4.0809 -2.0035 0.9779
3.6192 -3.7736 -2.0037 0.9779
4.4902 -2.6817 -2.0043 0.9778
4.8958 -1.8416 -2.0045 0.9778
5.0408 -1.3978 -2.0046 0.9778
5.2092 -0.4801 -2.0047 0.9778
5.1504 0.9159 -2.0047 0.9778
4.2488 3.0492 -2.0041 0.9778
3.9596 3.4156 -2.0039 0.9778
3.6389 3.7548 -2.0037 0.9779
1.6598 4.9549 -2.0025 0.9779
1.2112 5.0825 -2.0022 0.9779
0.7530 5.1695 -2.0020 0.9779
-0.1773 5.2195 -2.0014 0.9779
-0.6420 5.1822 -2.0011 0.9779
-1.1014 5.1035 -2.0008 0.9779
-1.5519 4.9843 -2.0005 0.9779
-1.9900 4.8254 -2.0002 0.9779
-2.4121 4.6281 -2.0000 0.9779
-3.1951 4.1250 -1.9995 0.9779
-3.5498 3.8232 -1.9993 0.9779
-4.1717 3.1312 -1.9989 0.9779
-4.4339 2.7464 -1.9987 0.9779
-4.6609 2.3399 -1.9986 0.9779
-5.0019 1.4745 -1.9984 0.9779
-5.1839 0.5625 -1.9982 0.9779
-5.2134 0.0979 -1.9982 0.9779
-5.1480 -0.8298 -1.9983 0.9779
-5.0536 -1.2856 -1.9983 0.9779
-4.7453 -2.1631 -1.9985 0.9779
-4.0044 -3.3428 -1.9990 0.9779
-3.3475 -4.0018 -1.9994 0.9779
-2.9776 -4.2849 -1.9996 0.9779
-2.5840 -4.5339 -1.9999 0.9779
-1.7379 -4.9221 -2.0004 0.9779
-1.2922 -5.0582 -2.0007 0.9779
-0.8361 -5.1540 -2.0009 0.9779
-0.3732 -5.2088 -2.0012 0.9779
0.0929 -5.2221 -2.0015 0.9779
0.5583 -5.1937 -2.0018 0.9779
1.0194 -5.1240 -2.0021 0.9779
1.4725 -5.0134 -2.0024 0.9779
1.9139 -4.8628 -2.0026 0.9779
2.3403 -4.6733 -2.0029 0.9779
3.1340 -4.1843 -2.0034 0.9779
3.4951 -3.8886 -2.0036 0.9779
3.8283 -3.5617 -2.0038 0.9778
4.4010 -2.8255 -2.0042 0.9778
4.6358 -2.4220 -2.0043 0.9778
4.8336 -1.9990 -2.0045 0.9778
4.9928 -1.5601 -2.0046 0.9778
5.1123 -1.1087 -2.0046 0.9778
5.2235 0.2841 -2.0047 0.9778
4.7939 2.0923 -2.0045 0.9778
4.5879 2.5113 -2.0043 0.9778
4.3453 2.9102 -2.0042 0.9778
4.0682 3.2859 -2.0040 0.9778
3.7586 3.6352 -2.0038 0.9779
3.4190 3.9555 -2.0036 0.9779
2.2492 4.7177 -2.0029 0.9779
1.3750 5.0409 -2.0023 0.9779
0.9199 5.1427 -2.0021 0.9779
-0.0084 5.2228 -2.0015 0.9779
-0.4740 5.2005 -2.0012 0.9779
-0.9358 5.1368 -2.0009 0.9779
-1.3900 5.0321 -2.0006 0.9779
-1.8329 4.8875 -2.0003 0.9779
-2.2612 4.7039 -2.0001 0.9779
-3.4244 3.9362 -1.9994 0.9779
-4.0684 3.2646 -1.9989 0.9779
-4.7863 2.0708 -1.9985 0.9779
-4.9516 1.6356 -1.9984 0.9779
-5.1631 0.7299 -1.9983 0.9779
-5.2075 0.2665 -1.9982 0.9779
-5.2105 -0.1989 -1.9982 0.9779
-4.6147 -2.4298 -1.9986 0.9779
-4.3799 -2.8319 -1.9987 0.9779
-3.1146 -4.1862 -1.9995 0.9779
3.6822 3.2266 -2.0038 0.9791
3.0499 3.8287 -2.0034 0.9791
2.6960 4.0850 -2.0032 0.9791
1.9270 4.4978 -2.0027 0.9791
1.5180 4.6512 -2.0024 0.9791
1.0970 4.7674 -2.0022 0.9791
0.6674 4.8456 -2.0019 0.9791
0.2326 4.8851 -2.0016 0.9791
-0.2040 4.8857 -2.0014 0.9791
-1.0684 4.7705 -2.0008 0.9791
-1.4894 4.6556 -2.0006 0.9791
-1.8984 4.5037 -2.0003 0.9791
-2.2922 4.3159 -2.0001 0.9791
-2.6676 4.0938 -1.9998 0.9791
-3.3517 3.5541 -1.9994 0.9791
-3.9291 2.9016 -1.9990 0.9791
-4.5561 1.7577 -1.9986 0.9791
-4.6945 1.3444 -1.9986 0.9791
-4.7955 0.9203 -1.9985 0.9791
-1.9577 0.1970 -0.8053 0.9915
-1.9091 0.0210 -0.7814 0.9918
-1.9552 -0.1534 -0.8027 0.9916
-4.5936 -1.6569 -1.9986 0.9791
-4.4278 -2.0601 -1.9987 0.9791
-4.2267 -2.4469 -1.9988 0.9791
-3.9919 -2.8143 -1.9990 0.9791
-3.7253 -3.1593 -1.9991 0.9791
-3.1054 -3.7716 -1.9995 0.9791
-1.5915 -4.6215 -2.0005 0.9791
-0.3115 -4.8798 -2.0013 0.9791
0.1249 -4.8888 -2.0015 0.9791
0.5605 -4.8589 -2.0018 0.9791
0.9917 -4.7902 -2.0021 0.9791
3.6102 -3.3068 -2.0037 0.9791
4.5398 -1.8364 -2.0043 0.9791
4.7942 -1.0008 -2.0044 0.9791
4.8645 -0.5692 -2.0045 0.9791
4.8959 -0.1332 -2.0045 0.9791
4.8883 0.3040 -2.0045 0.9791
4.2770 2.3845 -2.0041 0.9791
3.7848 3.1059 -2.0038 0.9791
3.1722 3.7281 -2.0035 0.9791
2.0715 4.4334 -2.0028 0.9791
0.8238 4.8217 -2.0020 0.9791
0.3905 4.8753 -2.0017 0.9791
-0.0458 4.8900 -2.0015 0.9791
-0.4817 4.8658 -2.0012 0.9791
-2.1514 4.3880 -2.0001 0.9791
-2.5339 4.1781 -1.9999 0.9791
-2.8960 3.9351 -1.9997 0.9791
-3.2351 3.6608 -1.9995 0.9791
-3.8333 3.0273 -1.9991 0.9791
-4.3094 2.2978 -1.9988 0.9791
-4.4969 1.9042 -1.9987 0.9791
-4.6486 1.4955 -1.9986 0.9791
-4.7633 1.0750 -1.9985 0.9791
-1.9365 0.0840 -0.7933 0.9917
-4.6447 -1.5074 -1.9986 0.9791
-4.4920 -1.9157 -1.9987 0.9791
-4.3035 -2.3088 -1.9988 0.9791
-4.0807 -2.6836 -1.9989 0.9791
-3.8255 -3.0370 -1.9991 0.9791
-3.5397 -3.3664 -1.9993 0.9791
-2.5231 -4.1846 -1.9999 0.9791
-2.1402 -4.3935 -2.0001 0.9791
-1.7400 -4.5674 -2.0004 0.9791
-1.3260 -4.7050 -2.0006 0.9791
-0.9012 -4.8051 -2.0009 0.9791
-0.4692 -4.8670 -2.0012 0.9791
0.4030 -4.8742 -2.0017 0.9791
1.2628 -4.7264 -2.0022 0.9791
1.6795 -4.5955 -2.0025 0.9791
2.4698 -4.2251 -2.0030 0.9791
2.8371 -3.9885 -2.0032 0.9791
3.5012 -3.4218 -2.0036 0.9791
3.7927 -3.0962 -2.0038 0.9791
4.2831 -2.3735 -2.0041 0.9791
4.4780 -1.9822 -2.0042 0.9791
4.8435 -0.7263 -2.0045 0.9791
4.8890 -0.2915 -2.0045 0.9791
4.8630 0.5817 -2.0045 0.9791
4.5351 1.8480 -2.0043 0.9791
4.3520 2.2449 -2.0042 0.9791
3.8834 2.9819 -2.0039 0.9791
3.6017 3.3161 -2.0037 0.9791
2.9547 3.9024 -2.0033 0.9791
2.2140 4.3642 -2.0029 0.9791
1.4031 4.6869 -2.0024 0.9791
0.9794 4.7927 -2.0021 0.9791
0.1124 4.8892 -2.0016 0.9791
-0.3240 4.8791 -2.0013 0.9791
-0.7577 4.8301 -2.0010 0.9791
-2.7674 4.0269 -1.9998 0.9791
-3.7334 3.1498 -1.9992 0.9791
-3.9991 2.8040 -1.9990 0.9791
-4.5978 1.6452 -1.9986 0.9791
-2.0909 0.3482 -0.8675 0.9909
-4.7931 -0.9326 -1.9985 0.9791
-4.6910 -1.3564 -1.9985 0.9791
-4.1653 -2.5501 -1.9989 0.9791
-3.6466 -3.2500 -1.9992 0.9791
-3.3426 -3.5626 -1.9994 0.9791
-3.0119 -3.8469 -1.9996 0.9791
-2.2811 -4.3217 -2.0000 0.9791
-1.0562 -4.7732 -2.0008 0.9791
-0.6264 -4.8490 -2.0011 0.9791
-0.1915 -4.8862 -2.0013 0.9791
0.2451 -4.8845 -2.0016 0.9791
0.6798 -4.8438 -2.0019 0.9791
1.1092 -4.7645 -2.0021 0.9791
1.5299 -4.6472 -2.0024 0.9791
1.9385 -4.4929 -2.0027 0.9791
2.3317 -4.3026 -2.0029 0.9791
3.3885 -3.5331 -2.0036 0.9791
3.6905 -3.2171 -2.0038 0.9791
3.9630 -2.8754 -2.0039 0.9791
4.4114 -2.1260 -2.0042 0.9791
4.5837 -1.7242 -2.0043 0.9791
4.8793 0.4241 -2.0045 0.9791
4.8220 0.8575 -2.0045 0.9791
4.5926 1.7004 -2.0043 0.9791
4.4224 2.1030 -2.0042 0.9791
4.2170 2.4889 -2.0041 0.9791
3.9780 2.8548 -2.0040 0.9791
3.7072 3.1979 -2.0038 0.9791
3.4069 3.5155 -2.0036 0.9791
2.7277 4.0639 -2.0032 0.9791
2.3541 4.2905 -2.0029 0.9791
0.7050 4.8403 -2.0019 0.9791
0.2705 4.8832 -2.0017 0.9791
-0.1660 4.8872 -2.0014 0.9791
-0.6011 4.8523 -2.0011 0.9791
-2.2586 4.3336 -2.0001 0.9791
-2.6358 4.1145 -1.9998 0.9791
-3.3240 3.5800 -1.9994 0.9791
-3.6297 3.2690 -1.9992 0.9791
-4.1520 2.5718 -1.9989 0.9791
-4.3645 2.1911 -1.9988 0.9791
-4.6839 1.3808 -1.9986 0.9791
-1.9568 0.2123 -0.8056 0.9915
-1.9165 0.0360 -0.7845 0.9917
-1.9521 -0.1379 -0.8009 0.9916
-4.6063 -1.6212 -1.9986 0.9791
-3.7497 -3.1303 -1.9991 0.9791
-3.4559 -3.4525 -1.9993 0.9791
-2.4196 -4.2455 -2.0000 0.9791
-2.0316 -4.4449 -2.0002 0.9791
0.9545 -4.7977 -2.0020 0.9791
1.7920 -4.5530 -2.0026 0.9791
2.1912 -4.3756 -2.0028 0.9791
2.9343 -3.9176 -2.0033 0.9791
3.2724 -3.6407 -2.0035 0.9791
3.5843 -3.3347 -2.0037 0.9791
3.8678 -3.0021 -2.0039 0.9791
4.1204 -2.6454 -2.0040 0.9791
4.3402 -2.2675 -2.0042 0.9791
4.6745 -1.4606 -2.0044 0.9791
4.7863 -1.0380 -2.0044 0.9791
4.8599 -0.6070 -2.0045 0.9791
4.8947 -0.1712 -2.0045 0.9791
4.7653 1.1305 -2.0044 0.9791
4.6453 1.5509 -2.0044 0.9791
4.4883 1.9589 -2.0043 0.9791
3.2011 3.7034 -2.0035 0.9791
2.8578 3.9737 -2.0033 0.9791
2.4918 4.2123 -2.0030 0.9791
1.7034 4.5868 -2.0025 0.9791
1.2874 4.7198 -2.0023 0.9791
0.8613 4.8152 -2.0020 0.9791
-0.0078 4.8903 -2.0015 0.9791
-0.8762 4.8098 -2.0009 0.9791
-2.5014 4.1978 -1.9999 0.9791
-2.8654 3.9575 -1.9997 0.9791
-3.2066 3.6858 -1.9995 0.9791
-3.8097 3.0570 -1.9991 0.9791
-4.4820 1.9391 -1.9987 0.9791
-4.6368 1.5316 -1.9986 0.9791
-4.7548 1.1120 -1.9985 0.9791
-1.9461 0.2751 -0.8044 0.9915
-1.9416 0.0994 -0.7957 0.9916
-4.6563 -1.4713 -1.9986 0.9791
-4.5067 -1.8808 -1.9987 0.9791
-3.8489 -3.0072 -1.9991 0.9791
-3.5657 -3.3388 -1.9992 0.9791
-3.2541 -3.6438 -1.9994 0.9791
-2.9165 -3.9199 -1.9996 0.9791
3.4577 3.0299 -2.0036 0.9801
2.8640 3.5953 -2.0033 0.9801
-1.0033 4.4801 -2.0009 0.9802
-2.1527 4.0532 -2.0001 0.9802
-2.8378 3.6056 -1.9997 0.9802
-3.1478 3.3378 -1.9995 0.9802
-3.9181 2.3850 -1.9990 0.9802
-4.1149 2.0259 -1.9989 0.9802
-1.5000 0.2879 -0.6657 0.9934
-1.5261 0.1536 -0.6685 0.9933
-1.5246 0.0168 -0.6645 0.9934
-1.5289 -0.1199 -0.6684 0.9933
-1.5053 -0.2546 -0.6653 0.9934
-1.5531 -0.4080 -0.6999 0.9930
-4.1584 -1.9348 -1.9989 0.9802
-3.9696 -2.2981 -1.9990 0.9802
-3.7491 -2.6431 -1.9991 0.9802
-2.9165 -3.5421 -1.9996 0.9802
-2.5892 -3.7884 -1.9998 0.9802
-1.8755 -4.1891 -2.0003 0.9802
-0.7000 -4.5378 -2.0010 0.9802
-0.2925 -4.5827 -2.0013 0.9802
0.1173 -4.5911 -2.0015 0.9802
0.5263 -4.5629 -2.0018 0.9802
1.3289 -4.3979 -2.0023 0.9802
1.7160 -4.2624 -2.0025 0.9802
