ply
format ascii 1.0
element vertex 1594
property float32 x
property float32 y
property float32 z
property float32 I
end_header
3.1827 -7.9144 -2.0048 0.9656
4.5441 -7.2270 -2.0064 0.9655
6.7965 -5.1838 -2.0089 0.9655
7.2343 -4.5569 -2.0094 0.9655
7.9330 -3.1977 -2.0102 0.9655
8.3777 -1.7350 -2.0107 0.9655
8.4550 1.3099 -2.0108 0.9655
8.0852 2.7934 -2.0104 0.9655
7.0508 4.8349 -2.0093 0.9655
6.5889 5.4442 -2.0088 0.9655
6.0743 6.0095 -2.0082 0.9655
4.2536 7.3889 -2.0037 0.9656
3.5572 7.6981 -1.9931 0.9658
2.7571 7.7111 -1.9247 0.9669
2.0036 7.7207 -1.8747 0.9678
0.5894 7.8487 -1.8498 0.9682
-0.1142 7.8666 -1.8490 0.9682
-2.2447 7.7204 -1.8896 0.9675
-3.7772 7.5875 -1.9920 0.9658
-4.4498 7.2354 -1.9963 0.9657
-5.6628 6.3234 -1.9950 0.9657
-6.6940 5.2115 -1.9938 0.9657
-7.5112 3.9349 -1.9929 0.9658
-7.8313 3.2474 -1.9925 0.9658
-8.0889 2.5342 -1.9922 0.9658
-8.2821 1.8011 -1.9920 0.9658
-8.4093 1.0537 -1.9918 0.9658
-8.4623 -0.4599 -1.9918 0.9658
-8.3876 -1.2143 -1.9918 0.9658
-8.2462 -1.9591 -1.9920 0.9658
-7.4347 -4.0778 -1.9929 0.9658
-6.5932 -5.3386 -1.9938 0.9657
-5.5409 -6.4307 -1.9950 0.9657
-3.6409 -7.6781 -1.9971 0.9657
-2.9413 -7.9759 -1.9979 0.9657
-2.2178 -8.2101 -1.9987 0.9657
-0.7216 -8.4809 -2.0004 0.9656
0.0392 -8.5151 -2.0013 0.9656
0.8002 -8.4812 -2.0021 0.9656
4.3994 -7.3152 -2.0062 0.9655
5.0373 -6.8953 -2.0069 0.9655
5.6352 -6.4197 -2.0076 0.9655
6.6919 -5.3173 -2.0088 0.9655
7.5351 -4.0432 -2.0098 0.9655
7.8677 -3.3543 -2.0101 0.9655
8.5476 -0.3858 -2.0109 0.9655
8.5479 0.3796 -2.0109 0.9655
8.3429 1.8948 -2.0107 0.9655
8.1393 2.6324 -2.0105 0.9655
6.6960 5.3127 -2.0089 0.9655
5.0426 6.8920 -2.0070 0.9655
3.7199 7.6479 -1.9988 0.9657
2.1675 7.7189 -1.8843 0.9676
1.4430 7.7416 -1.8508 0.9682
0.7451 7.8362 -1.8500 0.9682
0.0419 7.8681 -1.8492 0.9682
-0.6611 7.8370 -1.8484 0.9682
-1.3581 7.7433 -1.8476 0.9682
-4.9411 6.9064 -1.9958 0.9657
-5.5366 6.4350 -1.9951 0.9657
-6.0875 5.9127 -1.9945 0.9657
-6.5896 5.3436 -1.9939 0.9657
-7.4320 4.0833 -1.9930 0.9658
-8.0373 2.6943 -1.9923 0.9658
-8.3868 1.2204 -1.9919 0.9658
-8.2833 -1.7950 -1.9920 0.9658
-8.0906 -2.5283 -1.9922 0.9658
-7.8335 -3.2416 -1.9924 0.9658
-6.6974 -5.2064 -1.9937 0.9657
-6.2071 -5.7856 -1.9943 0.9657
-5.6670 -6.3190 -1.9949 0.9657
-4.4548 -7.2317 -1.9962 0.9657
-1.6417 -8.3473 -1.9994 0.9656
-0.1298 -8.5134 -2.0011 0.9656
0.6317 -8.4946 -2.0019 0.9656
1.3888 -8.4078 -2.0028 0.9656
2.1355 -8.2535 -2.0036 0.9656
2.8656 -8.0330 -2.0045 0.9656
3.5734 -7.7479 -2.0053 0.9655
4.8991 -6.9933 -2.0068 0.9655
5.5063 -6.5298 -2.0074 0.9655
6.0697 -6.0136 -2.0081 0.9655
7.0470 -4.8398 -2.0092 0.9655
7.4530 -4.1917 -2.0097 0.9655
7.7993 -3.5097 -2.0101 0.9655
-4.1105 -6.5245 -1.9966 0.9686
-3.5123 -6.8680 -1.9973 0.9686
-2.8855 -7.1569 -1.9980 0.9686
-1.5667 -7.5618 -1.9995 0.9686
-0.8851 -7.6745 -2.0002 0.9686
0.4955 -7.7155 -2.0018 0.9686
1.1834 -7.6433 -2.0026 0.9685
4.3814 -6.3906 -2.0062 0.9685
5.4522 -5.5120 -2.0074 0.9685
6.3495 -4.4558 -2.0084 0.9685
6.7237 -3.8714 -2.0088 0.9685
7.3079 -2.6136 -2.0095 0.9684
7.5131 -1.9504 -2.0097 0.9684
7.7413 -0.5820 -2.0100 0.9684
7.7212 0.8052 -2.0100 0.9684
7.6180 1.4919 -2.0099 0.9684
7.4535 2.1664 -2.0097 0.9684
6.6089 4.0637 -2.0088 0.9685
5.7774 5.1728 -2.0078 0.9685
4.7617 6.1151 -2.0067 0.9685
2.9663 7.1518 -2.0047 0.9685
2.3120 7.3775 -2.0018 0.9686
1.6406 7.5413 -1.9983 0.9686
0.9590 7.6479 -1.9957 0.9687
-1.7805 7.4973 -1.9952 0.9687
-2.4464 7.3174 -1.9977 0.9686
-3.7089 6.7634 -1.9972 0.9686
-4.2969 6.4028 -1.9965 0.9686
-4.8504 5.9913 -1.9959 0.9687
-5.8361 5.0294 -1.9948 0.9687
-6.2606 4.4868 -1.9943 0.9687
-6.6351 3.9085 -1.9939 0.9687
-6.9565 3.2994 -1.9935 0.9687
-7.2224 2.6642 -1.9932 0.9687
-7.5797 1.3358 -1.9928 0.9687
-7.6684 0.6531 -1.9927 0.9687
-7.6959 -0.0347 -1.9926 0.9687
-7.4122 -2.0749 -1.9929 0.9687
-7.1980 -2.7292 -1.9932 0.9687
-6.2198 -4.5430 -1.9943 0.9687
-5.7904 -5.0819 -1.9947 0.9687
-3.6476 -6.7964 -1.9971 0.9686
-3.0267 -7.0977 -1.9978 0.9686
-1.0371 -7.6548 -2.0001 0.9686
-0.3491 -7.7198 -2.0008 0.9686
1.0314 -7.6646 -2.0024 0.9686
1.7128 -7.5447 -2.0032 0.9685
2.3810 -7.3642 -2.0039 0.9685
4.8166 -6.0718 -2.0067 0.9685
6.2595 -4.5807 -2.0083 0.9685
7.7281 -0.7355 -2.0100 0.9684
7.7631 -0.0420 -2.0100 0.9684
7.2840 2.6795 -2.0095 0.9684
7.0144 3.3192 -2.0092 0.9684
6.6886 3.9320 -2.0089 0.9685
6.3091 4.5129 -2.0084 0.9685
4.8824 6.0198 -2.0068 0.9685
4.3236 6.4300 -2.0062 0.9685
3.7305 6.7884 -2.0056 0.9685
3.1079 7.0921 -2.0049 0.9685
2.4591 7.3335 -2.0027 0.9685
1.1108 7.6292 -1.9962 0.9686
0.4243 7.6910 -1.9944 0.9687
-0.2646 7.6949 -1.9935 0.9687
-0.9512 7.6410 -1.9937 0.9687
-1.6311 7.5297 -1.9948 0.9687
-2.3000 7.3623 -1.9971 0.9686
-5.2542 5.6380 -1.9954 0.9687
-6.1707 4.6104 -1.9944 0.9687
-6.5565 4.0396 -1.9939 0.9687
-7.1683 2.8071 -1.9932 0.9687
-7.3896 2.1550 -1.9930 0.9687
-7.5519 1.4860 -1.9928 0.9687
-7.6540 0.8052 -1.9927 0.9687
-7.6951 0.1180 -1.9926 0.9687
-7.6749 -0.5701 -1.9926 0.9687
-7.5936 -1.2537 -1.9927 0.9687
-5.8897 -4.9657 -1.9946 0.9687
-4.9145 -5.9380 -1.9957 0.9687
-3.7815 -6.7222 -1.9970 0.9686
-3.1667 -7.0356 -1.9977 0.9686
-1.8652 -7.4924 -1.9991 0.9686
-0.5022 -7.7107 -2.0007 0.9686
2.2343 -7.4094 -2.0038 0.9685
2.8885 -7.1828 -2.0045 0.9685
3.5200 -6.8984 -2.0052 0.9685
4.1237 -6.5585 -2.0059 0.9685
4.6948 -6.1658 -2.0065 0.9685
5.2286 -5.7233 -2.0071 0.9685
5.7206 -5.2347 -2.0077 0.9685
6.1671 -4.7037 -2.0082 0.9685
6.9088 -3.5324 -2.0091 0.9684
7.1979 -2.9014 -2.0094 0.9684
7.7472 0.4982 -2.0100 0.9684
7.6714 1.1884 -2.0100 0.9684
7.5339 1.8690 -2.0098 0.9684
7.3360 2.5345 -2.0096 0.9684
6.3978 4.3871 -2.0085 0.9685
2.6054 7.2867 -2.0036 0.9685
-0.1118 7.6990 -1.9936 0.9687
-1.4811 7.5594 -1.9945 0.9687
-2.1527 7.4038 -1.9964 0.9686
-4.6094 6.1799 -1.9962 0.9686
-5.6326 5.2577 -1.9950 0.9687
-6.0783 4.7321 -1.9945 0.9687
-6.8207 3.5731 -1.9936 0.9687
-7.1115 2.9489 -1.9933 0.9687
-7.3455 2.3013 -1.9930 0.9687
-7.6169 -1.1027 -1.9927 0.9687
-7.4884 -1.7791 -1.9928 0.9687
-7.0538 -3.0843 -1.9933 0.9687
-6.7512 -3.7029 -1.9937 0.9687
-6.3945 -4.2922 -1.9941 0.9687
-5.9868 -4.8475 -1.9945 0.9687
-5.5311 -5.3645 -1.9950 0.9687
-4.4905 -6.2670 -1.9962 0.9686
-3.9138 -6.6454 -1.9968 0.9686
-3.3055 -6.9709 -1.9975 0.9686
-2.6703 -7.2409 -1.9982 0.9686
-2.0133 -7.4533 -1.9990 0.9686
-0.6550 -7.6986 -2.0005 0.9686
0.0355 -7.7293 -2.0013 0.9686
0.7264 -7.6982 -2.0021 0.9686
1.4119 -7.6054 -2.0028 0.9685
2.7451 -7.2381 -2.0043 0.9685
4.5712 -6.2573 -2.0064 0.9685
5.6153 -5.3468 -2.0076 0.9685
6.0722 -4.8249 -2.0081 0.9685
6.4805 -4.2640 -2.0086 0.9685
6.8370 -3.6686 -2.0090 0.9684
7.3831 -2.3938 -2.0096 0.9684
7.5683 -1.7247 -2.0098 0.9684
7.6927 -1.0416 -2.0100 0.9684
7.7556 0.3444 -2.0100 0.9684
7.6935 1.0360 -2.0100 0.9684
7.5697 1.7192 -2.0098 0.9684
7.3850 2.3885 -2.0096 0.9684
7.1411 3.0384 -2.0094 0.9684
6.8399 3.6638 -2.0090 0.9684
6.4839 4.2595 -2.0086 0.9685
4.5760 6.2543 -2.0065 0.9685
3.9975 6.6360 -2.0059 0.9685
3.3874 6.9643 -2.0052 0.9685
2.7506 7.2365 -2.0045 0.9685
0.0410 7.6996 -1.9936 0.9687
-0.6472 7.6720 -1.9935 0.9687
-2.0048 7.4432 -1.9958 0.9687
-3.9092 6.6486 -1.9969 0.9686
-4.4862 6.2706 -1.9963 0.9686
-5.0270 5.8428 -1.9957 0.9687
-5.5275 5.3687 -1.9951 0.9687
-5.9835 4.8521 -1.9946 0.9687
-6.3917 4.2970 -1.9941 0.9687
-6.7487 3.7079 -1.9937 0.9687
-7.0518 3.0895 -1.9934 0.9687
-7.2986 2.4467 -1.9931 0.9687
-7.6162 1.1083 -1.9927 0.9687
-7.6844 0.4232 -1.9926 0.9687
-7.6914 -0.2651 -1.9926 0.9687
-7.6372 -0.9514 -1.9927 0.9687
-7.5221 -1.6301 -1.9928 0.9687
-7.1134 -2.9436 -1.9933 0.9687
-6.8230 -3.5681 -1.9936 0.9687
-6.4782 -4.1643 -1.9940 0.9687
-6.0815 -4.7275 -1.9944 0.9687
-5.6361 -5.2534 -1.9949 0.9687
-4.0446 -6.5659 -1.9967 0.9686
-1.4904 -7.5776 -1.9996 0.9686
-0.8076 -7.6834 -2.0003 0.9686
1.2606 -7.6313 -2.0027 0.9685
1.9382 -7.4910 -2.0034 0.9685
4.4458 -6.3463 -2.0063 0.9685
4.9967 -5.9255 -2.0069 0.9685
6.3943 -4.3916 -2.0085 0.9685
6.7626 -3.8034 -2.0089 0.9684
7.0767 -3.1845 -2.0092 0.9684
7.3340 -2.5398 -2.0095 0.9684
7.5324 -1.8745 -2.0098 0.9684
-3.7603 -5.9685 -1.9970 0.9711
-2.6395 -6.5466 -1.9983 0.9711
-2.0446 -6.7586 -1.9989 0.9711
-0.8095 -7.0195 -2.0003 0.9711
3.4671 -6.1764 -2.0052 0.9710
4.5138 -5.4639 -2.0063 0.9710
4.9853 -5.0400 -2.0069 0.9710
5.8055 -4.0740 -2.0078 0.9709
6.1475 -3.5397 -2.0082 0.9709
6.6815 -2.3896 -2.0088 0.9709
6.8690 -1.7832 -2.0090 0.9709
7.0014 -1.1624 -2.0092 0.9709
6.9649 1.3640 -2.0092 0.9709
6.6096 2.5814 -2.0088 0.9709
4.8376 5.1816 -2.0068 0.9710
4.3540 5.5916 -2.0062 0.9710
0.2493 7.0662 -2.0016 0.9710
-0.3830 7.0577 -2.0009 0.9710
-2.2387 6.6964 -1.9988 0.9711
-4.4372 5.4809 -1.9963 0.9711
-4.9079 5.0612 -1.9958 0.9711
-5.3392 4.6012 -1.9953 0.9711
-6.3646 3.0187 -1.9942 0.9711
-6.6079 2.4375 -1.9939 0.9711
-6.7986 1.8371 -1.9937 0.9711
-6.9350 1.2222 -1.9935 0.9712
-7.0161 0.5975 -1.9934 0.9712
-7.0413 -0.0318 -1.9934 0.9712
-7.0104 -0.6608 -1.9934 0.9712
-6.9236 -1.2847 -1.9935 0.9712
-6.5856 -2.4970 -1.9939 0.9711
-6.3370 -3.0759 -1.9941 0.9711
-6.0378 -3.6305 -1.9945 0.9711
-5.2974 -4.6492 -1.9953 0.9711
-4.3875 -5.5207 -1.9963 0.9711
-3.3367 -6.2171 -1.9975 0.9711
-1.5699 -6.8863 -1.9995 0.9711
-0.9486 -7.0015 -2.0002 0.9711
0.3130 -7.0635 -2.0016 0.9710
0.9433 -7.0098 -2.0023 0.9710
1.5664 -6.8999 -2.0030 0.9710
3.3437 -6.2436 -2.0050 0.9710
3.8894 -5.9216 -2.0056 0.9710
4.4042 -5.5520 -2.0062 0.9710
4.8841 -5.1377 -2.0068 0.9710
5.3249 -4.6819 -2.0073 0.9710
6.3798 -3.1038 -2.0085 0.9709
6.9769 -1.3011 -2.0091 0.9709
6.8527 1.8451 -2.0090 0.9709
6.1154 3.5950 -2.0082 0.9709
4.9397 5.0849 -2.0069 0.9710
4.4644 5.5045 -2.0064 0.9710
3.9536 5.8797 -2.0058 0.9710
2.8421 6.4855 -2.0046 0.9710
2.2504 6.7113 -2.0039 0.9710
0.3895 7.0604 -2.0018 0.9710
-0.2429 7.0645 -2.0011 0.9710
-2.1056 6.7400 -1.9990 0.9711
-3.2695 6.2534 -1.9977 0.9711
-5.2471 4.7065 -1.9954 0.9711
-5.6454 4.2179 -1.9950 0.9711
-6.3037 3.1445 -1.9942 0.9711
-6.5585 2.5682 -1.9939 0.9711
-6.7609 1.9717 -1.9937 0.9711
-6.9095 1.3596 -1.9935 0.9711
-7.0029 0.7367 -1.9934 0.9712
-7.0221 -0.5216 -1.9934 0.9712
-6.6337 -2.3658 -1.9938 0.9711
-6.3966 -2.9495 -1.9941 0.9711
-6.1084 -3.5098 -1.9944 0.9711
-4.9620 -5.0074 -1.9957 0.9711
-1.7061 -6.8533 -1.9993 0.9711
-1.0873 -6.9807 -2.0000 0.9711
-0.4593 -7.0524 -2.0007 0.9710
0.1728 -7.0678 -2.0014 0.9710
1.4291 -6.9291 -2.0029 0.9710
2.0433 -6.7760 -2.0035 0.9710
3.2189 -6.3083 -2.0049 0.9710
5.6388 -4.3008 -2.0076 0.9709
6.0017 -3.7805 -2.0080 0.9709
6.9495 -1.4392 -2.0091 0.9709
7.0954 -0.1792 -2.0093 0.9709
7.0830 0.4555 -2.0093 0.9709
7.0137 1.0865 -2.0092 0.9709
6.8881 1.7088 -2.0091 0.9709
6.1858 3.4731 -2.0083 0.9709
5.8496 4.0112 -2.0079 0.9709
5.0399 4.9861 -2.0070 0.9710
4.5730 5.4151 -2.0065 0.9710
3.5341 6.1391 -2.0053 0.9710
2.9704 6.4283 -2.0047 0.9710
2.3834 6.6658 -2.0040 0.9710
1.7776 6.8498 -2.0034 0.9710
1.1580 6.9788 -2.0027 0.9710
0.5296 7.0519 -2.0020 0.9710
-1.3582 6.9324 -1.9998 0.9711
-3.6958 6.0094 -1.9972 0.9711
-4.7037 5.2525 -1.9960 0.9711
-5.5608 4.3293 -1.9951 0.9711
-5.9242 3.8143 -1.9947 0.9711
-6.2402 3.2691 -1.9943 0.9711
-6.7206 2.1055 -1.9937 0.9711
-7.0371 0.2477 -1.9934 0.9712
-6.8514 -1.6277 -1.9936 0.9711
-6.6792 -2.2336 -1.9938 0.9711
-6.4537 -2.8219 -1.9940 0.9711
-5.0601 -4.9077 -1.9956 0.9711
-4.6025 -5.3416 -1.9961 0.9711
-4.1079 -5.7331 -1.9966 0.9711
-3.5803 -6.0790 -1.9972 0.9711
-1.8416 -6.8175 -1.9992 0.9711
1.2912 -6.9555 -2.0027 0.9710
1.9082 -6.8147 -2.0034 0.9710
3.0928 -6.3704 -2.0047 0.9710
4.1799 -5.7217 -2.0060 0.9710
5.5520 -4.4116 -2.0075 0.9710
5.9253 -3.8987 -2.0079 0.9709
6.5269 -2.7827 -2.0086 0.9709
6.7503 -2.1886 -2.0089 0.9709
6.9195 -1.5768 -2.0091 0.9709
7.0332 -0.9523 -2.0092 0.9709
7.0906 0.3148 -2.0093 0.9709
6.2537 3.3498 -2.0084 0.9709
5.5554 4.4077 -2.0076 0.9709
5.1382 4.8854 -2.0071 0.9710
4.6799 5.3236 -2.0066 0.9710
4.1843 5.7189 -2.0061 0.9710
1.9133 6.8137 -2.0035 0.9710
1.2963 6.9550 -2.0028 0.9710
-0.5940 7.0422 -2.0007 0.9710
-1.2205 6.9585 -2.0000 0.9711
-3.0192 6.3792 -1.9979 0.9711
-4.5988 5.3452 -1.9962 0.9711
-5.0568 4.9116 -1.9956 0.9711
-5.4741 4.4390 -1.9952 0.9711
-5.8476 3.9313 -1.9947 0.9711
-6.6777 2.2385 -1.9938 0.9711
-6.8503 1.6327 -1.9936 0.9711
-6.9683 1.0140 -1.9935 0.9712
-7.0308 0.3872 -1.9934 0.9712
-7.0372 -0.2425 -1.9934 0.9712
-6.9876 -0.8704 -1.9934 0.9712
-6.8822 -1.4914 -1.9935 0.9711
-6.7220 -2.1006 -1.9937 0.9711
-6.2424 -3.2644 -1.9942 0.9711
-4.7073 -5.2489 -1.9960 0.9711
-4.2206 -5.6501 -1.9965 0.9711
-3.1494 -6.3149 -1.9977 0.9711
-1.3632 -6.9310 -1.9997 0.9711
-0.7386 -7.0276 -2.0004 0.9711
-0.1078 -7.0679 -2.0011 0.9710
0.5244 -7.0518 -2.0018 0.9710
1.1528 -6.9792 -2.0025 0.9710
2.3784 -6.6672 -2.0039 0.9710
3.5294 -6.1413 -2.0052 0.9710
4.5689 -5.4182 -2.0064 0.9710
5.0361 -4.9896 -2.0069 0.9710
5.8465 -4.0153 -2.0079 0.9709
6.7053 -2.3221 -2.0088 0.9709
6.8867 -1.7138 -2.0090 0.9709
-2.9576 -5.7833 -1.9979 0.9732
-1.3190 -6.3664 -1.9998 0.9732
-0.1649 -6.5038 -2.0011 0.9731
0.4171 -6.4946 -2.0017 0.9731
0.9961 -6.4335 -2.0024 0.9731
2.1267 -6.1573 -2.0036 0.9731
2.6692 -5.9445 -2.0043 0.9731
3.6868 -5.3775 -2.0054 0.9731
4.1537 -5.0279 -2.0059 0.9731
4.5874 -4.6378 -2.0064 0.9731
5.3420 -3.7487 -2.0073 0.9731
5.6566 -3.2570 -2.0076 0.9731
5.9259 -2.7389 -2.0080 0.9730
6.5121 -0.4896 -2.0086 0.9730
6.4952 0.6774 -2.0086 0.9730
6.2702 1.8225 -2.0084 0.9730
6.0816 2.3752 -2.0082 0.9730
5.8442 2.9088 -2.0079 0.9731
5.2314 3.9012 -2.0072 0.9731
4.8609 4.3522 -2.0068 0.9731
4.4515 4.7681 -2.0064 0.9731
3.5299 5.4815 -2.0053 0.9731
3.0251 5.7733 -2.0048 0.9731
2.4964 6.0188 -2.0042 0.9731
1.9480 6.2158 -2.0035 0.9731
0.8099 6.4592 -2.0023 0.9731
0.2294 6.5036 -2.0016 0.9731
-0.3525 6.4959 -2.0010 0.9731
-1.5022 6.3254 -1.9997 0.9732
-2.0607 6.1639 -1.9990 0.9732
-3.1231 5.6952 -1.9978 0.9732
-4.0848 5.0456 -1.9967 0.9732
-4.5182 4.6593 -1.9962 0.9732
-4.9153 4.2360 -1.9958 0.9732
-5.5887 3.2921 -1.9950 0.9732
-5.8596 2.7791 -1.9947 0.9732
-6.2593 1.6914 -1.9943 0.9732
-6.4596 0.5502 -1.9940 0.9732
-6.4828 -0.0293 -1.9940 0.9732
-6.3745 -1.1828 -1.9941 0.9732
-6.2437 -1.7478 -1.9942 0.9732
-5.8342 -2.8319 -1.9947 0.9732
-5.5587 -3.3424 -1.9950 0.9732
-4.8768 -4.2801 -1.9958 0.9732
-4.4759 -4.6998 -1.9962 0.9732
-3.5696 -5.4242 -1.9972 0.9732
-3.0715 -5.7231 -1.9978 0.9732
-2.0050 -6.1821 -1.9990 0.9732
-1.4450 -6.3385 -1.9996 0.9732
-0.8731 -6.4444 -2.0003 0.9732
1.4416 -6.3502 -2.0029 0.9731
3.5792 -5.4493 -2.0053 0.9731
4.8999 -4.3081 -2.0068 0.9731
5.2663 -3.8539 -2.0072 0.9731
6.1027 -2.3202 -2.0082 0.9730
6.4194 -1.1971 -2.0085 0.9730
6.5010 -0.6187 -2.0086 0.9730
6.5074 0.5483 -2.0086 0.9730
6.4321 1.1276 -2.0086 0.9730
6.3052 1.6977 -2.0084 0.9730
6.1277 2.2541 -2.0082 0.9730
5.6270 3.3079 -2.0077 0.9731
3.1393 5.7125 -2.0049 0.9731
2.0711 6.1764 -2.0037 0.9731
1.5104 6.3347 -2.0031 0.9731
0.9380 6.4423 -2.0024 0.9731
-0.2236 6.5021 -2.0011 0.9731
-2.4840 6.0041 -1.9985 0.9732
-3.0097 5.7565 -1.9980 0.9732
-3.5110 5.4629 -1.9974 0.9732
-3.9841 5.1260 -1.9969 0.9732
-4.4250 4.7483 -1.9964 0.9732
-6.0381 2.3645 -1.9945 0.9732
-6.2246 1.8153 -1.9943 0.9732
-6.3614 1.2517 -1.9941 0.9732
-6.4475 0.6782 -1.9940 0.9732
-6.4821 0.0994 -1.9940 0.9732
-6.3966 -1.0560 -1.9941 0.9732
-6.2770 -1.6235 -1.9942 0.9732
-6.1074 -2.1781 -1.9944 0.9732
-5.8891 -2.7155 -1.9946 0.9732
-5.6237 -3.2313 -1.9949 0.9732
-4.9606 -4.1823 -1.9957 0.9732
-4.1388 -5.0008 -1.9966 0.9732
-3.6764 -5.3520 -1.9971 0.9732
-3.1843 -5.6606 -1.9977 0.9732
-2.6665 -5.9243 -1.9982 0.9732
-2.1271 -6.1407 -1.9989 0.9732
-1.5704 -6.3082 -1.9995 0.9732
-0.4227 -6.4912 -2.0008 0.9731
0.1590 -6.5051 -2.0014 0.9731
0.7399 -6.4670 -2.0021 0.9731
1.3153 -6.3771 -2.0027 0.9731
1.8804 -6.2360 -2.0034 0.9731
2.4309 -6.0449 -2.0040 0.9731
2.9622 -5.8052 -2.0046 0.9731
3.4701 -5.5189 -2.0052 0.9731
5.1886 -3.9574 -2.0071 0.9731
5.5225 -3.4786 -2.0075 0.9731
6.2499 -1.8902 -2.0083 0.9730
6.5170 0.4191 -2.0086 0.9730
6.4533 0.9997 -2.0086 0.9730
6.3378 1.5723 -2.0085 0.9730
5.6918 3.1957 -2.0077 0.9731
4.2081 4.9830 -2.0061 0.9731
3.2522 5.6495 -2.0050 0.9731
2.1934 6.1345 -2.0038 0.9731
1.0657 6.4229 -2.0026 0.9731
0.4874 6.4903 -2.0019 0.9731
-0.0945 6.5058 -2.0012 0.9731
-0.6752 6.4692 -2.0006 0.9731
-1.8148 6.2417 -1.9993 0.9732
-2.3645 6.0527 -1.9987 0.9732
-2.8950 5.8154 -1.9981 0.9732
-3.4021 5.5319 -1.9975 0.9732
-4.3302 4.8354 -1.9965 0.9732
-4.7438 4.4281 -1.9960 0.9732
-5.7451 3.0097 -1.9948 0.9732
-5.9902 2.4839 -1.9946 0.9732
-6.1875 1.9385 -1.9943 0.9732
-6.3354 1.3777 -1.9942 0.9732
-6.4328 0.8060 -1.9941 0.9732
-6.4789 0.2280 -1.9940 0.9732
-6.3079 -1.4986 -1.9942 0.9732
-6.1493 -2.0564 -1.9944 0.9732
-5.6865 -3.1190 -1.9949 0.9732
-5.3860 -3.6152 -1.9952 0.9732
-4.6584 -4.5180 -1.9960 0.9732
-0.5514 -6.4810 -2.0006 0.9731
0.0299 -6.5065 -2.0013 0.9731
0.6114 -6.4799 -2.0019 0.9731
2.8462 -5.8625 -2.0045 0.9731
3.3597 -5.5863 -2.0050 0.9731
3.8465 -5.2652 -2.0056 0.9731
4.3027 -4.9017 -2.0061 0.9731
5.4521 -3.5874 -2.0074 0.9731
5.7519 -3.0864 -2.0078 0.9731
6.0055 -2.5604 -2.0080 0.9730
6.2110 -2.0138 -2.0083 0.9730
6.4713 -0.8762 -2.0086 0.9730
6.5239 -0.2944 -2.0086 0.9730
6.5241 0.2897 -2.0087 0.9730
6.4719 0.8715 -2.0086 0.9730
6.3678 1.4462 -2.0085 0.9730
6.0075 2.5561 -2.0081 0.9730
5.7543 3.0822 -2.0078 0.9731
5.1119 4.0558 -2.0071 0.9731
4.7280 4.4954 -2.0067 0.9731
3.3639 5.5842 -2.0051 0.9731
1.7608 6.2707 -2.0033 0.9731
0.6161 6.4798 -2.0020 0.9731
-0.5468 6.4818 -2.0007 0.9731
-1.6907 6.2769 -1.9994 0.9732
-3.7780 5.2806 -1.9971 0.9732
-4.2336 4.9207 -1.9966 0.9732
-4.6553 4.5216 -1.9961 0.9732
-5.0396 4.0866 -1.9957 0.9732
-5.6844 3.1232 -1.9949 0.9732
-5.9399 2.6024 -1.9946 0.9732
-6.4156 0.9335 -1.9941 0.9732
-6.4790 -0.2233 -1.9940 0.9732
-6.4333 -0.8014 -1.9940 0.9732
-6.3363 -1.3731 -1.9941 0.9732
-5.9919 -2.4795 -1.9945 0.9732
-5.7471 -3.0054 -1.9948 0.9732
-5.4564 -3.5075 -1.9951 0.9732
-4.7469 -4.4245 -1.9959 0.9732
-3.4060 -5.5291 -1.9974 0.9732
-2.8991 -5.8130 -1.9980 0.9732
-2.3688 -6.0506 -1.9986 0.9732
-1.8192 -6.2400 -1.9992 0.9732
-1.2547 -6.3796 -1.9998 0.9732
0.4827 -6.4903 -2.0018 0.9731
1.0610 -6.4233 -2.0024 0.9731
1.6313 -6.3048 -2.0031 0.9731
2.7292 -5.9174 -2.0043 0.9731
3.7410 -5.3402 -2.0055 0.9731
4.2043 -4.9859 -2.0060 0.9731
5.0270 -4.1598 -2.0069 0.9731
5.6893 -3.1998 -2.0077 0.9731
5.9534 -2.6790 -2.0080 0.9730
6.3365 -1.5769 -2.0084 0.9730
-3.2034 -5.0847 -1.9976 0.9750
-2.7370 -5.3520 -1.9982 0.9750
-1.7416 -5.7569 -1.9993 0.9750
-0.1525 -6.0181 -2.0011 0.9749
0.3859 -6.0094 -2.0017 0.9749
0.9217 -5.9527 -2.0023 0.9749
2.4696 -5.4999 -2.0040 0.9749
2.9519 -5.2586 -2.0046 0.9749
3.4109 -4.9751 -2.0051 0.9749
3.8428 -4.6516 -2.0056 0.9749
4.6114 -3.8950 -2.0065 0.9749
4.9419 -3.4680 -2.0068 0.9749
5.2329 -3.0130 -2.0072 0.9749
5.4820 -2.5337 -2.0075 0.9749
5.6871 -2.0340 -2.0077 0.9749
5.8466 -1.5178 -2.0079 0.9749
5.9593 -0.9893 -2.0080 0.9749
6.0241 -0.4529 -2.0081 0.9749
6.0405 0.0872 -2.0081 0.9749
5.9282 1.1609 -2.0080 0.9749
5.8003 1.6859 -2.0078 0.9749
5.6259 2.1972 -2.0077 0.9749
4.1182 4.4111 -2.0060 0.9749
2.3097 5.5686 -2.0039 0.9749
1.8023 5.7511 -2.0034 0.9749
1.2808 5.8874 -2.0028 0.9749
0.7494 5.9765 -2.0022 0.9749
-1.3901 5.8533 -1.9998 0.9750
-2.4084 5.5092 -1.9986 0.9750
-2.8902 5.2705 -1.9981 0.9750
-3.3488 4.9899 -1.9976 0.9750
-4.5491 3.9204 -1.9962 0.9750
-5.4233 2.5722 -1.9952 0.9750
-5.7933 1.5654 -1.9948 0.9750
-5.9096 1.0415 -1.9946 0.9750
-5.9788 0.5092 -1.9946 0.9750
-6.0003 -0.0271 -1.9945 0.9750
-5.9739 -0.5631 -1.9946 0.9750
-5.8999 -1.0947 -1.9946 0.9750
-5.7789 -1.6177 -1.9948 0.9750
-5.3998 -2.6210 -1.9952 0.9750
-4.5135 -3.9612 -1.9962 0.9750
-3.7380 -4.7034 -1.9970 0.9750
-3.3035 -5.0198 -1.9975 0.9750
-2.8425 -5.2963 -1.9981 0.9750
-2.3585 -5.5306 -1.9986 0.9750
-1.8554 -5.7209 -1.9992 0.9750
-1.3372 -5.8655 -1.9997 0.9750
-0.8079 -5.9633 -2.0003 0.9750
-0.2719 -6.0134 -2.0009 0.9749
0.2666 -6.0155 -2.0016 0.9749
0.8033 -5.9694 -2.0022 0.9749
1.3339 -5.8755 -2.0028 0.9749
1.8541 -5.7345 -2.0033 0.9749
2.8468 -5.3159 -2.0045 0.9749
3.7495 -4.7267 -2.0055 0.9749
4.1578 -4.3737 -2.0059 0.9749
5.1719 -3.1162 -2.0071 0.9749
5.6455 -2.1464 -2.0076 0.9749
5.8153 -1.6335 -2.0078 0.9749
5.9384 -1.1074 -2.0080 0.9749
6.0410 -0.0327 -2.0081 0.9749
5.9501 1.0431 -2.0080 0.9749
5.6685 2.0852 -2.0077 0.9749
5.2055 3.0601 -2.0072 0.9749
4.9104 3.5125 -2.0069 0.9749
4.2052 4.3287 -2.0061 0.9749
3.8007 4.6861 -2.0056 0.9749
2.4199 5.5220 -2.0041 0.9749
1.9162 5.7146 -2.0035 0.9749
1.3975 5.8612 -2.0029 0.9749
0.8679 5.9609 -2.0023 0.9749
0.3317 6.0128 -2.0017 0.9749
-0.2069 6.0165 -2.0011 0.9749
-0.7434 5.9722 -2.0005 0.9750
-1.2737 5.8801 -1.9999 0.9750
-1.7935 5.7411 -1.9993 0.9750
-2.2987 5.5563 -1.9988 0.9750
-3.2493 5.0557 -1.9977 0.9750
-4.8102 3.5938 -1.9959 0.9750
-5.1112 3.1491 -1.9956 0.9750
-5.5886 2.1884 -1.9950 0.9750
-5.9675 0.6278 -1.9946 0.9750
-5.9839 -0.4445 -1.9946 0.9750
-5.2049 -2.9907 -1.9954 0.9750
-4.9176 -3.4444 -1.9957 0.9750
-3.4023 -4.9530 -1.9974 0.9750
-2.9469 -5.2386 -1.9979 0.9750
-0.3912 -6.0065 -2.0008 0.9749
0.1472 -6.0192 -2.0014 0.9749
0.6846 -5.9838 -2.0020 0.9749
1.2170 -5.9005 -2.0026 0.9749
2.2491 -5.5929 -2.0038 0.9749
2.7406 -5.3710 -2.0043 0.9749
3.2104 -5.1060 -2.0049 0.9749
4.0700 -4.4551 -2.0058 0.9749
4.4528 -4.0745 -2.0063 0.9749
5.6016 -2.2579 -2.0076 0.9749
5.7816 -1.7485 -2.0078 0.9749
6.0012 -0.6916 -2.0081 0.9749
6.0392 -0.1526 -2.0081 0.9749
5.9697 0.9248 -2.0080 0.9749
5.8628 1.4545 -2.0079 0.9749
5.7089 1.9724 -2.0077 0.9749
5.2654 2.9563 -2.0073 0.9749
4.9794 3.4145 -2.0069 0.9749
4.6535 3.8450 -2.0066 0.9749
3.8931 4.6100 -2.0057 0.9749
3.4648 4.9383 -2.0052 0.9749
2.0294 5.6758 -2.0036 0.9749
0.9861 5.9429 -2.0025 0.9749
0.4510 6.0054 -2.0019 0.9749
-0.6248 5.9862 -2.0006 0.9749
-1.1569 5.9046 -2.0000 0.9750
-1.6794 5.7759 -1.9995 0.9750
-2.1881 5.6011 -1.9989 0.9750
-2.6791 5.3817 -1.9983 0.9750
-3.1485 5.1194 -1.9978 0.9750
-4.7381 3.6887 -1.9960 0.9750
-5.0479 3.2500 -1.9956 0.9750
-5.5442 2.2990 -1.9951 0.9750
-5.7268 1.7942 -1.9949 0.9750
-5.8638 1.2752 -1.9947 0.9750
-5.9539 0.7460 -1.9946 0.9750
-5.9966 0.2110 -1.9945 0.9750
-5.9386 -0.8598 -1.9946 0.9750
-5.8383 -1.3870 -1.9947 0.9750
-5.4992 -2.4046 -1.9951 0.9750
-5.2631 -2.8867 -1.9953 0.9750
-4.3113 -4.1814 -1.9964 0.9750
-3.9212 -4.5509 -1.9968 0.9750
-3.4997 -4.8843 -1.9973 0.9750
-2.0807 -5.6420 -1.9989 0.9750
-1.5686 -5.8071 -1.9995 0.9750
-1.0438 -5.9258 -2.0001 0.9750
0.0277 -6.0205 -2.0013 0.9749
1.0996 -5.9230 -2.0025 0.9749
2.1375 -5.6360 -2.0037 0.9749
3.1083 -5.1684 -2.0048 0.9749
3.9806 -4.5348 -2.0057 0.9749
4.3708 -4.1619 -2.0062 0.9749
4.7262 -3.7554 -2.0066 0.9749
5.5556 -2.3686 -2.0075 0.9749
5.9863 -0.8105 -2.0080 0.9749
5.8906 1.3379 -2.0079 0.9749
5.7471 1.8587 -2.0078 0.9749
5.5574 2.3646 -2.0076 0.9749
5.3232 2.8513 -2.0073 0.9749
4.7291 3.7521 -2.0067 0.9749
3.9840 4.5321 -2.0058 0.9749
3.5623 4.8688 -2.0054 0.9749
3.1122 5.1663 -2.0048 0.9749
2.6374 5.4223 -2.0043 0.9749
1.1039 5.9225 -2.0026 0.9749
0.0321 6.0208 -2.0014 0.9749
-0.5059 5.9978 -2.0008 0.9749
-1.0395 5.9268 -2.0002 0.9750
-1.5645 5.8085 -1.9996 0.9750
-2.0767 5.6438 -1.9990 0.9750
-4.6642 3.7822 -1.9961 0.9750
-5.2611 2.8906 -1.9954 0.9750
-5.6902 1.9075 -1.9949 0.9750
-5.9380 0.8641 -1.9946 0.9750
-5.9968 -0.2067 -1.9945 0.9750
-5.8646 -1.2709 -1.9947 0.9750
-5.7280 -1.7900 -1.9948 0.9750
-5.5457 -2.2949 -1.9950 0.9750
-5.0501 -3.2463 -1.9956 0.9750
-4.7406 -3.6852 -1.9959 0.9750
-4.3932 -4.0949 -1.9963 0.9750
-1.1611 -5.9035 -1.9999 0.9750
-0.0918 -6.0195 -2.0011 0.9749
0.9817 -5.9433 -2.0024 0.9749
1.5093 -5.8335 -2.0030 0.9749
2.0251 -5.6770 -2.0035 0.9749
2.5250 -5.4748 -2.0041 0.9749
4.9767 -3.4180 -2.0069 0.9749
5.5073 -2.4783 -2.0075 0.9749
5.8617 -1.4587 -2.0079 0.9749
5.9690 -0.9292 -2.0080 0.9749
-2.9781 -4.7270 -1.9979 0.9765
-2.5444 -4.9754 -1.9984 0.9765
-2.0902 -5.1842 -1.9989 0.9765
-1.6190 -5.3516 -1.9994 0.9765
-0.1418 -5.5940 -2.0011 0.9765
0.8567 -5.5330 -2.0022 0.9765
1.8289 -5.2951 -2.0033 0.9765
2.2953 -5.1118 -2.0038 0.9765
2.7436 -4.8875 -2.0044 0.9765
3.5714 -4.3231 -2.0053 0.9765
3.9443 -3.9875 -2.0057 0.9765
4.2856 -3.6198 -2.0061 0.9765
4.5927 -3.2230 -2.0064 0.9764
4.8631 -2.8001 -2.0068 0.9764
5.4333 -1.4105 -2.0074 0.9764
5.5982 -0.4209 -2.0076 0.9764
5.6135 0.0810 -2.0076 0.9764
5.2283 2.0419 -2.0072 0.9764
5.0243 2.5007 -2.0070 0.9764
4.7801 2.9392 -2.0067 0.9764
4.1792 3.7419 -2.0060 0.9765
3.8274 4.0996 -2.0056 0.9765
2.6013 4.9644 -2.0043 0.9765
2.1467 5.1757 -2.0038 0.9765
1.1905 5.4722 -2.0027 0.9765
0.6966 5.5552 -2.0021 0.9765
0.1973 5.5936 -2.0016 0.9765
-1.7727 5.3024 -1.9993 0.9765
-3.1132 4.6389 -1.9978 0.9765
-4.2293 3.6448 -1.9966 0.9766
-5.0422 2.3914 -1.9956 0.9766
-5.2351 1.9311 -1.9954 0.9766
-5.5587 0.4734 -1.9950 0.9766
-5.5787 -0.0252 -1.9950 0.9766
-5.5542 -0.5236 -1.9950 0.9766
-5.4854 -1.0178 -1.9951 0.9766
-5.3729 -1.5040 -1.9952 0.9766
-5.2174 -1.9783 -1.9954 0.9766
-4.7831 -2.8761 -1.9959 0.9766
-4.1962 -3.6827 -1.9965 0.9766
-3.8511 -4.0437 -1.9969 0.9766
-3.4751 -4.3726 -1.9973 0.9766
-2.1925 -5.1414 -1.9988 0.9765
-1.7248 -5.3181 -1.9993 0.9765
-0.7510 -5.5432 -2.0004 0.9765
-0.2528 -5.5897 -2.0010 0.9765
0.2478 -5.5915 -2.0015 0.9765
0.7467 -5.5486 -2.0021 0.9765
1.2398 -5.4612 -2.0027 0.9765
2.6459 -4.9407 -2.0042 0.9765
3.0776 -4.6856 -2.0047 0.9765
5.0467 -2.4552 -2.0070 0.9764
5.2465 -1.9947 -2.0072 0.9764
5.5186 -1.0291 -2.0075 0.9764
5.5887 -0.5319 -2.0076 0.9764
5.4204 1.4595 -2.0074 0.9764
5.2679 1.9378 -2.0072 0.9764
5.0731 2.4005 -2.0070 0.9764
4.8377 2.8439 -2.0068 0.9764
4.2528 3.6584 -2.0061 0.9765
3.9082 4.0230 -2.0057 0.9765
3.5323 4.3552 -2.0053 0.9765
1.7810 5.3114 -2.0033 0.9765
-0.1923 5.5926 -2.0011 0.9765
-1.1840 5.4660 -2.0000 0.9765
-2.5892 4.9523 -1.9984 0.9765
-3.8073 4.0854 -1.9970 0.9766
-4.1563 3.7281 -1.9966 0.9766
-4.7519 2.9278 -1.9960 0.9766
-4.9938 2.4911 -1.9957 0.9766
-5.3564 1.5621 -1.9953 0.9766
-5.5483 0.5836 -1.9951 0.9766
-5.5781 0.0855 -1.9950 0.9766
-5.0676 -2.3367 -1.9956 0.9766
-4.2683 -3.5986 -1.9965 0.9766
-2.7395 -4.8700 -1.9982 0.9765
-1.3509 -5.4264 -1.9997 0.9765
-0.8608 -5.5269 -2.0003 0.9765
0.6364 -5.5619 -2.0020 0.9765
1.1311 -5.4844 -2.0025 0.9765
4.4609 -3.4024 -2.0063 0.9764
5.2057 -2.0983 -2.0071 0.9764
5.3729 -1.6249 -2.0073 0.9764
5.6122 -0.1418 -2.0076 0.9764
5.6024 0.3603 -2.0076 0.9764
5.5477 0.8594 -2.0076 0.9764
4.8933 2.7474 -2.0068 0.9764
4.3248 3.5734 -2.0062 0.9764
3.6182 4.2845 -2.0054 0.9765
2.3506 5.0870 -2.0040 0.9765
1.4069 5.4213 -2.0029 0.9765
0.9166 5.5238 -2.0024 0.9765
-0.0813 5.5956 -2.0013 0.9765
-0.5808 5.5644 -2.0007 0.9765
-1.5611 5.3692 -1.9996 0.9765
-2.9270 4.7592 -1.9980 0.9765
-3.7257 4.1604 -1.9971 0.9766
-4.0817 3.8100 -1.9967 0.9766
-4.9436 2.5898 -1.9957 0.9766
-5.4518 1.1856 -1.9952 0.9766
-5.5357 0.6936 -1.9951 0.9766
-5.5754 0.1962 -1.9950 0.9766
-5.5706 -0.3028 -1.9950 0.9766
-5.4282 -1.2896 -1.9952 0.9766
-5.2916 -1.7696 -1.9953 0.9766
-5.1128 -2.2356 -1.9955 0.9766
-4.8932 -2.6838 -1.9958 0.9766
-4.6345 -3.1108 -1.9961 0.9766
-3.6455 -4.2309 -1.9972 0.9766
-3.2536 -4.5407 -1.9976 0.9765
-2.8355 -4.8144 -1.9981 0.9765
-1.9342 -5.2449 -1.9991 0.9765
-0.4743 -5.5746 -2.0007 0.9765
0.0257 -5.5963 -2.0013 0.9765
0.5258 -5.5731 -2.0018 0.9765
1.5103 -5.3935 -2.0030 0.9765
1.9867 -5.2384 -2.0035 0.9765
4.6874 -3.0842 -2.0066 0.9764
5.5631 -0.7532 -2.0076 0.9764
5.6083 -0.2531 -2.0076 0.9764
5.4742 1.2433 -2.0075 0.9764
5.3408 1.7273 -2.0073 0.9764
4.9470 2.6498 -2.0069 0.9764
3.7027 4.2120 -2.0055 0.9765
3.3108 4.5250 -2.0051 0.9765
2.8925 4.8016 -2.0046 0.9765
2.4513 5.0397 -2.0041 0.9765
1.0261 5.5049 -2.0025 0.9765
0.5299 5.5730 -2.0019 0.9765
-1.4544 5.3995 -1.9997 0.9765
-1.9305 5.2465 -1.9992 0.9765
-2.3910 5.0517 -1.9986 0.9765
-2.8321 4.8166 -1.9981 0.9765
-4.6323 3.1142 -1.9961 0.9766
-4.8914 2.6874 -1.9958 0.9766
-5.1113 2.2393 -1.9956 0.9766
-5.2904 1.7735 -1.9954 0.9766
-5.4273 1.2935 -1.9952 0.9766
-5.5208 0.8033 -1.9951 0.9766
-5.5361 -0.6896 -1.9951 0.9766
-5.4526 -1.1816 -1.9951 0.9766
-5.1560 -2.1336 -1.9955 0.9766
-4.6951 -3.0181 -1.9960 0.9766
-4.4074 -3.4261 -1.9963 0.9766
-4.0843 -3.8069 -1.9967 0.9766
-3.7285 -4.1575 -1.9971 0.9766
-3.3429 -4.4750 -1.9975 0.9766
-2.9303 -4.7569 -1.9980 0.9765
-2.0378 -5.2051 -1.9990 0.9765
-1.5649 -5.3678 -1.9995 0.9765
0.9125 -5.5243 -2.0023 0.9765
1.4029 -5.4221 -2.0028 0.9765
2.3469 -5.0885 -2.0039 0.9765
3.2167 -4.5918 -2.0049 0.9765
4.3220 -3.5765 -2.0061 0.9765
4.6251 -3.1765 -2.0065 0.9764
4.8912 -2.7509 -2.0068 0.9764
5.1181 -2.3031 -2.0070 0.9764
5.3040 -1.8368 -2.0073 0.9764
5.4473 -1.3556 -2.0074 0.9764
-2.7794 -4.4116 -1.9981 0.9779
-2.3746 -4.6433 -1.9986 0.9779
-0.1323 -5.2202 -2.0011 0.9779
1.7065 -4.9408 -2.0032 0.9779
2.1417 -4.7698 -2.0037 0.9779
2.5600 -4.5604 -2.0041 0.9778
2.9579 -4.3144 -2.0046 0.9778
3.6801 -3.7205 -2.0054 0.9778
4.2851 -3.0070 -2.0061 0.9778
4.5373 -2.6125 -2.0064 0.9778
4.7531 -2.1969 -2.0066 0.9778
5.0692 -1.3160 -2.0070 0.9778
5.2372 0.0756 -2.0072 0.9778
5.1398 1.0066 -2.0071 0.9778
5.0290 1.4617 -2.0070 0.9778
4.6877 2.3331 -2.0066 0.9778
4.4599 2.7423 -2.0063 0.9778
4.1964 3.1294 -2.0061 0.9778
3.5711 3.8250 -2.0054 0.9778
2.4272 4.6322 -2.0041 0.9778
1.1109 5.1063 -2.0026 0.9779
0.6500 5.1838 -2.0021 0.9779
0.1841 5.2197 -2.0015 0.9779
-0.2829 5.2139 -2.0010 0.9779
-0.7475 5.1665 -2.0005 0.9779
-1.6544 4.9484 -1.9995 0.9779
-2.0894 4.7796 -1.9990 0.9779
-3.2800 4.0515 -1.9976 0.9779
-4.2348 3.0349 -1.9966 0.9779
-4.4883 2.6440 -1.9963 0.9779
-5.0273 1.3585 -1.9956 0.9779
-5.1283 0.9038 -1.9955 0.9779
-5.1883 0.4419 -1.9955 0.9779
-5.0148 -1.4038 -1.9956 0.9779
-4.8697 -1.8464 -1.9958 0.9779
-4.4643 -2.6843 -1.9962 0.9779
-3.2432 -4.0809 -1.9976 0.9779
-2.8662 -4.3553 -1.9980 0.9779
-2.4661 -4.5951 -1.9985 0.9779
-2.0461 -4.7982 -1.9990 0.9779
-1.6096 -4.9630 -1.9994 0.9779
-1.1600 -5.0883 -2.0000 0.9779
-0.7008 -5.1729 -2.0005 0.9779
0.2312 -5.2178 -2.0015 0.9779
3.6054 -3.7926 -2.0053 0.9778
4.2244 -3.0914 -2.0060 0.9778
4.7085 -2.2907 -2.0066 0.9778
5.0420 -1.4163 -2.0070 0.9778
5.2141 -0.4962 -2.0072 0.9778
5.2377 -0.0283 -2.0072 0.9778
5.2192 0.4398 -2.0072 0.9778
5.0571 1.3617 -2.0070 0.9778
4.9148 1.8080 -2.0069 0.9778
3.9680 3.4133 -2.0058 0.9778
3.6464 3.7536 -2.0054 0.9778
2.9189 4.3409 -2.0046 0.9778
2.5187 4.5834 -2.0042 0.9778
2.0986 4.7890 -2.0037 0.9779
1.2121 5.0835 -2.0027 0.9779
-1.5559 4.9805 -1.9996 0.9779
-3.1991 4.1160 -1.9977 0.9779
-3.8791 3.4795 -1.9970 0.9779
-4.4351 2.7326 -1.9963 0.9779
-4.6610 2.3250 -1.9961 0.9779
-4.8496 1.8990 -1.9958 0.9779
-4.9994 1.4580 -1.9957 0.9779
-5.1094 1.0054 -1.9955 0.9779
-5.1786 0.5448 -1.9955 0.9779
-5.1377 -0.8482 -1.9955 0.9779
-4.9053 -1.7494 -1.9958 0.9779
-4.2672 -2.9888 -1.9965 0.9779
-3.9837 -3.3586 -1.9968 0.9779
-3.3234 -4.0156 -1.9975 0.9779
-2.9519 -4.2974 -1.9979 0.9779
-1.7077 -4.9298 -1.9993 0.9779
-1.2607 -5.0640 -1.9998 0.9779
-0.8033 -5.1577 -2.0004 0.9779
0.1277 -5.2211 -2.0014 0.9779
0.5938 -5.1901 -2.0019 0.9779
1.0555 -5.1176 -2.0024 0.9779
1.9506 -4.8505 -2.0035 0.9779
3.5293 -3.8632 -2.0052 0.9778
3.8611 -3.5331 -2.0056 0.9778
4.1621 -3.1745 -2.0060 0.9778
4.4298 -2.7903 -2.0063 0.9778
4.6620 -2.3836 -2.0065 0.9778
5.2361 -0.1323 -2.0072 0.9778
5.2269 0.3361 -2.0072 0.9778
5.1758 0.8018 -2.0071 0.9778
5.0832 1.2611 -2.0070 0.9778
4.7768 2.1454 -2.0067 0.9778
4.3175 2.9606 -2.0062 0.9778
4.0351 3.3341 -2.0059 0.9778
3.3759 3.9976 -2.0051 0.9778
2.6093 4.5327 -2.0043 0.9778
2.1934 4.7466 -2.0038 0.9779
1.7600 4.9224 -2.0033 0.9779
1.3128 5.0587 -2.0028 0.9779
0.8553 5.1545 -2.0023 0.9779
-0.0758 5.2217 -2.0013 0.9779
-0.5420 5.1926 -2.0007 0.9779
-1.0036 5.1221 -2.0002 0.9779
-1.4569 5.0107 -1.9997 0.9779
-1.8983 4.8592 -1.9992 0.9779
-3.4772 3.8828 -1.9974 0.9779
-3.8095 3.5559 -1.9970 0.9779
-4.3802 2.8202 -1.9964 0.9779
-5.0885 1.1066 -1.9956 0.9779
-5.2038 0.1831 -1.9954 0.9779
-5.1535 -0.7461 -1.9955 0.9779
-5.0664 -1.2036 -1.9956 0.9779
-4.9389 -1.6517 -1.9957 0.9779
-4.7720 -2.0866 -1.9959 0.9779
-4.5670 -2.5049 -1.9961 0.9779
-4.0494 -3.2788 -1.9967 0.9779
-3.7408 -3.6282 -1.9971 0.9779
-3.4023 -3.9487 -1.9974 0.9779
-3.0365 -4.2378 -1.9978 0.9779
-2.6463 -4.4931 -1.9983 0.9779
-2.2347 -4.7127 -1.9987 0.9779
-0.9055 -5.1404 -2.0002 0.9779
-0.4426 -5.2021 -2.0008 0.9779
0.4907 -5.2006 -2.0018 0.9779
0.9537 -5.1373 -2.0023 0.9779
1.8538 -4.8880 -2.0033 0.9779
2.2837 -4.7039 -2.0038 0.9778
3.0859 -4.2242 -2.0047 0.9778
3.4518 -3.9323 -2.0052 0.9778
4.8169 -2.0537 -2.0067 0.9778
4.9817 -1.6152 -2.0069 0.9778
5.2324 -0.2361 -2.0072 0.9778
5.2326 0.2323 -2.0072 0.9778
5.1908 0.6990 -2.0072 0.9778
4.9829 1.6116 -2.0069 0.9778
4.8185 2.0502 -2.0067 0.9778
3.4548 3.9300 -2.0052 0.9778
3.0891 4.2221 -2.0048 0.9778
2.6989 4.4803 -2.0044 0.9778
2.2872 4.7024 -2.0039 0.9778
1.8574 4.8868 -2.0034 0.9779
0.0278 5.2225 -2.0014 0.9779
-0.9018 5.1413 -2.0003 0.9779
-1.3572 5.0389 -1.9998 0.9779
-1.8016 4.8962 -1.9993 0.9779
-2.6431 4.4952 -1.9984 0.9779
-3.0335 4.2401 -1.9979 0.9779
-4.3235 2.9066 -1.9965 0.9779
-5.0656 1.2073 -1.9956 0.9779
-5.1672 -0.6437 -1.9955 0.9779
-5.0892 -1.1029 -1.9956 0.9779
-4.9707 -1.5533 -1.9957 0.9779
-4.8124 -1.9914 -1.9959 0.9779
-4.1135 -3.1977 -1.9966 0.9779
-3.8119 -3.5531 -1.9970 0.9779
-2.7348 -4.4395 -1.9982 0.9779
-2.3276 -4.6672 -1.9986 0.9779
-1.9017 -4.8577 -1.9991 0.9779
-1.4604 -5.0094 -1.9996 0.9779
-1.0072 -5.1212 -2.0001 0.9779
0.3874 -5.2090 -2.0017 0.9779
0.8515 -5.1549 -2.0022 0.9779
1.3091 -5.0595 -2.0027 0.9779
2.1898 -4.7480 -2.0037 0.9779
3.7176 -3.6832 -2.0055 0.9778
4.3153 -2.9637 -2.0061 0.9778
4.7751 -2.1488 -2.0067 0.9778
4.9485 -1.7137 -2.0069 0.9778
5.1752 -0.8056 -2.0071 0.9778
-2.6027 -4.1311 -1.9983 0.9791
-2.2236 -4.3481 -1.9988 0.9791
-1.8266 -4.5304 -1.9992 0.9791
-0.9915 -4.7854 -2.0001 0.9791
-0.5600 -4.8560 -2.0006 0.9791
0.7485 -4.8342 -2.0021 0.9791
1.1777 -4.7492 -2.0026 0.9791
2.0052 -4.4658 -2.0035 0.9791
2.7693 -4.0393 -2.0044 0.9791
3.1198 -3.7764 -2.0048 0.9791
3.7435 -3.1619 -2.0055 0.9790
4.2477 -2.4458 -2.0061 0.9790
4.4498 -2.0567 -2.0063 0.9790
4.6162 -1.6510 -2.0065 0.9790
4.8895 -0.3676 -2.0068 0.9790
4.9029 0.0708 -2.0068 0.9790
4.8769 0.5086 -2.0068 0.9790
4.3885 2.1842 -2.0063 0.9790
4.1752 2.5673 -2.0060 0.9790
3.6505 3.2685 -2.0054 0.9790
1.4635 4.6700 -2.0030 0.9791
1.0401 4.7810 -2.0025 0.9791
0.6086 4.8536 -2.0020 0.9791
0.1724 4.8874 -2.0015 0.9791
-1.5491 4.6336 -1.9996 0.9791
-1.9565 4.4756 -1.9991 0.9791
-2.3481 4.2819 -1.9987 0.9791
-2.7208 4.0541 -1.9983 0.9791
-3.0715 3.7940 -1.9979 0.9791
-3.6965 3.1856 -1.9972 0.9791
-4.7081 1.2722 -1.9960 0.9791
-2.1535 0.3795 -0.8950 0.9906
-1.9575 0.1667 -0.8040 0.9915
-1.9025 -0.0086 -0.7787 0.9918
-4.1807 -2.5138 -1.9966 0.9791
-3.9399 -2.8778 -1.9968 0.9791
-2.6840 -4.0785 -1.9982 0.9791
-2.3093 -4.3029 -1.9987 0.9791
-1.9160 -4.4930 -1.9991 0.9791
-1.5072 -4.6473 -1.9996 0.9791
-0.6562 -4.8437 -2.0005 0.9791
0.2165 -4.8856 -2.0015 0.9791
0.6524 -4.8479 -2.0020 0.9791
1.9161 -4.5045 -2.0034 0.9791
2.3115 -4.3162 -2.0039 0.9791
2.6885 -4.0932 -2.0043 0.9791
3.6798 -3.2354 -2.0054 0.9790
3.9548 -2.8941 -2.0057 0.9790
4.1982 -2.5295 -2.0060 0.9790
4.4080 -2.1445 -2.0062 0.9790
4.8200 -0.8988 -2.0067 0.9790
4.9033 -0.0265 -2.0068 0.9790
4.8295 0.8466 -2.0067 0.9790
4.7343 1.2747 -2.0066 0.9790
4.6011 1.6926 -2.0065 0.9790
4.4311 2.0967 -2.0063 0.9790
3.4138 3.5141 -2.0052 0.9790
3.0856 3.8044 -2.0048 0.9791
2.7328 4.0641 -2.0044 0.9791
1.9649 4.4837 -2.0035 0.9791
1.1348 4.7597 -2.0026 0.9791
0.2694 4.8833 -2.0016 0.9791
-0.6038 4.8508 -2.0007 0.9791
-1.0346 4.7763 -2.0002 0.9791
-1.4569 4.6637 -1.9997 0.9791
-2.2628 4.3279 -1.9988 0.9791
-3.3276 3.5706 -1.9976 0.9791
-3.9087 2.9203 -1.9969 0.9791
-4.1534 2.5590 -1.9966 0.9791
-4.5416 1.7785 -1.9962 0.9791
-4.6820 1.3654 -1.9960 0.9791
-1.9572 0.2059 -0.8055 0.9915
-1.9536 -0.1451 -0.8018 0.9916
-4.5938 -1.6383 -1.9961 0.9791
-4.4294 -2.0424 -1.9963 0.9791
-3.9961 -2.7989 -1.9968 0.9791
-3.7306 -3.1453 -1.9971 0.9791
-2.7643 -4.0242 -1.9982 0.9791
-2.0047 -4.4539 -1.9990 0.9791
-1.1804 -4.7418 -1.9999 0.9791
-0.7522 -4.8295 -2.0004 0.9791
0.5560 -4.8596 -2.0019 0.9791
0.9883 -4.7916 -2.0024 0.9791
2.9672 -3.8969 -2.0046 0.9791
3.3042 -3.6168 -2.0050 0.9790
3.8965 -2.9719 -2.0057 0.9790
4.1471 -2.6122 -2.0059 0.9790
4.3644 -2.2315 -2.0062 0.9790
4.8454 0.7506 -2.0068 0.9790
4.4719 2.0084 -2.0064 0.9790
3.1606 3.7426 -2.0049 0.9791
2.4430 4.2437 -2.0041 0.9791
1.2291 4.7364 -2.0027 0.9791
-2.1766 4.3721 -1.9989 0.9791
-2.5580 4.1593 -1.9984 0.9791
-2.9188 3.9133 -1.9980 0.9791
-3.8501 2.9974 -1.9970 0.9791
-4.1020 2.6410 -1.9967 0.9791
-4.3210 2.2636 -1.9964 0.9791
-4.5055 1.8683 -1.9962 0.9791
-4.6540 1.4581 -1.9961 0.9791
-4.7654 1.0363 -1.9959 0.9791
-1.9436 -0.1056 -0.7966 0.9916
-4.7447 -1.1272 -1.9959 0.9791
-4.6253 -1.5468 -1.9961 0.9791
-4.4690 -1.9541 -1.9962 0.9791
-4.2770 -2.3458 -1.9965 0.9791
-4.0507 -2.7190 -1.9967 0.9791
-3.5031 -3.3976 -1.9973 0.9791
-3.1861 -3.6977 -1.9977 0.9791
-1.6903 -4.5834 -1.9994 0.9791
-1.2742 -4.7172 -1.9998 0.9791
-0.4144 -4.8710 -2.0008 0.9791
0.0225 -4.8898 -2.0013 0.9791
0.4594 -4.8694 -2.0018 0.9791
1.7357 -4.5765 -2.0032 0.9791
2.1382 -4.4041 -2.0037 0.9791
2.5237 -4.1963 -2.0041 0.9791
3.2316 -3.6815 -2.0049 0.9791
3.8366 -3.0486 -2.0056 0.9790
4.0943 -2.6939 -2.0059 0.9790
4.6637 -1.5121 -2.0065 0.9790
4.7804 -1.0894 -2.0067 0.9790
4.8984 -0.2211 -2.0068 0.9790
4.8985 0.2175 -2.0068 0.9790
4.7813 1.0859 -2.0067 0.9790
4.6648 1.5087 -2.0066 0.9790
4.5110 1.9193 -2.0064 0.9790
4.3210 2.3145 -2.0062 0.9790
4.0963 2.6910 -2.0059 0.9790
3.8389 3.0459 -2.0056 0.9790
2.8921 3.9528 -2.0046 0.9791
2.1414 4.4027 -2.0037 0.9791
1.3230 4.7114 -2.0028 0.9791
0.8965 4.8096 -2.0023 0.9791
0.0260 4.8900 -2.0014 0.9791
-0.4109 4.8715 -2.0009 0.9791
-1.2709 4.7183 -1.9999 0.9791
-2.4750 4.2094 -1.9985 0.9791
-2.8407 3.9706 -1.9981 0.9791
-3.5008 3.4003 -1.9974 0.9791
-3.7900 3.0733 -1.9971 0.9791
-4.2753 2.3490 -1.9965 0.9791
-4.6243 1.5502 -1.9961 0.9791
-4.7439 1.1307 -1.9960 0.9791
-1.9440 0.1071 -0.7968 0.9916
-1.9299 -0.0665 -0.7903 0.9917
-4.7661 -1.0328 -1.9959 0.9791
-3.8522 -2.9946 -1.9969 0.9791
-3.2587 -3.6336 -1.9976 0.9791
-2.5609 -4.1573 -1.9984 0.9791
-2.1796 -4.3704 -1.9988 0.9791
-1.7808 -4.5487 -1.9993 0.9791
-1.3675 -4.6907 -1.9997 0.9791
-0.0745 -4.8890 -2.0012 0.9791
0.3627 -4.8773 -2.0017 0.9791
0.7973 -4.8266 -2.0022 0.9791
1.2257 -4.7371 -2.0026 0.9791
1.6444 -4.6098 -2.0031 0.9791
2.0502 -4.4454 -2.0036 0.9791
2.4398 -4.2453 -2.0040 0.9791
2.8100 -4.0112 -2.0044 0.9791
3.1578 -3.7448 -2.0048 0.9791
3.4804 -3.4483 -2.0052 0.9790
3.7753 -3.1240 -2.0055 0.9790
4.0399 -2.7746 -2.0058 0.9790
4.2722 -2.4028 -2.0061 0.9790
4.6327 -1.6043 -2.0065 0.9790
-2.0883 -4.0836 -1.9989 0.9802
-1.3287 -4.3920 -1.9998 0.9802
-0.9311 -4.4941 -2.0002 0.9802
-0.5259 -4.5604 -2.0007 0.9802
-0.1163 -4.5902 -2.0011 0.9802
0.7029 -4.5397 -2.0021 0.9802
1.1060 -4.4598 -2.0025 0.9802
1.5004 -4.3441 -2.0030 0.9801
2.2506 -4.0093 -2.0038 0.9801
3.5150 -2.9690 -2.0052 0.9801
3.7668 -2.6434 -2.0055 0.9801
4.1781 -1.9311 -2.0060 0.9801
4.4559 -1.1567 -2.0063 0.9801
4.5416 -0.7540 -2.0064 0.9801
4.6035 0.0664 -2.0065 0.9801
4.5179 0.8848 -2.0064 0.9801
4.2878 1.6746 -2.0061 0.9801
4.1206 2.0509 -2.0060 0.9801
3.6889 2.7509 -2.0055 0.9801
3.4278 3.0691 -2.0052 0.9801
2.8258 3.6290 -2.0045 0.9801
0.9767 4.4896 -2.0024 0.9802
0.5715 4.5579 -2.0020 0.9802
0.1619 4.5897 -2.0015 0.9802
-1.0604 4.4652 -2.0001 0.9802
-1.8375 4.2033 -1.9993 0.9802
-2.2053 4.0215 -1.9988 0.9802
-3.7247 2.6694 -1.9971 0.9802
-3.9479 2.3256 -1.9969 0.9802
-4.1394 1.9633 -1.9967 0.9802
-1.5976 0.5893 -0.7421 0.9926
-1.5577 0.4209 -0.7032 0.9930
-1.5021 0.2647 -0.6647 0.9934
-1.5232 -0.0069 -0.6639 0.9934
-1.5271 -0.1440 -0.6685 0.9933
-1.5634 -0.4376 -0.7075 0.9929
-4.2834 -1.6241 -1.9965 0.9802
-4.1215 -2.0006 -1.9966 0.9802
-3.9267 -2.3611 -1.9969 0.9802
-3.7005 -2.7029 -1.9971 0.9802
-3.1612 -3.3194 -1.9977 0.9802
-2.8524 -3.5892 -1.9981 0.9802
-2.5208 -3.8304 -1.9984 0.9802
-2.1689 -4.0412 -1.9988 0.9802
-1.7994 -4.2197 -1.9992 0.9802
-1.4155 -4.3645 -1.9997 0.9802
-1.0201 -4.4745 -2.0001 0.9802
-0.6163 -4.5488 -2.0006 0.9802
-0.2074 -4.5868 -2.0010 0.9802
0.2033 -4.5880 -2.0015 0.9802
1.0172 -4.4806 -2.0024 0.9802
1.7993 -4.2298 -2.0033 0.9801
2.1705 -4.0530 -2.0037 0.9801
2.5245 -3.8436 -2.0041 0.9801
2.8584 -3.6033 -2.0045 0.9801
3.7135 -2.7175 -2.0055 0.9801
3.9420 -2.3751 -2.0057 0.9801
4.1389 -2.0136 -2.0059 0.9801
4.5257 -0.8440 -2.0064 0.9801
4.5877 0.3866 -2.0065 0.9801
4.4453 1.1969 -2.0063 0.9801
4.1606 1.9687 -2.0060 0.9801
3.9676 2.3324 -2.0058 0.9801
3.7428 2.6773 -2.0055 0.9801
3.4881 3.0006 -2.0053 0.9801
3.2055 3.2997 -2.0049 0.9801
2.5661 3.8163 -2.0042 0.9801
-0.5671 4.5555 -2.0007 0.9802
-0.9717 4.4856 -2.0002 0.9802
-1.3683 4.3798 -1.9998 0.9802
-1.7538 4.2391 -1.9994 0.9802
-3.4119 3.0604 -1.9975 0.9802
-4.0997 2.0451 -1.9967 0.9802
-1.5696 0.4578 -0.7126 0.9929
-1.5253 0.1605 -0.6684 0.9933
-1.5255 0.0234 -0.6649 0.9934
-1.5070 -0.2488 -0.6657 0.9934
-1.5947 -0.5687 -0.7379 0.9926
-4.1603 -1.9183 -1.9966 0.9802
-3.5038 -2.9541 -1.9973 0.9802
-2.9230 -3.5317 -1.9980 0.9802
-2.5962 -3.7795 -1.9983 0.9802
-2.2485 -3.9971 -1.9987 0.9802
-1.1086 -4.4532 -2.0000 0.9802
-0.7064 -4.5355 -2.0005 0.9802
-0.2984 -4.5815 -2.0009 0.9802
0.1122 -4.5909 -2.0014 0.9802
0.5221 -4.5636 -2.0019 0.9802
0.9280 -4.4997 -2.0023 0.9802
1.3267 -4.3997 -2.0028 0.9801
2.7862 -3.6592 -2.0044 0.9801
3.3942 -3.1059 -2.0051 0.9801
4.4063 -1.3326 -2.0063 0.9801
4.5736 -0.5271 -2.0064 0.9801
4.5945 0.2955 -2.0065 0.9801
4.5496 0.7048 -2.0064 0.9801
4.4682 1.1085 -2.0063 0.9801
4.3510 1.5032 -2.0062 0.9801
4.1989 1.8858 -2.0060 0.9801
3.5471 2.9308 -2.0053 0.9801
3.2705 3.2356 -2.0050 0.9801
2.9678 3.5143 -2.0047 0.9801
0.3440 4.5801 -2.0017 0.9802
-0.0667 4.5915 -2.0013 0.9802
-2.0442 4.1062 -1.9990 0.9802
-3.0582 3.4150 -1.9979 0.9802
-3.3506 3.1276 -1.9975 0.9802
-3.6161 2.8152 -1.9972 0.9802
-3.8527 2.4805 -1.9970 0.9802
-1.5799 0.4950 -0.7215 0.9928
-1.5207 0.1905 -0.6679 0.9933
-1.5283 0.0538 -0.6665 0.9933
-1.5365 -0.3650 -0.6883 0.9931
-4.0171 -2.2033 -1.9968 0.9802
-3.8046 -2.5538 -1.9970 0.9802
-3.2902 -3.1911 -1.9976 0.9802
-2.6706 -3.7271 -1.9983 0.9802
-2.3273 -3.9516 -1.9986 0.9802
-1.9653 -4.1446 -1.9991 0.9802
-1.1967 -4.4301 -1.9999 0.9802
0.0211 -4.5920 -2.0013 0.9802
0.8385 -4.5170 -2.0022 0.9802
1.2391 -4.4250 -2.0027 0.9801
1.6299 -4.2975 -2.0031 0.9801
2.0078 -4.1355 -2.0035 0.9801
3.0345 -3.4569 -2.0047 0.9801
3.3318 -3.1725 -2.0050 0.9801
3.8444 -2.5295 -2.0056 0.9801
4.0555 -2.1761 -2.0059 0.9801
4.3789 -1.4198 -2.0062 0.9801
4.5993 -0.2076 -2.0065 0.9801
4.5994 0.2042 -2.0065 0.9801
4.5627 0.6144 -2.0064 0.9801
4.4894 1.0196 -2.0064 0.9801
4.2356 1.8022 -2.0061 0.9801
4.0572 2.1732 -2.0059 0.9801
3.8463 2.5268 -2.0057 0.9801
3.3342 3.1702 -2.0051 0.9801
3.0371 3.4548 -2.0047 0.9801
2.3727 3.9388 -2.0040 0.9801
2.0109 4.1342 -2.0036 0.9801
1.6331 4.2965 -2.0032 0.9801
1.2423 4.4242 -2.0027 0.9801
-0.3859 4.5749 -2.0009 0.9802
-1.1935 4.4311 -2.0000 0.9802
-1.9623 4.1461 -1.9991 0.9802
-2.3245 3.9534 -1.9987 0.9802
-2.6680 3.7291 -1.9983 0.9802
-2.9900 3.4752 -1.9980 0.9802
-3.2880 3.1936 -1.9976 0.9802
-3.5596 2.8865 -1.9973 0.9802
-3.8028 2.5566 -1.9970 0.9802
-4.0156 2.2062 -1.9968 0.9802
-4.1962 1.8384 -1.9966 0.9802
-1.5883 0.5325 -0.7301 0.9927
-1.5145 0.2204 -0.6670 0.9933
-1.5295 0.0842 -0.6676 0.9933
-1.5209 -0.1895 -0.6680 0.9933
-4.2330 -1.7517 -1.9965 0.9802
-4.0599 -2.1231 -1.9967 0.9802
-3.8544 -2.4777 -1.9969 0.9802
-3.6180 -2.8126 -1.9972 0.9802
-3.0606 -3.4127 -1.9978 0.9802
-2.7439 -3.6732 -1.9982 0.9802
-2.4052 -3.9044 -1.9986 0.9802
-2.0470 -4.1046 -1.9990 0.9802
-1.2843 -4.4053 -1.9998 0.9802
-0.8857 -4.5034 -2.0003 0.9802
-0.4799 -4.5656 -2.0007 0.9802
-0.0700 -4.5913 -2.0012 0.9802
0.3406 -4.5802 -2.0016 0.9802
0.7487 -4.5325 -2.0021 0.9802
1.1510 -4.4485 -2.0026 0.9802
1.5442 -4.3288 -2.0030 0.9801
1.9253 -4.1744 -2.0034 0.9801
3.2681 -3.2379 -2.0050 0.9801
4.0115 -2.2561 -2.0058 0.9801
4.1975 -1.8889 -2.0060 0.9801
4.3498 -1.5063 -2.0062 0.9801
-1.9663 -3.8451 -1.9991 0.9811
-0.8767 -4.2315 -2.0003 0.9811
1.0413 -4.1988 -2.0024 0.9811
1.7727 -3.9480 -2.0033 0.9811
2.1188 -3.7746 -2.0037 0.9811
3.3091 -2.7950 -2.0050 0.9811
3.5461 -2.4885 -2.0053 0.9811
3.7547 -2.1619 -2.0055 0.9811
3.9333 -1.8179 -2.0057 0.9811
4.1947 -1.0890 -2.0060 0.9811
4.3218 -0.3249 -2.0062 0.9811
4.3107 0.4495 -2.0062 0.9811
4.2531 0.8329 -2.0061 0.9811
4.1615 1.2096 -2.0060 0.9811
3.8791 1.9307 -2.0057 0.9811
3.6907 2.2693 -2.0055 0.9811
3.2270 2.8893 -2.0050 0.9811
2.3440 3.6399 -2.0040 0.9811
1.6580 3.9974 -2.0032 0.9811
0.5381 4.2913 -2.0019 0.9811
-0.2343 4.3167 -2.0011 0.9811
-0.6189 4.2775 -2.0006 0.9811
-0.9984 4.2042 -2.0002 0.9811
-1.3698 4.0973 -1.9998 0.9811
-2.4061 3.5852 -1.9986 0.9811
-2.7163 3.3553 -1.9983 0.9812
-1.3170 0.3559 -0.6315 0.9940
-1.3175 0.2322 -0.6192 0.9941
-1.3370 -0.1260 -0.6216 0.9941
-1.3141 -0.2438 -0.6187 0.9941
-1.3201 -0.3695 -0.6345 0.9940
-3.6975 -2.2233 -1.9971 0.9812
-3.4845 -2.5451 -1.9974 0.9812
-3.2436 -2.8467 -1.9976 0.9812
-2.3736 -3.6067 -1.9986 0.9811
-2.0422 -3.8051 -1.9990 0.9811
-1.6943 -3.9732 -1.9994 0.9811
-0.9604 -4.2130 -2.0002 0.9811
-0.5803 -4.2829 -2.0006 0.9811
-0.1953 -4.3186 -2.0010 0.9811
0.9577 -4.2184 -2.0023 0.9811
2.3767 -3.6185 -2.0039 0.9811
3.2529 -2.8600 -2.0049 0.9811
3.4959 -2.5583 -2.0052 0.9811
3.8963 -1.8956 -2.0057 0.9811
4.1722 -1.1720 -2.0060 0.9811
4.2604 -0.7945 -2.0061 0.9811
4.3340 -0.0235 -2.0062 0.9811
4.3187 0.3639 -2.0062 0.9811
4.0670 1.4961 -2.0059 0.9811
3.9167 1.8534 -2.0057 0.9811
3.7351 2.1957 -2.0055 0.9811
3.2838 2.8248 -2.0050 0.9811
3.0178 3.1064 -2.0047 0.9811
2.7277 3.3631 -2.0044 0.9811
2.0847 3.7936 -2.0037 0.9811
1.3756 4.1025 -2.0029 0.9811
0.6232 4.2800 -2.0020 0.9811
-0.1486 4.3207 -2.0012 0.9811
-0.9149 4.2234 -2.0003 0.9811
-1.2883 4.1239 -1.9999 0.9811
-1.6513 3.9915 -1.9995 0.9811
-2.0010 3.8272 -1.9991 0.9811
-2.3346 3.6324 -1.9987 0.9811
-2.6493 3.4086 -1.9983 0.9812
-3.4569 2.5828 -1.9974 0.9812
-3.8605 1.9257 -1.9970 0.9812
-1.3302 0.5209 -0.6613 0.9937
-1.3356 0.0205 -0.6183 0.9941
-1.3383 -0.0994 -0.6212 0.9941
-1.3211 -0.2181 -0.6198 0.9941
-3.7408 -2.1494 -1.9971 0.9812
-3.2993 -2.7817 -1.9976 0.9812
-2.1172 -3.7637 -1.9989 0.9811
-1.7728 -3.9386 -1.9993 0.9811
-1.4140 -4.0821 -1.9997 0.9811
-1.0438 -4.1929 -2.0001 0.9811
-0.2809 -4.3136 -2.0009 0.9811
1.6146 -4.0149 -2.0031 0.9811
2.3043 -3.6648 -2.0039 0.9811
3.1954 -2.9239 -2.0049 0.9811
4.3055 -0.4962 -2.0061 0.9811
4.3327 -0.1094 -2.0062 0.9811
4.3251 0.2781 -2.0062 0.9811
4.0960 1.4151 -2.0059 0.9811
3.9528 1.7753 -2.0058 0.9811
3.7780 2.1212 -2.0056 0.9811
3.3393 2.7591 -2.0051 0.9811
2.7940 3.3085 -2.0045 0.9811
2.4867 3.5443 -2.0041 0.9811
2.1597 3.7516 -2.0038 0.9811
1.0867 4.1875 -2.0026 0.9811
0.7080 4.2670 -2.0021 0.9811
0.3238 4.3122 -2.0017 0.9811
-0.4487 4.2992 -2.0008 0.9811
-0.8309 4.2409 -2.0004 0.9811
-3.6278 2.3358 -1.9972 0.9812
-3.8216 2.0020 -1.9970 0.9812
-1.3262 0.5499 -0.6646 0.9937
-1.3317 0.1669 -0.6212 0.9941
-1.3376 0.0471 -0.6195 0.9941
-1.3385 -0.0728 -0.6205 0.9941
-1.3046 -0.3099 -0.6207 0.9941
-1.3327 -0.4457 -0.6505 0.9938
-3.7827 -2.0747 -1.9970 0.9812
-3.5825 -2.4047 -1.9972 0.9812
-2.1914 -3.7208 -1.9988 0.9811
-1.8505 -3.9024 -1.9992 0.9811
-1.4947 -4.0530 -1.9996 0.9811
-1.1268 -4.1712 -2.0000 0.9811
0.0199 -4.3235 -2.0013 0.9811
0.4062 -4.3053 -2.0017 0.9811
1.1666 -4.1660 -2.0026 0.9811
1.5345 -4.0460 -2.0030 0.9811
1.8903 -3.8935 -2.0034 0.9811
2.2310 -3.7097 -2.0038 0.9811
2.5541 -3.4961 -2.0041 0.9811
3.6191 -2.3813 -2.0054 0.9811
3.8179 -2.0486 -2.0056 0.9811
3.9861 -1.6994 -2.0058 0.9811
4.1223 -1.3365 -2.0059 0.9811
4.2255 -0.9629 -2.0061 0.9811
4.3298 0.1923 -2.0062 0.9811
4.2952 0.5784 -2.0061 0.9811
3.6209 2.3787 -2.0054 0.9811
3.3935 2.6924 -2.0051 0.9811
2.8592 3.2525 -2.0045 0.9811
2.5567 3.4944 -2.0042 0.9811
1.1696 4.1653 -2.0026 0.9811
-0.3633 4.3074 -2.0009 0.9811
-0.7466 4.2568 -2.0005 0.9811
-1.1238 4.1722 -2.0001 0.9811
-1.4918 4.0542 -1.9996 0.9811
-2.8154 3.2723 -1.9982 0.9812
