ply
format ascii 1.0
element vertex 1593
property float32 x
property float32 y
property float32 z
property float32 I
end_header
-7.5798 1.4715 -1.9992 0.9686
-7.7205 0.0988 -1.9992 0.9686
-7.6985 -0.5914 -1.9992 0.9686
-7.2665 -2.6121 -1.9993 0.9686
-7.0044 -3.2510 -1.9994 0.9686
-5.8925 -4.9931 -1.9998 0.9686
-4.9105 -5.9632 -2.0001 0.9686
-4.3584 -6.3787 -2.0003 0.9686
-3.7714 -6.7432 -2.0005 0.9686
-3.1541 -7.0540 -2.0007 0.9686
-1.8487 -7.5044 -2.0011 0.9686
-0.4836 -7.7154 -2.0016 0.9686
0.2078 -7.7286 -2.0018 0.9686
0.8976 -7.6800 -2.0020 0.9686
2.2508 -7.3993 -2.0025 0.9685
2.9032 -7.1693 -2.0027 0.9685
4.1338 -6.5395 -2.0031 0.9685
4.7020 -6.1446 -2.0033 0.9685
5.7215 -5.2104 -2.0036 0.9685
6.8999 -3.5072 -2.0040 0.9685
7.1860 -2.8768 -2.0041 0.9685
7.4146 -2.2233 -2.0042 0.9685
7.6922 -0.8681 -2.0043 0.9685
7.7391 -0.1773 -2.0043 0.9685
7.5087 1.8814 -2.0042 0.9685
6.7401 3.8048 -2.0040 0.9685
6.3728 4.3916 -2.0039 0.9685
4.4292 6.3436 -2.0032 0.9685
3.8443 6.7134 -2.0030 0.9685
3.2287 7.0293 -2.0028 0.9685
2.5864 7.2857 -2.0017 0.9686
1.2446 7.6073 -1.9959 0.9687
0.5595 7.6824 -1.9944 0.9687
-1.4990 7.5610 -1.9958 0.9687
-2.8279 7.1915 -2.0008 0.9686
-4.0619 6.5720 -2.0004 0.9686
-5.6578 5.2580 -1.9998 0.9686
-6.5025 4.1664 -1.9996 0.9686
-6.8483 3.5686 -1.9994 0.9686
-7.7170 0.2549 -1.9992 0.9686
-7.6392 -1.1227 -1.9992 0.9686
-7.5085 -1.8008 -1.9992 0.9686
-5.5332 -5.3892 -1.9999 0.9686
-3.2960 -6.9886 -2.0006 0.9686
-2.6587 -7.2559 -2.0008 0.9686
-1.9999 -7.4653 -2.0011 0.9686
-1.3250 -7.6150 -2.0013 0.9686
0.0515 -7.7310 -2.0017 0.9686
0.7422 -7.6964 -2.0020 0.9686
1.4271 -7.6001 -2.0022 0.9686
2.1007 -7.4431 -2.0024 0.9685
2.7576 -7.2264 -2.0026 0.9685
3.3926 -6.9518 -2.0029 0.9685
4.0006 -6.6216 -2.0031 0.9685
5.6150 -5.3249 -2.0036 0.9685
6.4740 -4.2411 -2.0039 0.9685
7.3680 -2.3727 -2.0042 0.9685
7.6731 -1.0234 -2.0043 0.9685
7.6698 1.0481 -2.0043 0.9685
7.3604 2.3964 -2.0042 0.9685
6.8157 3.6679 -2.0040 0.9685
5.0976 5.8213 -2.0034 0.9685
4.5566 6.2529 -2.0033 0.9685
2.0732 7.4371 -1.9990 0.9686
0.7148 7.6704 -1.9946 0.9687
0.0265 7.6873 -1.9904 0.9687
-1.3456 7.5882 -1.9954 0.9687
-2.6819 7.2470 -2.0007 0.9686
-3.9283 6.6529 -2.0004 0.9686
-4.5066 6.2747 -2.0002 0.9686
-5.0488 5.8464 -2.0000 0.9686
-6.4170 4.2971 -1.9996 0.9686
-6.7749 3.7063 -1.9995 0.9686
-7.3257 2.4411 -1.9993 0.9686
-7.5143 1.7767 -1.9992 0.9686
-7.6428 1.0981 -1.9992 0.9686
-7.7102 0.4108 -1.9992 0.9686
-7.6603 -0.9681 -1.9992 0.9686
-7.5433 -1.6487 -1.9992 0.9686
-7.3661 -2.3162 -1.9993 0.9686
-6.4890 -4.1873 -1.9996 0.9686
-6.0893 -4.7507 -1.9997 0.9686
-5.1473 -5.7596 -2.0000 0.9686
-4.0407 -6.5850 -2.0004 0.9686
-3.4365 -6.9204 -2.0006 0.9686
-2.8047 -7.2005 -2.0008 0.9686
-2.1504 -7.4231 -2.0010 0.9686
-1.4787 -7.5864 -2.0012 0.9686
-0.7950 -7.6891 -2.0015 0.9686
-0.1048 -7.7303 -2.0017 0.9686
0.5864 -7.7096 -2.0019 0.9686
1.2731 -7.6272 -2.0021 0.9686
1.9497 -7.4838 -2.0024 0.9686
3.2513 -7.0188 -2.0028 0.9685
3.8659 -6.7009 -2.0030 0.9685
5.9703 -4.9239 -2.0037 0.9685
6.3869 -4.3710 -2.0039 0.9685
7.0637 -3.1648 -2.0041 0.9685
7.3185 -2.5211 -2.0042 0.9685
7.5147 -1.8572 -2.0042 0.9685
7.6508 -1.1783 -2.0043 0.9685
7.7385 0.2022 -2.0043 0.9685
7.1767 2.8999 -2.0041 0.9685
6.5453 4.1305 -2.0039 0.9685
4.1127 6.5528 -2.0031 0.9685
2.2239 7.3964 -1.9997 0.9686
-0.5065 7.6846 -1.9940 0.9687
-1.8689 7.4829 -1.9970 0.9686
-2.5338 7.2968 -1.9999 0.9686
-3.1768 7.0438 -2.0007 0.9686
-3.7931 6.7311 -2.0005 0.9686
-5.4409 5.4826 -1.9999 0.9686
-6.3289 4.4260 -1.9996 0.9686
-7.2749 2.5887 -1.9993 0.9686
-7.4769 1.9282 -1.9992 0.9686
-7.6190 1.2524 -1.9992 0.9686
-7.7004 0.5666 -1.9992 0.9686
-7.7202 -0.1237 -1.9991 0.9686
-7.6783 -0.8130 -1.9992 0.9686
-7.5751 -1.4959 -1.9992 0.9686
-7.4113 -2.1668 -1.9993 0.9686
-6.1840 -4.6266 -1.9997 0.9686
-5.7463 -5.1610 -1.9998 0.9686
-5.2626 -5.6542 -2.0000 0.9686
-4.7367 -6.1024 -2.0001 0.9686
-3.5756 -6.8494 -2.0005 0.9686
-1.6317 -7.5548 -2.0012 0.9686
-0.2610 -7.7264 -2.0016 0.9686
2.4631 -7.3316 -2.0025 0.9685
4.3206 -6.4178 -2.0032 0.9685
4.8773 -6.0067 -2.0034 0.9685
5.3949 -5.5473 -2.0035 0.9685
5.8695 -5.0435 -2.0037 0.9685
6.9982 -3.3069 -2.0041 0.9685
7.2660 -2.6685 -2.0042 0.9685
7.6254 -1.3327 -2.0043 0.9685
7.7410 0.0458 -2.0043 0.9685
6.9586 3.3895 -2.0041 0.9685
6.6275 3.9974 -2.0040 0.9685
6.2434 4.5733 -2.0038 0.9685
5.3289 5.6107 -2.0035 0.9685
4.8059 6.0639 -2.0033 0.9685
3.6491 6.8211 -2.0030 0.9685
2.3739 7.3528 -2.0005 0.9686
1.0246 7.6378 -1.9953 0.9687
0.3375 7.6867 -1.9921 0.9687
-1.7168 7.5172 -1.9965 0.9686
-2.3849 7.3438 -1.9992 0.9686
-3.0339 7.1068 -2.0007 0.9686
-4.2495 6.4520 -2.0003 0.9686
-4.8085 6.0459 -2.0001 0.9686
-5.8069 5.0926 -1.9998 0.9686
-6.6197 3.9772 -1.9995 0.9686
-6.9482 3.3696 -1.9994 0.9686
-7.5922 1.4062 -1.9992 0.9686
-7.6874 0.7221 -1.9992 0.9686
-7.4535 -2.0165 -1.9992 0.9686
-7.2438 -2.6745 -1.9993 0.9686
-6.6528 -3.9215 -1.9995 0.9686
-6.2761 -4.5006 -1.9996 0.9686
-2.7189 6.5239 -2.0008 0.9710
-3.8359 5.9346 -2.0005 0.9711
-5.2712 4.7037 -2.0000 0.9711
-6.3287 3.1368 -1.9996 0.9711
-6.5834 2.5587 -1.9995 0.9711
-7.0257 0.7211 -1.9994 0.9711
-7.0620 0.0904 -1.9994 0.9711
-6.8334 -1.7857 -1.9994 0.9711
-6.6467 -2.3892 -1.9995 0.9711
-6.4069 -2.9737 -1.9996 0.9711
-6.1158 -3.5344 -1.9997 0.9711
-5.7759 -4.0670 -1.9998 0.9711
-5.3898 -4.5671 -1.9999 0.9711
-4.9605 -5.0308 -2.0001 0.9711
-2.8849 -6.4519 -2.0008 0.9710
-2.2971 -6.6845 -2.0010 0.9710
0.1900 -7.0686 -2.0018 0.9710
1.4454 -6.9233 -2.0022 0.9710
5.2325 -4.7651 -2.0035 0.9710
6.3100 -3.2074 -2.0038 0.9710
6.5716 -2.6308 -2.0039 0.9710
6.7807 -2.0332 -2.0040 0.9710
7.0346 -0.7939 -2.0041 0.9710
6.8668 1.7205 -2.0040 0.9710
6.6854 2.3271 -2.0040 0.9710
6.4505 2.9151 -2.0039 0.9710
5.8280 4.0162 -2.0037 0.9710
5.4455 4.5206 -2.0036 0.9710
3.5158 6.1397 -2.0029 0.9710
2.9529 6.4287 -2.0027 0.9710
2.3664 6.6662 -2.0025 0.9710
1.7612 6.8503 -2.0023 0.9710
0.5136 7.0529 -2.0019 0.9710
-0.1186 7.0698 -2.0017 0.9710
-1.3747 6.9344 -2.0013 0.9710
-1.9886 6.7831 -2.0011 0.9710
-2.5865 6.5776 -2.0009 0.9710
-3.1636 6.3196 -2.0007 0.9710
-5.1751 4.8094 -2.0000 0.9711
-5.9477 3.8110 -1.9997 0.9711
-6.7445 2.0969 -1.9995 0.9711
-7.0587 0.2332 -1.9994 0.9711
-7.0513 -0.3985 -1.9994 0.9711
-6.9876 -1.0270 -1.9994 0.9711
-5.8569 -3.9494 -1.9998 0.9711
-5.4809 -4.4572 -1.9999 0.9711
-5.0611 -4.9294 -2.0000 0.9711
-3.5734 -6.0966 -2.0005 0.9710
-1.2119 -6.9648 -2.0013 0.9710
-0.5848 -7.0460 -2.0015 0.9710
0.0471 -7.0708 -2.0017 0.9710
2.5220 -6.6090 -2.0026 0.9710
3.6588 -6.0558 -2.0029 0.9710
4.6790 -5.3087 -2.0033 0.9710
5.5500 -4.3918 -2.0036 0.9710
6.5171 -2.7631 -2.0039 0.9710
7.0171 -0.9359 -2.0041 0.9710
5.5359 4.4097 -2.0036 0.9710
3.0823 6.3678 -2.0028 0.9710
2.5008 6.6171 -2.0026 0.9710
1.2828 6.9552 -2.0022 0.9710
0.6561 7.0412 -2.0020 0.9710
-0.6075 7.0441 -2.0015 0.9710
-1.8512 6.8221 -2.0011 0.9710
-2.4531 6.6287 -2.0009 0.9710
-3.0352 6.3824 -2.0007 0.9710
-3.5930 6.0851 -2.0005 0.9710
-4.1220 5.7392 -2.0004 0.9711
-5.0769 4.9131 -2.0000 0.9711
-5.4952 4.4395 -1.9999 0.9711
-6.4747 2.8227 -1.9996 0.9711
-6.7008 2.2328 -1.9995 0.9711
-6.8733 1.6251 -1.9994 0.9711
-7.0526 0.3758 -1.9994 0.9711
-7.0580 -0.2559 -1.9994 0.9711
-6.8999 -1.5081 -1.9994 0.9711
-6.7377 -2.1186 -1.9995 0.9711
-6.2536 -3.2843 -1.9996 0.9711
-5.9354 -3.8301 -1.9997 0.9711
-3.6959 -6.0230 -2.0005 0.9711
-3.1432 -6.3297 -2.0007 0.9710
-2.5653 -6.5859 -2.0009 0.9710
-1.9668 -6.7894 -2.0011 0.9710
1.7832 -6.8445 -2.0023 0.9710
3.5355 -6.1283 -2.0029 0.9710
4.5707 -5.4021 -2.0033 0.9710
6.1751 -3.4597 -2.0038 0.9710
6.6928 -2.3056 -2.0040 0.9710
6.9308 1.4416 -2.0041 0.9710
6.7741 2.0550 -2.0040 0.9710
6.5631 2.6520 -2.0039 0.9710
4.2821 5.6333 -2.0032 0.9710
3.7613 5.9928 -2.0030 0.9710
3.2105 6.3044 -2.0028 0.9710
0.7983 7.0267 -2.0020 0.9710
0.1673 7.0692 -2.0018 0.9710
-0.4650 7.0551 -2.0016 0.9710
-1.0934 6.9846 -2.0014 0.9710
-1.7129 6.8583 -2.0012 0.9710
-2.9057 6.4426 -2.0008 0.9710
-4.5090 5.4398 -2.0002 0.9711
-4.9766 5.0148 -2.0001 0.9711
-5.7890 4.0484 -1.9998 0.9711
-6.6544 2.3678 -1.9995 0.9711
-6.5751 -2.5798 -1.9995 0.9711
-6.3186 -3.1572 -1.9996 0.9711
-5.6564 -4.2319 -1.9998 0.9711
-4.3325 -5.5816 -2.0003 0.9711
-2.6978 -6.5326 -2.0008 0.9710
-1.4924 -6.9098 -2.0012 0.9710
-0.2387 -7.0666 -2.0016 0.9710
0.3937 -7.0604 -2.0019 0.9710
1.0231 -6.9977 -2.0021 0.9710
1.6444 -6.8790 -2.0023 0.9710
2.2527 -6.7053 -2.0025 0.9710
2.8431 -6.4778 -2.0027 0.9710
4.4604 -5.4933 -2.0032 0.9710
4.9338 -5.0732 -2.0034 0.9710
5.3678 -4.6124 -2.0035 0.9710
5.7588 -4.1146 -2.0037 0.9710
6.3999 -3.0242 -2.0039 0.9710
6.6448 -2.4404 -2.0040 0.9710
7.0546 -0.5908 -2.0041 0.9710
7.0792 0.0419 -2.0041 0.9710
6.8143 1.9177 -2.0040 0.9710
6.6155 2.5188 -2.0039 0.9710
6.3637 3.0997 -2.0039 0.9710
6.0610 3.6557 -2.0038 0.9710
5.7097 4.1824 -2.0036 0.9710
5.3128 4.6756 -2.0035 0.9710
4.8735 5.1312 -2.0034 0.9710
4.3951 5.5457 -2.0032 0.9710
3.8817 5.9157 -2.0030 0.9710
3.3373 6.2383 -2.0029 0.9710
2.7663 6.5109 -2.0027 0.9710
0.9403 7.0093 -2.0021 0.9710
0.3102 7.0645 -2.0018 0.9710
-0.3223 7.0632 -2.0016 0.9710
-0.9520 7.0054 -2.0014 0.9710
-2.1832 6.7228 -2.0010 0.9710
-3.3443 6.2256 -2.0006 0.9710
-3.8868 5.9014 -2.0004 0.9711
-4.8743 5.1145 -2.0001 0.9711
-5.3114 4.6581 -2.0000 0.9711
-5.7060 4.1646 -1.9998 0.9711
-6.6052 2.5019 -1.9995 0.9711
-6.9446 1.2862 -1.9994 0.9711
-7.0317 0.6606 -1.9994 0.9711
-7.0625 0.0296 -1.9994 0.9711
-7.0370 -0.6015 -1.9994 0.9711
-6.9551 -1.2279 -1.9994 0.9711
-6.8178 -1.8445 -1.9994 0.9711
-6.0852 -3.5870 -1.9997 0.9711
-5.3503 -4.6134 -1.9999 0.9711
-4.9170 -5.0733 -2.0001 0.9711
-4.0044 5.1248 -2.0004 0.9731
-4.8519 4.3296 -2.0001 0.9732
-5.2190 3.8785 -2.0000 0.9732
-5.5444 3.3965 -1.9999 0.9732
-5.8254 2.8873 -1.9998 0.9732
-6.3820 1.2389 -1.9996 0.9732
-6.4670 0.6637 -1.9996 0.9732
-6.1181 -2.1992 -1.9997 0.9732
-5.8973 -2.7372 -1.9998 0.9732
-5.6294 -3.2533 -1.9998 0.9732
-5.3165 -3.7435 -1.9999 0.9732
-3.6693 -5.3701 -2.0005 0.9731
-3.1751 -5.6770 -2.0007 0.9731
-1.5563 -6.3175 -2.0012 0.9731
-0.9857 -6.4319 -2.0014 0.9731
0.1749 -6.5059 -2.0018 0.9731
1.8946 -6.2283 -2.0024 0.9731
2.4437 -6.0347 -2.0025 0.9731
3.9576 -5.1718 -2.0030 0.9731
5.1885 -3.9379 -2.0035 0.9731
5.5200 -3.4587 -2.0036 0.9731
5.8072 -2.9518 -2.0037 0.9731
6.0480 -2.4212 -2.0038 0.9731
6.2403 -1.8712 -2.0038 0.9731
6.4359 1.0124 -2.0039 0.9731
6.1526 2.1417 -2.0038 0.9731
5.9365 2.6828 -2.0037 0.9731
5.3636 3.6962 -2.0035 0.9731
4.6196 4.5913 -2.0033 0.9731
3.7280 5.3394 -2.0030 0.9731
2.7177 5.9167 -2.0026 0.9731
1.0510 6.4238 -2.0021 0.9731
0.4728 6.4914 -2.0019 0.9731
-0.1091 6.5070 -2.0017 0.9731
-0.6900 6.4706 -2.0015 0.9731
-1.8304 6.2433 -2.0011 0.9731
-2.3807 6.0542 -2.0009 0.9731
-2.9118 5.8168 -2.0008 0.9731
-3.4197 5.5328 -2.0006 0.9731
-3.9000 5.2047 -2.0004 0.9731
-4.7634 4.4268 -2.0001 0.9732
-5.1396 3.9832 -2.0000 0.9732
-5.4747 3.5079 -1.9999 0.9732
-5.7659 3.0045 -1.9998 0.9732
-6.2082 1.9302 -1.9997 0.9732
-6.3556 1.3677 -1.9996 0.9732
-6.4523 0.7943 -1.9996 0.9732
-6.4974 0.2146 -1.9996 0.9732
-6.4906 -0.3668 -1.9996 0.9732
-6.1613 -2.0751 -1.9997 0.9732
-5.9514 -2.6174 -1.9997 0.9732
-5.3910 -3.6352 -1.9999 0.9732
-4.6585 -4.5373 -2.0002 0.9732
-4.2347 -4.9357 -2.0003 0.9732
-3.7771 -5.2948 -2.0005 0.9731
-3.2891 -5.6115 -2.0006 0.9731
-2.7748 -5.8835 -2.0008 0.9731
-2.2382 -6.1084 -2.0010 0.9731
-1.6836 -6.2846 -2.0012 0.9731
-0.5382 -6.4851 -2.0015 0.9731
1.7682 -6.2652 -2.0023 0.9731
2.8556 -5.8515 -2.0027 0.9731
3.3674 -5.5734 -2.0029 0.9731
4.3063 -4.8858 -2.0032 0.9731
4.7259 -4.4818 -2.0033 0.9731
5.1078 -4.0419 -2.0034 0.9731
5.4488 -3.5695 -2.0035 0.9731
5.7463 -3.0685 -2.0036 0.9731
5.9977 -2.5429 -2.0037 0.9731
6.3550 -1.4349 -2.0039 0.9731
6.4579 -0.8614 -2.0039 0.9731
6.5091 -0.2809 -2.0039 0.9731
6.5081 0.3018 -2.0039 0.9731
6.3503 1.4554 -2.0039 0.9731
6.1947 2.0169 -2.0038 0.9731
5.9895 2.5622 -2.0037 0.9731
4.7115 4.4970 -2.0033 0.9731
4.2905 4.8997 -2.0032 0.9731
2.8368 5.8607 -2.0027 0.9731
2.3016 6.0902 -2.0025 0.9731
1.7481 6.2709 -2.0023 0.9731
1.1807 6.4014 -2.0021 0.9731
0.6039 6.4806 -2.0019 0.9731
-0.5591 6.4834 -2.0016 0.9731
-1.1361 6.4069 -2.0014 0.9731
-2.2579 6.1012 -2.0010 0.9731
-2.7937 5.8746 -2.0008 0.9731
-3.3072 5.6009 -2.0006 0.9731
-3.7941 5.2826 -2.0005 0.9731
-5.0581 4.0864 -2.0000 0.9732
-5.9598 2.5983 -1.9997 0.9732
-6.3267 1.4959 -1.9996 0.9732
-6.4350 0.9246 -1.9996 0.9732
-6.4967 -0.2355 -1.9996 0.9732
-6.4497 -0.8151 -1.9996 0.9732
-6.3512 -1.3881 -1.9996 0.9732
-6.2019 -1.9501 -1.9997 0.9732
-6.0031 -2.4965 -1.9997 0.9732
-5.1268 -3.9998 -2.0000 0.9732
-4.7492 -4.4421 -2.0001 0.9732
-4.3336 -4.8490 -2.0003 0.9732
-3.8832 -5.2173 -2.0004 0.9731
-2.8931 -5.8261 -2.0008 0.9731
-1.8103 -6.2491 -2.0011 0.9731
-0.6692 -6.4728 -2.0015 0.9731
-0.0882 -6.5073 -2.0017 0.9731
0.4937 -6.4898 -2.0019 0.9731
1.0717 -6.4204 -2.0021 0.9731
4.6343 -4.5764 -2.0033 0.9731
5.3755 -3.6789 -2.0035 0.9731
5.6830 -3.1840 -2.0036 0.9731
5.9450 -2.6636 -2.0037 0.9731
6.1595 -2.1219 -2.0038 0.9731
6.3246 -1.5631 -2.0038 0.9731
6.5020 -0.4124 -2.0039 0.9731
6.4716 0.7515 -2.0039 0.9731
5.5088 3.4765 -2.0036 0.9731
5.1759 3.9546 -2.0035 0.9731
1.8745 6.2344 -2.0024 0.9731
0.7348 6.4673 -2.0020 0.9731
-0.4279 6.4935 -2.0016 0.9731
-1.0064 6.4287 -2.0014 0.9731
-2.1341 6.1457 -2.0010 0.9731
-3.6866 5.3583 -2.0005 0.9731
-4.1503 5.0071 -2.0003 0.9732
-5.3285 3.7264 -2.0000 0.9732
-5.9061 2.7182 -1.9998 0.9732
-6.1252 2.1795 -1.9997 0.9732
-6.5001 -0.1042 -1.9996 0.9732
-5.5334 -3.4143 -1.9999 0.9732
-5.2065 -3.8953 -2.0000 0.9732
-4.8379 -4.3452 -2.0001 0.9732
-4.4306 -4.7604 -2.0002 0.9732
-3.9879 -5.1376 -2.0004 0.9731
-3.5131 -5.4738 -2.0006 0.9731
-0.7999 -6.4578 -2.0015 0.9731
0.3623 -6.4983 -2.0018 0.9731
1.5135 -6.3313 -2.0022 0.9731
2.0733 -6.1713 -2.0024 0.9731
3.6367 -5.4019 -2.0029 0.9731
4.5408 -4.6690 -2.0032 0.9731
5.3000 -3.7868 -2.0035 0.9731
5.6174 -3.2982 -2.0036 0.9731
6.2917 -1.6906 -2.0038 0.9731
6.4177 -1.1217 -2.0039 0.9731
6.4855 0.6205 -2.0039 0.9731
6.2713 1.7649 -2.0038 0.9731
5.5780 3.3644 -2.0036 0.9731
5.2548 3.8492 -2.0035 0.9731
4.4852 4.7224 -2.0032 0.9731
4.0450 5.1039 -2.0031 0.9731
3.5725 5.4445 -2.0029 0.9731
0.8654 6.4512 -2.0020 0.9731
0.2855 6.5021 -2.0018 0.9731
-0.2966 6.5010 -2.0016 0.9731
-0.8762 6.4478 -2.0014 0.9731
-2.5541 5.9829 -2.0009 0.9731
-3.5776 5.4318 -2.0005 0.9731
-4.8889 4.2876 -2.0001 0.9732
-5.2522 3.8334 -2.0000 0.9732
-6.0799 2.3029 -1.9997 0.9732
-6.3924 1.1839 -1.9996 0.9732
-6.4725 0.6080 -1.9996 0.9732
-6.4774 -0.5537 -1.9996 0.9732
-6.2756 -1.6978 -1.9996 0.9732
-5.6012 -3.3017 -1.9999 0.9732
-4.9247 -4.2464 -2.0001 0.9732
-4.5259 -4.6698 -2.0002 0.9732
-3.2672 5.0547 -2.0006 0.9749
-3.7055 4.7422 -2.0005 0.9750
-4.4898 4.0064 -2.0002 0.9750
-4.8295 3.5890 -2.0001 0.9750
-5.1306 3.1430 -2.0000 0.9750
-5.6077 2.1794 -1.9999 0.9750
-5.7798 1.6696 -1.9998 0.9750
-5.9058 1.1465 -1.9998 0.9750
-6.0154 0.0770 -1.9997 0.9750
-5.8206 -1.5211 -1.9998 0.9750
-5.6616 -2.0351 -1.9998 0.9750
-5.4573 -2.5329 -1.9999 0.9750
-5.2093 -3.0106 -2.0000 0.9750
-4.5908 -3.8901 -2.0002 0.9750
-4.2251 -4.2850 -2.0003 0.9750
-3.8256 -4.6457 -2.0004 0.9750
-3.3954 -4.9693 -2.0006 0.9749
-2.9381 -5.2532 -2.0007 0.9749
-1.9565 -5.6932 -2.0011 0.9749
-1.4401 -5.8457 -2.0012 0.9749
2.7512 -5.3598 -2.0026 0.9749
3.2194 -5.0930 -2.0028 0.9749
3.6618 -4.7853 -2.0030 0.9749
4.0751 -4.4393 -2.0031 0.9749
4.8007 -3.6435 -2.0033 0.9749
5.1073 -3.2002 -2.0034 0.9749
5.3731 -2.7311 -2.0035 0.9749
5.5958 -2.2402 -2.0036 0.9749
5.7738 -1.7313 -2.0037 0.9749
5.9900 -0.6760 -2.0037 0.9749
6.0147 0.4009 -2.0037 0.9749
5.6927 1.9816 -2.0036 0.9749
5.2487 2.9629 -2.0035 0.9749
4.6370 3.8494 -2.0033 0.9749
4.2743 4.2481 -2.0032 0.9749
3.8773 4.6127 -2.0030 0.9749
3.4494 4.9404 -2.0029 0.9749
2.0152 5.6769 -2.0024 0.9749
0.4374 6.0065 -2.0019 0.9749
-0.1010 6.0210 -2.0017 0.9749
-1.1708 5.9059 -2.0013 0.9749
-3.6089 4.8162 -2.0005 0.9750
-4.4079 4.0964 -2.0003 0.9750
-4.7560 3.6860 -2.0001 0.9750
-5.0661 3.2461 -2.0000 0.9750
-5.3356 2.7803 -2.0000 0.9750
-5.5625 2.2924 -1.9999 0.9750
-5.7449 1.7861 -1.9998 0.9750
-5.8814 1.2656 -1.9998 0.9750
-6.0126 0.1986 -1.9997 0.9750
-5.9520 -0.8748 -1.9997 0.9750
-5.8502 -1.4031 -1.9998 0.9750
-5.5073 -2.4221 -1.9999 0.9750
-5.2691 -2.9046 -2.0000 0.9750
-4.9887 -3.3640 -2.0001 0.9750
-4.6684 -3.7965 -2.0002 0.9750
-3.0436 -5.1926 -2.0007 0.9749
-2.5676 -5.4442 -2.0009 0.9749
-1.5579 -5.8153 -2.0012 0.9749
-0.4980 -6.0008 -2.0016 0.9749
1.6361 -5.7971 -2.0023 0.9749
3.5643 -4.8583 -2.0029 0.9749
3.9844 -4.5207 -2.0031 0.9749
4.7260 -3.7398 -2.0033 0.9749
5.0415 -3.3027 -2.0034 0.9749
5.3167 -2.8392 -2.0035 0.9749
5.5494 -2.3528 -2.0036 0.9749
5.7376 -1.8476 -2.0036 0.9749
6.0224 -0.2599 -2.0037 0.9749
6.0215 0.2793 -2.0037 0.9749
5.9725 0.8162 -2.0037 0.9749
5.8755 1.3465 -2.0037 0.9749
5.5418 2.3707 -2.0036 0.9749
5.0309 3.3189 -2.0034 0.9749
4.3593 4.1609 -2.0032 0.9749
3.5487 4.8697 -2.0029 0.9749
2.6248 5.4227 -2.0026 0.9749
1.6175 5.8024 -2.0023 0.9749
1.0925 5.9232 -2.0021 0.9749
-1.0512 5.9284 -2.0014 0.9749
-1.5766 5.8103 -2.0012 0.9749
-2.0893 5.6457 -2.0010 0.9749
-2.5852 5.4360 -2.0009 0.9749
-4.6806 3.7814 -2.0002 0.9750
-4.9995 3.3479 -2.0001 0.9750
-5.5151 2.4044 -1.9999 0.9750
-5.7077 1.9019 -1.9998 0.9750
-5.8546 1.3843 -1.9998 0.9750
-5.7391 -1.8046 -1.9998 0.9750
-4.7442 -3.7012 -2.0001 0.9750
-4.3947 -4.1106 -2.0003 0.9750
-3.1479 -5.1300 -2.0007 0.9749
-2.6771 -5.3911 -2.0008 0.9749
-2.1849 -5.6092 -2.0010 0.9749
-0.6192 -5.9894 -2.0015 0.9749
-0.0816 -6.0213 -2.0017 0.9749
0.9916 -5.9407 -2.0021 0.9749
4.2879 -4.2343 -2.0032 0.9749
4.9737 -3.4039 -2.0034 0.9749
5.5006 -2.4645 -2.0036 0.9749
5.6990 -1.9632 -2.0036 0.9749
6.0159 -0.3816 -2.0037 0.9749
6.0260 0.1575 -2.0037 0.9749
5.7682 1.7499 -2.0037 0.9749
5.3643 2.7484 -2.0035 0.9749
4.4426 4.0720 -2.0032 0.9749
3.6464 4.7971 -2.0030 0.9749
1.7345 5.7686 -2.0023 0.9749
1.2120 5.9000 -2.0021 0.9749
-0.3960 6.0085 -2.0016 0.9749
-0.9312 5.9486 -2.0014 0.9749
-2.4748 5.4872 -2.0009 0.9749
-2.9550 5.2437 -2.0007 0.9749
-3.4114 4.9583 -2.0006 0.9749
-3.8405 4.6334 -2.0005 0.9750
-4.2389 4.2714 -2.0003 0.9750
-5.4654 2.5154 -1.9999 0.9750
-5.6681 2.0169 -1.9998 0.9750
-5.8255 1.5023 -1.9998 0.9750
-5.9997 0.4415 -1.9997 0.9750
-6.0151 -0.0964 -1.9997 0.9750
-5.9825 -0.6335 -1.9997 0.9750
-5.7744 -1.6882 -1.9998 0.9750
-5.6006 -2.1975 -1.9999 0.9750
-5.3821 -2.6892 -1.9999 0.9750
-5.1205 -3.1595 -2.0000 0.9750
-4.8179 -3.6046 -2.0001 0.9750
-4.4769 -4.0209 -2.0002 0.9750
-4.0999 -4.4051 -2.0004 0.9750
-3.2509 -5.0652 -2.0006 0.9749
-1.7916 -5.7474 -2.0011 0.9749
-1.2710 -5.8850 -2.0013 0.9749
-0.7402 -5.9755 -2.0015 0.9749
-0.2033 -6.0183 -2.0017 0.9749
1.4004 -5.8583 -2.0022 0.9749
1.9184 -5.7102 -2.0024 0.9749
3.3649 -4.9982 -2.0029 0.9749
3.7983 -4.6779 -2.0030 0.9749
4.9038 -3.5037 -2.0034 0.9749
5.1975 -3.0517 -2.0035 0.9749
6.0070 -0.5031 -2.0037 0.9749
6.0279 0.0357 -2.0037 0.9749
5.9252 1.1080 -2.0037 0.9749
5.8024 1.6329 -2.0037 0.9749
5.6331 2.1448 -2.0036 0.9749
5.4188 2.6394 -2.0035 0.9749
4.8620 3.5615 -2.0034 0.9749
4.1500 4.3694 -2.0031 0.9749
3.7427 4.7225 -2.0030 0.9749
2.8420 5.3124 -2.0027 0.9749
2.3558 5.5447 -2.0025 0.9749
1.3310 5.8744 -2.0022 0.9749
0.2642 6.0164 -2.0018 0.9749
-1.3405 5.8695 -2.0013 0.9749
-1.8594 5.7257 -2.0011 0.9749
-2.8484 5.3025 -2.0008 0.9749
-4.1517 4.3563 -2.0003 0.9750
-4.8602 3.5473 -2.0001 0.9750
-5.1575 3.0987 -2.0000 0.9750
-5.6262 2.1311 -1.9999 0.9750
-5.7940 1.6198 -1.9998 0.9750
-5.9154 1.0956 -1.9998 0.9750
-6.0159 0.0252 -1.9997 0.9750
-5.9941 -0.5124 -1.9997 0.9750
-5.9244 -1.0459 -1.9997 0.9750
-5.8073 -1.5711 -1.9998 0.9750
-5.6439 -2.0838 -1.9998 0.9750
-4.8898 -3.5064 -2.0001 0.9750
-4.5571 -3.9295 -2.0002 0.9750
-4.1881 -4.3212 -2.0003 0.9750
-1.1991 5.4665 -2.0013 0.9765
-1.6826 5.3371 -2.0012 0.9765
-2.1525 5.1650 -2.0010 0.9765
-2.6052 4.9516 -2.0009 0.9765
-4.4894 3.3363 -2.0002 0.9765
-4.7694 2.9217 -2.0001 0.9765
-5.0111 2.4837 -2.0001 0.9765
-5.2128 2.0260 -2.0000 0.9765
-5.3729 1.5521 -1.9999 0.9765
-5.5632 0.5710 -1.9999 0.9765
-5.5154 -0.9248 -1.9999 0.9765
-5.4108 -1.4140 -1.9999 0.9765
-5.0730 -2.3546 -2.0000 0.9765
-4.8425 -2.7986 -2.0001 0.9765
-4.5733 -3.2202 -2.0002 0.9765
-4.2675 -3.6161 -2.0003 0.9765
-3.1563 -4.6193 -2.0007 0.9765
-1.8186 -5.2921 -2.0011 0.9765
0.6499 -5.5603 -2.0019 0.9765
1.1442 -5.4805 -2.0021 0.9765
2.5573 -4.9819 -2.0026 0.9765
2.9924 -4.7339 -2.0027 0.9765
4.4621 -3.3866 -2.0032 0.9765
4.7471 -2.9745 -2.0033 0.9765
5.5674 -0.6283 -2.0036 0.9765
5.6013 -0.1283 -2.0036 0.9765
5.5904 0.3726 -2.0036 0.9765
5.5347 0.8707 -2.0036 0.9765
5.4347 1.3617 -2.0036 0.9765
5.2911 1.8418 -2.0035 0.9765
5.1052 2.3071 -2.0034 0.9765
3.9729 3.9485 -2.0031 0.9765
3.6039 4.2875 -2.0029 0.9765
2.7829 4.8598 -2.0027 0.9765
0.4066 5.5832 -2.0019 0.9765
-0.0939 5.5967 -2.0017 0.9765
-0.5935 5.5655 -2.0015 0.9765
-1.5744 5.3701 -2.0012 0.9765
-2.0477 5.2075 -2.0011 0.9765
-2.5046 5.0033 -2.0009 0.9765
-3.7411 4.1591 -2.0005 0.9765
-4.0975 3.8079 -2.0004 0.9765
-4.4211 3.4264 -2.0003 0.9765
-4.7094 3.0175 -2.0002 0.9765
-5.5505 0.6833 -1.9999 0.9765
-5.5834 -0.3155 -1.9999 0.9765
-5.4383 -1.3043 -1.9999 0.9765
-4.8981 -2.7001 -2.0001 0.9765
-4.3397 -3.5291 -2.0003 0.9765
-4.0072 -3.9030 -2.0004 0.9765
-3.6427 -4.2457 -2.0005 0.9765
-2.8292 -4.8269 -2.0008 0.9765
-2.3868 -5.0607 -2.0009 0.9765
-0.9594 -5.5138 -2.0014 0.9765
0.0373 -5.5975 -2.0017 0.9765
1.0332 -5.5024 -2.0021 0.9765
1.5208 -5.3885 -2.0022 0.9765
3.3130 -4.5157 -2.0028 0.9765
3.7035 -4.2019 -2.0030 0.9765
5.1579 -2.1869 -2.0035 0.9765
5.4651 -1.2340 -2.0036 0.9765
5.5536 -0.7407 -2.0036 0.9765
5.5968 0.2596 -2.0036 0.9765
5.3273 1.7345 -2.0035 0.9765
5.1509 2.2035 -2.0035 0.9765
4.6761 3.0849 -2.0033 0.9765
4.3815 3.4902 -2.0032 0.9765
4.0519 3.8675 -2.0031 0.9765
3.2984 4.5263 -2.0028 0.9765
2.8806 4.8026 -2.0027 0.9765
2.4398 5.0404 -2.0026 0.9765
1.5035 5.3934 -2.0022 0.9765
1.0154 5.5057 -2.0021 0.9765
0.0193 5.5976 -2.0017 0.9765
-0.9772 5.5107 -2.0014 0.9765
-1.4655 5.4009 -2.0012 0.9765
-1.9421 5.2479 -2.0011 0.9765
-2.4031 5.0530 -2.0009 0.9765
-2.8447 4.8177 -2.0008 0.9765
-3.2636 4.5440 -2.0006 0.9765
-3.6563 4.2339 -2.0005 0.9765
-4.0198 3.8900 -2.0004 0.9765
-4.3510 3.5151 -2.0003 0.9765
-4.6475 3.1121 -2.0002 0.9765
-4.9067 2.6843 -2.0001 0.9765
-5.1268 2.2351 -2.0000 0.9765
-5.3058 1.7680 -2.0000 0.9765
-5.4424 1.2868 -1.9999 0.9765
-5.5356 0.7954 -1.9999 0.9765
-5.5844 0.2976 -1.9999 0.9765
-5.4635 -1.1941 -1.9999 0.9765
-5.1640 -2.1476 -2.0000 0.9765
-4.4101 -3.4406 -2.0003 0.9765
-3.7277 -4.1711 -2.0005 0.9765
-2.9261 -4.7686 -2.0007 0.9765
-2.4885 -5.0114 -2.0009 0.9765
-2.0310 -5.2141 -2.0010 0.9765
-1.5571 -5.3751 -2.0012 0.9765
-0.5756 -5.5673 -2.0015 0.9765
-0.0759 -5.5970 -2.0017 0.9765
1.4115 -5.4180 -2.0022 0.9765
2.7985 -4.8508 -2.0027 0.9765
3.2210 -4.5817 -2.0028 0.9765
3.9855 -3.9357 -2.0031 0.9765
4.3215 -3.5641 -2.0032 0.9765
4.6229 -3.1638 -2.0033 0.9765
5.4390 -1.3442 -2.0035 0.9765
5.5375 -0.8528 -2.0036 0.9765
5.5916 -0.3546 -2.0036 0.9765
5.5654 0.6462 -2.0036 0.9765
5.4853 1.1409 -2.0036 0.9765
5.1944 2.0989 -2.0035 0.9765
4.9859 2.5546 -2.0034 0.9765
3.7744 4.1384 -2.0030 0.9765
2.9772 4.7435 -2.0027 0.9765
2.5412 4.9902 -2.0026 0.9765
1.6122 5.3620 -2.0023 0.9765
1.1266 5.4841 -2.0021 0.9765
-2.3005 5.1007 -2.0010 0.9765
-2.7468 4.8744 -2.0008 0.9765
-3.5700 4.3070 -2.0005 0.9765
-4.2791 3.6024 -2.0003 0.9765
-4.8515 2.7830 -2.0001 0.9765
-5.0806 2.3383 -2.0000 0.9765
-5.4153 1.3966 -1.9999 0.9765
-5.5184 0.9071 -1.9999 0.9765
-5.5916 -0.0896 -1.9999 0.9765
-5.5613 -0.5889 -1.9999 0.9765
-5.3678 -1.5693 -1.9999 0.9765
-5.2063 -2.0428 -2.0000 0.9765
-5.0031 -2.4999 -2.0001 0.9765
-4.7599 -2.9370 -2.0001 0.9765
-4.1616 -3.7377 -2.0003 0.9765
-3.4303 -4.4193 -2.0006 0.9765
-3.0219 -4.7084 -2.0007 0.9765
-2.5893 -4.9600 -2.0009 0.9765
-1.1815 -5.4703 -2.0013 0.9765
-0.6880 -5.5545 -2.0015 0.9765
-0.1890 -5.5942 -2.0017 0.9765
0.3117 -5.5892 -2.0018 0.9765
0.8099 -5.5394 -2.0020 0.9765
2.2505 -5.1275 -2.0025 0.9765
3.1277 -4.6458 -2.0028 0.9765
3.9051 -4.0154 -2.0030 0.9765
4.8309 -2.8364 -2.0033 0.9765
5.2590 -1.9314 -2.0035 0.9765
5.5191 -0.9646 -2.0036 0.9765
5.6027 0.0331 -2.0036 0.9765
5.5773 0.5336 -2.0036 0.9765
5.5073 1.0298 -2.0036 0.9765
5.2358 1.9935 -2.0035 0.9765
5.0366 2.4533 -2.0034 0.9765
3.8573 4.0613 -2.0030 0.9765
3.0725 4.6824 -2.0028 0.9765
1.2372 5.4603 -2.0022 0.9765
-1.2461 5.4559 -2.0013 0.9765
-1.7284 5.3223 -2.0012 0.9765
-2.1969 5.1462 -2.0010 0.9765
-2.6478 4.9290 -2.0009 0.9765
-3.0773 4.6723 -2.0007 0.9765
-4.2055 3.6882 -2.0003 0.9765
-5.3860 1.5058 -1.9999 0.9765
-5.5679 0.5230 -1.9999 0.9765
-5.5072 -0.9723 -1.9999 0.9765
-5.3984 -1.4605 -1.9999 0.9765
-5.2465 -1.9371 -2.0000 0.9765
-5.0526 -2.3982 -2.0000 0.9765
-4.5454 -3.2595 -2.0002 0.9765
-3.8931 -4.0169 -2.0004 0.9765
-1.5702 4.9805 -2.0012 0.9779
-2.4312 4.6208 -2.0009 0.9779
-3.8948 3.4756 -2.0004 0.9779
-4.6765 2.3179 -2.0002 0.9779
-5.2185 0.0668 -2.0000 0.9779
-5.1471 -0.8631 -2.0000 0.9779
-5.0495 -1.3196 -2.0000 0.9779
-4.9115 -1.7655 -2.0001 0.9779
-4.7342 -2.1974 -2.0001 0.9779
-4.5191 -2.6117 -2.0002 0.9779
-3.3186 -4.0300 -2.0006 0.9779
-2.5487 -4.5569 -2.0009 0.9779
-1.6971 -4.9385 -2.0012 0.9779
-1.2492 -5.0708 -2.0013 0.9779
-0.7911 -5.1625 -2.0015 0.9779
0.6064 -5.1887 -2.0019 0.9779
1.0677 -5.1141 -2.0021 0.9779
1.5205 -4.9986 -2.0022 0.9779
2.7923 -4.4174 -2.0027 0.9779
3.1760 -4.1505 -2.0028 0.9779
4.6601 -2.3687 -2.0033 0.9779
4.8532 -1.9429 -2.0034 0.9779
5.1218 -1.0481 -2.0034 0.9779
5.1950 -0.5863 -2.0035 0.9779
5.2267 -0.1198 -2.0035 0.9779
5.0711 1.2706 -2.0034 0.9779
4.7638 2.1528 -2.0033 0.9779
4.3042 2.9661 -2.0032 0.9779
4.0218 3.3387 -2.0031 0.9779
3.7072 3.6845 -2.0030 0.9779
3.3629 4.0008 -2.0029 0.9779
2.9918 4.2850 -2.0027 0.9779
2.5968 4.5349 -2.0026 0.9779
2.1811 4.7484 -2.0025 0.9779
1.3009 5.0601 -2.0022 0.9779
-0.0876 5.2227 -2.0017 0.9779
-1.0156 5.1229 -2.0014 0.9779
-1.4692 5.0113 -2.0012 0.9779
-1.9109 4.8596 -2.0011 0.9779
-2.3373 4.6691 -2.0010 0.9779
-2.7450 4.4413 -2.0008 0.9779
-3.1306 4.1780 -2.0007 0.9779
-3.4912 3.8813 -2.0006 0.9779
-3.8238 3.5536 -2.0005 0.9779
-4.1259 3.1976 -2.0004 0.9779
-4.6287 2.4120 -2.0002 0.9779
-4.8256 1.9887 -2.0001 0.9779
-4.9838 1.5495 -2.0001 0.9779
-5.1022 1.0980 -2.0000 0.9779
-5.1799 0.6377 -2.0000 0.9779
-5.2161 0.1723 -2.0000 0.9779
-5.2106 -0.2945 -2.0000 0.9779
-5.0751 -1.2172 -2.0000 0.9779
-4.7777 -2.1012 -2.0001 0.9779
-4.5710 -2.5198 -2.0002 0.9779
-4.0498 -3.2934 -2.0004 0.9779
-3.7396 -3.6423 -2.0005 0.9779
-3.3994 -3.9621 -2.0006 0.9779
-2.6402 -4.5044 -2.0008 0.9779
-1.7966 -4.9031 -2.0011 0.9779
-1.3514 -5.0444 -2.0013 0.9779
-0.8953 -5.1454 -2.0014 0.9779
-0.4320 -5.2052 -2.0016 0.9779
0.5014 -5.1998 -2.0019 0.9779
0.9641 -5.1346 -2.0020 0.9779
1.4191 -5.0283 -2.0022 0.9779
2.2918 -4.6961 -2.0025 0.9779
3.0915 -4.2137 -2.0028 0.9779
4.8129 -2.0406 -2.0033 0.9779
4.9762 -1.6025 -2.0034 0.9779
5.0995 -1.1514 -2.0034 0.9779
5.1821 -0.6912 -2.0035 0.9779
5.2232 -0.2254 -2.0035 0.9779
5.2224 0.2422 -2.0035 0.9779
5.1799 0.7079 -2.0035 0.9779
5.0958 1.1678 -2.0034 0.9779
4.9710 1.6185 -2.0034 0.9779
4.8064 2.0561 -2.0033 0.9779
3.7810 3.6088 -2.0030 0.9779
1.8472 4.8877 -2.0024 0.9779
0.4847 5.2014 -2.0019 0.9779
0.0180 5.2235 -2.0017 0.9779
-0.4488 5.2038 -2.0016 0.9779
-0.9119 5.1425 -2.0014 0.9779
-1.3676 5.0400 -2.0013 0.9779
-3.0456 4.2405 -2.0007 0.9779
-3.4121 3.9511 -2.0006 0.9779
-3.7513 3.6302 -2.0005 0.9779
-4.7844 2.0858 -2.0001 0.9779
-4.9515 1.6499 -2.0001 0.9779
-5.0790 1.2009 -2.0000 0.9779
-5.2115 0.2777 -2.0000 0.9779
-5.1778 -0.6543 -2.0000 0.9779
-4.8191 -2.0042 -2.0001 0.9779
-4.6209 -2.4268 -2.0002 0.9779
-4.3858 -2.8301 -2.0003 0.9779
-4.1155 -3.2108 -2.0004 0.9779
-3.4787 -3.8925 -2.0006 0.9779
-3.1172 -4.1880 -2.0007 0.9779
-2.3223 -4.6766 -2.0010 0.9779
-1.8953 -4.8657 -2.0011 0.9779
-0.9991 -5.1261 -2.0014 0.9779
-0.5371 -5.1953 -2.0015 0.9779
1.3172 -5.0558 -2.0022 0.9779
1.7638 -4.9183 -2.0023 0.9779
2.1963 -4.7414 -2.0025 0.9779
3.0056 -4.2753 -2.0027 0.9779
3.7190 -3.6725 -2.0030 0.9779
4.3137 -2.9522 -2.0032 0.9779
4.7707 -2.1375 -2.0033 0.9779
5.0752 -1.2543 -2.0034 0.9779
5.1671 -0.7958 -2.0035 0.9779
5.2175 -0.3309 -2.0035 0.9779
4.8470 1.9585 -2.0034 0.9779
4.6524 2.3837 -2.0033 0.9779
4.1535 3.1735 -2.0031 0.9779
3.5220 3.8617 -2.0029 0.9779
2.7781 4.4263 -2.0027 0.9779
0.1236 5.2221 -2.0018 0.9779
-0.3435 5.2119 -2.0016 0.9779
-0.8077 5.1600 -2.0015 0.9779
-1.2655 5.0667 -2.0013 0.9779
-1.7130 4.9330 -2.0012 0.9779
-2.5633 4.5487 -2.0009 0.9779
-3.6772 3.7054 -2.0005 0.9779
-4.2775 2.9914 -2.0003 0.9779
-4.5275 2.5971 -2.0002 0.9779
-4.7413 2.1821 -2.0001 0.9779
-5.1499 0.8465 -2.0000 0.9779
-5.2049 0.3830 -2.0000 0.9779
-5.1899 -0.5495 -2.0000 0.9779
-5.1201 -1.0111 -2.0000 0.9779
-5.0094 -1.4646 -2.0001 0.9779
-4.8586 -1.9063 -2.0001 0.9779
-4.6690 -2.3329 -2.0002 0.9779
-3.5566 -3.8213 -2.0005 0.9779
-3.2012 -4.1241 -2.0007 0.9779
-2.4163 -4.6286 -2.0009 0.9779
-1.9932 -4.8263 -2.0011 0.9779
-1.1025 -5.1048 -2.0014 0.9779
0.2908 -5.2156 -2.0018 0.9779
1.2147 -5.0813 -2.0021 0.9779
1.6640 -4.9529 -2.0023 0.9779
2.1000 -4.7847 -2.0024 0.9779
2.9185 -4.3351 -2.0027 0.9779
3.2944 -4.0573 -2.0028 0.9779
4.2531 -3.0388 -2.0032 0.9779
4.5078 -2.6467 -2.0032 0.9779
4.9073 -1.8023 -2.0034 0.9779
5.1499 -0.9001 -2.0035 0.9779
5.2098 -0.4363 -2.0035 0.9779
5.2279 0.0309 -2.0035 0.9779
5.0324 1.4162 -2.0034 0.9779
4.6997 2.2892 -2.0033 0.9779
4.4762 2.6999 -2.0032 0.9779
3.5994 3.7897 -2.0029 0.9779
2.8670 4.3693 -2.0027 0.9779
2.4650 4.6077 -2.0026 0.9779
2.0433 4.8092 -2.0024 0.9779
1.6053 4.9722 -2.0023 0.9779
-0.2381 5.2179 -2.0017 0.9779
-0.7032 5.1753 -2.0015 0.9779
-1.1628 5.0914 -2.0013 0.9779
-2.4709 4.5997 -2.0009 0.9779
-3.6016 3.7790 -2.0005 0.9779
-3.9246 3.4419 -2.0004 0.9779
-4.8808 1.8487 -2.0001 0.9779
-5.0264 1.4052 -2.0001 0.9779
-5.1317 0.9505 -2.0000 0.9779
-5.1961 0.4881 -2.0000 0.9779
-5.1395 -0.9074 -2.0000 0.9779
-5.0380 -1.3630 -2.0000 0.9779
-4.8961 -1.8077 -2.0001 0.9779
-4.4965 -2.6505 -2.0002 0.9779
-3.9533 -3.4088 -2.0004 0.9779
-3.6331 -3.7486 -2.0005 0.9779
-1.0477 4.7765 -2.0014 0.9791
-2.2765 4.3267 -2.0010 0.9791
-2.6538 4.1058 -2.0008 0.9791
-3.0099 3.8520 -2.0007 0.9791
-4.1677 2.5531 -2.0003 0.9791
-4.3790 2.1704 -2.0003 0.9791
-1.9575 0.2009 -0.8054 0.9915
-1.9546 -0.1502 -0.8023 0.9916
-2.1005 -0.3522 -0.8717 0.9908
-4.7283 -1.2356 -2.0001 0.9791
-4.5991 -1.6532 -2.0002 0.9791
-4.4331 -2.0576 -2.0002 0.9791
-3.7291 -3.1599 -2.0005 0.9791
-3.1074 -3.7736 -2.0007 0.9791
-2.7580 -4.0364 -2.0008 0.9791
-2.3865 -4.2669 -2.0009 0.9791
-1.9958 -4.4634 -2.0011 0.9791
-1.5891 -4.6242 -2.0012 0.9791
-1.1696 -4.7480 -2.0013 0.9791
0.1315 -4.8892 -2.0018 0.9791
0.5678 -4.8583 -2.0019 0.9791
0.9997 -4.7885 -2.0021 0.9791
1.8363 -4.5347 -2.0023 0.9791
2.2343 -4.3528 -2.0025 0.9791
2.6145 -4.1360 -2.0026 0.9791
2.9737 -3.8861 -2.0027 0.9791
3.3093 -3.6050 -2.0028 0.9791
3.6183 -3.2951 -2.0029 0.9791
4.1474 -2.5987 -2.0031 0.9791
4.3632 -2.2178 -2.0032 0.9791
4.5440 -1.8191 -2.0032 0.9791
4.6885 -1.4059 -2.0033 0.9791
4.8640 -0.5489 -2.0034 0.9791
4.7480 1.1897 -2.0033 0.9791
4.6227 1.6091 -2.0033 0.9791
3.7656 3.1260 -2.0030 0.9791
3.1487 3.7459 -2.0028 0.9791
2.8013 4.0121 -2.0027 0.9791
2.4314 4.2460 -2.0025 0.9791
2.0422 4.4460 -2.0024 0.9791
1.2181 4.7379 -2.0021 0.9791
0.7898 4.8274 -2.0020 0.9791
-0.5186 4.8629 -2.0016 0.9791
-1.3757 4.6923 -2.0013 0.9791
-4.1152 2.6368 -2.0004 0.9791
-4.5186 1.8622 -2.0002 0.9791
-4.6668 1.4509 -2.0002 0.9791
-1.9534 0.2405 -0.8055 0.9915
-4.7523 -1.1398 -2.0001 0.9791
-4.6315 -1.5599 -2.0002 0.9791
-4.4737 -1.9675 -2.0002 0.9791
-4.2802 -2.3595 -2.0003 0.9791
-4.0524 -2.7326 -2.0004 0.9791
-3.7922 -3.0839 -2.0005 0.9791
-2.8390 -3.9798 -2.0008 0.9791
-2.0856 -4.4221 -2.0010 0.9791
-1.2654 -4.7233 -2.0013 0.9791
-0.8383 -4.8178 -2.0014 0.9791
-0.4045 -4.8738 -2.0016 0.9791
0.0326 -4.8908 -2.0017 0.9791
0.4695 -4.8687 -2.0019 0.9791
1.7442 -4.5708 -2.0023 0.9791
2.1458 -4.3970 -2.0024 0.9791
3.2357 -3.6711 -2.0028 0.9791
3.5509 -3.3675 -2.0029 0.9791
3.8378 -3.0369 -2.0030 0.9791
4.0940 -2.6820 -2.0031 0.9791
4.5063 -1.9106 -2.0032 0.9791
4.6591 -1.5003 -2.0033 0.9791
4.7746 -1.0781 -2.0033 0.9791
4.8519 -0.6471 -2.0034 0.9791
4.8897 0.2268 -2.0034 0.9791
4.8498 0.6628 -2.0034 0.9791
4.7711 1.0934 -2.0033 0.9791
4.6543 1.5153 -2.0033 0.9791
4.3100 2.3194 -2.0032 0.9791
4.0853 2.6951 -2.0031 0.9791
3.5401 3.3789 -2.0029 0.9791
3.2238 3.6816 -2.0028 0.9791
1.7295 4.5764 -2.0023 0.9791
1.3136 4.7123 -2.0022 0.9791
0.8872 4.8105 -2.0020 0.9791
0.4538 4.8702 -2.0019 0.9791
0.0169 4.8909 -2.0017 0.9791
-0.4202 4.8725 -2.0016 0.9791
-2.0998 4.4154 -2.0010 0.9791
-2.4858 4.2098 -2.0009 0.9791
-3.1950 3.6997 -2.0007 0.9791
-4.4800 1.9531 -2.0002 0.9791
-4.6365 1.5450 -2.0002 0.9791
-4.7559 1.1245 -2.0001 0.9791
-1.9450 0.2795 -0.8042 0.9915
-1.9312 -0.0700 -0.7909 0.9917
-1.9524 -0.2467 -0.8054 0.9915
-4.3269 -2.2724 -2.0003 0.9791
-4.1067 -2.6501 -2.0004 0.9791
-3.2573 -3.6448 -2.0006 0.9791
-2.1745 -4.3789 -2.0010 0.9791
-1.7746 -4.5560 -2.0011 0.9791
-0.9355 -4.7998 -2.0014 0.9791
-0.5029 -4.8646 -2.0016 0.9791
-0.0663 -4.8904 -2.0017 0.9791
0.3710 -4.8771 -2.0019 0.9791
0.8053 -4.8248 -2.0020 0.9791
1.2333 -4.7339 -2.0021 0.9791
3.4821 -3.4386 -2.0029 0.9791
3.7756 -3.1138 -2.0030 0.9791
4.4667 -2.0013 -2.0032 0.9791
4.8378 -0.7451 -2.0033 0.9791
4.8851 -0.3098 -2.0034 0.9791
4.8933 0.1279 -2.0034 0.9791
4.8622 0.5646 -2.0034 0.9791
4.6840 1.4210 -2.0033 0.9791
4.5381 1.8337 -2.0033 0.9791
4.1390 2.6120 -2.0031 0.9791
3.6077 3.3067 -2.0029 0.9791
3.2976 3.6157 -2.0028 0.9791
2.9612 3.8957 -2.0027 0.9791
1.8217 4.5406 -2.0023 0.9791
1.4086 4.6849 -2.0022 0.9791
0.9843 4.7917 -2.0021 0.9791
0.5522 4.8601 -2.0019 0.9791
0.1157 4.8897 -2.0018 0.9791
-0.3216 4.8801 -2.0016 0.9791
-0.7563 4.8315 -2.0015 0.9791
-1.6040 4.6191 -2.0012 0.9791
-2.0101 4.4570 -2.0011 0.9791
-3.1196 3.7636 -2.0007 0.9791
-3.4432 3.4696 -2.0006 0.9791
-4.0054 2.8011 -2.0004 0.9791
-4.2395 2.4319 -2.0003 0.9791
-4.6044 1.6384 -2.0002 0.9791
-4.7322 1.2204 -2.0002 0.9791
-2.0730 0.3408 -0.8598 0.9910
-4.7944 -0.9468 -2.0001 0.9791
-4.6907 -1.3714 -2.0002 0.9791
-4.3720 -2.1845 -2.0003 0.9791
-3.6365 -3.2661 -2.0005 0.9791
-3.3303 -3.5782 -2.0006 0.9791
-2.6406 -4.1143 -2.0008 0.9791
-1.8664 -4.5192 -2.0011 0.9791
-1.4552 -4.6682 -2.0012 0.9791
-0.6012 -4.8533 -2.0015 0.9791
-0.1651 -4.8880 -2.0017 0.9791
0.2723 -4.8835 -2.0018 0.9791
1.1373 -4.7578 -2.0021 0.9791
2.3589 -4.2867 -2.0025 0.9791
3.0846 -3.7988 -2.0028 0.9791
3.4118 -3.5082 -2.0029 0.9791
3.9822 -2.8452 -2.0031 0.9791
4.2206 -2.4781 -2.0031 0.9791
4.7271 -1.2702 -2.0033 0.9791
4.8218 -0.8427 -2.0033 0.9791
4.8778 -0.4085 -2.0034 0.9791
4.8727 0.4662 -2.0034 0.9791
4.5743 1.7417 -2.0033 0.9791
4.1910 2.5279 -2.0031 0.9791
3.9482 2.8921 -2.0031 0.9791
3.3701 3.5483 -2.0029 0.9791
3.0394 3.8350 -2.0028 0.9791
1.5031 4.6555 -2.0022 0.9791
-0.2229 4.8857 -2.0017 0.9791
-1.0888 4.7673 -2.0014 0.9791
-1.5103 4.6506 -2.0012 0.9791
-1.9197 4.4968 -2.0011 0.9791
-2.3136 4.3069 -2.0010 0.9791
-3.0429 3.8259 -2.0007 0.9791
-3.3724 3.5385 -2.0006 0.9791
-3.9480 2.8815 -2.0004 0.9791
-4.7066 1.3158 -2.0002 0.9791
-2.1897 0.4055 -0.9114 0.9904
-1.9576 -0.1673 -0.8041 0.9915
-2.1548 -0.3804 -0.8955 0.9906
-4.4152 -2.0957 -2.0003 0.9791
-3.9720 -2.8483 -2.0004 0.9791
-3.7018 -3.1919 -2.0005 0.9791
-3.4019 -3.5101 -2.0006 0.9791
-0.9839 4.4857 -2.0014 0.9802
-1.7664 4.2384 -2.0011 0.9802
-2.1379 4.0633 -2.0010 0.9802
-2.8266 3.6175 -2.0008 0.9802
-3.1384 3.3503 -2.0007 0.9802
-3.4250 3.0563 -2.0006 0.9802
-3.6843 2.7380 -2.0005 0.9802
-4.1125 2.0383 -2.0004 0.9802
-4.2780 1.6627 -2.0003 0.9802
-1.5682 0.4530 -0.7114 0.9929
-1.5019 0.2916 -0.6668 0.9933
-1.5250 0.0195 -0.6647 0.9934
-1.5523 -0.4057 -0.6992 0.9930
-1.5955 -0.5735 -0.7389 0.9926
-4.1633 -1.9324 -2.0003 0.9802
-3.2231 -3.2688 -2.0007 0.9802
-1.8743 -4.1917 -2.0011 0.9802
-1.0984 -4.4589 -2.0014 0.9802
-0.6957 -4.5395 -2.0015 0.9802
0.1234 -4.5915 -2.0018 0.9802
0.5332 -4.5624 -2.0019 0.9802
1.7244 -4.2585 -2.0023 0.9802
2.0982 -4.0876 -2.0024 0.9802
2.4552 -3.8840 -2.0025 0.9802
2.7925 -3.6493 -2.0027 0.9801
3.3978 -3.0943 -2.0029 0.9801
3.6609 -2.7784 -2.0030 0.9801
3.8947 -2.4403 -2.0030 0.9801
4.2671 -1.7083 -2.0032 0.9801
4.4028 -1.3202 -2.0032 0.9801
4.5676 -0.5155 -2.0033 0.9801
4.5954 -0.1053 -2.0033 0.9801
4.4587 1.1172 -2.0032 0.9801
4.3409 1.5110 -2.0032 0.9801
4.0024 2.2594 -2.0031 0.9801
3.5361 2.9355 -2.0029 0.9801
2.6306 3.7676 -2.0026 0.9801
2.2833 3.9873 -2.0025 0.9802
1.9178 4.1752 -2.0024 0.9802
1.5369 4.3295 -2.0023 0.9802
0.7417 4.5334 -2.0020 0.9802
0.3336 4.5812 -2.0018 0.9802
-1.2919 4.4066 -2.0013 0.9802
-2.0553 4.1058 -2.0010 0.9802
-2.4138 3.9055 -2.0009 0.9802
-2.7530 3.6740 -2.0008 0.9802
-3.0701 3.4131 -2.0007 0.9802
-4.2436 1.7488 -2.0003 0.9802
-1.5788 0.4909 -0.7206 0.9928
-1.5195 0.3270 -0.6774 0.9932
-1.5296 -0.0864 -0.6677 0.9933
-1.5140 -0.2225 -0.6669 0.9933
-1.5381 -0.3689 -0.6893 0.9931
-1.5889 -0.5351 -0.7307 0.9927
-4.2015 -1.8478 -2.0003 0.9802
-3.2885 -3.2029 -2.0006 0.9802
-2.6662 -3.7375 -2.0008 0.9802
-2.3217 -3.9610 -2.0010 0.9802
-1.9586 -4.1529 -2.0011 0.9802
-1.5798 -4.3115 -2.0012 0.9802
-1.1883 -4.4357 -2.0013 0.9802
-0.7873 -4.5245 -2.0015 0.9802
0.4409 -4.5722 -2.0019 0.9802
0.8477 -4.5148 -2.0020 0.9802
2.0151 -4.1291 -2.0024 0.9802
2.7182 -3.7050 -2.0026 0.9801
3.0385 -3.4475 -2.0027 0.9801
3.3346 -3.1623 -2.0028 0.9801
3.6040 -2.8519 -2.0029 0.9801
4.3752 -1.4089 -2.0032 0.9801
4.4836 -1.0124 -2.0032 0.9801
4.5923 -0.1982 -2.0033 0.9801
4.4803 1.0268 -2.0032 0.9801
4.2259 1.8078 -2.0031 0.9801
4.0473 2.1781 -2.0031 0.9801
3.5948 2.8634 -2.0029 0.9801
3.3244 3.1730 -2.0028 0.9801
3.0274 3.4572 -2.0027 0.9801
2.3635 3.9404 -2.0025 0.9802
2.0018 4.1356 -2.0024 0.9802
1.6242 4.2976 -2.0023 0.9802
0.8332 4.5175 -2.0020 0.9802
-0.3946 4.5758 -2.0016 0.9802
-0.8018 4.5219 -2.0015 0.9802
-1.2026 4.4319 -2.0013 0.9802
-1.5937 4.3064 -2.0012 0.9802
-2.3344 3.9535 -2.0010 0.9802
-3.8140 2.5540 -2.0005 0.9802
-1.5876 0.5290 -0.7293 0.9927
-1.5152 0.2177 -0.6671 0.9933
-1.5284 -0.0554 -0.6666 0.9933
-1.5205 -0.1921 -0.6679 0.9933
-1.5222 -0.3327 -0.6791 0.9932
-1.5804 -0.4969 -0.7220 0.9928
-4.2379 -1.7625 -2.0003 0.9802
-4.0636 -2.1341 -2.0004 0.9802
-3.8568 -2.4888 -2.0004 0.9802
-3.6191 -2.8235 -2.0005 0.9802
-3.0591 -3.4229 -2.0007 0.9802
-2.7411 -3.6828 -2.0008 0.9802
-2.4012 -3.9132 -2.0009 0.9802
-1.6666 -4.2786 -2.0012 0.9802
-0.4723 -4.5683 -2.0016 0.9802
-0.0622 -4.5926 -2.0017 0.9802
0.3484 -4.5801 -2.0018 0.9802
0.7563 -4.5309 -2.0020 0.9802
1.5509 -4.3246 -2.0022 0.9802
2.6427 -3.7591 -2.0026 0.9801
3.2699 -3.2291 -2.0028 0.9801
4.0097 -2.2465 -2.0031 0.9801
4.5874 -0.2910 -2.0033 0.9801
4.2616 1.7220 -2.0032 0.9801
4.0905 2.0958 -2.0031 0.9801
3.6519 2.7902 -2.0030 0.9801
3.0967 3.3954 -2.0028 0.9801
2.7808 3.6583 -2.0027 0.9801
2.4427 3.8919 -2.0026 0.9802
1.3228 4.3995 -2.0022 0.9802
-0.3020 4.5829 -2.0016 0.9802
-2.2541 4.0000 -2.0010 0.9802
-3.2336 3.2584 -2.0007 0.9802
-3.5117 2.9563 -2.0006 0.9802
-3.7616 2.6306 -2.0005 0.9802
-3.9815 2.2839 -2.0004 0.9802
-4.1695 1.9189 -2.0003 0.9802
-1.5945 0.5674 -0.7376 0.9926
-1.5502 0.3998 -0.6977 0.9930
-1.5292 0.1125 -0.6683 0.9933
-1.5256 -0.0244 -0.6650 0.9934
-1.5252 -0.1615 -0.6684 0.9933
-1.5048 -0.2972 -0.6685 0.9933
-1.5700 -0.4590 -0.7129 0.9929
-3.9063 -2.4103 -2.0004 0.9802
-3.6754 -2.7498 -2.0005 0.9802
-3.4152 -3.0673 -2.0006 0.9802
-2.4798 -3.8638 -2.0009 0.9802
-1.7527 -4.2440 -2.0011 0.9802
-0.5645 -4.5578 -2.0015 0.9802
-0.1551 -4.5903 -2.0017 0.9802
0.2557 -4.5861 -2.0018 0.9802
0.6645 -4.5452 -2.0019 0.9802
2.2152 -4.0255 -2.0025 0.9802
2.5661 -3.8117 -2.0026 0.9801
3.2039 -3.2945 -2.0028 0.9801
4.3146 -1.5846 -2.0032 0.9801
4.5757 0.4378 -2.0033 0.9801
4.5182 0.8449 -2.0032 0.9801
4.4246 1.2452 -2.0032 0.9801
4.1321 2.0127 -2.0031 0.9801
3.7076 2.7159 -2.0030 0.9801
2.5209 3.8418 -2.0026 0.9801
1.4115 4.3720 -2.0022 0.9802
0.2015 4.5888 -2.0018 0.9802
-1.0225 4.4770 -2.0014 0.9802
-1.4183 4.3674 -2.0013 0.9802
-2.1728 4.0447 -2.0010 0.9802
-2.5253 3.8342 -2.0009 0.9802
-2.8577 3.5930 -2.0008 0.9802
-3.4512 3.0267 -2.0006 0.9802
-3.7077 2.7061 -2.0005 0.9802
-3.9345 2.3639 -2.0004 0.9802
-4.1299 2.0028 -2.0004 0.9802
-1.5272 0.1435 -0.6685 0.9933
-1.5232 0.0064 -0.6638 0.9934
-1.5282 -0.1306 -0.6685 0.9933
-1.5020 -0.2652 -0.6647 0.9934
-3.7302 -2.6749 -2.0005 0.9802
-3.4765 -2.9976 -2.0006 0.9802
-1.6631 3.9906 -2.0012 0.9811
-2.9550 3.1545 -2.0007 0.9811
-3.2249 2.8777 -2.0007 0.9811
-3.4690 2.5779 -2.0006 0.9811
-1.3227 0.3821 -0.6373 0.9939
-1.3109 0.2545 -0.6181 0.9941
-1.3358 0.1371 -0.6216 0.9941
-1.3203 -0.2214 -0.6197 0.9941
-1.3139 -0.3434 -0.6286 0.9940
-1.3126 -0.6092 -0.6698 0.9936
-3.7418 -2.1625 -2.0005 0.9811
-2.7477 -3.3367 -2.0008 0.9811
-0.6550 -4.2741 -2.0015 0.9811
-0.2705 -4.3158 -2.0016 0.9811
0.1162 -4.3230 -2.0018 0.9811
0.5021 -4.2956 -2.0019 0.9811
1.2588 -4.1381 -2.0021 0.9811
1.9754 -3.8485 -2.0024 0.9811
2.9258 -3.1873 -2.0027 0.9811
3.1990 -2.9133 -2.0028 0.9811
3.4467 -2.6159 -2.0029 0.9811
3.8575 -1.9608 -2.0030 0.9811
4.0174 -1.6083 -2.0031 0.9811
4.3003 -0.4853 -2.0032 0.9811
4.3265 -0.0991 -2.0032 0.9811
4.3180 0.2878 -2.0032 0.9811
4.1977 1.0518 -2.0031 0.9811
3.9434 1.7821 -2.0031 0.9811
3.5630 2.4553 -2.0029 0.9811
3.3292 2.7637 -2.0028 0.9811
2.7839 3.3119 -2.0027 0.9811
1.8056 3.9309 -2.0023 0.9811
1.0770 4.1890 -2.0021 0.9811
0.3141 4.3133 -2.0018 0.9811
-0.0725 4.3238 -2.0017 0.9811
-0.8408 4.2413 -2.0015 0.9811
-1.2164 4.1490 -2.0013 0.9811
-1.5821 4.0234 -2.0012 0.9811
-2.5921 3.4592 -2.0009 0.9811
-2.8906 3.2136 -2.0008 0.9811
-3.4162 2.6476 -2.0006 0.9811
-1.3283 0.4130 -0.6439 0.9939
-1.3023 0.2802 -0.6166 0.9941
-1.3321 0.1640 -0.6213 0.9941
-1.3374 0.0442 -0.6194 0.9941
-1.3264 -0.1950 -0.6206 0.9941
-1.3055 -0.3131 -0.6214 0.9941
-2.8146 -3.2805 -2.0008 0.9811
-2.5103 -3.5190 -2.0009 0.9811
-2.1860 -3.7295 -2.0010 0.9811
-1.1188 -4.1764 -2.0014 0.9811
-0.7412 -4.2599 -2.0015 0.9811
0.0288 -4.3244 -2.0017 0.9811
0.7982 -4.2508 -2.0020 0.9811
1.1748 -4.1627 -2.0021 0.9811
2.2371 -3.7027 -2.0025 0.9811
2.5592 -3.4882 -2.0026 0.9811
3.1395 -2.9773 -2.0028 0.9811
3.3931 -2.6850 -2.0029 0.9811
4.2213 -0.9531 -2.0031 0.9811
4.2896 -0.5721 -2.0032 0.9811
4.2877 0.5859 -2.0032 0.9811
4.2182 0.9667 -2.0031 0.9811
4.1148 1.3397 -2.0031 0.9811
3.9786 1.7020 -2.0031 0.9811
3.6119 2.3828 -2.0029 0.9811
3.3844 2.6959 -2.0029 0.9811
3.1299 2.9874 -2.0028 0.9811
2.8503 3.2550 -2.0027 0.9811
2.2252 3.7099 -2.0025 0.9811
1.8847 3.8937 -2.0024 0.9811
1.5292 4.0463 -2.0022 0.9811
-0.3715 4.3082 -2.0016 0.9811
-0.7550 4.2575 -2.0015 0.9811
-1.8567 3.9041 -2.0011 0.9811
-2.1980 3.7224 -2.0010 0.9811
-2.5216 3.5109 -2.0009 0.9811
-3.1060 3.0058 -2.0007 0.9811
-3.7915 2.0742 -2.0005 0.9811
-1.3211 0.5760 -0.6671 0.9937
-1.3273 0.1907 -0.6207 0.9941
-1.3315 -0.1683 -0.6212 0.9941
-1.3290 -0.4179 -0.6449 0.9939
-3.8261 -2.0094 -2.0005 0.9811
-3.6314 -2.3433 -2.0005 0.9811
-3.4076 -2.6585 -2.0006 0.9811
-2.5809 -3.4675 -2.0009 0.9811
-1.9227 -3.8720 -2.0011 0.9811
-1.5692 -4.0285 -2.0012 0.9811
-0.4447 -4.3012 -2.0016 0.9811
0.7120 -4.2660 -2.0020 0.9811
1.4602 -4.0716 -2.0022 0.9811
1.8182 -3.9251 -2.0023 0.9811
2.1618 -3.7471 -2.0025 0.9811
2.4881 -3.5392 -2.0026 0.9811
3.3381 -2.7530 -2.0028 0.9811
3.9491 -1.7694 -2.0031 0.9811
4.2011 -1.0383 -2.0031 0.9811
4.3189 -0.2739 -2.0032 0.9811
4.2369 0.8812 -2.0031 0.9811
4.1411 1.2563 -2.0031 0.9811
3.4383 2.6270 -2.0029 0.9811
3.1897 2.9236 -2.0028 0.9811
2.6181 3.4443 -2.0026 0.9811
2.2998 3.6642 -2.0025 0.9811
1.6107 4.0146 -2.0023 0.9811
1.2454 4.1422 -2.0022 0.9811
0.8703 4.2367 -2.0020 0.9811
0.4882 4.2972 -2.0019 0.9811
0.1023 4.3233 -2.0018 0.9811
-1.7774 3.9409 -2.0011 0.9811
-2.4502 3.5612 -2.0009 0.9811
-2.7584 3.3279 -2.0008 0.9811
-3.0446 3.0680 -2.0007 0.9811
-3.3064 2.7835 -2.0006 0.9811
-3.5418 2.4769 -2.0005 0.9811
-1.3334 0.4745 -0.6551 0.9938
-1.3126 0.3385 -0.6275 0.9940
-1.3213 0.2172 -0.6198 0.9941
-1.3357 -0.0214 -0.6183 0.9941
-1.3353 -0.1414 -0.6216 0.9941
-1.3237 -0.3870 -0.6384 0.9939
-1.3301 -0.5219 -0.6614 0.9937
-3.6780 -2.2694 -2.0005 0.9811
-3.4606 -2.5891 -2.0006 0.9811
-3.2156 -2.8881 -2.0007 0.9811
-2.9448 -3.1640 -2.0007 0.9811
-2.6504 -3.4146 -2.0008 0.9811
-1.6503 -3.9959 -2.0012 0.9811
-0.9128 -4.2263 -2.0014 0.9811
-0.5315 -4.2913 -2.0015 0.9811
-0.1460 -4.3219 -2.0017 0.9811
0.2408 -4.3179 -2.0018 0.9811
1.3775 -4.1002 -2.0022 0.9811
1.7385 -3.9610 -2.0023 0.9811
2.0856 -3.7900 -2.0024 0.9811
2.4160 -3.5887 -2.0025 0.9811
2.7271 -3.3587 -2.0026 0.9811
3.0165 -3.1017 -2.0027 0.9811
3.2817 -2.8199 -2.0028 0.9811
3.5207 -2.5155 -2.0029 0.9811
3.7315 -2.1909 -2.0030 0.9811
3.9125 -1.8488 -2.0030 0.9811
4.0621 -1.4919 -2.0031 0.9811
4.1792 -1.1230 -2.0031 0.9811
4.2629 -0.7451 -2.0032 0.9811
4.3275 0.0256 -2.0032 0.9811
4.3079 0.4122 -2.0032 0.9811
4.1657 1.1723 -2.0031 0.9811
3.8903 1.8949 -2.0030 0.9811
3.4907 2.5570 -2.0029 0.9811
3.2481 2.8585 -2.0028 0.9811
2.9796 3.1372 -2.0027 0.9811
2.3734 3.6170 -2.0025 0.9811
2.0406 3.8144 -2.0024 0.9811
1.6915 3.9813 -2.0023 0.9811
0.9558 4.2183 -2.0021 0.9811
0.5750 4.2865 -2.0019 0.9811
-0.5823 4.2847 -2.0015 0.9811
-1.6974 3.9761 -2.0012 0.9811
-2.0458 3.8083 -2.0011 0.9811
-2.3777 3.6101 -2.0009 0.9811
-3.7046 2.2258 -2.0005 0.9811
-1.3318 0.5045 -0.6592 0.9937
-1.3200 0.3690 -0.6344 0.9940
-1.3340 0.0056 -0.6175 0.9941
-1.3378 -0.1144 -0.6215 0.9941
-1.3173 -0.2326 -0.6192 0.9941
-1.3327 -0.4921 -0.6576 0.9938
-3.5122 -2.5186 -2.0006 0.9811
-3.2733 -2.8224 -2.0006 0.9811
-3.0081 -3.1038 -2.0007 0.9811
-0.8742 3.9855 -2.0014 0.9820
-1.8995 3.6103 -2.0011 0.9820
-2.5115 3.2142 -2.0009 0.9820
-2.7886 2.9768 -2.0008 0.9820
-3.0433 2.7156 -2.0007 0.9820
-3.2736 2.4328 -2.0006 0.9820
-3.4778 2.1305 -2.0006 0.9820
-1.1305 0.5603 -0.6189 0.9944
-1.1524 0.4479 -0.6065 0.9945
-1.1590 0.3348 -0.5917 0.9946
-1.1758 0.2283 -0.5875 0.9947
-1.1926 0.1224 -0.5881 0.9947
-1.1820 -0.1982 -0.5879 0.9947
-1.1582 -0.3027 -0.5872 0.9947
-1.1558 -0.4155 -0.6025 0.9945
-3.5311 -2.0407 -2.0005 0.9820
-3.1117 -2.6368 -2.0007 0.9820
-2.8638 -2.9044 -2.0008 0.9820
-2.5930 -3.1488 -2.0009 0.9820
-0.6181 -4.0333 -2.0015 0.9820
-0.2552 -4.0726 -2.0016 0.9820
0.4738 -4.0535 -2.0019 0.9820
1.8641 -3.6316 -2.0024 0.9820
2.4810 -3.2421 -2.0026 0.9820
3.0187 -2.7490 -2.0027 0.9820
3.2524 -2.4684 -2.0028 0.9820
3.4601 -2.1680 -2.0029 0.9820
3.6400 -1.8502 -2.0029 0.9820
3.9114 -1.1729 -2.0030 0.9820
4.0578 -0.4579 -2.0031 0.9820
4.0825 -0.0935 -2.0031 0.9820
3.3621 2.3169 -2.0029 0.9820
3.1415 2.6079 -2.0028 0.9820
2.8958 2.8781 -2.0027 0.9820
2.3371 3.3473 -2.0025 0.9820
2.0286 3.5425 -2.0024 0.9820
0.2964 4.0702 -2.0018 0.9820
-0.4327 4.0575 -2.0016 0.9820
-0.7935 4.0024 -2.0015 0.9820
-1.1478 3.9152 -2.0014 0.9820
-1.4930 3.7968 -2.0012 0.9820
-1.8262 3.6480 -2.0011 0.9820
-2.7278 3.0326 -2.0008 0.9820
-2.9878 2.7766 -2.0007 0.9820
-3.2238 2.4985 -2.0007 0.9820
-1.1223 0.5848 -0.6208 0.9944
-1.1488 0.4734 -0.6095 0.9945
-1.1588 0.3603 -0.5952 0.9946
-1.1900 0.1465 -0.5881 0.9947
-1.1961 -0.0676 -0.5876 0.9947
-1.1627 -0.2788 -0.5865 0.9947
-1.1576 -0.3899 -0.5992 0.9946
-1.1436 -0.5030 -0.6128 0.9944
-3.1644 -2.5733 -2.0007 0.9820
-2.9219 -2.8459 -2.0008 0.9820
-0.3375 -4.0666 -2.0016 0.9820
0.3917 -4.0622 -2.0019 0.9820
0.7532 -4.0112 -2.0020 0.9820
1.4553 -3.8136 -2.0022 0.9820
1.7903 -3.6685 -2.0023 0.9820
2.1110 -3.4940 -2.0024 0.9820
2.4149 -3.2916 -2.0025 0.9820
2.6995 -3.0628 -2.0026 0.9820
2.9625 -2.8095 -2.0027 0.9820
3.2018 -2.5336 -2.0028 0.9820
3.7594 -1.5939 -2.0030 0.9820
3.8869 -1.2517 -2.0030 0.9820
3.9832 -0.8994 -2.0031 0.9820
4.0792 0.1892 -2.0031 0.9820
3.9803 0.9122 -2.0031 0.9820
3.8828 1.2642 -2.0030 0.9820
3.7543 1.6060 -2.0030 0.9820
2.9534 2.8190 -2.0027 0.9820
2.6896 3.0715 -2.0026 0.9820
2.0998 3.5008 -2.0024 0.9820
1.7785 3.6742 -2.0023 0.9820
0.0141 4.0808 -2.0017 0.9820
-0.3506 4.0655 -2.0016 0.9820
