ply
format ascii 1.0
element vertex 1583
property float32 x
property float32 y
property float32 z
property float32 I
end_header
14.0351 0.1292 -1.9887 0.9449
13.6849 2.6045 -1.9738 0.9453
13.3496 3.8027 -1.9667 0.9455
10.2366 9.0632 -1.9372 0.9463
4.1257 12.9009 -1.9191 0.9468
0.5156 12.5001 -1.7726 0.9507
-0.6033 12.5031 -1.7736 0.9507
-1.7191 12.4103 -1.7752 0.9506
-4.8920 11.3814 -1.7553 0.9512
-6.9012 10.4237 -1.7713 0.9507
-8.7927 9.1831 -1.8014 0.9499
-11.0213 6.5887 -1.8194 0.9494
-11.6078 5.5983 -1.8260 0.9493
-12.8229 2.3477 -1.8471 0.9487
-13.0323 1.1977 -1.8543 0.9485
-14.1065 -2.5182 -2.0303 0.9438
-13.8767 -3.7821 -2.0379 0.9435
-13.5320 -5.0244 -2.0452 0.9434
-13.0739 -6.2342 -2.0523 0.9432
-11.8300 -8.5140 -2.0651 0.9428
-8.1766 -12.2321 -2.0847 0.9423
-4.6588 -14.0141 -2.0925 0.9421
-3.3903 -14.3819 -2.0936 0.9421
-2.0925 -14.6290 -2.0939 0.9420
0.5120 -13.9103 -1.9723 0.9453
1.7162 -13.5237 -1.9315 0.9464
2.9135 -13.2995 -1.9291 0.9465
6.2982 -11.9816 -1.9179 0.9468
7.3246 -11.3425 -1.9131 0.9469
8.5992 -11.0155 -1.9800 0.9451
9.9266 -10.6073 -2.0584 0.9430
11.5776 -8.6141 -2.0447 0.9434
12.8311 -6.3700 -2.0297 0.9438
13.2978 -5.1787 -2.0220 0.9440
13.6540 -3.9549 -2.0142 0.9442
13.8981 -2.7090 -2.0063 0.9444
13.9556 1.0599 -1.9831 0.9450
13.7536 2.2935 -1.9757 0.9452
13.4451 3.5000 -1.9685 0.9454
13.0334 4.6706 -1.9617 0.9456
12.5228 5.7968 -1.9552 0.9458
11.2243 7.8850 -1.9436 0.9461
7.6838 11.2154 -1.9263 0.9466
4.4200 12.8055 -1.9194 0.9467
0.8635 13.4616 -1.9113 0.9470
-0.3175 12.5115 -1.7733 0.9507
-1.4349 12.4431 -1.7747 0.9507
-4.6361 11.5034 -1.7573 0.9511
-7.6685 10.0580 -1.7921 0.9502
-8.5742 9.3744 -1.8000 0.9500
-10.8581 6.8325 -1.8177 0.9495
-11.4661 5.8565 -1.8243 0.9493
-13.6513 0.3421 -1.9348 0.9463
-14.1467 -2.1933 -2.0284 0.9438
-13.9464 -3.4609 -2.0360 0.9436
-13.6309 -4.7098 -2.0434 0.9434
-13.2015 -5.9289 -2.0505 0.9432
-12.6608 -7.1077 -2.0573 0.9430
-12.0123 -8.2354 -2.0636 0.9429
-11.2608 -9.3018 -2.0695 0.9427
-9.4723 -11.2114 -2.0796 0.9424
-8.4500 -12.0366 -2.0838 0.9423
-6.1923 -13.3881 -2.0900 0.9421
-4.9767 -13.9014 -2.0921 0.9421
-3.7175 -14.2993 -2.0934 0.9421
-1.1083 -14.6552 -2.0824 0.9424
1.4073 -13.5631 -1.9321 0.9464
2.6099 -13.3673 -1.9298 0.9465
7.0684 -11.5145 -1.9144 0.9469
8.2031 -11.0180 -1.9463 0.9460
10.5850 -9.8994 -2.0535 0.9431
11.3880 -8.8842 -2.0465 0.9433
12.0929 -7.8037 -2.0392 0.9435
12.6945 -6.6678 -2.0317 0.9437
13.8465 -3.0287 -2.0083 0.9443
13.9898 0.7416 -1.9850 0.9450
13.8155 1.9806 -1.9775 0.9452
11.4095 7.6321 -1.9449 0.9461
10.6534 8.5973 -1.9397 0.9462
9.8189 9.4912 -1.9350 0.9463
4.7122 12.7036 -1.9198 0.9467
2.3747 13.3273 -1.9181 0.9468
-2.2615 12.3301 -1.7762 0.9506
-4.3795 11.6258 -1.7602 0.9510
-5.3811 11.1482 -1.7540 0.9512
-6.3836 10.6704 -1.7618 0.9510
-8.3516 9.5606 -1.7987 0.9500
-6.3046 5.0353 -1.1432 0.9679
-10.6897 7.0724 -1.8161 0.9495
-12.3174 4.0299 -1.8363 0.9490
-12.6770 2.9249 -1.8434 0.9488
-12.9381 1.7880 -1.8506 0.9486
-14.2345 -0.5916 -2.0186 0.9441
-14.1793 -1.8678 -2.0264 0.9439
-12.8093 -6.8111 -2.0556 0.9431
-11.4622 -9.0358 -2.0680 0.9427
-10.6376 -10.0501 -2.0735 0.9426
-9.7205 -10.9861 -2.0784 0.9425
-8.7185 -11.8348 -2.0828 0.9423
-6.4944 -13.2391 -2.0894 0.9422
-5.2917 -13.7811 -2.0916 0.9421
-4.0426 -14.2088 -2.0931 0.9421
-1.4467 -14.6671 -2.0883 0.9422
3.4898 -13.1495 -1.9276 0.9465
5.7513 -12.2713 -1.9202 0.9467
6.8080 -11.6806 -1.9156 0.9468
9.4134 -11.0279 -2.0544 0.9431
13.0731 -5.7919 -2.0260 0.9439
13.4861 -4.5834 -2.0182 0.9441
13.9765 -2.0944 -2.0024 0.9445
14.0526 -0.8345 -1.9946 0.9447
14.0167 0.4223 -1.9869 0.9449
12.7956 5.2277 -1.9585 0.9457
10.8542 8.3573 -1.9410 0.9462
5.0021 12.5953 -1.9202 0.9467
3.8545 12.9826 -1.9189 0.9468
-0.8648 12.4900 -1.7739 0.9507
-1.9788 12.3748 -1.7757 0.9506
-3.0801 12.1643 -1.7779 0.9506
-5.1259 11.2699 -1.7542 0.9512
-6.1266 10.7929 -1.7584 0.9511
-7.1403 10.3097 -1.7769 0.9506
-8.1251 9.7417 -1.7974 0.9500
-8.9892 9.0036 -1.8027 0.9499
-9.7884 8.1907 -1.8084 0.9497
-10.5161 7.3082 -1.8145 0.9496
-11.7325 5.3590 -1.8276 0.9492
-14.0631 -2.8151 -2.0321 0.9437
-13.8064 -4.0750 -2.0396 0.9435
-13.4349 -5.3106 -2.0469 0.9433
-11.6572 -8.7654 -2.0665 0.9428
-10.8572 -9.7981 -2.0722 0.9426
-9.9631 -10.7550 -2.0772 0.9425
-8.9820 -11.6268 -2.0817 0.9424
-7.9222 -12.4054 -2.0855 0.9423
-5.6037 -13.6534 -2.0911 0.9421
1.9981 -13.4813 -1.9310 0.9464
3.1898 -13.2310 -1.9284 0.9465
5.4726 -12.4064 -1.9213 0.9467
6.5437 -11.8406 -1.9168 0.9468
7.5554 -11.1797 -1.9119 0.9469
10.9898 -9.4115 -2.0501 0.9432
12.4004 -7.2543 -2.0356 0.9436
12.9500 -6.0949 -2.0279 0.9438
13.3911 -4.8950 -2.0202 0.9440
14.0439 -1.1564 -1.9966 0.9447
14.0364 0.1022 -1.9889 0.9449
13.6909 2.5784 -1.9740 0.9453
13.3579 3.7773 -1.9669 0.9455
12.9227 4.9383 -1.9601 0.9456
12.3896 6.0530 -1.9538 0.9458
9.3841 9.9007 -1.9328 0.9464
8.4451 10.6775 -1.9289 0.9465
-11.5110 -4.5758 -2.0407 0.9510
-10.5727 -6.5877 -2.0522 0.9508
-9.9673 -7.5248 -2.0574 0.9506
-9.2769 -8.4044 -2.0622 0.9505
-8.5070 -9.2186 -2.0665 0.9504
-5.7858 -11.1963 -2.0762 0.9502
-3.7078 -12.0673 -2.0797 0.9501
-1.5023 -12.5399 -2.0806 0.9501
-0.3762 -12.6209 -2.0801 0.9501
1.8725 -12.4687 -2.0771 0.9502
5.0801 -11.4567 -2.0646 0.9505
7.8961 -9.6521 -2.0544 0.9507
8.7035 -8.8847 -2.0489 0.9508
9.4355 -8.0490 -2.0431 0.9510
10.6517 -6.2038 -2.0307 0.9513
11.1273 -5.2109 -2.0242 0.9514
11.7982 -3.1271 -2.0107 0.9517
11.9898 -2.0540 -2.0040 0.9519
12.0846 -0.9716 -1.9972 0.9520
11.9851 1.1860 -1.9841 0.9523
11.5102 3.2787 -1.9716 0.9526
9.5297 7.0250 -1.9504 0.9531
8.8445 7.8306 -1.9460 0.9532
7.2828 9.2445 -1.9388 0.9534
6.4184 9.8433 -1.9359 0.9535
5.5068 10.3644 -1.9335 0.9535
0.4460 10.8143 -1.7831 0.9571
-0.5219 10.8162 -1.7839 0.9571
-1.4870 10.7346 -1.7853 0.9570
-2.4423 10.5700 -1.7872 0.9570
-3.3811 10.3232 -1.7895 0.9569
-4.2964 9.9958 -1.7924 0.9569
-5.1815 9.5897 -1.7957 0.9568
-6.8348 8.5521 -1.8035 0.9566
-8.9290 6.4864 -1.8181 0.9562
-10.7705 2.9868 -1.8413 0.9557
-12.0071 1.1035 -1.9864 0.9523
-12.2192 0.0271 -2.0130 0.9517
-12.2135 -1.0680 -2.0197 0.9515
-11.6037 -4.3084 -2.0391 0.9511
-8.7108 -9.0174 -2.0654 0.9504
-7.8856 -9.7779 -2.0694 0.9504
-6.9922 -10.4602 -2.0728 0.9503
-5.0318 -11.5653 -2.0778 0.9502
-3.9818 -11.9777 -2.0794 0.9501
-0.6644 -12.6102 -2.0803 0.9501
0.4643 -12.6130 -2.0793 0.9501
3.7749 -11.9867 -2.0703 0.9503
4.8193 -11.5751 -2.0655 0.9504
9.9282 -7.3869 -2.0386 0.9511
10.5158 -6.4507 -2.0323 0.9512
11.0146 -5.4682 -2.0258 0.9514
11.4214 -4.4479 -2.0192 0.9515
11.7338 -3.3987 -2.0125 0.9517
12.0923 -0.1649 -1.9923 0.9522
11.8512 1.9762 -1.9793 0.9525
11.5911 3.0174 -1.9732 0.9526
11.2416 4.0285 -1.9673 0.9527
10.8060 5.0022 -1.9617 0.9529
9.6935 6.8096 -1.9515 0.9531
8.2912 8.3891 -1.9431 0.9533
6.6439 9.6976 -1.9365 0.9535
5.7437 10.2389 -1.9340 0.9535
3.8237 11.0778 -1.9306 0.9536
1.7906 11.5740 -1.9294 0.9536
-1.2412 10.7633 -1.7849 0.9570
-4.0653 10.0870 -1.7916 0.9569
-4.9587 9.7008 -1.7948 0.9568
-7.4024 8.0933 -1.8069 0.9565
-8.1171 7.4194 -1.8116 0.9564
-6.3549 4.8420 -1.3162 0.9681
-9.3617 5.8909 -1.8222 0.9562
-9.8810 5.0469 -1.8278 0.9560
-12.2050 0.3058 -2.0113 0.9517
-11.6900 -4.0392 -2.0375 0.9511
-10.8476 -6.0897 -2.0494 0.9508
-8.1031 -9.5908 -2.0684 0.9504
-7.2264 -10.2938 -2.0719 0.9503
-6.2872 -10.9136 -2.0749 0.9502
-4.2536 -11.8816 -2.0790 0.9501
-3.1771 -12.2206 -2.0801 0.9501
-2.0734 -12.4583 -2.0806 0.9501
-0.9523 -12.5926 -2.0804 0.9501
0.1761 -12.6223 -2.0796 0.9501
2.4148 -12.3682 -2.0760 0.9502
4.5562 -11.6884 -2.0666 0.9504
5.5728 -11.2165 -2.0633 0.9505
9.0714 -8.4839 -2.0461 0.9509
9.7644 -7.6175 -2.0402 0.9510
10.3740 -6.6945 -2.0340 0.9512
11.3264 -4.7116 -2.0209 0.9515
11.6631 -3.6689 -2.0142 0.9516
11.9040 -2.6038 -2.0074 0.9518
12.0957 -0.4414 -1.9940 0.9521
11.6662 2.7540 -1.9747 0.9526
11.3392 3.7735 -1.9687 0.9527
10.9252 4.7575 -1.9631 0.9528
10.4282 5.6987 -1.9577 0.9530
9.2030 7.4268 -1.9482 0.9532
7.7040 8.9100 -1.9404 0.9534
5.0457 10.5900 -1.9325 0.9536
1.0153 11.6536 -1.9271 0.9537
-0.9948 10.7867 -1.7845 0.9570
-1.9560 10.6644 -1.7861 0.9570
-3.8322 10.1730 -1.7909 0.9569
-5.6015 9.3631 -1.7974 0.9567
-6.4294 8.8447 -1.8014 0.9566
-6.2170 4.9653 -1.3107 0.9683
-9.7553 5.2670 -1.8264 0.9561
-10.2192 4.3885 -1.8322 0.9559
-10.6049 3.4696 -1.8382 0.9558
-11.1429 1.5399 -1.8531 0.9554
-12.1747 -1.6037 -2.0230 0.9514
-12.0217 -2.6934 -2.0295 0.9513
-10.9761 -5.8363 -2.0479 0.9509
-9.8133 -7.7359 -2.0585 0.9506
-9.1038 -8.6010 -2.0632 0.9505
-8.3161 -9.3988 -2.0674 0.9504
-7.4566 -10.1219 -2.0711 0.9503
-6.5326 -10.7636 -2.0742 0.9502
-5.5519 -11.3178 -2.0767 0.9502
-3.4550 -12.1436 -2.0799 0.9501
-2.3573 -12.4074 -2.0805 0.9501
-1.2397 -12.5682 -2.0805 0.9501
1.0152 -12.5763 -2.0785 0.9501
2.1324 -12.4237 -2.0766 0.9502
3.2280 -12.1632 -2.0731 0.9503
7.2305 -10.1893 -2.0583 0.9506
8.0914 -9.4791 -2.0531 0.9507
8.8817 -8.6951 -2.0476 0.9509
9.5952 -7.8445 -2.0417 0.9510
12.0207 -1.8014 -2.0024 0.9519
12.0928 -0.7181 -1.9957 0.9521
12.0684 0.3636 -1.9890 0.9522
11.7353 2.4889 -1.9763 0.9525
11.4311 3.5163 -1.9702 0.9527
10.0068 6.3678 -1.9540 0.9531
9.3756 7.2189 -1.9493 0.9532
7.9091 8.7357 -1.9413 0.9534
6.2092 9.9722 -1.9352 0.9535
3.3346 11.2315 -1.9301 0.9536
2.3174 11.4808 -1.9295 0.9536
1.2827 11.6415 -1.9294 0.9536
-1.7115 10.7035 -1.7857 0.9570
-2.6636 10.5196 -1.7877 0.9570
-3.5975 10.2538 -1.7902 0.9569
-4.5063 9.9078 -1.7931 0.9568
-5.3834 9.4837 -1.7965 0.9568
-6.2222 8.9840 -1.8003 0.9567
-7.0162 8.4121 -1.8046 0.9566
-7.7592 7.7717 -1.8092 0.9565
-8.4453 7.0669 -1.8141 0.9563
-9.0690 6.3026 -1.8194 0.9562
-10.1080 4.6170 -1.8307 0.9560
-10.8391 2.7630 -1.8427 0.9557
-11.0797 1.7899 -1.8489 0.9555
-12.1283 0.8593 -2.0030 0.9519
-12.1979 -1.3242 -2.0213 0.9515
-12.0702 -2.4162 -2.0279 0.9513
-11.8436 -3.4956 -2.0343 0.9512
-11.5191 -4.5533 -2.0405 0.9510
-11.0986 -5.5801 -2.0465 0.9509
-10.5847 -6.5670 -2.0521 0.9508
-9.2926 -8.3862 -2.0621 0.9505
-8.5243 -9.2019 -2.0664 0.9504
-7.6825 -9.9447 -2.0702 0.9503
-5.8072 -11.1849 -2.0761 0.9502
-4.7898 -11.6705 -2.0782 0.9501
-2.6399 -12.3497 -2.0804 0.9501
-1.5265 -12.5371 -2.0806 0.9501
1.8486 -12.4725 -2.0772 0.9502
4.0224 -11.8982 -2.0691 0.9504
5.0582 -11.4668 -2.0647 0.9505
7.0001 -10.3581 -2.0595 0.9506
8.6869 -8.9019 -2.0490 0.9508
9.4206 -8.0676 -2.0433 0.9510
10.6405 -6.2248 -2.0308 0.9513
11.1181 -5.2327 -2.0243 0.9514
11.5030 -4.2049 -2.0176 0.9516
11.9867 -2.0772 -2.0041 0.9519
12.0837 0.0880 -1.9907 0.9522
11.9882 1.1630 -1.9842 0.9523
11.7986 2.2220 -1.9779 0.9525
11.5173 3.2568 -1.9717 0.9526
11.1473 4.2598 -1.9659 0.9528
10.6922 5.2237 -1.9604 0.9529
10.1561 6.1416 -1.9552 0.9530
9.5437 7.0070 -1.9505 0.9531
8.8599 7.8139 -1.9461 0.9532
8.1104 8.5569 -1.9422 0.9533
-10.0650 -4.0010 -2.0358 0.9569
-9.6920 -4.8963 -2.0410 0.9568
-8.7062 -6.5727 -2.0504 0.9566
-8.1008 -7.3389 -2.0546 0.9565
-7.4265 -8.0478 -2.0583 0.9564
-6.6887 -8.6928 -2.0616 0.9563
-5.8936 -9.2681 -2.0644 0.9563
-4.1589 -10.1890 -2.0685 0.9562
-1.3104 -10.9377 -2.0706 0.9562
0.6561 -10.9886 -2.0691 0.9562
1.6336 -10.8779 -2.0675 0.9562
2.5960 -10.6777 -2.0654 0.9563
3.5348 -10.3900 -2.0628 0.9563
6.8984 -8.4324 -2.0478 0.9566
9.3193 -5.4278 -2.0271 0.9571
9.7394 -4.5609 -2.0214 0.9572
10.0787 -3.6622 -2.0156 0.9573
10.3351 -2.7394 -2.0097 0.9574
10.5074 -1.8000 -2.0037 0.9575
10.3520 1.9702 -1.9807 0.9580
9.3861 4.6080 -1.9654 0.9583
8.3791 6.1768 -1.9566 0.9585
7.7787 6.8870 -1.9528 0.9586
7.1200 7.5410 -1.9494 0.9587
6.4081 8.1342 -1.9464 0.9587
5.6485 8.6626 -1.9438 0.9588
4.8470 9.1226 -1.9417 0.9588
3.1421 9.8253 -1.9389 0.9589
0.4236 10.2705 -1.9321 0.9590
-0.4594 9.5219 -1.7918 0.9619
-1.3089 9.4492 -1.7930 0.9619
-4.5579 8.4355 -1.8022 0.9617
-6.0090 7.5189 -1.8091 0.9616
-6.6712 6.9675 -1.8131 0.9615
-9.4454 2.6193 -1.8424 0.9609
-10.3337 1.8919 -1.9746 0.9581
-10.6262 0.9766 -2.0057 0.9575
-10.6930 -0.9350 -2.0175 0.9573
-10.4148 -2.8385 -2.0290 0.9570
-8.8492 -6.3687 -2.0493 0.9566
-5.2684 -9.6481 -2.0662 0.9562
-2.5273 -10.7208 -2.0703 0.9562
0.4050 -11.0024 -2.0694 0.9562
1.3851 -10.9148 -2.0680 0.9562
2.3522 -10.7372 -2.0660 0.9562
4.2138 -10.1206 -2.0606 0.9564
5.0923 -9.6875 -2.0571 0.9564
5.9259 -9.1766 -2.0532 0.9565
7.4315 -7.9411 -2.0443 0.9567
8.0913 -7.2280 -2.0393 0.9568
8.6821 -6.4597 -2.0340 0.9569
9.1995 -5.6432 -2.0285 0.9570
9.6397 -4.7856 -2.0229 0.9571
9.9998 -3.8943 -2.0171 0.9573
10.2776 -2.9769 -2.0112 0.9574
9.4947 4.3951 -1.9666 0.9583
8.5225 5.9870 -1.9577 0.9585
7.2935 7.3796 -1.9502 0.9587
6.5947 7.9887 -1.9471 0.9587
4.2265 9.4188 -1.9404 0.9589
1.5765 10.1899 -1.9381 0.9589
0.6592 10.2767 -1.9356 0.9590
-0.2418 9.5286 -1.7916 0.9619
-3.5770 8.8754 -1.7986 0.9618
-8.6731 4.4299 -1.8305 0.9611
-9.3761 2.8322 -1.8410 0.9609
-9.9893 2.0657 -1.9173 0.9593
-10.5931 1.2181 -2.0042 0.9575
-10.6911 0.2679 -2.0101 0.9574
-10.6298 -1.6480 -2.0219 0.9572
-10.2234 -3.5324 -2.0331 0.9569
-9.8928 -4.4430 -2.0384 0.9568
-8.9873 -6.1615 -2.0481 0.9566
-6.3065 -8.9834 -2.0631 0.9563
-4.6180 -9.9844 -2.0677 0.9562
-2.7712 -10.6595 -2.0702 0.9562
-1.8085 -10.8666 -2.0706 0.9562
-0.8307 -10.9838 -2.0704 0.9562
0.1536 -11.0102 -2.0697 0.9562
2.1069 -10.7910 -2.0666 0.9562
3.0588 -10.5477 -2.0642 0.9563
3.9831 -10.2182 -2.0614 0.9563
4.8719 -9.8057 -2.0580 0.9564
7.2525 -8.1136 -2.0455 0.9567
7.9292 -7.4156 -2.0406 0.9568
8.5380 -6.6608 -2.0354 0.9569
9.0745 -5.8559 -2.0300 0.9570
9.5348 -5.0081 -2.0243 0.9571
10.2146 -3.2133 -2.0127 0.9574
10.5608 -1.3368 -2.0008 0.9576
10.6067 -0.3870 -1.9950 0.9577
10.2422 2.4179 -1.9781 0.9581
9.5986 4.1798 -1.9678 0.9583
9.1650 5.0084 -1.9631 0.9584
8.6617 5.7940 -1.9587 0.9585
8.0930 6.5310 -1.9547 0.9586
7.4634 7.2143 -1.9511 0.9586
0.8950 10.2727 -1.9382 0.9589
-1.7217 9.3868 -1.7938 0.9619
-2.5559 9.2051 -1.7957 0.9619
-6.3388 7.2565 -1.8110 0.9615
-6.9775 6.6766 -1.8152 0.9615
-6.1804 4.9361 -1.4867 0.9683
-8.0946 5.3555 -1.8243 0.9613
-8.9673 3.8509 -1.8344 0.9611
-10.5187 -2.3567 -2.0261 0.9571
-10.2944 -3.2958 -2.0317 0.9570
-9.9852 -4.2131 -2.0370 0.9568
-9.5929 -5.1008 -2.0422 0.9567
-9.1204 -5.9512 -2.0470 0.9566
-7.2594 -8.2046 -2.0591 0.9564
-6.5077 -8.8338 -2.0623 0.9563
-3.9456 -10.2755 -2.0689 0.9562
-2.0561 -10.8222 -2.0705 0.9562
-1.0813 -10.9625 -2.0705 0.9562
0.8857 -10.9708 -2.0688 0.9562
1.8604 -10.8390 -2.0671 0.9562
4.6487 -9.9187 -2.0589 0.9564
8.3892 -6.8586 -2.0367 0.9569
8.9446 -6.0659 -2.0314 0.9570
10.3830 -2.5209 -2.0083 0.9574
10.5859 0.3189 -1.9906 0.9578
10.0386 3.0880 -1.9741 0.9582
9.2825 4.8006 -1.9643 0.9584
8.7966 5.5977 -1.9598 0.9585
8.2442 6.3477 -1.9557 0.9585
7.6297 7.0452 -1.9520 0.9586
6.9581 7.6853 -1.9486 0.9587
4.6542 9.2200 -1.9413 0.9588
3.8091 9.5913 -1.9398 0.9589
2.0402 10.1077 -1.9382 0.9589
0.2009 9.8913 -1.8596 0.9605
-1.5065 9.4216 -1.7934 0.9619
-2.3443 9.2584 -1.7951 0.9619
-3.1657 9.0230 -1.7973 0.9618
-4.7352 8.3418 -1.8029 0.9617
-5.4716 7.9003 -1.8063 0.9616
-6.1680 7.3952 -1.8100 0.9616
-6.8192 6.8301 -1.8141 0.9615
-7.4197 6.2087 -1.8185 0.9614
-7.9648 5.5352 -1.8231 0.9613
-8.4499 4.8145 -1.8280 0.9612
-9.2233 3.2526 -1.8383 0.9610
-10.4806 1.6931 -1.9955 0.9577
-10.6516 0.7547 -2.0071 0.9575
-10.6783 -1.1592 -2.0189 0.9572
-10.0721 -3.9814 -2.0357 0.9569
-8.7184 -6.5557 -2.0503 0.9566
-8.1146 -7.3230 -2.0545 0.9565
-7.4417 -8.0332 -2.0582 0.9564
-6.7052 -8.6796 -2.0615 0.9563
-5.9113 -9.2565 -2.0644 0.9563
-5.0667 -9.7585 -2.0667 0.9562
-3.2544 -10.5197 -2.0697 0.9562
-2.3026 -10.7719 -2.0704 0.9562
0.6349 -10.9900 -2.0691 0.9562
2.5755 -10.6829 -2.0655 0.9563
3.5149 -10.3971 -2.0629 0.9563
4.4228 -10.0265 -2.0598 0.9564
5.2915 -9.5748 -2.0562 0.9565
6.1136 -9.0464 -2.0522 0.9565
6.8825 -8.4461 -2.0479 0.9566
8.2358 -7.0530 -2.0381 0.9568
9.3094 -5.4461 -2.0272 0.9571
10.0722 -3.6818 -2.0157 0.9573
10.3305 -2.7594 -2.0098 0.9574
10.5045 -1.8203 -2.0039 0.9575
10.5938 -0.8723 -1.9980 0.9577
10.5983 0.0772 -1.9921 0.9578
10.3564 1.9504 -1.9808 0.9580
9.7920 3.7419 -1.9703 0.9582
9.3954 4.5902 -1.9655 0.9583
8.3913 6.1610 -1.9567 0.9585
7.7923 6.8723 -1.9529 0.9586
-6.5832 -7.1340 -2.0519 0.9611
-5.9282 -7.7044 -2.0549 0.9610
-3.6846 -9.0270 -2.0610 0.9609
-2.0215 -9.5464 -2.0627 0.9609
0.5812 -9.7351 -2.0615 0.9609
1.4474 -9.6378 -2.0601 0.9609
6.1187 -7.4793 -2.0426 0.9613
8.9554 -3.2541 -2.0141 0.9618
9.3424 -1.6004 -2.0036 0.9620
9.3592 0.9262 -1.9880 0.9623
9.2161 1.7540 -1.9831 0.9624
8.3632 4.1058 -1.9694 0.9626
7.4696 5.5064 -1.9616 0.9628
5.0390 7.7278 -1.9501 0.9630
4.3245 8.1391 -1.9482 0.9630
2.0090 8.9801 -1.9451 0.9631
1.1988 9.1229 -1.9450 0.9631
0.3792 9.1931 -1.9449 0.9631
-1.9178 8.2999 -1.8006 0.9658
-2.6542 8.1038 -1.8025 0.9657
-4.0645 7.5225 -1.8074 0.9656
-4.7278 7.1410 -1.8103 0.9656
-5.3564 6.7022 -1.8136 0.9655
-5.9452 6.2092 -1.8171 0.9655
-6.4897 5.6653 -1.8210 0.9654
-7.8141 3.7687 -1.8338 0.9652
-8.1400 3.0634 -1.8384 0.9651
-9.3072 1.7040 -2.0001 0.9621
-9.5117 0.0211 -2.0106 0.9619
-9.5002 -0.8307 -2.0158 0.9618
-9.2472 -2.5203 -2.0260 0.9616
-7.8483 -5.6484 -2.0439 0.9612
-7.3259 -6.3384 -2.0477 0.9612
-5.4073 -8.0892 -2.0567 0.9610
-3.0770 -9.2561 -2.0618 0.9609
-2.2388 -9.4972 -2.0625 0.9609
-1.3818 -9.6603 -2.0628 0.9609
-0.5134 -9.7438 -2.0625 0.9609
2.0842 -9.5140 -2.0588 0.9610
2.9225 -9.2799 -2.0566 0.9610
3.7348 -8.9703 -2.0539 0.9611
4.5144 -8.5881 -2.0509 0.9611
5.2545 -8.1369 -2.0474 0.9612
6.5928 -7.0449 -2.0395 0.9613
7.1801 -6.4140 -2.0351 0.9614
8.1683 -5.0107 -2.0256 0.9616
8.5619 -4.2505 -2.0206 0.9617
9.3097 -1.8146 -2.0049 0.9620
9.4344 -0.1286 -1.9944 0.9622
9.0625 2.3591 -1.9795 0.9624
8.4594 3.9159 -1.9705 0.9626
8.0590 4.6460 -1.9663 0.9627
7.0773 5.9833 -1.9590 0.9628
6.5041 6.5809 -1.9558 0.9629
5.2156 7.6129 -1.9506 0.9630
4.5103 8.0401 -1.9487 0.9630
3.7711 8.4040 -1.9471 0.9630
3.0037 8.7021 -1.9459 0.9631
0.5891 9.1833 -1.9452 0.9631
-0.2269 8.9413 -1.8906 0.9641
-0.9749 8.4540 -1.7989 0.9658
-2.4677 8.1600 -1.8020 0.9657
-4.5615 7.2440 -1.8095 0.9656
-5.1994 6.8196 -1.8127 0.9655
-5.7989 6.3401 -1.8162 0.9655
-6.3551 5.8089 -1.8200 0.9654
-6.3237 4.8182 -1.6805 0.9680
-7.3203 4.6063 -1.8282 0.9653
-8.0627 3.2464 -1.8373 0.9651
-9.2586 1.9146 -1.9985 0.9621
-9.4184 1.0830 -2.0040 0.9620
-9.5024 0.2381 -2.0092 0.9619
-9.5104 -0.6131 -2.0145 0.9618
-8.7792 -3.9428 -2.0343 0.9614
-8.4103 -4.7215 -2.0388 0.9613
-6.8966 -6.8205 -2.0503 0.9611
-6.2694 -7.4204 -2.0534 0.9611
-5.5890 -7.9612 -2.0561 0.9610
-4.8609 -8.4379 -2.0584 0.9610
-4.0915 -8.8461 -2.0602 0.9609
-3.2872 -9.1822 -2.0616 0.9609
-1.6021 -9.6262 -2.0628 0.9609
-0.7358 -9.7301 -2.0626 0.9609
4.3188 -8.6924 -2.0517 0.9611
5.0696 -8.2585 -2.0483 0.9612
5.7765 -7.7586 -2.0446 0.9612
7.0357 -6.5800 -2.0363 0.9614
7.5781 -5.9120 -2.0317 0.9615
8.4680 -4.4478 -2.0219 0.9616
8.8090 -3.6644 -2.0167 0.9617
9.0776 -2.8556 -2.0115 0.9618
9.4353 -0.3443 -1.9958 0.9621
9.4040 0.4985 -1.9906 0.9622
9.1196 2.1529 -1.9807 0.9624
8.8699 2.9518 -1.9760 0.9625
8.5514 3.7238 -1.9715 0.9626
7.7206 5.1645 -1.9634 0.9627
7.2153 5.8227 -1.9598 0.9628
6.0452 6.9916 -1.9537 0.9629
5.3897 7.4940 -1.9512 0.9630
3.9628 8.3172 -1.9474 0.9630
1.6141 9.0588 -1.9450 0.9631
-0.0232 9.1741 -1.9392 0.9632
-0.7814 8.4727 -1.7986 0.9658
-1.5361 8.3750 -1.7998 0.9658
-3.0079 7.9846 -1.8036 0.9657
-5.0400 6.9333 -1.8119 0.9656
-5.6497 6.4676 -1.8153 0.9655
-6.1544 4.9153 -1.6649 0.9683
-7.2088 4.7694 -1.8271 0.9653
-7.9813 3.4275 -1.8361 0.9651
-9.3409 -2.0928 -2.0234 0.9616
-8.8618 -3.7391 -2.0331 0.9614
-7.0476 -6.6584 -2.0494 0.9611
-6.4348 -7.2726 -2.0527 0.9611
-5.7675 -7.8290 -2.0555 0.9610
-5.0510 -8.3225 -2.0579 0.9610
-4.2916 -8.7486 -2.0598 0.9609
-0.0867 -9.7555 -2.0622 0.9609
0.7846 -9.7195 -2.0612 0.9609
1.6483 -9.6036 -2.0597 0.9609
2.4971 -9.4091 -2.0577 0.9610
3.3236 -9.1377 -2.0553 0.9610
4.1207 -8.7922 -2.0525 0.9611
5.6005 -7.8923 -2.0456 0.9612
6.2708 -7.3463 -2.0417 0.9613
6.8874 -6.7427 -2.0374 0.9614
7.9408 -5.3851 -2.0281 0.9615
8.3695 -4.6430 -2.0231 0.9616
8.7288 -3.8672 -2.0181 0.9617
9.2295 -2.2408 -2.0076 0.9619
9.3681 -1.4039 -2.0023 0.9620
8.9403 2.7501 -1.9772 0.9625
8.2714 4.2777 -1.9684 0.9626
4.8751 7.8296 -1.9496 0.9630
2.6196 8.8233 -1.9455 0.9631
1.8206 9.0198 -1.9451 0.9631
1.0078 9.1461 -1.9450 0.9631
-0.5876 8.4871 -1.7983 0.9658
-1.3442 8.4062 -1.7995 0.9658
-2.0914 8.2598 -1.8011 0.9658
-2.8239 8.0487 -1.8030 0.9657
-3.5360 7.7744 -1.8053 0.9657
-4.2225 7.4385 -1.8080 0.9656
-5.4978 6.5917 -1.8144 0.9655
-6.6101 5.5312 -1.8219 0.9654
-7.0938 4.9299 -1.8260 0.9653
-7.5236 4.2868 -1.8304 0.9652
-7.8958 3.6066 -1.8349 0.9651
-8.2405 2.9060 -1.8470 0.9649
-9.1249 2.3261 -1.9905 0.9622
-9.3466 1.5099 -2.0013 0.9620
-9.4689 0.6709 -2.0066 0.9619
-9.5159 -0.1780 -2.0118 0.9618
-9.3803 -1.8777 -2.0221 0.9616
-9.1977 -2.7147 -2.0271 0.9616
-8.9396 -3.5337 -2.0319 0.9615
-8.6076 -4.3277 -2.0365 0.9614
-8.2041 -5.0900 -2.0408 0.9613
-7.1947 -6.4929 -2.0485 0.9612
-4.4893 -8.6464 -2.0593 0.9610
-3.7019 -9.0198 -2.0609 0.9609
-2.8831 -9.3194 -2.0620 0.9609
-2.0398 -9.5424 -2.0626 0.9609
-1.1795 -9.6870 -2.0628 0.9609
-0.3095 -9.7518 -2.0624 0.9609
2.2822 -9.4661 -2.0583 0.9610
3.1150 -9.2142 -2.0560 0.9610
3.9203 -8.8873 -2.0532 0.9611
4.6912 -8.4886 -2.0501 0.9611
6.1045 -7.4914 -2.0427 0.9613
7.3088 -6.2591 -2.0340 0.9614
7.8205 -5.5684 -2.0293 0.9615
8.2666 -4.8360 -2.0244 0.9616
8.6438 -4.0681 -2.0194 0.9617
8.9496 -3.2715 -2.0142 0.9618
9.3398 -1.6185 -2.0037 0.9620
9.4223 -0.7758 -1.9984 0.9621
9.2199 1.7364 -1.9832 0.9624
9.0062 2.5467 -1.9784 0.9625
8.7225 3.3332 -1.9738 0.9625
7.9563 4.8113 -1.9654 0.9627
6.9479 6.1276 -1.9582 0.9628
-8.2577 -2.4546 -2.0247 0.9652
-8.0225 -3.1890 -2.0290 0.9651
-7.3559 -4.5834 -2.0370 0.9650
-6.9294 -5.2313 -2.0406 0.9650
-6.4449 -5.8387 -2.0438 0.9649
-5.9062 -6.4003 -2.0468 0.9648
-5.3177 -6.9110 -2.0494 0.9648
-4.0112 -7.7622 -2.0535 0.9647
-3.3042 -8.0950 -2.0549 0.9647
-2.5692 -8.3617 -2.0559 0.9647
-1.8126 -8.5600 -2.0564 0.9647
-1.0409 -8.6881 -2.0565 0.9647
-0.2607 -8.7448 -2.0561 0.9647
1.2980 -8.6431 -2.0541 0.9647
2.0631 -8.4858 -2.0525 0.9648
4.2237 -7.6080 -2.0451 0.9649
6.0584 -6.1845 -2.0347 0.9651
8.4769 -0.6816 -1.9987 0.9657
6.7319 4.9625 -1.9656 0.9662
5.7245 6.0629 -1.9597 0.9663
5.1537 6.5419 -1.9573 0.9664
4.5440 6.9686 -1.9552 0.9664
3.9000 7.3402 -1.9535 0.9664
3.2266 7.6540 -1.9522 0.9664
2.5289 7.9079 -1.9513 0.9665
1.0813 8.2288 -1.9506 0.9665
0.3421 8.2936 -1.9509 0.9665
-1.0568 7.6291 -1.8101 0.9688
-1.7295 7.4850 -1.8055 0.9689
-3.6641 6.7814 -1.8116 0.9688
-5.3567 5.5946 -1.8204 0.9687
-5.8461 5.1035 -1.8238 0.9686
-6.6883 3.9984 -1.8314 0.9685
-7.1194 3.4336 -1.8576 0.9680
-7.9022 2.9739 -1.9844 0.9659
-8.1822 2.2690 -1.9956 0.9657
-8.5512 0.0189 -2.0097 0.9655
-7.8043 -3.7215 -2.0321 0.9651
-7.4552 -4.4121 -2.0360 0.9650
-7.0440 -5.0695 -2.0397 0.9650
-6.0487 -6.2615 -2.0461 0.9649
-4.8500 -7.2556 -2.0511 0.9648
-4.1866 -7.6670 -2.0531 0.9647
-3.4876 -8.0162 -2.0546 0.9647
-2.7592 -8.3000 -2.0557 0.9647
-2.0075 -8.5160 -2.0563 0.9647
0.3217 -8.7404 -2.0556 0.9647
3.3504 -8.0470 -2.0486 0.9648
4.7152 -7.3017 -2.0428 0.9649
5.3396 -6.8400 -2.0394 0.9650
5.9184 -6.3243 -2.0357 0.9650
6.9215 -5.1498 -2.0276 0.9652
7.3379 -4.5013 -2.0232 0.9652
8.2121 -2.3787 -2.0094 0.9655
8.4642 -0.8755 -1.9999 0.9656
8.4886 -0.1157 -1.9952 0.9657
8.4455 0.6414 -1.9906 0.9658
8.3355 1.3900 -1.9861 0.9659
8.1601 2.1242 -1.9817 0.9659
7.9211 2.8386 -1.9776 0.9660
7.2613 4.1862 -1.9699 0.9661
6.8464 4.8096 -1.9664 0.9662
5.8635 5.9327 -1.9604 0.9663
2.7091 7.8489 -1.9515 0.9665
1.9967 8.0568 -1.9508 0.9665
1.2689 8.2020 -1.9506 0.9665
0.5314 8.2832 -1.9507 0.9665
-0.2104 8.2904 -1.9491 0.9665
-1.5578 7.5209 -1.8051 0.9689
-2.2253 7.3583 -1.8067 0.9689
-2.8767 7.1378 -1.8087 0.9689
-4.6859 6.1460 -1.8164 0.9687
-6.5917 4.1478 -1.8304 0.9685
-6.9509 3.5503 -1.8344 0.9684
-7.7436 3.1179 -1.9619 0.9663
-8.3296 1.7225 -1.9991 0.9657
-8.4701 0.9740 -2.0038 0.9656
-8.5434 0.2141 -2.0085 0.9655
-8.3519 -2.0726 -2.0224 0.9653
-7.8832 -3.5404 -2.0310 0.9651
-7.5503 -4.2387 -2.0350 0.9650
-7.1547 -4.9051 -2.0387 0.9650
-6.6994 -5.5339 -2.0422 0.9649
-5.6242 -6.6568 -2.0481 0.9648
-5.0131 -7.1410 -2.0506 0.9648
-4.3596 -7.5677 -2.0526 0.9647
-2.2013 -8.4674 -2.0562 0.9647
-1.4365 -8.6315 -2.0565 0.9647
-0.6598 -8.7248 -2.0564 0.9647
4.5490 -7.4105 -2.0436 0.9649
5.7752 -6.4609 -2.0367 0.9650
6.3171 -5.9079 -2.0328 0.9651
6.8057 -5.3094 -2.0287 0.9652
7.2373 -4.6703 -2.0243 0.9652
7.6086 -3.9964 -2.0199 0.9653
8.3375 -1.8237 -2.0058 0.9655
8.4888 -0.3098 -1.9964 0.9657
8.4629 0.4486 -1.9918 0.9658
8.3699 1.1999 -1.9872 0.9659
8.2111 1.9384 -1.9828 0.9659
7.9881 2.6583 -1.9786 0.9660
7.7030 3.3543 -1.9746 0.9661
7.3585 4.0212 -1.9708 0.9661
6.9575 4.6540 -1.9673 0.9662
5.9995 5.7993 -1.9611 0.9663
5.4504 6.3036 -1.9585 0.9663
4.8600 6.7574 -1.9562 0.9664
1.4559 8.1709 -1.9506 0.9665
0.7204 8.2686 -1.9507 0.9665
-0.0210 8.3018 -1.9511 0.9665
-0.7430 8.0563 -1.9014 0.9673
-1.3854 7.5531 -1.8048 0.9689
-2.7121 7.1995 -1.8081 0.9689
-3.3483 6.9369 -1.8103 0.9688
-3.9600 6.6193 -1.8128 0.9688
-4.5424 6.2488 -1.8156 0.9688
-5.0910 5.8280 -1.8187 0.9687
-5.6014 5.3598 -1.8220 0.9686
-7.5219 3.2302 -1.9239 0.9669
-8.0504 2.6339 -1.9907 0.9658
-8.2831 1.9111 -1.9979 0.9657
-8.4406 1.1665 -2.0026 0.9656
-8.5537 -0.3555 -2.0120 0.9654
-8.5074 -1.1207 -2.0167 0.9654
-8.3923 -1.8803 -2.0213 0.9653
-8.2087 -2.6280 -2.0257 0.9652
-7.9579 -3.3577 -2.0300 0.9651
-7.2616 -4.7383 -2.0378 0.9650
-6.3236 -5.9743 -2.0446 0.9649
-4.5302 -7.4644 -2.0521 0.9648
-3.8487 -7.8458 -2.0538 0.9647
-3.1346 -8.1634 -2.0552 0.9647
-0.8589 -8.7077 -2.0565 0.9647
-0.0777 -8.7477 -2.0560 0.9647
0.7036 -8.7159 -2.0551 0.9647
2.2396 -8.4390 -2.0520 0.9648
3.6968 -7.8877 -2.0473 0.9648
4.3803 -7.5154 -2.0444 0.9649
5.0261 -7.0828 -2.0412 0.9649
5.6288 -6.5942 -2.0376 0.9650
6.1836 -6.0537 -2.0338 0.9651
7.1327 -4.8371 -2.0255 0.9652
7.5196 -4.1715 -2.0210 0.9653
7.8444 -3.4754 -2.0164 0.9654
8.2987 -2.0148 -2.0071 0.9655
8.4256 -1.2626 -2.0023 0.9656
8.3999 1.0090 -1.9884 0.9658
8.2578 1.7513 -1.9839 0.9659
8.0510 2.4765 -1.9797 0.9660
7.7816 3.1792 -1.9756 0.9660
7.0651 4.4959 -1.9681 0.9662
6.1327 5.6628 -1.9618 0.9663
4.3963 7.0606 -1.9548 0.9664
3.0655 7.7188 -1.9519 0.9664
2.3628 7.9583 -1.9511 0.9665
0.1685 8.2995 -1.9510 0.9665
-0.5716 8.2550 -1.9448 0.9666
-2.5463 7.2575 -1.8076 0.9689
-3.1880 7.0093 -1.8097 0.9689
-3.8064 6.7055 -1.8122 0.9688
-5.4749 5.4837 -1.8212 0.9687
-7.3083 3.3382 -1.8883 0.9675
-8.2324 2.0985 -1.9967 0.9657
-8.5145 0.6033 -2.0061 0.9655
-8.5544 -0.1600 -2.0108 0.9655
-8.5258 -0.9255 -2.0155 0.9654
-8.4282 -1.6871 -2.0201 0.9653
-8.2621 -2.4386 -2.0246 0.9652
-8.0283 -3.1735 -2.0289 0.9651
-7.3645 -4.5691 -2.0369 0.9650
-6.9392 -5.2178 -2.0405 0.9650
-5.3309 -6.9006 -2.0494 0.9648
-2.5853 -8.3567 -2.0558 0.9647
-1.8291 -8.5565 -2.0564 0.9647
-0.2775 -8.7443 -2.0562 0.9647
0.5044 -8.7308 -2.0554 0.9647
1.2814 -8.6457 -2.0541 0.9647
2.0468 -8.4899 -2.0525 0.9648
4.2091 -7.6163 -2.0452 0.9649
4.8650 -7.1988 -2.0420 0.9649
5.4792 -6.7241 -2.0385 0.9650
6.0467 -6.1964 -2.0348 0.9651
6.5630 -5.6205 -2.0308 0.9651
7.0242 -5.0014 -2.0266 0.9652
7.4266 -4.3446 -2.0222 0.9653
7.7675 -3.6557 -2.0176 0.9653
8.0444 -2.9406 -2.0130 0.9654
8.3996 -1.4556 -2.0035 0.9656
8.4760 -0.6979 -1.9988 0.9657
8.4846 0.0618 -1.9941 0.9657
8.4257 0.8174 -1.9895 0.9658
7.8562 3.0022 -1.9766 0.9660
7.5417 3.6845 -1.9727 0.9661
7.1692 4.3353 -1.9690 0.9662
6.7417 4.9498 -1.9656 0.9662
5.1664 6.5321 -1.9573 0.9664
-6.2788 -4.7402 -2.0369 0.9680
-5.8389 -5.2897 -2.0399 0.9680
-5.3501 -5.7977 -2.0426 0.9679
-4.8165 -6.2596 -2.0450 0.9679
-2.9920 -7.3301 -2.0499 0.9678
-2.3263 -7.5713 -2.0508 0.9678
0.4719 -7.9047 -2.0503 0.9678
1.1754 -7.8267 -2.0492 0.9678
1.8684 -7.6848 -2.0477 0.9679
3.1994 -7.2154 -2.0436 0.9679
3.8263 -6.8922 -2.0411 0.9680
4.9768 -6.0835 -2.0351 0.9680
5.4910 -5.6053 -2.0317 0.9681
6.3772 -4.5223 -2.0242 0.9682
7.4950 -1.9866 -2.0076 0.9685
7.6958 -0.6188 -1.9990 0.9686
7.7039 0.0709 -1.9948 0.9687
7.6508 0.7571 -1.9906 0.9687
7.5372 1.4345 -1.9865 0.9688
7.1340 2.7419 -1.9789 0.9689
6.8483 3.3621 -1.9753 0.9690
6.5097 3.9536 -1.9720 0.9690
6.1209 4.5122 -1.9689 0.9691
5.6853 5.0336 -1.9661 0.9691
5.2063 5.5142 -1.9636 0.9692
4.6878 5.9504 -1.9613 0.9692
3.5480 6.6778 -1.9579 0.9692
2.3009 7.1949 -1.9558 0.9693
1.6487 7.3699 -1.9554 0.9693
0.9838 7.4872 -1.9552 0.9693
-0.3641 7.5461 -1.9561 0.9693
-1.0340 7.4645 -1.9511 0.9693
-1.6037 6.9406 -1.8444 0.9710
-2.7649 6.4328 -1.8129 0.9715
-3.3324 6.1674 -1.8150 0.9715
-3.8750 5.8529 -1.8175 0.9714
-4.3888 5.4915 -1.8201 0.9714
-5.3135 4.6385 -1.8262 0.9713
-5.7170 4.1530 -1.8296 0.9712
-7.2004 2.7098 -1.9920 0.9687
-7.4293 2.0602 -1.9962 0.9686
-7.5998 1.3914 -2.0004 0.9686
-7.7103 0.7086 -2.0047 0.9685
-7.5329 -2.0531 -2.0216 0.9683
-7.3337 -2.7230 -2.0255 0.9682
-6.3829 -4.5937 -2.0361 0.9680
-5.4794 -5.6722 -2.0420 0.9679
-4.3925 -6.5711 -2.0465 0.9679
-3.7913 -6.9431 -2.0482 0.9678
-3.1582 -7.2588 -2.0496 0.9678
-1.1219 -7.8430 -2.0514 0.9678
0.2913 -7.9143 -2.0505 0.9678
2.3741 -7.5385 -2.0464 0.9679
3.0347 -7.2887 -2.0442 0.9679
3.6691 -6.9801 -2.0418 0.9679
4.2720 -6.6155 -2.0390 0.9680
4.8385 -6.1981 -2.0359 0.9680
5.3639 -5.7318 -2.0325 0.9681
7.2445 -2.8213 -2.0130 0.9684
7.4518 -2.1584 -2.0087 0.9685
7.7077 -0.1051 -1.9958 0.9687
7.6701 0.5825 -1.9917 0.9687
7.1982 2.5795 -1.9798 0.9689
6.2248 4.3729 -1.9697 0.9691
5.3326 5.3956 -1.9642 0.9691
4.2782 6.2446 -1.9599 0.9692
3.7003 6.5963 -1.9583 0.9692
1.8167 7.3306 -1.9554 0.9693
1.1546 7.4627 -1.9552 0.9693
-2.0243 6.6936 -1.8106 0.9715
-2.6166 6.4924 -1.8124 0.9715
-4.2606 5.5881 -1.8194 0.9714
-5.2038 4.7565 -1.8254 0.9713
-5.6180 4.2804 -1.8287 0.9712
-6.8118 3.4792 -1.9804 0.9689
-7.3763 2.2282 -1.9951 0.9687
-7.5620 1.5638 -1.9993 0.9686
-7.6879 0.8840 -2.0036 0.9685
-7.7527 0.1943 -2.0079 0.9685
-7.7555 -0.5000 -2.0122 0.9684
-7.6959 -1.1932 -2.0164 0.9683
-7.3904 -2.5535 -2.0245 0.9682
-7.1462 -3.2094 -2.0283 0.9681
-6.8432 -3.8417 -2.0319 0.9681
-6.4835 -4.4449 -2.0353 0.9680
-6.0699 -5.0139 -2.0384 0.9680
-5.6056 -5.5437 -2.0413 0.9679
-5.0944 -6.0297 -2.0438 0.9679
-4.5403 -6.4675 -2.0460 0.9679
-3.3226 -7.1837 -2.0493 0.9678
-2.6691 -7.4557 -2.0504 0.9678
-0.5974 -7.8998 -2.0512 0.9678
0.1105 -7.9196 -2.0507 0.9678
1.5161 -7.7652 -2.0485 0.9678
2.8683 -7.3582 -2.0448 0.9679
3.5099 -7.0644 -2.0424 0.9679
4.1213 -6.7137 -2.0397 0.9680
4.6976 -6.3095 -2.0367 0.9680
5.2339 -5.8553 -2.0334 0.9681
5.7260 -5.3552 -2.0299 0.9681
7.1821 -2.9876 -2.0140 0.9684
7.4046 -2.3293 -2.0098 0.9684
7.5668 -1.6551 -2.0055 0.9685
7.7075 -0.2812 -1.9969 0.9686
7.6027 1.0899 -1.9886 0.9688
7.4599 1.7611 -1.9846 0.9688
7.2587 2.4156 -1.9808 0.9689
7.0010 3.0486 -1.9771 0.9689
6.3255 4.2313 -1.9704 0.9690
5.9135 4.7722 -1.9675 0.9691
5.4562 5.2741 -1.9648 0.9691
4.4208 6.1468 -1.9604 0.9692
3.8507 6.5113 -1.9586 0.9692
3.2515 6.8244 -1.9573 0.9692
2.6276 7.0838 -1.9562 0.9693
1.3247 7.4345 -1.9552 0.9693
-0.0191 7.5535 -1.9557 0.9693
-0.6933 7.5169 -1.9545 0.9693
-2.4670 6.5488 -1.8119 0.9715
-3.0454 6.3092 -1.8139 0.9715
-4.1302 5.6818 -1.8187 0.9714
-7.0569 3.0305 -1.9885 0.9688
-7.3196 2.3947 -1.9940 0.9687
-7.6615 1.0588 -2.0025 0.9685
-7.7607 -0.3226 -2.0111 0.9684
-7.4431 -2.3829 -2.0235 0.9682
-7.2142 -3.0440 -2.0274 0.9682
-6.1805 -4.8722 -2.0377 0.9680
-5.7288 -5.4124 -2.0406 0.9680
-4.1027 -6.7600 -2.0474 0.9679
-3.4852 -7.1048 -2.0490 0.9678
-2.8384 -7.3920 -2.0501 0.9678
-1.4788 -7.7835 -2.0513 0.9678
-0.7777 -7.8844 -2.0513 0.9678
0.6371 -7.8923 -2.0501 0.9678
1.3386 -7.7992 -2.0489 0.9678
2.0283 -7.6426 -2.0473 0.9679
2.7002 -7.4238 -2.0454 0.9679
4.5540 -6.4177 -2.0375 0.9680
5.1010 -5.9758 -2.0343 0.9681
5.6048 -5.4870 -2.0308 0.9681
6.4674 -4.3860 -2.0233 0.9682
6.8197 -3.7832 -2.0193 0.9683
7.6479 -1.1461 -2.0023 0.9686
7.6970 0.2319 -1.9938 0.9687
7.6296 0.9165 -1.9896 0.9687
7.5020 1.5910 -1.9856 0.9688
6.4231 4.0874 -1.9712 0.9690
5.5771 5.1498 -1.9655 0.9691
4.5612 6.0457 -1.9609 0.9692
1.4942 7.4025 -1.9553 0.9693
0.8271 7.5062 -1.9553 0.9693
0.1534 7.5514 -1.9556 0.9693
-1.1866 7.4206 -1.9457 0.9694
-2.8996 6.3752 -1.8134 0.9715
-3.4616 6.0982 -1.8156 0.9714
-3.9979 5.7725 -1.8181 0.9714
-4.5043 5.4005 -1.8208 0.9714
-5.8266 4.0492 -1.8371 0.9711
-6.5063 3.7071 -1.9389 0.9695
-7.6311 1.2328 -2.0014 0.9686
-7.7273 0.5475 -2.0057 0.9685
-7.7619 -0.1452 -2.0100 0.9684
-7.6440 -1.5302 -2.0184 0.9683
-7.4918 -2.2112 -2.0225 0.9682
-7.2784 -2.8771 -2.0264 0.9682
-5.8489 -5.2783 -2.0399 0.9680
-5.3611 -5.7872 -2.0426 0.9679
-4.8284 -6.2501 -2.0449 0.9679
-3.6459 -7.0221 -2.0486 0.9678
-3.0060 -7.3242 -2.0499 0.9678
-2.3409 -7.5667 -2.0508 0.9678
0.4567 -7.9057 -2.0503 0.9678
2.5306 -7.4855 -2.0459 0.9679
3.8131 -6.8997 -2.0411 0.9680
4.9652 -6.0933 -2.0351 0.9680
5.9495 -5.0950 -2.0281 0.9682
6.3688 -4.5348 -2.0243 0.9682
6.7350 -3.9400 -2.0203 0.9683
7.0456 -3.3160 -2.0162 0.9683
7.4915 -2.0011 -2.0077 0.9685
7.6526 0.7424 -1.9907 0.9687
7.1396 2.7283 -1.9789 0.9689
6.8550 3.3490 -1.9754 0.9690
6.1298 4.5005 -1.9690 0.9691
5.6952 5.0228 -1.9661 0.9691
-6.8425 -2.0339 -2.0208 0.9708
-5.7341 -4.3289 -2.0339 0.9706
-5.3317 -4.8302 -2.0366 0.9705
-4.3971 -5.7146 -2.0412 0.9705
-2.7309 -6.6905 -2.0457 0.9704
-2.1233 -6.9104 -2.0465 0.9704
1.0729 -7.1440 -2.0451 0.9704
1.7055 -7.0150 -2.0437 0.9704
2.9210 -6.5876 -2.0400 0.9705
3.4937 -6.2932 -2.0377 0.9705
4.0367 -5.9484 -2.0351 0.9706
4.5454 -5.5562 -2.0322 0.9706
5.8271 -4.1322 -2.0223 0.9707
6.6767 -2.4261 -2.0110 0.9709
6.8534 -1.8165 -2.0071 0.9710
7.0396 -0.5660 -1.9993 0.9711
7.0483 0.0649 -1.9954 0.9711
7.0009 0.6928 -1.9916 0.9712
6.8981 1.3129 -1.9879 0.9712
6.7411 1.9202 -1.9843 0.9713
6.5313 2.5103 -1.9808 0.9713
6.2707 3.0785 -1.9776 0.9714
5.9614 3.6207 -1.9745 0.9714
5.6062 4.1327 -1.9717 0.9715
4.7696 5.0516 -1.9668 0.9715
4.2949 5.4518 -1.9648 0.9716
2.1086 6.5935 -1.9597 0.9716
1.5109 6.7540 -1.9593 0.9716
0.9016 6.8615 -1.9592 0.9716
-0.9504 6.8609 -1.9608 0.9716
-2.5718 5.9834 -1.8437 0.9733
-3.5524 5.3655 -1.8217 0.9736
-4.0195 5.0295 -1.8226 0.9736
-5.0464 4.4054 -1.8964 0.9725
-5.6431 4.0993 -1.9745 0.9714
-6.0124 3.5943 -1.9830 0.9713
-6.3287 3.0523 -1.9891 0.9712
-6.5884 2.4795 -1.9928 0.9712
-6.7966 1.8848 -1.9967 0.9711
-7.0511 0.6480 -2.0045 0.9710
-7.0814 -0.6192 -2.0123 0.9709
-6.8840 -1.8762 -2.0199 0.9708
-6.7008 -2.4880 -2.0235 0.9707
-5.8293 -4.1953 -2.0332 0.9706
-5.4388 -4.7056 -2.0360 0.9705
-5.0029 -5.1790 -2.0385 0.9705
-4.5253 -5.6113 -2.0407 0.9705
-4.0098 -5.9986 -2.0426 0.9704
-3.4607 -6.3377 -2.0442 0.9704
-2.8826 -6.6255 -2.0455 0.9704
-2.2803 -6.8595 -2.0464 0.9704
-1.6590 -7.0376 -2.0469 0.9704
0.2659 -7.2235 -2.0463 0.9704
1.5452 -7.0534 -2.0441 0.9704
2.7706 -6.6544 -2.0406 0.9705
3.3501 -6.3733 -2.0383 0.9705
4.8995 -5.2355 -2.0299 0.9706
5.3390 -4.7693 -2.0267 0.9707
6.0811 -3.7303 -2.0196 0.9708
6.3781 -3.1664 -2.0159 0.9708
6.8135 -1.9735 -2.0081 0.9709
6.9489 -1.3544 -2.0042 0.9710
7.0283 -0.7270 -2.0003 0.9711
7.0183 0.5330 -1.9925 0.9712
6.7863 1.7666 -1.9852 0.9713
6.5898 2.3615 -1.9817 0.9713
6.3419 2.9357 -1.9784 0.9714
5.7011 4.0050 -1.9724 0.9715
4.8851 4.9428 -1.9674 0.9715
4.4194 5.3536 -1.9653 0.9716
2.8356 6.3191 -1.9607 0.9716
1.0581 6.8392 -1.9592 0.9716
-0.1756 6.9204 -1.9598 0.9716
-0.7933 6.8799 -1.9606 0.9716
-1.4030 6.7735 -1.9582 0.9717
-2.4534 6.0876 -1.8581 0.9731
-2.9220 5.7164 -1.8174 0.9737
-3.4263 5.4412 -1.8203 0.9736
-4.3611 4.7681 -1.8293 0.9735
-4.8994 4.4783 -1.8791 0.9728
-5.4910 4.1837 -1.9543 0.9717
-6.5269 2.6280 -1.9919 0.9712
-6.7485 2.0385 -1.9957 0.9711
-6.9170 1.4304 -1.9996 0.9711
-7.0309 0.8085 -2.0035 0.9710
-7.0889 0.1776 -2.0074 0.9710
-7.0344 -1.0906 -2.0152 0.9708
-6.9218 -1.7177 -2.0189 0.9708
-6.5287 -2.9321 -2.0261 0.9707
-6.2509 -3.5092 -2.0294 0.9706
-5.9214 -4.0596 -2.0324 0.9706
-5.1184 -5.0619 -2.0379 0.9705
-4.6511 -5.5050 -2.0402 0.9705
-4.1449 -5.9042 -2.0422 0.9705
-3.6039 -6.2559 -2.0439 0.9704
-3.0328 -6.5571 -2.0452 0.9704
-1.1871 -7.1330 -2.0471 0.9704
0.1009 -7.2283 -2.0465 0.9704
0.7457 -7.1875 -2.0457 0.9704
1.3839 -7.0881 -2.0445 0.9704
2.0099 -6.9310 -2.0429 0.9704
3.7634 -6.1306 -2.0364 0.9705
4.2901 -5.7622 -2.0337 0.9706
4.7806 -5.3481 -2.0307 0.9706
5.6374 -4.3979 -2.0241 0.9707
5.9971 -3.8700 -2.0205 0.9708
6.3072 -3.3128 -2.0168 0.9708
7.0134 -0.8877 -2.0013 0.9710
7.0508 -0.2573 -1.9974 0.9711
6.8280 1.6119 -1.9861 0.9713
6.1253 3.3473 -1.9760 0.9714
5.7932 3.8752 -1.9731 0.9714
4.9982 4.8314 -1.9679 0.9715
4.5417 5.2527 -1.9658 0.9715
2.9796 6.2536 -1.9610 0.9716
1.8179 6.6786 -1.9595 0.9716
0.6007 6.8946 -1.9592 0.9716
-0.6359 6.8954 -1.9603 0.9716
-3.7830 5.2041 -1.8214 0.9736
-4.7560 4.5509 -1.8635 0.9730
-5.3356 4.2614 -1.9331 0.9720
-5.8289 3.8565 -1.9786 0.9714
-6.8791 1.5872 -1.9986 0.9711
-7.0794 0.3393 -2.0064 0.9710
-7.0953 -0.2949 -2.0104 0.9709
-7.0541 -0.9292 -2.0142 0.9709
-6.8013 -2.1774 -2.0217 0.9707
-6.5911 -2.7810 -2.0252 0.9707
-6.3268 -3.3641 -2.0285 0.9707
-6.0103 -3.9218 -2.0317 0.9706
-5.2310 -4.9421 -2.0372 0.9705
-4.7743 -5.3959 -2.0396 0.9705
-3.7451 -6.1708 -2.0435 0.9704
-3.1812 -6.4851 -2.0449 0.9704
-1.9784 -6.9537 -2.0467 0.9704
-1.3497 -7.1039 -2.0470 0.9704
-0.7098 -7.1960 -2.0470 0.9704
-0.0642 -7.2293 -2.0466 0.9704
0.5815 -7.2036 -2.0459 0.9704
2.4651 -6.7773 -2.0416 0.9705
3.6235 -6.2170 -2.0371 0.9705
4.1589 -5.8608 -2.0344 0.9706
4.6590 -5.4580 -2.0315 0.9706
5.1199 -5.0123 -2.0283 0.9707
6.2328 -3.4577 -2.0178 0.9708
6.7230 -2.2849 -2.0101 0.9709
6.8867 -1.6720 -2.0062 0.9710
6.9948 -1.0482 -2.0023 0.9710
7.0422 0.2122 -1.9945 0.9711
6.9818 0.8387 -1.9907 0.9712
6.8662 1.4562 -1.9870 0.9712
6.6967 2.0599 -1.9834 0.9713
6.4748 2.6453 -1.9801 0.9713
6.2026 3.2078 -1.9768 0.9714
4.6617 5.1489 -1.9663 0.9715
4.1790 5.5392 -1.9643 0.9716
2.5558 6.4356 -1.9603 0.9716
1.9701 6.6357 -1.9596 0.9716
-1.0936 6.8393 -1.9608 0.9716
-1.6961 6.6986 -1.9562 0.9717
-2.2106 6.3009 -1.8903 0.9726
-3.1711 5.5863 -1.8185 0.9736
-3.6635 5.2896 -1.8215 0.9736
-4.6184 4.6258 -1.8505 0.9732
-5.1833 4.3373 -1.9133 0.9723
-6.3939 2.9205 -1.9900 0.9712
-6.6418 2.3422 -1.9937 0.9711
-6.8377 1.7430 -1.9976 0.9711
-6.9796 1.1276 -2.0015 0.9710
-7.0663 0.5007 -2.0054 0.9710
-7.0966 -0.1327 -2.0094 0.9709
-7.0700 -0.7675 -2.0132 0.9709
-6.8461 -2.0206 -2.0207 0.9708
-6.6500 -2.6286 -2.0243 0.9707
-6.3993 -3.2175 -2.0277 0.9707
-5.7422 -4.3178 -2.0339 0.9706
-4.8949 -5.2839 -2.0390 0.9705
-3.8843 -6.0824 -2.0430 0.9704
-3.3280 -6.4097 -2.0446 0.9704
-2.7437 -6.6852 -2.0457 0.9704
-2.1366 -6.9062 -2.0465 0.9704
-0.2294 -7.2264 -2.0468 0.9704
0.4169 -7.2157 -2.0461 0.9704
1.0591 -7.1462 -2.0451 0.9704
3.4817 -6.3001 -2.0377 0.9705
4.0253 -5.9563 -2.0351 0.9706
5.0061 -5.1300 -2.0292 0.9706
5.8194 -4.1436 -2.0224 0.9707
6.4401 -3.0310 -2.0150 0.9708
6.6723 -2.4390 -2.0111 0.9709
6.8502 -1.8298 -2.0072 0.9710
7.0388 -0.5796 -1.9994 0.9711
7.0487 0.0513 -1.9955 0.9711
7.0025 0.6794 -1.9917 0.9712
5.6143 4.1220 -1.9717 0.9715
5.2168 4.6010 -1.9692 0.9715
-5.8784 -2.9697 -2.0257 0.9728
-5.5978 -3.4879 -2.0286 0.9728
-5.2710 -3.9793 -2.0314 0.9727
-4.9005 -4.4396 -2.0339 0.9727
-4.0408 -5.2515 -2.0381 0.9727
-3.5585 -5.5960 -2.0398 0.9726
-2.5092 -6.1472 -2.0422 0.9726
-1.3762 -6.4992 -2.0433 0.9726
-0.7903 -6.5964 -2.0434 0.9726
0.3958 -6.6289 -2.0425 0.9726
0.9858 -6.5641 -2.0416 0.9726
1.5672 -6.4459 -2.0404 0.9726
2.1350 -6.2753 -2.0388 0.9726
5.0061 -4.2704 -2.0239 0.9728
5.3590 -3.8002 -2.0207 0.9729
5.9295 -2.7768 -2.0139 0.9730
6.1430 -2.2322 -2.0103 0.9730
6.4190 -1.0996 -2.0031 0.9731
6.4889 0.0597 -1.9959 0.9732
5.7771 2.8362 -1.9795 0.9734
5.4929 3.3361 -1.9767 0.9735
5.1661 3.8083 -1.9741 0.9735
4.7996 4.2494 -1.9717 0.9735
4.3961 4.6560 -1.9696 0.9736
3.4914 5.3544 -1.9661 0.9736
1.9440 6.0789 -1.9630 0.9736
1.3930 6.2269 -1.9626 0.9736
0.8313 6.3261 -1.9625 0.9737
0.2630 6.3758 -1.9627 0.9736
-1.4384 6.2252 -1.9652 0.9736
-1.9877 6.0690 -1.9643 0.9736
-3.0239 5.5965 -1.9566 0.9737
-3.4861 5.2654 -1.9423 0.9739
-3.9628 4.9585 -1.9523 0.9738
-4.4320 4.6288 -1.9711 0.9735
-5.2176 3.7902 -1.9835 0.9734
-5.5442 3.3144 -1.9868 0.9733
-6.3984 1.1714 -2.0007 0.9731
-6.4891 0.5964 -2.0043 0.9731
-6.5282 0.0144 -2.0079 0.9730
-6.4493 -1.1513 -2.0150 0.9730
-6.3315 -1.7256 -2.0185 0.9729
-6.1621 -2.2880 -2.0218 0.9729
-5.6739 -3.3580 -2.0279 0.9728
-4.9991 -4.3252 -2.0332 0.9727
-2.6486 -6.0876 -2.0420 0.9726
0.2443 -6.6368 -2.0427 0.9726
1.4198 -6.4811 -2.0407 0.9726
1.9915 -6.3238 -2.0392 0.9726
3.5857 -5.5527 -2.0331 0.9727
4.0622 -5.2037 -2.0305 0.9728
5.2730 -3.9232 -2.0215 0.9729
5.5931 -3.4310 -2.0182 0.9729
6.0932 -2.3729 -2.0112 0.9730
6.2696 -1.8160 -2.0077 0.9731
6.3952 -1.2465 -2.0040 0.9731
6.4693 -0.6692 -2.0004 0.9731
6.4620 0.4908 -1.9933 0.9732
6.3813 1.0641 -1.9899 0.9733
6.2502 1.6271 -1.9865 0.9733
6.0701 2.1753 -1.9833 0.9734
5.8426 2.7046 -1.9803 0.9734
4.8968 4.1399 -1.9723 0.9735
4.0736 4.9347 -1.9681 0.9736
3.6135 5.2743 -1.9665 0.9736
3.1257 5.5720 -1.9651 0.9736
2.6141 5.8257 -1.9640 0.9736
2.0825 6.0334 -1.9632 0.9736
0.9755 6.3055 -1.9625 0.9737
0.4085 6.3678 -1.9626 0.9736
-0.1619 6.3803 -1.9631 0.9736
-3.3646 5.3432 -1.9421 0.9739
-5.1256 3.9053 -1.9820 0.9734
-5.4648 3.4387 -1.9859 0.9733
-5.7597 2.9418 -1.9893 0.9733
-6.0098 2.4198 -1.9927 0.9733
-6.4708 0.7441 -2.0034 0.9731
-6.2102 -2.1458 -2.0209 0.9729
-5.4435 -3.7319 -2.0300 0.9728
-5.0950 -4.2086 -2.0326 0.9727
-4.7042 -4.6523 -2.0350 0.9727
-2.7866 -6.0248 -2.0417 0.9726
-1.0907 -6.5534 -2.0434 0.9726
0.0927 -6.6412 -2.0429 0.9726
1.2716 -6.5129 -2.0410 0.9726
2.4064 -6.1733 -2.0379 0.9727
2.9452 -5.9279 -2.0359 0.9727
3.9436 -5.2969 -2.0312 0.9727
5.1841 -4.0443 -2.0223 0.9729
5.5156 -3.5593 -2.0191 0.9729
6.0402 -2.5126 -2.0121 0.9730
6.2293 -1.9596 -2.0086 0.9730
6.3680 -1.3929 -2.0050 0.9731
6.4553 -0.8171 -2.0014 0.9731
6.4745 0.3432 -1.9942 0.9732
6.4068 0.9185 -1.9907 0.9733
6.2884 1.4845 -1.9874 0.9733
6.1207 2.0369 -1.9841 0.9734
5.9051 2.5714 -1.9810 0.9734
4.9916 4.0282 -1.9729 0.9735
3.7337 5.1914 -1.9669 0.9736
0.5538 6.3566 -1.9626 0.9737
-0.0162 6.3819 -1.9629 0.9736
-0.5863 6.3571 -1.9636 0.9736
-1.1523 6.2824 -1.9646 0.9736
-2.7733 5.7454 -1.9623 0.9737
-3.2473 5.4279 -1.9455 0.9739
-4.2084 4.8176 -1.9675 0.9736
-6.1655 2.0172 -1.9953 0.9732
-6.3324 1.4610 -1.9989 0.9732
-6.4492 0.8913 -2.0025 0.9731
-6.5148 0.3123 -2.0061 0.9731
-6.2550 -2.0026 -2.0201 0.9729
-6.0608 -2.5573 -2.0233 0.9728
-5.8170 -3.0931 -2.0264 0.9728
-4.8079 -4.5423 -2.0344 0.9727
-3.4413 -5.6702 -2.0401 0.9726
-2.3803 -6.1990 -2.0424 0.9726
0.5343 -6.6186 -2.0424 0.9726
2.2653 -6.2281 -2.0384 0.9726
2.8098 -5.9952 -2.0365 0.9727
3.3305 -5.7141 -2.0343 0.9727
4.2831 -5.0177 -2.0291 0.9728
4.7074 -4.6085 -2.0262 0.9728
5.0924 -4.1633 -2.0232 0.9728
6.1858 -2.1023 -2.0095 0.9730
6.3375 -1.5387 -2.0059 0.9731
6.4379 -0.9648 -2.0023 0.9731
6.4835 0.1953 -1.9951 0.9732
6.4289 0.7723 -1.9916 0.9733
6.3234 1.3411 -1.9882 0.9733
5.7146 2.9554 -1.9788 0.9734
5.4202 3.4491 -1.9761 0.9735
4.7084 4.3477 -1.9712 0.9735
3.8521 5.1059 -1.9673 0.9736
3.3781 5.4253 -1.9658 0.9736
1.8164 6.1178 -1.9629 0.9736
1.2625 6.2545 -1.9626 0.9737
0.6988 6.3422 -1.9625 0.9737
-0.4409 6.3682 -1.9634 0.9736
-1.5685 6.1947 -1.9655 0.9736
-4.0773 4.8885 -1.9579 0.9737
-4.5307 4.5380 -1.9724 0.9735
-5.2977 3.6816 -1.9843 0.9734
-5.6145 3.1990 -1.9875 0.9733
-5.8878 2.6893 -1.9909 0.9733
-6.1151 2.1565 -1.9944 0.9732
-6.4242 1.0378 -2.0016 0.9731
-6.5044 -0.7061 -2.0123 0.9730
-6.4264 -1.2864 -2.0158 0.9729
-6.2965 -1.8584 -2.0192 0.9729
-5.6043 -3.4770 -2.0286 0.9728
-5.2785 -3.9690 -2.0313 0.9727
-4.4986 -4.8561 -2.0361 0.9727
-4.0508 -5.2436 -2.0380 0.9727
-3.5693 -5.5891 -2.0397 0.9726
-3.0579 -5.8895 -2.0411 0.9726
-1.9630 -6.3453 -2.0429 0.9726
-1.3887 -6.4965 -2.0433 0.9726
2.6729 -6.0593 -2.0370 0.9727
3.2000 -5.7903 -2.0349 0.9727
4.9980 -4.2802 -2.0240 0.9728
5.3518 -3.8107 -2.0207 0.9729
5.9244 -2.7883 -2.0139 0.9730
6.1390 -2.2441 -2.0104 0.9730
6.4172 -1.1120 -2.0032 0.9731
6.4477 0.6255 -1.9925 0.9733
6.3551 1.1968 -1.9891 0.9733
6.2125 1.7567 -1.9857 0.9733
6.0211 2.3009 -1.9826 0.9734
5.7827 2.8252 -1.9796 0.9734
5.4995 3.3256 -1.9767 0.9735
4.8079 4.2402 -1.9717 0.9735
3.9686 5.0177 -1.9677 0.9736
-5.8193 -1.7298 -2.0180 0.9747
-5.6500 -2.2460 -2.0210 0.9747
-4.8720 -3.6781 -2.0291 0.9746
-4.5291 -4.1032 -2.0315 0.9746
-3.7340 -4.8528 -2.0353 0.9745
-2.8149 -5.4472 -2.0382 0.9745
-2.3183 -5.6796 -2.0392 0.9745
-0.7301 -6.0943 -2.0403 0.9745
0.9108 -6.0649 -2.0386 0.9745
1.4480 -5.9559 -2.0375 0.9745
1.9728 -5.7987 -2.0360 0.9745
2.9676 -5.3455 -2.0323 0.9746
3.4295 -5.0536 -2.0301 0.9746
3.8625 -4.7214 -2.0277 0.9746
5.6825 -2.0648 -2.0097 0.9748
5.8345 -1.5465 -2.0064 0.9749
5.9394 -1.0175 -2.0030 0.9749
5.8810 1.1193 -1.9900 0.9751
5.5712 2.1412 -1.9840 0.9752
5.3501 2.6266 -1.9812 0.9752
5.0875 3.0899 -1.9786 0.9752
4.7853 3.5276 -1.9761 0.9753
4.4461 3.9365 -1.9739 0.9753
4.0727 4.3135 -1.9720 0.9753
2.2982 5.4515 -1.9666 0.9754
1.8015 5.6331 -1.9659 0.9754
1.2909 5.7704 -1.9655 0.9754
0.7703 5.8623 -1.9654 0.9754
0.2437 5.9082 -1.9656 0.9754
-1.3328 5.7682 -1.9679 0.9754
-2.3412 5.4470 -1.9708 0.9753
-2.8203 5.2197 -1.9721 0.9753
-3.2773 4.9501 -1.9734 0.9753
-3.7114 4.6439 -1.9761 0.9753
-4.1183 4.3011 -1.9794 0.9752
-4.4920 3.9214 -1.9821 0.9752
-4.8312 3.5096 -1.9849 0.9751
-5.1331 3.0686 -1.9879 0.9751
-5.6149 2.1131 -1.9942 0.9750
-5.7907 1.6058 -1.9975 0.9750
-5.9208 1.0840 -2.0008 0.9749
-6.0040 0.5518 -2.0042 0.9749
-6.0393 0.0134 -2.0075 0.9749
-5.9648 -1.0648 -2.0141 0.9748
-5.2451 -3.1042 -2.0260 0.9746
-4.6204 -3.9975 -2.0309 0.9746
-3.4048 -5.0935 -2.0365 0.9745
-2.4471 -5.6246 -2.0389 0.9745
-1.9357 -5.8228 -2.0397 0.9745
-1.4082 -5.9738 -2.0401 0.9745
-0.3229 -6.1289 -2.0401 0.9745
0.2257 -6.1318 -2.0396 0.9745
0.7722 -6.0848 -2.0389 0.9745
2.8455 -5.4133 -2.0329 0.9746
3.3141 -5.1321 -2.0307 0.9746
4.1641 -4.4497 -2.0257 0.9746
4.8756 -3.6276 -2.0201 0.9747
5.1723 -3.1728 -2.0170 0.9747
5.8001 -1.6800 -2.0072 0.9749
5.9171 -1.1533 -2.0039 0.9749
5.9865 -0.6192 -2.0006 0.9750
6.0079 -0.0819 -1.9972 0.9750
5.4106 2.5046 -1.9819 0.9752
5.1584 2.9738 -1.9792 0.9752
4.8661 3.4184 -1.9767 0.9752
4.1712 4.2204 -1.9724 0.9753
3.3480 4.8869 -1.9691 0.9753
2.8963 5.1630 -1.9678 0.9754
2.4223 5.3982 -1.9668 0.9754
1.9298 5.5909 -1.9660 0.9754
0.9040 5.8432 -1.9654 0.9754
-0.1500 5.9124 -1.9659 0.9754
-1.7145 5.6694 -1.9688 0.9753
-2.7002 5.2825 -1.9720 0.9753
-3.6029 4.7256 -1.9753 0.9753
-4.3997 4.0216 -1.9814 0.9752
-5.0597 3.1838 -1.9871 0.9751
-5.5629 2.2399 -1.9934 0.9750
-5.9873 0.6885 -2.0033 0.9749
-6.0349 0.1512 -2.0067 0.9749
-6.0342 -0.3890 -2.0100 0.9748
-5.9851 -0.9279 -2.0132 0.9748
-5.0317 -3.4496 -2.0279 0.9746
-3.9499 -4.6751 -2.0344 0.9745
-3.0598 -5.3114 -2.0376 0.9745
-2.5746 -5.5666 -2.0387 0.9745
-2.0680 -5.7766 -2.0395 0.9745
-1.5442 -5.9398 -2.0401 0.9745
-0.4628 -6.1202 -2.0402 0.9745
0.0856 -6.1359 -2.0398 0.9745
1.1749 -6.0177 -2.0381 0.9745
2.2237 -5.7046 -2.0352 0.9745
2.7218 -5.4782 -2.0334 0.9745
4.7933 -3.7394 -2.0208 0.9747
5.1005 -3.2914 -2.0178 0.9747
5.3657 -2.8183 -2.0146 0.9748
5.5869 -2.3241 -2.0114 0.9748
5.9733 -0.7561 -2.0014 0.9749
5.9927 0.3177 -1.9948 0.9750
5.9308 0.8502 -1.9916 0.9751
5.8220 1.3744 -1.9885 0.9751
5.6674 1.8860 -1.9854 0.9751
5.4684 2.3812 -1.9826 0.9752
5.2267 2.8562 -1.9799 0.9752
4.9444 3.3074 -1.9774 0.9752
4.2675 4.1251 -1.9729 0.9753
3.8784 4.4855 -1.9711 0.9753
3.0139 5.0963 -1.9681 0.9754
2.5453 5.3421 -1.9670 0.9754
2.0571 5.5458 -1.9662 0.9754
1.0372 5.8210 -1.9654 0.9754
-0.5433 5.8907 -1.9664 0.9754
-2.5784 5.3417 -1.9716 0.9753
-3.9145 4.4812 -1.9779 0.9752
-4.3053 4.1196 -1.9807 0.9752
-5.5080 2.3653 -1.9926 0.9750
-5.9674 0.8247 -2.0025 0.9749
-6.0390 -0.2510 -2.0091 0.9748
-6.0023 -0.7907 -2.0124 0.9748
-5.9171 -1.3257 -2.0156 0.9748
-5.7839 -1.8517 -2.0187 0.9747
-5.6037 -2.3644 -2.0217 0.9747
-5.3777 -2.8595 -2.0246 0.9747
-5.1075 -3.3327 -2.0272 0.9746
-4.7953 -3.7802 -2.0297 0.9746
-4.4434 -4.1980 -2.0320 0.9746
-2.7007 -5.5056 -2.0384 0.9745
-2.1992 -5.7274 -2.0393 0.9745
-1.6794 -5.9027 -2.0399 0.9745
-1.1456 -6.0300 -2.0402 0.9745
-0.6025 -6.1082 -2.0402 0.9745
