ply
format ascii 1.0
element vertex 1582
property float32 x
property float32 y
property float32 z
property float32 I
end_header
9.7254 -10.4838 -2.0262 0.9439
10.6098 -9.5649 -2.0240 0.9439
11.4070 -8.5712 -2.0217 0.9440
13.2167 -5.2272 -2.0138 0.9442
13.9120 2.2299 -1.9963 0.9447
13.2573 4.6516 -1.9907 0.9448
12.7726 5.8069 -1.9880 0.9449
12.1883 6.9134 -1.9854 0.9450
10.7414 8.9465 -1.9807 0.9451
9.8906 9.8578 -1.9786 0.9451
8.9637 10.6898 -1.9767 0.9452
7.3624 10.5668 -1.8248 0.9493
5.3614 11.6896 -1.8222 0.9494
3.1975 12.4441 -1.8205 0.9494
1.9258 11.7649 -1.6891 0.9530
0.8419 11.5142 -1.6358 0.9544
-0.1834 11.2770 -1.5980 0.9555
-2.1315 10.8044 -1.5604 0.9565
-6.1001 9.9090 -1.6487 0.9541
-7.2039 9.6539 -1.7067 0.9525
-10.1949 7.9442 -1.8313 0.9491
-10.8754 7.0121 -1.8335 0.9491
-11.9789 4.9825 -1.8382 0.9489
-12.3924 3.9002 -1.8408 0.9489
-12.7088 2.7840 -1.8434 0.9488
-14.1235 -0.7368 -2.0039 0.9445
-14.0221 -1.9957 -2.0068 0.9444
-13.8084 -3.2424 -2.0097 0.9443
-13.0497 -5.6587 -2.0154 0.9442
-10.2994 -9.9111 -2.0253 0.9439
-8.3920 -11.6049 -2.0292 0.9438
-6.2073 -12.9301 -2.0322 0.9437
-3.8166 -13.8410 -2.0343 0.9436
3.7205 -13.6291 -2.0018 0.9445
6.1578 -12.9120 -2.0269 0.9438
7.2975 -12.3339 -2.0306 0.9437
10.2720 -9.9357 -2.0249 0.9439
11.1043 -8.9704 -2.0226 0.9440
13.0321 -5.6909 -2.0149 0.9442
13.4688 -4.5003 -2.0121 0.9442
13.7967 -3.2771 -2.0092 0.9443
14.0135 -2.0313 -2.0063 0.9444
14.1180 -0.7729 -2.0034 0.9445
13.7589 2.9770 -1.9946 0.9447
12.9754 5.3579 -1.9890 0.9449
11.7874 7.5573 -1.9839 0.9450
11.0537 8.5677 -1.9816 0.9451
10.2347 9.5085 -1.9794 0.9451
9.3369 10.3724 -1.9774 0.9452
8.3675 11.1532 -1.9756 0.9452
4.7193 11.9586 -1.8216 0.9494
2.3732 11.8684 -1.7149 0.9523
-2.7177 10.6909 -1.5630 0.9564
-3.6817 10.4680 -1.5723 0.9562
-5.6849 10.0050 -1.6305 0.9546
-9.1167 9.1334 -1.8285 0.9492
-10.6175 7.3860 -1.8326 0.9491
-11.2476 6.4181 -1.8349 0.9490
-12.2412 4.3304 -1.8398 0.9489
-12.5962 3.2265 -1.8424 0.9488
-14.0754 -1.5014 -2.0057 0.9444
-13.6245 -3.9885 -2.0115 0.9443
-12.7347 -6.3619 -2.0170 0.9441
-12.1325 -7.4814 -2.0196 0.9440
-11.4313 -8.5435 -2.0221 0.9440
-9.7540 -10.4606 -2.0265 0.9439
-8.7912 -11.2992 -2.0285 0.9438
-5.5004 -13.2519 -2.0330 0.9437
-3.0625 -14.0302 -2.0347 0.9436
2.0060 -14.0197 -2.0067 0.9444
3.2371 -13.7398 -2.0001 0.9446
8.9729 -11.1489 -2.0277 0.9438
9.9211 -10.2944 -2.0257 0.9439
10.7875 -9.3589 -2.0235 0.9439
12.2482 -7.2770 -2.0186 0.9441
12.8312 -6.1481 -2.0160 0.9441
13.3099 -4.9731 -2.0132 0.9442
13.6809 -3.7615 -2.0104 0.9443
13.9416 -2.5233 -2.0075 0.9444
14.0903 -1.2687 -2.0045 0.9444
14.1265 -0.0076 -2.0016 0.9445
12.6561 6.0474 -1.9874 0.9449
10.5666 9.1473 -1.9802 0.9451
9.6989 10.0422 -1.9782 0.9452
8.7568 10.8564 -1.9763 0.9452
7.1586 10.7032 -1.8245 0.9493
5.1372 11.7881 -1.8220 0.9494
2.9597 12.5018 -1.8203 0.9494
0.6190 11.4626 -1.6265 0.9547
-0.3966 11.2277 -1.5918 0.9556
-2.3405 10.7781 -1.5627 0.9564
-4.2749 10.3309 -1.5841 0.9558
-5.2782 10.0990 -1.6146 0.9550
-6.3294 9.8560 -1.6597 0.9538
-8.6677 9.3157 -1.8029 0.9499
-9.6039 8.6321 -1.8297 0.9492
-11.0099 6.8055 -1.8340 0.9491
-11.5876 5.8045 -1.8363 0.9490
-12.4682 3.6646 -1.8413 0.9489
-13.9939 1.5081 -1.9943 0.9447
-14.1113 -1.0059 -2.0045 0.9444
-13.9859 -2.2631 -2.0074 0.9444
-13.7484 -3.5059 -2.0103 0.9443
-13.4001 -4.7241 -2.0132 0.9442
-12.9433 -5.9079 -2.0159 0.9441
-12.3815 -7.0474 -2.0186 0.9441
-10.1111 -10.1077 -2.0257 0.9439
-8.1710 -11.7647 -2.0295 0.9438
-7.0953 -12.4560 -2.0311 0.9437
-5.9607 -13.0477 -2.0325 0.9437
-4.7766 -13.5345 -2.0336 0.9437
-3.5526 -13.9123 -2.0345 0.9436
-2.2990 -14.1777 -2.0351 0.9436
-1.0256 -14.3198 -2.0342 0.9437
0.2543 -14.3200 -2.0293 0.9438
2.7539 -13.8500 -2.0008 0.9445
3.9832 -13.5687 -2.0037 0.9445
8.5792 -11.4612 -2.0285 0.9438
9.5575 -10.6406 -2.0265 0.9439
11.2703 -8.7551 -2.0221 0.9440
12.6141 -6.5981 -2.0170 0.9441
13.1343 -5.4401 -2.0143 0.9442
13.8523 -3.0128 -2.0086 0.9443
14.0452 -1.7635 -2.0057 0.9444
14.1257 -0.5037 -2.0027 0.9445
14.0936 0.7563 -1.9998 0.9446
13.3336 4.4392 -1.9912 0.9448
12.8673 5.6024 -1.9885 0.9449
12.3006 6.7183 -1.9859 0.9450
10.0495 9.6995 -1.9789 0.9451
4.4902 12.0450 -1.8214 0.9494
3.3971 12.3920 -1.8206 0.9494
2.1288 11.8119 -1.7006 0.9527
1.0320 11.5581 -1.6442 0.9542
-0.0023 11.3189 -1.6038 0.9553
-0.9948 11.0893 -1.5775 0.9560
-2.9226 10.6435 -1.5639 0.9564
-4.8790 10.1913 -1.6009 0.9554
-5.9090 9.9532 -1.6401 0.9543
-6.9995 9.7012 -1.6950 0.9528
-8.1752 9.4295 -1.7683 0.9508
-9.2911 8.9601 -1.8289 0.9492
-10.0639 8.1052 -1.8309 0.9491
-11.8944 5.1730 -1.8378 0.9489
-12.6592 2.9869 -1.8429 0.9488
-14.0981 0.7507 -2.0004 0.9446
-13.8551 -3.0194 -2.0092 0.9443
-13.5502 -4.2486 -2.0121 0.9442
-13.1357 -5.4471 -2.0149 0.9442
-11.9910 -7.7131 -2.0201 0.9440
-11.2694 -8.7619 -2.0226 0.9440
-8.5760 -11.4668 -2.0289 0.9438
-6.4134 -12.8272 -2.0320 0.9437
-5.2476 -13.3558 -2.0332 0.9437
-4.0381 -13.7769 -2.0342 0.9437
-1.5284 -14.2830 -2.0353 0.9436
1.0258 -14.2404 -2.0229 0.9440
2.2696 -13.9600 -2.0040 0.9445
3.4993 -13.6798 -2.0007 0.9446
4.7338 -13.3955 -2.0130 0.9442
7.0969 -12.4467 -2.0301 0.9438
8.1745 -11.7593 -2.0292 0.9438
9.1817 -10.9738 -2.0273 0.9438
10.1131 -10.1013 -2.0253 0.9439
10.9611 -9.1495 -2.0230 0.9439
11.7191 -8.1263 -2.0206 0.9440
13.3982 -4.7172 -2.0126 0.9442
13.9827 -2.2567 -2.0068 0.9444
14.1075 -0.9998 -2.0039 0.9445
13.4886 3.9706 -1.9923 0.9448
13.0629 5.1501 -1.9895 0.9449
12.5352 6.2856 -1.9869 0.9449
10.3880 9.3447 -1.9798 0.9451
9.5039 10.2230 -1.9777 0.9452
8.5469 11.0191 -1.9759 0.9452
6.9523 10.8358 -1.8242 0.9493
5.9544 11.4042 -1.8228 0.9494
4.9112 11.8824 -1.8217 0.9494
2.5826 11.9169 -1.7277 0.9519
1.4547 11.6559 -1.6643 0.9537
-9.0190 6.5323 -1.8346 0.9559
-9.5755 5.7084 -1.8365 0.9558
-10.0574 4.8375 -1.8385 0.9558
-10.7820 2.9818 -1.8429 0.9557
-12.0869 1.1065 -1.9995 0.9520
-12.1528 0.0247 -2.0020 0.9519
-12.1220 -1.0600 -2.0046 0.9519
-11.9943 -2.1391 -2.0071 0.9518
-11.4518 -4.2452 -2.0120 0.9517
-11.0407 -5.2553 -2.0144 0.9516
-10.5401 -6.2255 -2.0166 0.9516
-9.9538 -7.1479 -2.0188 0.9515
-8.5427 -8.8187 -2.0227 0.9514
-7.7291 -9.5531 -2.0244 0.9514
-5.9183 -10.7890 -2.0272 0.9513
-1.7772 -12.1963 -2.0304 0.9513
-0.6830 -12.3076 -2.0307 0.9513
0.4168 -12.3195 -2.0307 0.9513
1.5131 -12.2319 -2.0304 0.9513
3.6590 -11.7622 -2.0293 0.9513
4.6909 -11.3841 -2.0284 0.9513
5.6838 -10.9146 -2.0273 0.9513
6.6298 -10.3578 -2.0259 0.9514
9.7974 -7.3617 -2.0189 0.9515
11.6990 -3.4575 -2.0097 0.9517
12.0969 -1.3219 -2.0047 0.9519
12.1512 -0.2380 -2.0022 0.9519
11.4113 4.0039 -1.9922 0.9522
10.9961 4.9993 -1.9899 0.9522
10.4950 5.9529 -1.9877 0.9523
5.5037 9.6283 -1.8270 0.9560
4.6209 10.0749 -1.8260 0.9561
3.7027 10.4419 -1.8251 0.9561
1.7886 10.9269 -1.8240 0.9561
0.8074 11.0413 -1.8238 0.9561
-1.1661 11.0099 -1.8239 0.9561
-2.1324 10.8087 -1.8149 0.9563
-3.0957 10.6041 -1.8198 0.9562
-4.0414 10.3185 -1.8256 0.9561
-4.9477 9.9223 -1.8265 0.9560
-5.8160 9.4476 -1.8277 0.9560
-8.7806 6.8421 -1.8338 0.9559
-9.3652 6.0384 -1.8357 0.9558
-9.8770 5.1852 -1.8377 0.9558
-10.3117 4.2890 -1.8398 0.9557
-11.8699 -2.7872 -2.0086 0.9518
-11.5883 -3.8389 -2.0111 0.9517
-11.2133 -4.8623 -2.0135 0.9517
-10.1943 -6.7913 -2.0179 0.9516
-9.5582 -7.6809 -2.0200 0.9515
-8.8439 -8.5104 -2.0219 0.9515
-8.0571 -9.2730 -2.0237 0.9514
-7.2041 -9.9621 -2.0253 0.9514
-4.3192 -11.5337 -2.0289 0.9513
-3.2752 -11.8774 -2.0297 0.9513
-1.1145 -12.2756 -2.0306 0.9513
1.0829 -12.2782 -2.0306 0.9513
2.1727 -12.1306 -2.0302 0.9513
4.2892 -11.5439 -2.0288 0.9513
8.0320 -9.2924 -2.0234 0.9514
8.8206 -8.5318 -2.0216 0.9515
9.5368 -7.7041 -2.0197 0.9515
10.1750 -6.8163 -2.0176 0.9516
10.7303 -5.8757 -2.0154 0.9516
11.1985 -4.8902 -2.0131 0.9517
11.5760 -3.8679 -2.0107 0.9517
11.8601 -2.8171 -2.0082 0.9518
12.1414 -0.6647 -2.0032 0.9519
11.1699 4.6123 -1.9908 0.9522
10.7021 5.5833 -1.9886 0.9522
10.1508 6.5080 -1.9864 0.9523
7.1912 9.5853 -1.9741 0.9526
5.8397 9.4316 -1.8275 0.9560
2.1712 10.8583 -1.8242 0.9561
-0.7789 11.0436 -1.8238 0.9561
-1.7576 10.9135 -1.8211 0.9562
-4.5954 10.0877 -1.8261 0.9561
-5.4795 9.6435 -1.8272 0.9560
-7.1150 8.5296 -1.8298 0.9560
-8.5318 7.1433 -1.8331 0.9559
-9.6847 5.5263 -1.8369 0.9558
-10.5363 3.7273 -1.8411 0.9557
-12.1090 0.8763 -2.0001 0.9520
-12.1543 -0.2068 -2.0026 0.9519
-12.1028 -1.2910 -2.0051 0.9519
-11.9545 -2.3677 -2.0076 0.9518
-10.9413 -5.4660 -2.0149 0.9516
-9.8180 -7.3378 -2.0192 0.9515
-9.1338 -8.1918 -2.0212 0.9515
-7.5471 -9.7002 -2.0247 0.9514
-6.6572 -10.3419 -2.0262 0.9514
-5.7125 -10.9011 -2.0275 0.9513
-2.6280 -12.0395 -2.0301 0.9513
-1.5446 -12.2283 -2.0305 0.9513
0.6514 -12.3091 -2.0306 0.9513
1.7457 -12.2004 -2.0304 0.9513
2.8256 -11.9932 -2.0298 0.9513
3.8820 -11.6894 -2.0291 0.9513
5.8899 -10.8030 -2.0270 0.9513
6.8248 -10.2281 -2.0256 0.9514
8.5187 -8.8393 -2.0224 0.9515
10.5221 -6.2515 -2.0163 0.9516
11.0250 -5.2827 -2.0140 0.9516
11.4385 -4.2738 -2.0116 0.9517
11.7597 -3.2333 -2.0092 0.9518
11.9862 -2.1694 -2.0067 0.9518
12.1166 -1.0910 -2.0042 0.9519
12.0871 1.0752 -1.9991 0.9520
11.9282 2.1457 -1.9966 0.9521
11.3301 4.2194 -1.9917 0.9522
7.5451 9.3541 -1.9798 0.9524
6.1687 9.2232 -1.8279 0.9560
1.5801 10.9586 -1.8240 0.9561
0.5969 11.0546 -1.8238 0.9561
-0.7298 5.8278 -0.9676 0.9765
-3.3013 10.5566 -1.8221 0.9562
-4.2376 10.2407 -1.8258 0.9561
-6.8091 8.7713 -1.8293 0.9560
-7.5701 8.1361 -1.8308 0.9559
-8.2727 7.4356 -1.8324 0.9559
-8.9113 6.6751 -1.8342 0.9559
-9.9764 4.9974 -1.8382 0.9558
-10.3941 4.0929 -1.8403 0.9557
-10.7304 3.1539 -1.8425 0.9557
-11.5305 2.2967 -1.9368 0.9535
-12.1347 -0.8650 -2.0041 0.9519
-12.0244 -1.9457 -2.0067 0.9518
-11.5160 -4.0599 -2.0116 0.9517
-11.1214 -5.0763 -2.0140 0.9516
-10.6366 -6.0543 -2.0162 0.9516
-9.4121 -7.8632 -2.0204 0.9515
-7.0142 -10.0991 -2.0256 0.9514
-6.0901 -10.6913 -2.0270 0.9513
-5.1158 -11.1981 -2.0282 0.9513
-1.9728 -12.1657 -2.0304 0.9513
0.2189 -12.3247 -2.0307 0.9513
3.4699 -11.8203 -2.0294 0.9513
4.5078 -11.4590 -2.0286 0.9513
6.4634 -10.4642 -2.0262 0.9514
7.3651 -9.8392 -2.0247 0.9514
10.8377 -5.6689 -2.0149 0.9516
11.2868 -4.6749 -2.0126 0.9517
11.6446 -3.6458 -2.0101 0.9517
11.9085 -2.5901 -2.0077 0.9518
12.0768 -1.5163 -2.0051 0.9519
12.1485 -0.4332 -2.0026 0.9519
11.7858 2.7860 -1.9951 0.9521
11.4766 3.8209 -1.9927 0.9521
11.0773 4.8231 -1.9903 0.9522
10.5913 5.7848 -1.9881 0.9523
8.6572 8.3557 -1.9821 0.9524
6.4904 9.0035 -1.8284 0.9560
5.6582 9.5398 -1.8272 0.9560
4.7825 10.0004 -1.8262 0.9561
3.8702 10.3819 -1.8253 0.9561
1.9639 10.8972 -1.8241 0.9561
0.9846 11.0271 -1.8238 0.9561
-0.0023 11.0705 -1.8237 0.9561
-1.9630 10.8660 -1.8190 0.9562
-2.9227 10.6441 -1.8184 0.9562
-3.8749 10.3812 -1.8254 0.9561
-4.7872 9.9995 -1.8264 0.9561
-5.6629 9.5387 -1.8275 0.9560
-7.2774 8.3940 -1.8302 0.9560
-8.0037 7.7186 -1.8318 0.9559
-9.7905 5.3421 -1.8374 0.9558
-10.2394 4.4531 -1.8394 0.9557
-10.6081 3.5269 -1.8416 0.9557
-12.0050 1.7218 -1.9979 0.9520
-12.0793 -1.5217 -2.0057 0.9518
-11.9104 -2.5956 -2.0082 0.9518
-11.2875 -4.6807 -2.0130 0.9517
-10.8378 -5.6747 -2.0154 0.9516
-10.3001 -6.6255 -2.0176 0.9516
-9.6786 -7.5250 -2.0197 0.9515
-8.2037 -9.1410 -2.0234 0.9514
-7.3622 -9.8438 -2.0250 0.9514
-5.5045 -11.0093 -2.0277 0.9513
-4.5035 -11.4620 -2.0288 0.9513
-3.4653 -11.8226 -2.0296 0.9513
-2.3983 -12.0880 -2.0302 0.9513
-1.3115 -12.2559 -2.0306 0.9513
-0.2138 -12.3248 -2.0307 0.9513
4.1036 -11.6123 -2.0289 0.9513
7.8830 -9.4216 -2.0237 0.9514
8.6839 -8.6738 -2.0220 0.9515
10.0661 -6.9802 -2.0180 0.9516
10.6367 -6.0485 -2.0158 0.9516
11.8160 -3.0079 -2.0086 0.9518
12.1319 -0.8598 -2.0036 0.9519
12.1448 0.2248 -2.0011 0.9520
12.0612 1.3048 -1.9985 0.9520
11.2449 4.4333 -1.9912 0.9522
10.7926 5.4118 -1.9890 0.9522
10.2560 6.3454 -1.9868 0.9523
5.1317 9.8285 -1.8265 0.9560
1.3711 10.9863 -1.8239 0.9561
-8.3998 5.0075 -1.8381 0.9610
-8.8214 4.2430 -1.8399 0.9609
-9.1739 3.4433 -1.8418 0.9609
-10.4550 1.9084 -1.9976 0.9577
-9.6692 -4.6025 -2.0128 0.9574
-9.2295 -5.4514 -2.0148 0.9573
-8.1295 -7.0163 -2.0184 0.9572
-6.7648 -8.3613 -2.0216 0.9572
-5.9965 -8.9369 -2.0229 0.9571
-3.4232 -10.2198 -2.0258 0.9571
-1.5549 -10.6707 -2.0268 0.9571
-0.5976 -10.7679 -2.0271 0.9571
0.3647 -10.7783 -2.0271 0.9571
3.2016 -10.2916 -2.0259 0.9571
4.1046 -9.9614 -2.0251 0.9571
4.9738 -9.5512 -2.0241 0.9571
5.8021 -9.0647 -2.0229 0.9571
8.5780 -6.4454 -2.0168 0.9573
9.1099 -5.6499 -2.0149 0.9573
9.9484 -3.9346 -2.0108 0.9574
10.2487 -3.0289 -2.0087 0.9574
10.4666 -2.1010 -2.0065 0.9575
10.6005 -1.1584 -2.0043 0.9575
10.6497 -0.2086 -2.0021 0.9576
10.6141 0.7407 -1.9999 0.9576
10.4943 1.6821 -1.9977 0.9577
9.6447 4.3849 -1.9914 0.9578
9.2064 5.2220 -1.9894 0.9578
5.5684 7.9919 -1.8308 0.9611
4.8310 8.4516 -1.8298 0.9612
1.5703 9.5933 -1.8272 0.9612
-0.1581 9.7184 -1.8269 0.9612
-2.7252 9.3350 -1.8279 0.9612
-5.8275 7.8094 -1.8315 0.9611
-8.2159 5.2973 -1.8374 0.9610
-10.5638 -1.5035 -2.0056 0.9575
-9.4116 -5.1222 -2.0140 0.9573
-8.9260 -5.9464 -2.0159 0.9573
-7.7417 -7.4497 -2.0194 0.9572
-7.0522 -8.1164 -2.0210 0.9572
-6.3049 -8.7187 -2.0224 0.9572
-5.5060 -9.2516 -2.0236 0.9571
-4.6618 -9.7107 -2.0247 0.9571
-2.8656 -10.3922 -2.0262 0.9571
-0.9751 -10.7400 -2.0270 0.9571
-0.0139 -10.7846 -2.0271 0.9571
1.9009 -10.6133 -2.0266 0.9571
2.8387 -10.3990 -2.0261 0.9571
3.7531 -10.1010 -2.0254 0.9571
4.6365 -9.7219 -2.0245 0.9571
6.2818 -8.7339 -2.0222 0.9572
7.7214 -7.4686 -2.0192 0.9572
10.5579 -1.5304 -2.0052 0.9575
10.6405 -0.5825 -2.0030 0.9576
10.5514 1.3132 -1.9986 0.9576
10.3810 2.2461 -1.9964 0.9577
9.7966 4.0453 -1.9922 0.9578
9.3876 4.8975 -1.9902 0.9578
8.9052 5.7094 -1.9883 0.9579
7.0596 7.8426 -1.9834 0.9580
6.3095 8.4101 -1.9762 0.9581
5.1258 8.2786 -1.8302 0.9611
-0.6839 9.6959 -1.8270 0.9612
-2.3956 9.4238 -1.8277 0.9612
-4.0340 8.8553 -1.8290 0.9612
-4.8097 8.4648 -1.8299 0.9611
-5.5484 8.0071 -1.8310 0.9611
-7.4860 6.2677 -1.8351 0.9610
-8.0220 5.5804 -1.8368 0.9610
-10.4919 1.7094 -1.9981 0.9577
-10.6142 0.7682 -2.0003 0.9576
-10.6522 -0.1813 -2.0025 0.9576
-10.4739 -2.0744 -2.0069 0.9575
-10.2583 -3.0031 -2.0091 0.9574
-9.1259 -5.6274 -2.0152 0.9573
-7.3305 -7.8616 -2.0204 0.9572
-4.9988 -9.5392 -2.0243 0.9571
-3.2282 -10.2839 -2.0260 0.9571
-2.2993 -10.5337 -2.0265 0.9571
-1.3514 -10.6986 -2.0269 0.9571
0.5699 -10.7693 -2.0270 0.9571
1.5165 -10.5981 -2.0123 0.9574
2.4723 -10.4934 -2.0263 0.9571
3.3967 -10.2280 -2.0257 0.9571
4.2932 -9.8805 -2.0249 0.9571
5.1542 -9.4537 -2.0239 0.9571
5.9729 -8.9513 -2.0227 0.9571
10.0193 -3.7436 -2.0104 0.9574
10.5022 -1.9008 -2.0061 0.9575
10.6493 -0.0058 -2.0016 0.9576
10.5956 0.9425 -1.9994 0.9576
10.4579 1.8812 -1.9972 0.9577
9.9365 3.7004 -1.9930 0.9578
9.5574 4.5668 -1.9910 0.9578
7.9866 6.9138 -1.9855 0.9579
7.3327 7.5922 -1.9839 0.9580
5.4144 8.0955 -1.8306 0.9611
3.8869 8.9190 -1.8287 0.9612
0.5241 9.7056 -1.8269 0.9612
-2.9027 9.2821 -1.8280 0.9612
-7.2590 6.5245 -1.8345 0.9611
-7.8184 5.8565 -1.8361 0.9610
-8.7506 4.3833 -1.8396 0.9609
-9.1157 3.5895 -1.8414 0.9609
-10.4210 2.0757 -1.9972 0.9577
-10.5761 1.1397 -1.9994 0.9576
-10.6474 0.1927 -2.0016 0.9576
-10.5357 -1.7048 -2.0061 0.9575
-9.3142 -5.3016 -2.0144 0.9573
-7.5997 -7.5971 -2.0198 0.9572
-6.1386 -8.8384 -2.0227 0.9571
-4.4765 -9.7987 -2.0249 0.9571
-2.6673 -10.4455 -2.0263 0.9571
-0.7704 -10.7568 -2.0270 0.9571
0.1915 -10.7828 -2.0271 0.9571
1.1518 -10.7220 -2.0269 0.9571
3.9444 -10.0268 -2.0252 0.9571
4.8202 -9.6308 -2.0243 0.9571
5.6564 -9.1577 -2.0232 0.9571
6.4460 -8.6115 -2.0219 0.9572
8.4747 -6.5834 -2.0171 0.9573
9.4911 -4.9645 -2.0133 0.9573
10.2007 -3.1937 -2.0091 0.9574
10.6471 -0.3797 -2.0025 0.9576
10.5220 1.5136 -1.9981 0.9577
10.3340 2.4428 -1.9959 0.9577
10.0644 3.3507 -1.9938 0.9577
9.7157 4.2302 -1.9918 0.9578
9.2907 5.0744 -1.9898 0.9578
8.7932 5.8769 -1.9879 0.9579
8.2270 6.6314 -1.9862 0.9579
7.5969 7.3324 -1.9845 0.9579
4.9666 8.3737 -1.8300 0.9611
4.1982 8.7787 -1.8290 0.9612
3.3976 9.1141 -1.8283 0.9612
1.7242 9.5672 -1.8272 0.9612
0.8644 9.6815 -1.8270 0.9612
-2.5748 9.3771 -1.8278 0.9612
-4.2023 8.7777 -1.8292 0.9612
-4.9706 8.3726 -1.8302 0.9611
-5.7007 7.9010 -1.8313 0.9611
-7.6054 6.1252 -1.8355 0.9610
-8.1284 5.4277 -1.8371 0.9610
-8.5880 4.6859 -1.8389 0.9610
-8.9804 3.9056 -1.8407 0.9609
-10.3095 2.4325 -1.9910 0.9578
-10.6294 0.5660 -2.0007 0.9576
-10.6494 -0.3842 -2.0030 0.9576
-9.8862 -4.0996 -2.0116 0.9574
-9.4909 -4.9695 -2.0137 0.9573
-9.0188 -5.8013 -2.0156 0.9573
-6.4434 -8.6153 -2.0221 0.9572
-5.6533 -9.1611 -2.0234 0.9571
-4.8168 -9.6337 -2.0245 0.9571
-3.9406 -10.0292 -2.0254 0.9571
-3.0320 -10.3442 -2.0261 0.9571
-2.0984 -10.5761 -2.0266 0.9571
2.6715 -10.4438 -2.0262 0.9571
3.5906 -10.1607 -2.0255 0.9571
4.4801 -9.7959 -2.0247 0.9571
5.3327 -9.3527 -2.0236 0.9571
7.6016 -7.5927 -2.0195 0.9572
8.2413 -6.8792 -2.0178 0.9572
9.3146 -5.2967 -2.0140 0.9573
9.7399 -4.4408 -2.0120 0.9574
10.3519 -2.6352 -2.0078 0.9575
10.5733 1.1438 -1.9990 0.9576
10.4178 2.0795 -1.9968 0.9577
9.8621 3.8881 -1.9925 0.9578
8.9973 5.5666 -1.9886 0.9579
8.4576 6.3407 -1.9868 0.9579
3.7160 8.9906 -1.8285 0.9612
2.8987 9.2827 -1.8279 0.9612
2.0591 9.5015 -1.8274 0.9612
1.2038 9.6456 -1.8271 0.9612
-7.0416 5.1002 -1.8379 0.9651
-7.4744 4.4558 -1.8394 0.9650
-7.8486 3.7751 -1.8410 0.9650
-8.1935 3.0753 -1.8499 0.9649
-9.2989 1.6974 -1.9981 0.9621
-9.3423 -1.6661 -2.0059 0.9619
-9.1655 -2.4947 -2.0079 0.9619
-8.9150 -3.3048 -2.0098 0.9619
-8.5927 -4.0901 -2.0116 0.9618
-7.7431 -5.5603 -2.0150 0.9618
-6.6426 -6.8571 -2.0180 0.9617
-6.0088 -7.4268 -2.0193 0.9617
-5.3260 -7.9375 -2.0205 0.9617
-4.5996 -8.3849 -2.0216 0.9617
-3.8355 -8.7654 -2.0224 0.9616
-3.0399 -9.0755 -2.0231 0.9616
-2.2194 -9.3129 -2.0237 0.9616
-1.3807 -9.4753 -2.0240 0.9616
1.1756 -9.5030 -2.0241 0.9616
2.0176 -9.3588 -2.0237 0.9616
5.8470 -7.5552 -2.0194 0.9617
6.4930 -6.9993 -2.0181 0.9617
7.0860 -6.3881 -2.0166 0.9617
8.0948 -5.0203 -2.0134 0.9618
8.5026 -4.2750 -2.0117 0.9618
8.8418 -3.4969 -2.0098 0.9619
9.3045 -1.8677 -2.0060 0.9619
9.4248 -1.0299 -2.0041 0.9620
8.9028 3.1237 -1.9944 0.9622
8.5811 3.9013 -1.9925 0.9622
8.1921 4.6467 -1.9908 0.9622
6.0335 7.1953 -1.9849 0.9623
5.1095 7.3333 -1.8893 0.9641
4.3009 7.5242 -1.8320 0.9652
2.8942 8.1618 -1.8305 0.9652
2.1545 8.3850 -1.8300 0.9652
0.6312 8.6317 -1.8294 0.9652
-0.1408 8.6534 -1.8294 0.9652
-0.6113 5.7710 -1.2267 0.9766
-2.4265 8.3117 -1.8303 0.9652
-5.7901 6.4657 -1.8346 0.9651
-6.3478 5.9279 -1.8359 0.9651
-7.3110 4.7139 -1.8388 0.9651
-7.7086 4.0469 -1.8403 0.9650
-9.3827 1.1923 -1.9993 0.9621
-9.4639 -0.4937 -2.0032 0.9620
-9.2439 -2.1706 -2.0071 0.9619
-7.4343 -5.9741 -2.0160 0.9618
-6.8773 -6.6179 -2.0175 0.9617
-6.2642 -7.2095 -2.0188 0.9617
-5.6000 -7.7440 -2.0201 0.9617
-4.8901 -8.2168 -2.0212 0.9617
-4.1401 -8.6239 -2.0221 0.9616
-3.3562 -8.9621 -2.0229 0.9616
-2.5447 -9.2283 -2.0235 0.9616
-0.8659 -9.5368 -2.0242 0.9616
3.3329 -8.9702 -2.0228 0.9616
4.1176 -8.6339 -2.0220 0.9616
4.8685 -8.2286 -2.0210 0.9617
6.2449 -7.2248 -2.0186 0.9617
6.8594 -6.6348 -2.0172 0.9617
7.4179 -5.9925 -2.0157 0.9618
8.7168 -3.8065 -2.0106 0.9619
9.3864 -1.3606 -2.0048 0.9620
9.4610 -0.5180 -2.0029 0.9620
9.2337 1.9979 -1.9970 0.9621
9.0103 2.8103 -1.9951 0.9621
8.7159 3.5990 -1.9932 0.9622
7.9245 5.0807 -1.9898 0.9622
6.8858 6.3973 -1.9867 0.9623
4.5632 7.3700 -1.8323 0.9652
3.8863 7.7438 -1.8315 0.9652
1.6973 8.4882 -1.8298 0.9652
0.9338 8.6045 -1.8295 0.9652
-0.6090 8.6334 -1.8295 0.9652
-1.3763 8.5458 -1.8297 0.9652
-3.5915 7.8840 -1.8313 0.9652
-4.2819 7.5358 -1.8321 0.9652
-4.9392 7.1279 -1.8331 0.9652
-6.6624 5.5782 -1.8367 0.9651
-7.9206 3.6256 -1.8413 0.9650
-9.1499 2.3438 -1.9966 0.9621
-9.3314 1.5203 -1.9985 0.9621
-9.4289 -1.0058 -2.0044 0.9620
-9.3108 -1.8441 -2.0064 0.9619
-8.8522 -3.4747 -2.0102 0.9619
-8.5149 -4.2538 -2.0120 0.9618
-8.1088 -5.0002 -2.0137 0.9618
-6.5117 -6.9834 -2.0183 0.9617
-5.8670 -7.5409 -2.0196 0.9617
-5.1744 -8.0384 -2.0208 0.9617
-4.4395 -8.4718 -2.0218 0.9617
-2.8667 -9.1324 -2.0233 0.9616
-2.0418 -9.3539 -2.0238 0.9616
-1.2000 -9.5002 -2.0241 0.9616
-0.3484 -9.5700 -2.0242 0.9616
2.1954 -9.3182 -2.0236 0.9616
4.5776 -8.3961 -2.0214 0.9617
5.3050 -7.9504 -2.0203 0.9617
5.9890 -7.4415 -2.0191 0.9617
8.1874 -4.8644 -2.0131 0.9618
8.5809 -4.1115 -2.0113 0.9618
9.1575 -2.5178 -2.0075 0.9619
9.3365 -1.6899 -2.0056 0.9620
9.4407 -0.8500 -2.0036 0.9620
9.4695 -0.0051 -2.0017 0.9620
9.4230 0.8382 -1.9997 0.9621
9.3017 1.6732 -1.9977 0.9621
8.8400 3.2920 -1.9940 0.9622
8.5037 4.0633 -1.9922 0.9622
7.6342 5.4994 -1.9888 0.9623
7.1081 6.1534 -1.9873 0.9623
6.5267 6.7577 -1.9859 0.9623
5.8946 7.3079 -1.9846 0.9623
4.1564 7.6039 -1.8318 0.9652
3.4606 7.9408 -1.8310 0.9652
2.7380 8.2149 -1.8304 0.9652
1.2353 8.5668 -1.8296 0.9652
0.4667 8.6421 -1.8294 0.9652
-1.8370 8.4597 -1.8299 0.9652
-3.3120 8.0039 -1.8310 0.9652
-5.3196 6.8526 -1.8337 0.9652
-5.9131 6.3552 -1.8349 0.9651
-7.4007 4.5746 -1.8391 0.9651
-7.7858 3.9000 -1.8407 0.9650
-8.1097 3.1934 -1.8423 0.9650
-9.0392 2.6568 -1.9915 0.9622
-9.2688 1.8462 -1.9977 0.9621
-9.4056 1.0136 -1.9997 0.9621
-9.2028 -2.3467 -2.0075 0.9619
-8.9654 -3.1607 -2.0094 0.9619
-6.7510 -6.7487 -2.0178 0.9617
-5.4522 -7.8502 -2.0203 0.9617
-3.9755 -8.7020 -2.0223 0.9616
-1.5327 -9.4517 -2.0240 0.9616
0.1701 -9.5748 -2.0242 0.9616
1.0228 -9.5209 -2.0241 0.9616
2.6961 -9.1842 -2.0233 0.9616
4.2809 -8.5531 -2.0218 0.9617
6.9834 -6.5019 -2.0169 0.9617
7.5294 -5.8491 -2.0154 0.9618
8.0143 -5.1504 -2.0137 0.9618
8.4342 -4.4117 -2.0120 0.9618
8.7860 -3.6391 -2.0102 0.9619
9.0669 -2.8387 -2.0083 0.9619
9.2750 -2.0173 -2.0064 0.9619
9.4672 -0.3376 -2.0024 0.9620
8.9533 2.9808 -1.9947 0.9622
8.6441 3.7636 -1.9929 0.9622
8.2669 4.5152 -1.9911 0.9622
7.3219 5.9018 -1.9879 0.9623
6.1490 7.0983 -1.9851 0.9623
4.4216 7.4548 -1.8321 0.9652
3.7377 7.8157 -1.8313 0.9652
3.0250 8.1147 -1.8306 0.9652
2.2890 8.3496 -1.8301 0.9652
0.7697 8.6206 -1.8295 0.9652
-0.0018 8.6546 -1.8294 0.9652
-1.5388 8.5183 -1.8298 0.9652
-3.7413 7.8148 -1.8314 0.9652
-5.0747 7.0334 -1.8333 0.9652
-5.6849 6.5571 -1.8344 0.9651
-6.2510 6.0283 -1.8357 0.9651
-7.6414 4.1695 -1.8401 0.9650
-8.7862 2.9211 -1.9572 0.9629
-9.1948 2.1695 -1.9970 0.9621
-9.3607 1.3426 -1.9989 0.9621
-9.4524 0.5033 -2.0009 0.9620
-9.2759 -2.0215 -2.0068 0.9619
-8.4339 -4.4160 -2.0124 0.9618
-7.5282 -5.8532 -2.0157 0.9618
-6.3784 -7.1072 -2.0186 0.9617
-5.7231 -7.6522 -2.0199 0.9617
-4.2777 -8.5557 -2.0220 0.9616
-1.0189 -9.5215 -2.0241 0.9616
-0.1661 -9.5749 -2.0243 0.9616
1.5365 -9.4507 -2.0239 0.9616
3.9787 -8.6996 -2.0221 0.9616
5.4548 -7.8470 -2.0201 0.9617
6.7528 -6.7450 -2.0175 0.9617
7.3217 -6.1117 -2.0160 0.9618
7.8312 -5.4304 -2.0144 0.9618
8.2770 -4.7067 -2.0127 0.9618
8.6560 -3.9466 -2.0109 0.9619
9.3650 -1.5114 -2.0052 0.9620
9.4033 1.0173 -1.9993 0.9621
8.7740 3.4591 -1.9936 0.9622
8.0063 4.9535 -1.9901 0.9622
4.6814 7.2965 -1.8325 0.9652
4.0104 7.6810 -1.8316 0.9652
3.3085 8.0047 -1.8309 0.9652
1.8334 8.4601 -1.8298 0.9652
-6.3373 4.5900 -1.8390 0.9684
-6.7262 4.0098 -1.8404 0.9683
-8.3650 1.5269 -1.9985 0.9657
-8.4753 0.7759 -2.0002 0.9656
-8.5182 0.0173 -2.0020 0.9656
-8.4934 -0.7427 -2.0038 0.9656
-8.2409 -2.2430 -2.0073 0.9655
-8.0150 -2.9712 -2.0090 0.9655
-7.7245 -3.6768 -2.0106 0.9655
-7.3718 -4.3542 -2.0122 0.9654
-6.9595 -4.9977 -2.0137 0.9654
-4.7857 -7.1323 -2.0186 0.9653
-3.4461 -7.8754 -2.0203 0.9653
-1.2404 -8.5126 -2.0218 0.9653
1.0561 -8.5375 -2.0218 0.9653
4.6305 -7.2342 -2.0187 0.9653
5.2542 -6.7891 -2.0176 0.9653
6.8500 -5.1471 -2.0137 0.9654
7.6435 -3.8431 -2.0107 0.9655
8.5169 -0.1668 -2.0021 0.9656
8.4904 0.5925 -2.0003 0.9656
8.2358 2.0871 -1.9968 0.9657
8.0102 2.8105 -1.9951 0.9657
6.9648 4.8184 -1.9904 0.9658
6.5030 5.4163 -1.9890 0.9658
5.9904 5.9706 -1.9878 0.9658
5.4312 6.4770 -1.9866 0.9659
3.8719 6.7738 -1.8337 0.9684
1.9398 7.5495 -1.8319 0.9685
1.2589 7.6910 -1.8316 0.9685
-0.1268 7.7915 -1.8314 0.9685
-0.6103 5.7616 -1.3617 0.9765
-1.5086 7.6467 -1.8318 0.9685
-2.1847 7.4834 -1.8322 0.9685
-3.4811 6.9811 -1.8334 0.9685
-5.2119 5.8200 -1.8361 0.9684
-5.7135 5.3356 -1.8373 0.9684
-6.1706 4.8083 -1.8385 0.9684
-6.5794 4.2422 -1.8399 0.9683
-7.6461 3.1803 -1.9463 0.9665
-8.3034 1.8190 -1.9978 0.9657
-8.5094 0.3162 -2.0013 0.9656
-8.3118 -1.9517 -2.0066 0.9655
-8.1116 -2.6872 -2.0083 0.9655
-7.5178 -4.0915 -2.0116 0.9654
-6.1806 -5.9475 -2.0159 0.9654
-5.6292 -6.4787 -2.0171 0.9653
-5.0321 -6.9585 -2.0182 0.9653
-2.2862 -8.2910 -2.0213 0.9653
-0.7779 -8.5678 -2.0219 0.9653
-0.0111 -8.6033 -2.0220 0.9653
1.5165 -8.4671 -2.0216 0.9653
2.2648 -8.2965 -2.0212 0.9653
3.6996 -7.7575 -2.0199 0.9653
4.3745 -7.3937 -2.0191 0.9653
5.0137 -6.9708 -2.0181 0.9653
6.1646 -5.9627 -2.0157 0.9654
6.6670 -5.3859 -2.0143 0.9654
7.1154 -4.7667 -2.0129 0.9654
7.8365 -3.4221 -2.0097 0.9655
8.3055 -1.9728 -2.0063 0.9655
8.4409 -1.2235 -2.0045 0.9656
8.1066 2.5285 -1.9958 0.9657
7.1317 4.5723 -1.9910 0.9658
5.6564 6.2838 -1.9870 0.9659
4.1080 6.6348 -1.8340 0.9684
2.8624 7.2532 -1.8326 0.9685
1.5282 7.6426 -1.8317 0.9685
-0.5483 7.7734 -1.8315 0.9685
-2.5870 7.3554 -1.8325 0.9685
-4.4463 6.4166 -1.8347 0.9684
-5.9964 5.0205 -1.8380 0.9684
-6.4246 4.4692 -1.8393 0.9684
-8.2316 2.1086 -1.9971 0.9657
-8.3941 1.3676 -1.9988 0.9657
-8.4901 0.6144 -2.0006 0.9656
-7.2887 -4.4945 -2.0125 0.9654
-6.8641 -5.1301 -2.0140 0.9654
-6.3839 -5.7255 -2.0154 0.9654
-5.8518 -6.2757 -2.0167 0.9654
-5.2721 -6.7762 -2.0178 0.9653
-3.9889 -7.6120 -2.0197 0.9653
-3.2957 -7.9402 -2.0205 0.9653
-2.5756 -8.2048 -2.0211 0.9653
-1.8343 -8.4036 -2.0215 0.9653
-0.3130 -8.5976 -2.0220 0.9653
0.4546 -8.5911 -2.0219 0.9653
2.7101 -8.1604 -2.0209 0.9653
4.1131 -7.5440 -2.0194 0.9653
4.7669 -7.1440 -2.0185 0.9653
6.4757 -5.6181 -2.0149 0.9654
6.9458 -5.0149 -2.0134 0.9654
7.7140 -3.6962 -2.0103 0.9655
8.0061 -2.9914 -2.0087 0.9655
8.2339 -2.2639 -2.0070 0.9655
8.4902 -0.7645 -2.0035 0.9656
8.5170 -0.0046 -2.0017 0.9656
8.3676 1.5052 -1.9982 0.9657
8.1931 2.2431 -1.9964 0.9657
7.2899 4.3205 -1.9916 0.9658
3.7419 6.8456 -1.8336 0.9685
3.1156 7.1492 -1.8329 0.9685
1.7956 7.5848 -1.8319 0.9685
1.1122 7.7134 -1.8316 0.9685
0.4202 7.7812 -1.8314 0.9685
-0.2751 7.7877 -1.8314 0.9685
-2.3269 7.4408 -1.8323 0.9685
-2.9819 7.2060 -1.8329 0.9685
-4.2175 6.5675 -1.8344 0.9684
-6.6600 4.1168 -1.8402 0.9683
-7.0059 3.5094 -1.8416 0.9683
-8.1498 2.3954 -1.9964 0.9657
-8.4604 0.9117 -1.9999 0.9656
-8.5029 -0.6061 -2.0034 0.9656
-7.4397 -4.2346 -2.0119 0.9654
-7.0379 -4.8846 -2.0134 0.9654
-6.0670 -6.0650 -2.0162 0.9654
-5.5055 -6.5856 -2.0174 0.9653
-3.5719 -7.8186 -2.0202 0.9653
-2.8616 -8.1085 -2.0209 0.9653
-1.3769 -8.4914 -2.0217 0.9653
-0.6146 -8.5812 -2.0219 0.9653
0.9189 -8.5535 -2.0218 0.9653
1.6775 -8.4364 -2.0216 0.9653
5.7339 -6.3837 -2.0167 0.9654
6.2761 -5.8434 -2.0154 0.9654
6.7674 -5.2571 -2.0140 0.9654
7.2038 -4.6296 -2.0125 0.9654
8.1521 -2.5523 -2.0077 0.9655
8.3400 -1.8139 -2.0059 0.9655
8.4611 -1.0624 -2.0042 0.9656
8.5001 0.4561 -2.0006 0.9656
8.4182 1.2110 -1.9988 0.9657
8.2696 1.9548 -1.9971 0.9657
6.5899 5.3118 -1.9893 0.9658
6.0862 5.8743 -1.9880 0.9658
5.5350 6.3896 -1.9868 0.9659
4.9324 6.8422 -1.9823 0.9659
3.9805 6.7112 -1.8339 0.9684
3.3651 7.0365 -1.8331 0.9685
2.0609 7.5177 -1.8320 0.9685
0.6930 7.7619 -1.8315 0.9685
-0.0016 7.7925 -1.8314 0.9685
-2.7268 7.3053 -1.8326 0.9685
-3.9837 6.7102 -1.8340 0.9684
-4.5682 6.3315 -1.8349 0.9684
-5.6265 5.4260 -1.8371 0.9684
-8.0542 2.6778 -1.9948 0.9657
-8.2718 1.9518 -1.9975 0.9657
-8.4202 1.2077 -1.9992 0.9657
-8.5019 0.4527 -2.0010 0.9656
-8.4621 -1.0660 -2.0045 0.9656
-8.1525 -2.5562 -2.0080 0.9655
-7.8988 -3.2754 -2.0097 0.9655
-7.5815 -3.9697 -2.0113 0.9654
-7.2029 -4.6332 -2.0128 0.9654
-6.7662 -5.2607 -2.0143 0.9654
-6.2745 -5.8468 -2.0157 0.9654
-5.1427 -6.8762 -2.0180 0.9653
-4.5115 -7.3109 -2.0190 0.9653
-2.4190 -8.2528 -2.0212 0.9653
-0.9154 -8.5541 -2.0219 0.9653
0.6181 -8.5808 -2.0219 0.9653
2.8648 -8.1068 -2.0208 0.9653
3.5748 -7.8165 -2.0201 0.9653
5.5076 -6.5825 -2.0171 0.9653
6.0687 -6.0617 -2.0159 0.9654
7.0389 -4.8810 -2.0131 0.9654
7.4403 -4.2309 -2.0116 0.9654
8.4215 -1.3591 -2.0049 0.9656
8.5016 -0.6025 -2.0031 0.9656
8.4585 0.9151 -1.9995 0.9656
8.3359 1.6640 -1.9978 0.9657
8.1474 2.3983 -1.9961 0.9657
7.8946 3.1124 -1.9944 0.9657
7.2051 4.4578 -1.9913 0.9658
6.2902 5.6585 -1.9885 0.9658
5.7572 6.1928 -1.9872 0.9659
4.2985 6.6996 -1.8708 0.9678
2.9787 7.2068 -1.8327 0.9685
0.9651 7.7330 -1.8315 0.9685
-5.7555 4.1686 -1.8400 0.9711
-6.1083 3.6414 -1.8413 0.9710
-6.9151 3.3261 -1.9868 0.9688
-7.2161 2.7085 -1.9957 0.9687
-7.5942 1.3862 -1.9988 0.9686
-7.6937 0.7043 -2.0004 0.9686
-7.7089 -0.6741 -2.0036 0.9685
-6.3138 -4.5340 -2.0126 0.9684
-5.8882 -5.0819 -2.0139 0.9684
-5.4149 -5.5899 -2.0150 0.9684
-4.3407 -6.4691 -2.0171 0.9683
-3.1254 -7.1425 -2.0186 0.9683
-2.4770 -7.3948 -2.0192 0.9683
-1.1249 -7.7199 -2.0199 0.9683
2.3166 -7.4467 -2.0192 0.9683
2.9703 -7.2085 -2.0187 0.9683
4.7658 -6.1581 -2.0162 0.9683
5.2930 -5.7057 -2.0151 0.9684
6.2145 -4.6695 -2.0126 0.9684
6.9353 -3.4870 -2.0099 0.9684
7.4330 -2.1968 -2.0068 0.9685
7.6928 -0.8406 -2.0037 0.9685
7.7074 0.5379 -2.0004 0.9686
7.6227 1.2218 -1.9988 0.9686
5.9063 4.9194 -1.9902 0.9687
5.4411 5.4231 -1.9890 0.9688
3.5579 6.2244 -1.8563 0.9708
2.9538 6.4403 -1.8345 0.9711
1.7624 6.8589 -1.8336 0.9712
1.1438 6.9875 -1.8333 0.9712
0.5163 7.0611 -1.8331 0.9712
-3.1624 6.3420 -1.8349 0.9711
-3.7166 6.0372 -1.8356 0.9711
-4.2419 5.6845 -1.8364 0.9711
-4.7341 5.2865 -1.8374 0.9711
-5.6042 4.3670 -1.8395 0.9711
-5.9751 3.8526 -1.8408 0.9711
-6.5430 3.4349 -1.9134 0.9699
-7.1073 2.9562 -1.9930 0.9687
-7.5385 1.6514 -1.9981 0.9686
-7.7254 -0.4030 -2.0030 0.9685
-7.5430 -1.7712 -2.0062 0.9685
-7.3608 -2.4384 -2.0077 0.9685
-7.1195 -3.0872 -2.0092 0.9684
-6.8209 -3.7122 -2.0107 0.9684
-6.4673 -4.3084 -2.0121 0.9684
-5.6065 -5.3951 -2.0146 0.9684
-5.1061 -5.8767 -2.0157 0.9683
-4.5642 -6.3116 -2.0167 0.9683
-3.3737 -7.0275 -2.0184 0.9683
-2.7347 -7.3025 -2.0190 0.9683
-2.0734 -7.5191 -2.0195 0.9683
-0.7055 -7.7699 -2.0200 0.9683
-0.0100 -7.8021 -2.0201 0.9683
0.6854 -7.7716 -2.0200 0.9683
1.3753 -7.6787 -2.0198 0.9683
2.0539 -7.5241 -2.0194 0.9683
2.7158 -7.3092 -2.0189 0.9683
3.3554 -7.0357 -2.0182 0.9683
3.9677 -6.7060 -2.0175 0.9683
4.5476 -6.3228 -2.0165 0.9683
5.0905 -5.8893 -2.0155 0.9683
6.0483 -4.8860 -2.0132 0.9684
7.1107 -3.1051 -2.0090 0.9684
7.5375 -1.7904 -2.0059 0.9685
7.6610 -1.1105 -2.0043 0.9685
7.7232 -0.4228 -2.0027 0.9685
7.7240 0.2671 -2.0011 0.9686
7.5417 1.6318 -1.9979 0.9686
6.8258 3.5610 -1.9934 0.9687
5.6294 5.2300 -1.9895 0.9687
5.1379 5.7077 -1.9884 0.9688
4.6064 6.1399 -1.9874 0.9688
4.0102 6.4769 -1.9724 0.9690
3.1785 6.3335 -1.8348 0.9711
2.0022 6.7933 -1.8337 0.9712
1.3884 6.9435 -1.8334 0.9712
-0.4981 7.0625 -1.8331 0.9712
-1.7448 6.8636 -1.8336 0.9712
-2.3502 6.6823 -1.8341 0.9712
-2.9374 6.4482 -1.8346 0.9711
-3.5018 6.1630 -1.8353 0.9711
-4.5447 5.4482 -1.8370 0.9711
-5.0150 5.0242 -1.8380 0.9711
-5.4461 4.5599 -1.8391 0.9711
-5.8347 4.0588 -1.8403 0.9711
-6.1884 3.5313 -1.8448 0.9710
-6.9848 3.1973 -1.9890 0.9688
-7.4736 1.9144 -1.9975 0.9686
-7.6960 -0.8209 -2.0039 0.9685
-7.4396 -2.1779 -2.0071 0.9685
-6.6128 -4.0777 -2.0115 0.9684
-5.3081 -5.6926 -2.0153 0.9684
-4.7821 -6.1463 -2.0163 0.9683
-3.6178 -6.9038 -2.0181 0.9683
-2.3358 -7.4410 -2.0193 0.9683
-0.9777 -7.7401 -2.0200 0.9683
1.1050 -7.7226 -2.0199 0.9683
1.7887 -7.5922 -2.0196 0.9683
2.4578 -7.4008 -2.0191 0.9683
3.7305 -6.8423 -2.0178 0.9683
4.3237 -6.4797 -2.0169 0.9683
4.8817 -6.0655 -2.0159 0.9683
5.4000 -5.6032 -2.0148 0.9684
5.8745 -5.0965 -2.0137 0.9684
6.6773 -3.9672 -2.0110 0.9684
6.9993 -3.3538 -2.0096 0.9684
7.4723 -2.0545 -2.0065 0.9685
7.6196 -1.3791 -2.0049 0.9685
7.7061 -0.6939 -2.0033 0.9685
7.7310 -0.0042 -2.0017 0.9686
7.2222 2.6896 -1.9954 0.9687
6.6203 3.9236 -1.9925 0.9687
6.2400 4.4951 -1.9912 0.9687
5.8108 5.0303 -1.9900 0.9687
5.3362 5.5251 -1.9888 0.9688
4.8199 5.9756 -1.9878 0.9688
4.2582 6.3667 -1.9832 0.9688
3.3993 6.2189 -1.8350 0.9711
1.6314 6.8909 -1.8335 0.9712
0.3817 7.0696 -1.8331 0.9712
-0.7170 5.7258 -1.4941 0.9764
-2.1140 6.7600 -1.8339 0.9712
-2.7089 6.5465 -1.8344 0.9712
-3.8312 5.9659 -1.8358 0.9711
-4.8345 5.1960 -1.8376 0.9711
-5.6871 4.2600 -1.8398 0.9711
-6.0483 3.7386 -1.8410 0.9710
-6.7492 3.3808 -1.9545 0.9693
-7.5092 -1.9149 -2.0065 0.9685
-7.0606 -3.2227 -2.0095 0.9684
-6.7500 -3.8421 -2.0110 0.9684
-6.3850 -4.4315 -2.0123 0.9684
-5.5034 -5.5016 -2.0148 0.9684
-4.9938 -5.9735 -2.0159 0.9683
-4.4436 -6.3980 -2.0169 0.9683
-3.8573 -6.7715 -2.0178 0.9683
-1.2487 -7.7007 -2.0199 0.9683
0.8333 -7.7570 -2.0200 0.9683
2.8543 -7.2557 -2.0188 0.9683
4.0943 -6.6286 -2.0173 0.9683
5.2012 -5.7906 -2.0153 0.9684
5.6934 -5.3009 -2.0141 0.9684
6.8793 -3.5984 -2.0101 0.9684
7.3978 -2.3162 -2.0071 0.9685
7.5689 -1.6462 -2.0055 0.9685
7.6794 -0.9642 -2.0039 0.9685
7.7286 -0.2756 -2.0023 0.9686
7.6424 1.0994 -1.9991 0.9686
7.3143 2.4351 -1.9960 0.9686
7.0628 3.0752 -1.9945 0.9687
6.3956 4.2744 -1.9917 0.9687
3.7519 6.3258 -1.9043 0.9701
2.4743 6.6374 -1.8341 0.9712
1.8724 6.8299 -1.8336 0.9712
1.2559 6.9684 -1.8333 0.9712
-0.0015 7.0798 -1.8331 0.9712
-1.8753 6.8294 -1.8337 0.9712
-5.1104 4.9284 -1.8382 0.9711
-5.9117 3.9475 -1.8405 0.9711
-7.0522 3.0671 -1.9912 0.9687
-7.6441 1.0964 -1.9994 0.9686
-7.7297 -0.2788 -2.0027 0.9685
-7.1672 -2.9721 -2.0090 0.9684
-6.5349 -4.2035 -2.0118 0.9684
-6.1382 -4.7724 -2.0131 0.9684
-5.6919 -5.3038 -2.0144 0.9684
-5.1994 -5.7934 -2.0155 0.9683
-3.4859 -6.9720 -2.0182 0.9683
-2.1938 -7.4845 -2.0194 0.9683
-0.8301 -7.7575 -2.0200 0.9683
-0.1353 -7.8009 -2.0201 0.9683
0.5606 -7.7817 -2.0200 0.9683
1.9329 -7.5564 -2.0195 0.9683
2.5982 -7.3523 -2.0190 0.9683
3.8598 -6.7694 -2.0176 0.9683
5.5051 -5.4987 -2.0146 0.9684
5.9697 -4.9831 -2.0134 0.9684
6.3860 -4.4282 -2.0121 0.9684
6.7506 -3.8387 -2.0107 0.9684
7.3142 -2.5752 -2.0077 0.9685
7.5088 -1.9115 -2.0062 0.9685
7.7166 -0.5469 -2.0030 0.9685
7.7284 0.1431 -2.0014 0.9686
7.5680 1.5107 -1.9982 0.9686
7.3975 2.1776 -1.9966 0.9686
7.1685 2.8262 -1.9951 0.9687
6.5434 4.0484 -1.9922 0.9687
6.1524 4.6125 -1.9909 0.9687
5.2294 5.6251 -1.9886 0.9688
4.7048 6.0657 -1.9876 0.9688
3.2800 6.2820 -1.8349 0.9711
2.1111 6.7606 -1.8338 0.9712
-6.8010 1.8808 -1.9976 0.9711
-6.9466 1.2680 -1.9990 0.9711
-6.9721 -1.2434 -2.0049 0.9710
-6.8385 -1.8613 -2.0063 0.9710
-6.6500 -2.4652 -2.0078 0.9709
-6.4081 -3.0502 -2.0091 0.9709
-2.8564 -6.5279 -2.0172 0.9708
-1.6526 -6.9346 -2.0181 0.9708
-1.0281 -7.0552 -2.0184 0.9708
-0.3951 -7.1193 -2.0185 0.9708
0.8753 -7.0758 -2.0184 0.9708
5.6812 -4.2688 -2.0117 0.9709
6.5953 -2.6084 -2.0078 0.9709
6.7968 -2.0087 -2.0064 0.9710
6.9438 -1.3939 -2.0050 0.9710
6.9726 1.1176 -1.9991 0.9711
6.8403 1.7334 -1.9977 0.9711
6.6539 2.3346 -1.9962 0.9711
6.4149 2.9165 -1.9949 0.9711
6.1254 3.4744 -1.9936 0.9711
5.7877 4.0041 -1.9924 0.9712
5.4046 4.5015 -1.9912 0.9712
4.9792 4.9627 -1.9901 0.9712
3.4727 6.0753 -1.9810 0.9713
2.7035 5.8944 -1.8358 0.9734
2.1667 6.1103 -1.8353 0.9734
1.0469 6.3957 -1.8347 0.9734
0.4726 6.4630 -1.8345 0.9734
-0.1054 6.4793 -1.8345 0.9734
-0.6076 5.7369 -1.6332 0.9763
-1.8166 6.2227 -1.8351 0.9734
-2.3647 6.0374 -1.8356 0.9734
-3.8820 5.2022 -1.8376 0.9734
-4.3323 4.8378 -1.8384 0.9734
-4.7487 4.4346 -1.8394 0.9734
-5.6451 3.6398 -1.9015 0.9725
-6.5089 2.7073 -1.9957 0.9711
-6.7289 2.1178 -1.9970 0.9711
-6.8959 1.5106 -1.9985 0.9711
-7.0082 0.8906 -1.9999 0.9711
-7.0648 0.2625 -2.0014 0.9710
-7.0653 -0.3686 -2.0029 0.9710
-7.0095 -0.9976 -2.0043 0.9710
-5.9125 -3.9388 -2.0112 0.9709
-5.5411 -4.4528 -2.0124 0.9709
-5.1250 -4.9317 -2.0135 0.9709
-4.6673 -5.3717 -2.0145 0.9709
-4.1718 -5.7689 -2.0154 0.9708
-3.6424 -6.1203 -2.0162 0.9708
-2.4993 -6.6740 -2.0175 0.9708
-1.8949 -6.8718 -2.0180 0.9708
-1.2750 -7.0145 -2.0183 0.9708
-0.6447 -7.1009 -2.0185 0.9708
-0.0092 -7.1303 -2.0185 0.9708
0.6264 -7.1024 -2.0185 0.9708
1.2569 -7.0176 -2.0182 0.9708
3.0667 -6.4304 -2.0168 0.9708
4.1567 -5.7792 -2.0153 0.9708
4.6531 -5.3832 -2.0143 0.9709
6.2267 -3.4096 -2.0097 0.9709
6.5015 -2.8391 -2.0084 0.9709
6.8926 -1.6372 -2.0055 0.9710
7.0060 -1.0155 -2.0041 0.9710
7.0095 0.8724 -1.9997 0.9711
6.8989 1.4927 -1.9982 0.9711
6.5151 2.6902 -1.9954 0.9711
6.2452 3.2581 -1.9941 0.9711
5.9261 3.7994 -1.9928 0.9712
5.5605 4.3100 -1.9917 0.9712
4.7018 5.2233 -1.9895 0.9712
2.3801 6.0311 -1.8355 0.9734
1.8326 6.2178 -1.8351 0.9734
1.2708 6.3553 -1.8348 0.9734
0.6991 6.4426 -1.8346 0.9734
0.1221 6.4790 -1.8345 0.9734
-0.4560 6.4643 -1.8345 0.9734
-1.5970 6.2821 -1.8350 0.9734
-2.1511 6.1161 -1.8354 0.9734
-2.6884 5.9016 -1.8359 0.9734
-3.2049 5.6404 -1.8365 0.9734
-3.6964 5.3344 -1.8372 0.9734
-4.1590 4.9859 -1.8381 0.9734
-4.5892 4.5976 -1.8390 0.9734
-4.9835 4.1725 -1.8400 0.9733
-6.4081 2.9333 -1.9951 0.9711
-6.8367 1.7512 -1.9979 0.9711
-6.9706 1.1357 -1.9993 0.9711
-7.0381 -0.7508 -2.0038 0.9710
-6.9483 -1.3762 -2.0052 0.9710
-6.8028 -1.9915 -2.0066 0.9710
-5.2938 -4.7478 -2.0131 0.9709
-4.3710 -5.6180 -2.0151 0.9708
-3.8544 -5.9878 -2.0159 0.9708
-3.3065 -6.3099 -2.0167 0.9708
-1.5203 -6.9650 -2.0182 0.9708
-0.2594 -7.1255 -2.0185 0.9708
1.0099 -7.0577 -2.0183 0.9708
3.4096 -6.2537 -2.0164 0.9708
3.9519 -5.9226 -2.0156 0.9708
4.9361 -5.1219 -2.0137 0.9709
5.7607 -4.1593 -2.0115 0.9709
6.3995 -3.0663 -2.0089 0.9709
6.8328 -1.8786 -2.0061 0.9710
6.9680 -1.2612 -2.0047 0.9710
7.0476 -0.6346 -2.0032 0.9710
7.0379 0.6260 -2.0002 0.9711
6.6072 2.4606 -1.9960 0.9711
6.3573 3.0377 -1.9946 0.9711
6.0573 3.5900 -1.9933 0.9712
5.7097 4.1131 -1.9921 0.9712
5.3173 4.6031 -1.9910 0.9712
4.4110 5.4686 -1.9890 0.9712
3.9043 5.8375 -1.9881 0.9712
2.5906 5.9444 -1.8357 0.9734
1.4932 6.3071 -1.8349 0.9734
0.9249 6.4143 -1.8346 0.9734
-0.7153 5.7124 -1.6298 0.9764
-1.3754 6.3339 -1.8349 0.9734
-2.4794 5.9917 -1.8357 0.9734
-3.0045 5.7486 -1.8363 0.9734
-3.5063 5.4599 -1.8369 0.9734
-4.4241 4.7549 -1.8386 0.9734
-5.2038 3.8980 -1.8406 0.9733
-6.2925 3.1521 -1.9924 0.9712
-6.7691 1.9896 -1.9973 0.9711
-6.9244 1.3792 -1.9988 0.9711
-7.0581 -0.5031 -2.0032 0.9710
-6.8666 -1.7510 -2.0061 0.9710
-6.1712 -3.5126 -2.0102 0.9709
-5.8372 -4.0512 -2.0114 0.9709
-5.0307 -5.0290 -2.0137 0.9709
-4.5646 -5.4601 -2.0147 0.9708
-4.0616 -5.8479 -2.0156 0.9708
-3.5255 -6.1891 -2.0164 0.9708
-1.7637 -6.9069 -2.0180 0.9708
-1.1412 -7.0377 -2.0183 0.9708
0.1266 -7.1291 -2.0185 0.9708
0.7616 -7.0891 -2.0184 0.9708
1.3903 -6.9921 -2.0182 0.9708
2.0077 -6.8391 -2.0178 0.9708
5.2044 -4.8456 -2.0131 0.9709
5.6125 -4.3600 -2.0119 0.9709
5.9751 -3.8400 -2.0107 0.9709
6.5534 -2.7144 -2.0081 0.9709
6.7646 -2.1179 -2.0067 0.9710
6.9906 1.0056 -1.9994 0.9711
6.8681 1.6236 -1.9979 0.9711
6.1811 3.3760 -1.9938 0.9711
5.4768 4.4146 -1.9914 0.9712
5.0587 4.8825 -1.9903 0.9712
4.6010 5.3114 -1.9893 0.9712
2.7979 5.8505 -1.8359 0.9734
2.2646 6.0750 -1.8354 0.9734
1.1495 6.3782 -1.8347 0.9734
-0.0013 6.4802 -1.8345 0.9734
-0.5150 5.7414 -1.6319 0.9763
-1.7164 6.2508 -1.8351 0.9734
-4.2537 4.9063 -1.8383 0.9734
-5.0627 4.0773 -1.8402 0.9733
-6.4638 2.8111 -1.9954 0.9711
-6.6932 2.2253 -1.9968 0.9711
-6.8698 1.6210 -1.9982 0.9711
-6.9920 1.0029 -1.9996 0.9711
-7.0588 0.3759 -2.0011 0.9710
-7.0694 -0.2550 -2.0026 0.9710
-7.0237 -0.8848 -2.0041 0.9710
-6.9219 -1.5085 -2.0055 0.9710
-6.7647 -2.1210 -2.0070 0.9710
-6.5532 -2.7174 -2.0083 0.9709
-6.2891 -3.2930 -2.0097 0.9709
-5.9743 -3.8429 -2.0110 0.9709
-5.2030 -4.8483 -2.0133 0.9709
-4.2636 -5.7008 -2.0153 0.9708
-3.1860 -6.3721 -2.0168 0.9708
-2.0049 -6.8402 -2.0179 0.9708
-0.7586 -7.0895 -2.0185 0.9708
-0.1237 -7.1292 -2.0185 0.9708
0.5123 -7.1117 -2.0185 0.9708
1.7665 -6.9059 -2.0180 0.9708
2.3746 -6.7195 -2.0175 0.9708
3.5278 -6.1871 -2.0163 0.9708
5.8381 -4.0483 -2.0112 0.9709
6.4558 -2.9435 -2.0086 0.9709
6.6879 -2.3547 -2.0072 0.9710
6.8663 -1.7479 -2.0058 0.9710
6.9897 -1.1281 -2.0043 0.9710
7.0685 0.1308 -2.0014 0.9710
7.0236 0.7598 -1.9999 0.9711
6.9228 1.3819 -1.9985 0.9711
6.2974 3.1578 -1.9943 0.9711
5.9870 3.7042 -1.9931 0.9712
5.6296 4.2206 -1.9919 0.9712
5.2281 4.7030 -1.9907 0.9712
3.7895 5.9063 -1.9866 0.9712
3.1120 5.9602 -1.9034 0.9724
0.8025 6.4306 -1.8346 0.9734
-6.0775 2.2811 -1.9966 0.9732
-6.2607 1.7314 -1.9979 0.9732
-6.3943 1.1672 -1.9993 0.9732
-6.5087 0.0132 -2.0020 0.9731
-6.4884 -0.5674 -2.0033 0.9731
-6.2929 -1.7128 -2.0060 0.9731
-4.9520 -4.2739 -2.0120 0.9730
-4.1182 -5.0901 -2.0138 0.9730
-3.6496 -5.4391 -2.0147 0.9730
-2.6274 -6.0046 -2.0160 0.9729
-0.9456 -6.4893 -2.0171 0.9729
-0.3634 -6.5482 -2.0172 0.9729
0.2218 -6.5545 -2.0172 0.9729
0.8051 -6.5083 -2.0171 0.9729
1.9474 -6.2600 -2.0165 0.9729
3.0264 -5.8116 -2.0154 0.9730
3.5312 -5.5168 -2.0147 0.9730
4.8585 -4.3800 -2.0120 0.9730
6.0689 -2.4002 -2.0073 0.9731
6.5077 -0.1275 -2.0020 0.9731
6.4888 0.4528 -2.0007 0.9731
6.4182 1.0287 -1.9993 0.9732
6.2968 1.5957 -1.9980 0.9732
6.1255 2.1493 -1.9967 0.9732
5.9059 2.6851 -1.9954 0.9732
5.6396 3.1989 -1.9942 0.9732
4.9765 4.1449 -1.9920 0.9733
4.1575 4.9580 -1.9902 0.9733
3.6975 5.3067 -1.9894 0.9733
1.9954 5.6273 -1.8364 0.9753
1.4856 5.7817 -1.8361 0.9753
0.4353 5.9524 -1.8357 0.9753
-0.0971 5.9674 -1.8357 0.9753
-1.6731 5.7309 -1.8363 0.9753
-2.1777 5.5602 -1.8367 0.9753
-3.9893 4.4548 -1.8393 0.9753
-4.8898 3.8103 -1.9067 0.9744
-5.4346 3.5041 -1.9889 0.9733
-5.7426 3.0148 -1.9949 0.9732
-6.1945 1.9496 -1.9974 0.9732
-6.3478 1.3906 -1.9987 0.9732
-6.4507 0.8197 -2.0001 0.9732
-6.5025 0.2416 -2.0014 0.9731
-6.3475 -1.4905 -2.0055 0.9731
-5.7378 -3.1228 -2.0093 0.9730
-4.7148 -4.5370 -2.0126 0.9730
-3.8376 -5.3068 -2.0143 0.9730
-3.3506 -5.6299 -2.0151 0.9730
-1.7429 -6.3207 -2.0167 0.9729
-1.1727 -6.4519 -2.0170 0.9729
-0.5930 -6.5313 -2.0171 0.9729
0.5762 -6.5327 -2.0171 0.9729
1.1561 -6.4547 -2.0169 0.9729
2.2830 -6.1446 -2.0162 0.9729
2.8209 -5.9150 -2.0156 0.9729
3.3359 -5.6381 -2.0150 0.9730
3.8237 -5.3163 -2.0142 0.9730
4.7027 -4.5488 -2.0124 0.9730
5.0869 -4.1094 -2.0114 0.9730
5.4299 -3.6375 -2.0102 0.9730
6.1875 -2.0674 -2.0066 0.9731
6.3430 -1.5066 -2.0052 0.9731
6.4477 -0.9346 -2.0039 0.9731
5.7498 2.9997 -1.9947 0.9732
4.3297 4.8099 -1.9905 0.9733
3.4041 5.4978 -1.9889 0.9733
2.8903 5.7592 -1.9820 0.9734
2.1975 5.5684 -1.8413 0.9753
1.6877 5.7264 -1.8362 0.9753
1.1704 5.8531 -1.8359 0.9753
0.1124 5.9671 -1.8357 0.9753
-0.4199 5.9535 -1.8357 0.9753
-1.4708 5.7857 -1.8361 0.9753
-2.9514 5.1943 -1.8376 0.9753
-6.2934 1.6121 -1.9982 0.9732
-6.4163 1.0454 -1.9995 0.9732
-6.4883 0.4696 -2.0009 0.9731
-6.5088 -0.1107 -2.0022 0.9731
-5.5624 -3.4300 -2.0100 0.9730
-4.0209 -5.1680 -2.0140 0.9730
-3.0415 -5.8041 -2.0155 0.9729
-2.5128 -6.0539 -2.0161 0.9729
-1.3984 -6.4064 -2.0169 0.9729
-0.8219 -6.5063 -2.0171 0.9729
-0.2386 -6.5539 -2.0172 0.9729
0.9289 -6.4916 -2.0170 0.9729
1.5036 -6.3821 -2.0167 0.9729
2.6119 -6.0110 -2.0159 0.9729
4.9405 -4.2863 -2.0118 0.9730
5.3001 -3.8267 -2.0107 0.9730
5.6169 -3.3371 -2.0095 0.9730
5.8884 -2.8215 -2.0083 0.9730
6.1126 -2.2839 -2.0071 0.9731
6.2878 -1.7288 -2.0058 0.9731
6.5080 -0.0035 -2.0017 0.9731
6.4780 0.5762 -2.0004 0.9731
6.3966 1.1506 -1.9990 0.9732
6.0827 2.2652 -1.9964 0.9732
5.8529 2.7967 -1.9952 0.9732
5.5770 3.3053 -1.9940 0.9732
4.8961 4.2385 -1.9918 0.9733
3.5954 5.3757 -1.9892 0.9733
0.8518 5.9075 -1.8358 0.9753
0.3218 5.9596 -1.8357 0.9753
-0.7136 5.6989 -1.7666 0.9763
-1.2667 5.8334 -1.8360 0.9753
-1.7820 5.6982 -1.8364 0.9753
-3.2289 5.0280 -1.8380 0.9753
-4.4501 3.9998 -1.8404 0.9753
-6.0394 2.3781 -1.9964 0.9732
-6.2313 1.8315 -1.9977 0.9732
-6.3740 1.2696 -1.9990 0.9732
-6.5069 0.1178 -2.0017 0.9731
-6.4959 -0.4631 -2.0031 0.9731
-6.3189 -1.6113 -2.0058 0.9731
-5.6780 -3.2319 -2.0095 0.9730
-5.0195 -4.1934 -2.0118 0.9730
-3.7362 -5.3794 -2.0145 0.9730
-3.2430 -5.6931 -2.0152 0.9730
-2.7234 -5.9613 -2.0159 0.9729
-2.1817 -6.1819 -2.0164 0.9729
-1.6223 -6.3530 -2.0167 0.9729
-0.4685 -6.5414 -2.0172 0.9729
0.1165 -6.5573 -2.0172 0.9729
2.9329 -5.8598 -2.0155 0.9729
3.9239 -5.2421 -2.0140 0.9730
4.7880 -4.4579 -2.0122 0.9730
5.7872 -3.0271 -2.0088 0.9730
6.0302 -2.4977 -2.0076 0.9731
6.4634 -0.8115 -2.0036 0.9731
6.5056 -0.2320 -2.0023 0.9731
6.4960 0.3486 -2.0009 0.9731
4.6581 4.4959 -1.9912 0.9733
3.2979 5.5602 -1.9884 0.9733
2.7666 5.7851 -1.9724 0.9735
2.0878 5.6006 -1.8384 0.9753
1.0587 5.8742 -1.8359 0.9753
0.5308 5.9447 -1.8357 0.9753
-1.0611 5.8739 -1.8359 0.9753
-2.0881 5.5942 -1.8366 0.9753
-2.5791 5.3872 -1.8371 0.9753
-3.0500 5.1375 -1.8377 0.9753
-5.9507 2.5880 -1.9959 0.9732
-6.1616 2.0486 -1.9972 0.9732
-6.4360 0.9231 -1.9998 0.9732
-6.4970 0.3460 -2.0012 0.9731
-6.5064 -0.2347 -2.0025 0.9731
-6.2249 -1.9518 -2.0065 0.9731
-5.7866 -3.0299 -2.0091 0.9730
-5.4967 -3.5357 -2.0102 0.9730
-5.1625 -4.0138 -2.0113 0.9730
-4.3721 -4.8716 -2.0133 0.9730
-2.9306 -5.8614 -2.0156 0.9729
-2.3971 -6.1009 -2.0162 0.9729
-1.8441 -6.2917 -2.0166 0.9729
-1.2762 -6.4321 -2.0169 0.9729
-0.1138 -6.5573 -2.0172 0.9729
0.4712 -6.5412 -2.0171 0.9729
1.0523 -6.4726 -2.0170 0.9729
2.1842 -6.1807 -2.0163 0.9729
2.7257 -5.9598 -2.0157 0.9729
3.7381 -5.3774 -2.0144 0.9730
4.2008 -5.0207 -2.0135 0.9730
5.6787 -3.2292 -2.0093 0.9730
5.9403 -2.7084 -2.0081 0.9730
6.1542 -2.1668 -2.0068 0.9731
6.4326 -1.0382 -2.0041 0.9731
6.5059 0.1204 -2.0014 0.9731
6.4649 0.6994 -2.0001 0.9732
6.0376 2.3803 -1.9962 0.9732
5.5124 3.4105 -1.9938 0.9732
5.1835 3.8861 -1.9926 0.9733
4.4067 4.7401 -1.9907 0.9733
-4.8508 3.5133 -1.9909 0.9751
-5.1546 3.0729 -1.9948 0.9750
-5.6247 2.1111 -1.9970 0.9750
-5.9173 1.0801 -1.9994 0.9750
-6.0035 -0.5250 -2.0032 0.9749
-4.9121 -3.5274 -2.0102 0.9748
-4.5804 -3.9532 -2.0112 0.9748
-4.2117 -4.3477 -2.0121 0.9748
-3.8089 -4.7078 -2.0129 0.9748
-3.3754 -5.0304 -2.0137 0.9748
-2.9145 -5.3130 -2.0143 0.9748
-1.9257 -5.7490 -2.0153 0.9748
-1.4058 -5.8987 -2.0157 0.9748
-0.3361 -6.0556 -2.0160 0.9748
1.2779 -5.9278 -2.0157 0.9748
2.7990 -5.3748 -2.0144 0.9748
3.2659 -5.1023 -2.0137 0.9748
3.7063 -4.7891 -2.0130 0.9748
4.1168 -4.4378 -2.0121 0.9748
4.8348 -3.6329 -2.0102 0.9748
5.3973 -2.7137 -2.0081 0.9749
5.9124 -1.1868 -2.0045 0.9749
5.9909 -0.6547 -2.0033 0.9749
6.0216 -0.1180 -2.0020 0.9749
6.0044 0.4190 -2.0007 0.9749
5.8273 1.4767 -1.9983 0.9750
5.6691 1.9891 -1.9971 0.9750
5.4661 2.4851 -1.9959 0.9750
5.2199 2.9608 -1.9948 0.9750
4.2442 4.2301 -1.9919 0.9751
3.8486 4.5897 -1.9910 0.9751
3.4229 4.9127 -1.9903 0.9751
2.9704 5.1965 -1.9896 0.9751
-0.5820 5.4951 -1.8368 0.9770
-1.0697 5.4218 -1.8370 0.9770
-1.5489 5.3057 -1.8373 0.9770
-2.4676 4.9487 -1.8381 0.9770
-2.8998 4.7104 -1.8387 0.9770
-5.3151 2.7903 -1.9954 0.9750
-5.5458 2.3067 -1.9966 0.9750
-5.7327 1.8043 -1.9977 0.9750
-5.8743 1.2868 -1.9990 0.9750
-6.0170 0.2236 -2.0015 0.9749
-6.0167 -0.3139 -2.0027 0.9749
-5.9685 -0.8495 -2.0040 0.9749
-5.8727 -1.3790 -2.0052 0.9749
-5.7298 -1.8981 -2.0064 0.9749
-5.5411 -2.4027 -2.0076 0.9749
-4.7154 -3.7893 -2.0108 0.9748
-4.3609 -4.1965 -2.0118 0.9748
-3.9712 -4.5705 -2.0126 0.9748
-2.6231 -5.4639 -2.0147 0.9748
-2.1261 -5.6774 -2.0152 0.9748
-1.6118 -5.8454 -2.0156 0.9748
-0.5484 -6.0400 -2.0160 0.9748
0.5328 -6.0413 -2.0160 0.9748
1.0691 -5.9693 -2.0158 0.9748
1.5968 -5.8494 -2.0155 0.9748
2.1114 -5.6826 -2.0151 0.9748
2.6089 -5.4704 -2.0146 0.9748
3.9591 -4.5804 -2.0125 0.9748
4.3498 -4.2074 -2.0116 0.9748
4.7053 -3.8011 -2.0106 0.9748
5.7243 -1.9127 -2.0062 0.9749
6.0152 -0.3293 -2.0025 0.9749
5.9706 0.7431 -2.0000 0.9750
5.3218 2.7764 -1.9952 0.9750
4.7392 3.6734 -1.9932 0.9750
3.5937 4.7902 -1.9906 0.9751
2.6823 5.3448 -1.9878 0.9751
2.1826 5.5307 -1.9764 0.9752
1.0836 5.4190 -1.8369 0.9770
0.1041 5.5246 -1.8367 0.9770
-0.3888 5.5120 -1.8368 0.9770
-1.8341 5.2147 -1.8375 0.9770
-2.7323 4.8087 -1.8385 0.9770
-4.9204 3.4228 -1.9924 0.9751
-5.8241 1.4919 -1.9985 0.9750
-5.9376 0.9674 -1.9997 0.9750
-5.9932 -0.6393 -2.0035 0.9749
-5.9160 -1.1717 -2.0047 0.9749
-5.6207 -2.2063 -2.0071 0.9749
-3.7189 -4.7799 -2.0131 0.9748
-3.2792 -5.0942 -2.0138 0.9748
-2.3239 -5.5987 -2.0150 0.9748
-1.2932 -5.9246 -2.0157 0.9748
-0.7600 -6.0169 -2.0159 0.9748
-0.2207 -6.0610 -2.0160 0.9748
1.3906 -5.9022 -2.0156 0.9748
1.9108 -5.7537 -2.0153 0.9748
3.3622 -5.0388 -2.0136 0.9748
3.7966 -4.7173 -2.0128 0.9748
4.5698 -3.9646 -2.0110 0.9748
5.4473 -2.6101 -2.0078 0.9749
5.9331 -1.0739 -2.0042 0.9749
