ply
format ascii 1.0
element vertex 1594
property float32 x
property float32 y
property float32 z
property float32 I
end_header
6.8244 3.4947 -1.9852 0.9688
6.4797 4.0855 -1.9833 0.9688
5.1558 5.6421 -1.9789 0.9689
4.0674 6.4614 -1.9768 0.9689
2.8532 7.0765 -1.9756 0.9690
2.2105 7.3016 -1.9752 0.9690
0.8785 7.5781 -1.9752 0.9690
0.1993 7.6274 -1.9755 0.9690
-0.4817 7.6168 -1.9761 0.9690
-2.4838 7.2278 -1.9788 0.9689
-3.1205 6.9821 -1.9801 0.9689
-3.7334 6.6811 -1.9816 0.9689
-6.2822 4.4358 -1.9912 0.9687
-6.6602 3.8624 -1.9934 0.9687
-6.9862 3.2569 -1.9958 0.9687
-7.6266 1.2965 -2.0030 0.9685
-7.7544 -0.0789 -2.0079 0.9685
-7.7256 -0.7709 -2.0102 0.9684
-7.4827 -2.1357 -2.0148 0.9684
-7.2702 -2.7974 -2.0169 0.9683
-6.6707 -4.0521 -2.0208 0.9683
-6.2882 -4.6347 -2.0226 0.9682
-4.8474 -6.1464 -2.0268 0.9682
-4.2823 -6.5575 -2.0278 0.9682
-3.6820 -6.9160 -2.0286 0.9681
-2.3962 -7.4636 -2.0296 0.9681
-1.0325 -7.7709 -2.0297 0.9681
-0.3354 -7.8309 -2.0294 0.9681
0.3641 -7.8277 -2.0289 0.9681
1.0602 -7.7613 -2.0282 0.9682
2.4118 -7.4184 -2.0197 0.9683
3.0341 -7.1046 -2.0002 0.9686
3.6422 -6.7811 -1.9930 0.9687
4.2771 -6.4973 -2.0141 0.9684
5.3731 -5.6448 -2.0178 0.9683
5.8490 -5.1379 -2.0157 0.9683
6.9765 -3.3952 -2.0089 0.9684
7.2428 -2.7563 -2.0065 0.9685
7.5987 -1.4226 -2.0016 0.9686
7.6766 0.6369 -1.9944 0.9687
7.2104 2.6372 -1.9878 0.9688
6.9396 3.2663 -1.9859 0.9688
6.2379 4.4390 -1.9823 0.9689
5.8127 4.9736 -1.9807 0.9689
4.8306 5.9193 -1.9782 0.9689
1.7988 7.4134 -1.9752 0.9690
1.1307 7.5443 -1.9752 0.9690
-0.9069 7.5796 -1.9765 0.9690
-1.5798 7.4718 -1.9773 0.9689
-2.2409 7.3050 -1.9784 0.9689
-2.8851 7.0805 -1.9796 0.9689
-3.5075 6.7999 -1.9810 0.9689
-4.6673 6.0789 -1.9844 0.9688
-6.5249 4.0806 -1.9926 0.9687
-7.5757 1.5494 -2.0021 0.9686
-7.6930 0.8689 -2.0045 0.9685
-7.7492 0.1797 -2.0070 0.9685
-7.1070 -3.2014 -2.0182 0.9683
-6.7998 -3.8260 -2.0201 0.9683
-6.0223 -4.9814 -2.0236 0.9682
-5.5582 -5.5026 -2.0251 0.9682
-5.0487 -5.9801 -2.0264 0.9682
-4.4978 -6.4099 -2.0275 0.9682
-3.9100 -6.7884 -2.0283 0.9681
-3.2903 -7.1124 -2.0290 0.9681
0.8009 -7.7934 -2.0285 0.9681
1.4919 -7.6872 -2.0275 0.9682
2.8111 -7.2422 -2.0114 0.9684
3.4153 -6.9013 -1.9937 0.9687
5.1816 -5.8206 -2.0177 0.9683
5.6766 -5.3322 -2.0165 0.9683
6.8624 -3.6275 -2.0098 0.9684
7.3799 -2.3454 -2.0050 0.9685
7.5505 -1.6759 -2.0025 0.9685
7.6605 -0.9948 -2.0001 0.9686
7.7094 -0.3074 -1.9977 0.9686
7.6969 0.3807 -1.9953 0.9687
7.6235 1.0643 -1.9930 0.9687
7.2972 2.3961 -1.9886 0.9688
4.4948 -5.5329 -2.0180 0.9708
5.3961 -4.6379 -2.0143 0.9709
5.7823 -4.1342 -2.0123 0.9709
6.1216 -3.5984 -2.0102 0.9709
6.6489 -2.4485 -2.0058 0.9710
7.0541 0.0302 -1.9970 0.9711
7.0157 0.6584 -1.9948 0.9711
5.2713 4.6098 -1.9824 0.9713
3.8570 5.8310 -1.9792 0.9714
2.7583 6.4193 -1.9779 0.9714
1.5738 6.8054 -1.9774 0.9714
-0.2835 6.9818 -1.9781 0.9714
-0.9052 6.9309 -1.9787 0.9714
-2.1238 6.6659 -1.9805 0.9713
-3.2781 6.1903 -1.9830 0.9713
-3.8198 5.8777 -1.9844 0.9713
-4.3321 5.5182 -1.9861 0.9713
-5.2529 4.6694 -1.9896 0.9712
-5.6539 4.1866 -1.9916 0.9712
-6.0108 3.6695 -1.9936 0.9711
-6.5811 2.5490 -1.9979 0.9711
-6.9446 1.3425 -2.0024 0.9710
-7.0445 0.7188 -2.0046 0.9710
-7.0756 -0.5451 -2.0090 0.9709
-5.4540 -4.6113 -2.0219 0.9707
-4.5538 -5.5135 -2.0244 0.9707
-2.9357 -6.5298 -2.0268 0.9707
-2.3422 -6.7669 -2.0272 0.9707
-1.7297 -6.9494 -2.0274 0.9707
-1.1032 -7.0760 -2.0274 0.9707
-0.4678 -7.1454 -2.0271 0.9707
0.1711 -7.1572 -2.0267 0.9707
1.4387 -7.0081 -2.0253 0.9707
2.6577 -6.6341 -2.0232 0.9707
3.2365 -6.3664 -2.0218 0.9707
3.7885 -6.0480 -2.0203 0.9708
5.2403 -4.8171 -2.0150 0.9708
5.6434 -4.3264 -2.0131 0.9709
6.3089 -3.2484 -2.0089 0.9709
6.9207 -1.4580 -2.0022 0.9710
7.0154 -0.8342 -2.0000 0.9711
7.0540 -0.2051 -1.9978 0.9711
6.9634 1.0488 -1.9935 0.9711
6.1340 3.4040 -1.9860 0.9713
5.8014 3.9342 -1.9844 0.9713
4.5443 5.3188 -1.9805 0.9713
2.3948 6.5626 -1.9777 0.9714
1.7999 6.7493 -1.9774 0.9714
-0.6735 6.9563 -1.9785 0.9714
-1.2915 6.8711 -1.9792 0.9714
-3.6206 6.0002 -1.9839 0.9713
-4.1444 5.6579 -1.9854 0.9713
-4.6363 5.2703 -1.9871 0.9712
-5.8828 3.8664 -1.9929 0.9712
-6.2106 3.3300 -1.9950 0.9711
-6.4898 2.7659 -1.9971 0.9711
-6.7179 2.1786 -1.9993 0.9711
-7.0387 -0.9404 -2.0103 0.9709
-6.9341 -1.5659 -2.0124 0.9709
-6.2903 -3.3547 -2.0182 0.9708
-5.6033 -4.4257 -2.0214 0.9708
-4.7342 -5.3575 -2.0240 0.9707
-4.2398 -5.7613 -2.0250 0.9707
-3.1515 -6.4276 -2.0266 0.9707
-2.5664 -6.6846 -2.0270 0.9707
2.4356 -6.7205 -2.0236 0.9707
3.5857 -6.1728 -2.0209 0.9708
5.0786 -4.9909 -2.0158 0.9708
6.4762 -2.8887 -2.0075 0.9710
7.0462 -0.4405 -1.9986 0.9711
7.0497 0.1894 -1.9964 0.9711
6.8894 1.4355 -1.9922 0.9712
5.9311 3.7396 -1.9849 0.9713
5.5698 4.2503 -1.9834 0.9713
3.7241 5.9160 -1.9790 0.9714
2.6125 6.4796 -1.9778 0.9714
2.0241 6.6857 -1.9775 0.9714
1.4198 6.8392 -1.9774 0.9714
0.8044 6.9389 -1.9775 0.9714
-0.4410 6.9741 -1.9783 0.9714
-2.2740 6.6172 -1.9808 0.9713
-4.4565 5.4202 -1.9865 0.9713
-4.9265 5.0057 -1.9883 0.9712
-5.3582 4.5508 -1.9901 0.9712
-6.0937 3.5339 -1.9942 0.9711
-7.0904 -0.0722 -2.0074 0.9710
-7.0634 -0.7048 -2.0095 0.9709
-6.9798 -1.3332 -2.0116 0.9709
-6.0961 -3.7031 -2.0192 0.9708
-5.7462 -4.2352 -2.0208 0.9708
-5.3495 -4.7341 -2.0223 0.9707
-4.4288 -5.6156 -2.0247 0.9707
-3.3637 -6.3182 -2.0263 0.9707
-2.1890 -6.8182 -2.0272 0.9707
0.3326 -7.1510 -2.0266 0.9707
2.2105 -6.7995 -2.0240 0.9707
2.8063 -6.5713 -2.0228 0.9707
3.9233 -5.9598 -2.0199 0.9708
4.4354 -5.5816 -2.0183 0.9708
5.3464 -4.6964 -2.0145 0.9708
6.0832 -3.6647 -2.0105 0.9709
6.8138 -1.9177 -2.0039 0.9710
6.9499 -1.3011 -2.0017 0.9710
7.0305 -0.6755 -1.9994 0.9711
6.7941 1.8172 -1.9910 0.9712
6.5986 2.4134 -1.9891 0.9712
6.3514 2.9894 -1.9872 0.9712
6.0543 3.5408 -1.9855 0.9713
4.8909 5.0062 -1.9813 0.9713
4.4226 5.4193 -1.9802 0.9713
3.9199 5.7894 -1.9793 0.9714
3.3868 6.1135 -1.9785 0.9714
2.8274 6.3893 -1.9780 0.9714
-0.8304 6.9399 -1.9787 0.9714
-3.7558 5.9180 -1.9843 0.9713
-4.2720 5.5640 -1.9859 0.9713
-5.9701 3.7337 -1.9934 0.9712
-6.2859 3.1898 -1.9955 0.9711
-6.5524 2.6195 -1.9977 0.9711
-6.9288 1.4171 -2.0021 0.9710
-7.0354 0.7946 -2.0043 0.9710
-7.0860 0.1643 -2.0065 0.9710
-7.0801 -0.4687 -2.0087 0.9709
-7.0176 -1.0993 -2.0109 0.9709
-6.7243 -2.3330 -2.0149 0.9708
-6.4956 -2.9260 -2.0168 0.9708
-5.5030 -4.5519 -2.0217 0.9707
-4.6127 -5.4637 -2.0243 0.9707
-4.1092 -5.8562 -2.0253 0.9707
-3.5721 -6.2017 -2.0261 0.9707
-3.0059 -6.4975 -2.0267 0.9707
-2.4150 -6.7411 -2.0271 0.9707
-1.8046 -6.9303 -2.0273 0.9707
-1.1794 -7.0637 -2.0274 0.9707
1.3631 -7.0236 -2.0254 0.9707
2.5862 -6.6628 -2.0233 0.9707
3.7234 -6.0891 -2.0205 0.9708
4.7378 -5.3220 -2.0171 0.9708
5.1887 -4.8739 -2.0153 0.9708
5.5971 -4.3875 -2.0133 0.9709
5.9599 -3.8670 -2.0112 0.9709
7.0069 -0.9099 -2.0003 0.9711
7.0523 -0.2812 -1.9981 0.9711
6.9752 0.9738 -1.9938 0.9711
6.8535 1.5902 -1.9917 0.9712
4.9641 -4.2667 -2.0133 0.9730
5.6324 -3.3109 -2.0095 0.9730
5.8994 -2.7927 -2.0076 0.9731
6.1187 -2.2533 -2.0055 0.9731
6.4770 -0.5519 -1.9994 0.9732
6.4938 0.0278 -1.9974 0.9732
6.3732 1.1785 -1.9935 0.9732
6.2369 1.7405 -1.9916 0.9733
6.0515 2.2876 -1.9899 0.9733
5.8186 2.8157 -1.9882 0.9733
5.2181 3.7988 -1.9852 0.9734
4.8555 4.2461 -1.9839 0.9734
4.0197 5.0356 -1.9818 0.9734
3.0591 5.6652 -1.9803 0.9734
-1.4004 6.2876 -1.9813 0.9734
-2.4974 5.9448 -1.9833 0.9734
-3.0194 5.7019 -1.9845 0.9734
-3.5182 5.4136 -1.9858 0.9733
-3.9898 5.0822 -1.9873 0.9733
-4.4306 4.7100 -1.9889 0.9733
-5.8190 2.8744 -1.9963 0.9732
-6.0582 2.3465 -1.9983 0.9732
-6.2496 1.7988 -2.0003 0.9732
-6.4830 0.6615 -2.0044 0.9731
-6.5228 0.0809 -2.0064 0.9731
-6.5105 -0.5016 -2.0084 0.9730
-6.4462 -1.0811 -2.0104 0.9730
-6.1630 -2.2130 -2.0141 0.9730
-5.9462 -2.7561 -2.0158 0.9729
-5.0159 -4.2409 -2.0203 0.9729
-4.6206 -4.6741 -2.0215 0.9729
-4.1876 -5.0701 -2.0226 0.9729
-3.2231 -5.7379 -2.0242 0.9728
-2.6993 -6.0041 -2.0248 0.9728
1.3229 -6.4442 -2.0234 0.9728
2.9765 -5.8550 -2.0202 0.9729
3.4844 -5.5625 -2.0189 0.9729
4.4101 -4.8477 -2.0157 0.9729
4.8207 -4.4313 -2.0140 0.9730
5.1919 -3.9802 -2.0122 0.9730
6.2311 -1.9065 -2.0043 0.9731
6.3698 -1.3420 -2.0022 0.9731
6.4574 -0.7679 -2.0002 0.9732
6.2937 1.5320 -1.9923 0.9733
6.1265 2.0852 -1.9905 0.9733
4.9956 4.0828 -1.9844 0.9734
3.7309 5.2510 -1.9813 0.9734
3.2467 5.5607 -1.9805 0.9734
2.2063 6.0461 -1.9796 0.9734
1.6583 6.2181 -1.9794 0.9734
-0.0465 6.4367 -1.9798 0.9734
-0.6204 6.4085 -1.9803 0.9734
-1.1898 6.3299 -1.9810 0.9734
-1.7502 6.2012 -1.9819 0.9734
-2.2973 6.0235 -1.9829 0.9734
-3.8170 5.2109 -1.9868 0.9733
-4.2698 4.8536 -1.9883 0.9733
-5.4165 3.5599 -1.9936 0.9732
-5.9743 2.5462 -1.9975 0.9732
-6.1838 2.0054 -1.9995 0.9732
-6.4549 0.8770 -2.0036 0.9731
-6.5140 0.2982 -2.0057 0.9731
-6.5212 -0.2841 -2.0077 0.9731
-6.4763 -0.8652 -2.0097 0.9730
-6.3795 -1.4406 -2.0116 0.9730
-5.7858 -3.0857 -2.0169 0.9729
-5.4918 -3.5921 -2.0184 0.9729
-5.1533 -4.0703 -2.0198 0.9729
-4.7728 -4.5164 -2.0211 0.9729
-4.3536 -4.9267 -2.0222 0.9729
-3.4122 -5.6265 -2.0240 0.9728
-2.8978 -5.9102 -2.0246 0.9728
-2.3598 -6.1463 -2.0250 0.9728
-1.8026 -6.3330 -2.0253 0.9728
-0.6490 -6.5523 -2.0252 0.9728
-0.0622 -6.5831 -2.0249 0.9728
0.5249 -6.5608 -2.0244 0.9728
1.1074 -6.4857 -2.0237 0.9728
1.6806 -6.3585 -2.0229 0.9729
3.2978 -5.6771 -2.0194 0.9729
3.7881 -5.3566 -2.0179 0.9729
5.0580 -4.1526 -2.0129 0.9730
5.4031 -3.6816 -2.0110 0.9730
6.1664 -2.1141 -2.0050 0.9731
6.3239 -1.5542 -2.0030 0.9731
6.4307 -0.9832 -2.0009 0.9731
6.4861 -0.4054 -1.9989 0.9732
6.4422 0.7516 -1.9949 0.9732
6.3434 1.3217 -1.9930 0.9732
5.7524 2.9457 -1.9878 0.9733
5.4627 3.4443 -1.9863 0.9733
4.7577 4.3540 -1.9836 0.9734
4.3481 4.7582 -1.9825 0.9734
3.9046 5.1245 -1.9816 0.9734
3.4308 5.4500 -1.9808 0.9734
0.1681 6.4342 -1.9797 0.9734
-0.4063 6.4250 -1.9801 0.9734
-1.5422 6.2551 -1.9815 0.9734
-3.6401 5.3338 -1.9862 0.9733
-4.1043 4.9918 -1.9877 0.9733
-4.5368 4.6097 -1.9893 0.9733
-4.9340 4.1905 -1.9911 0.9733
-5.2929 3.7373 -1.9929 0.9732
-5.6104 3.2536 -1.9948 0.9732
-6.2903 1.6577 -2.0008 0.9731
-6.4196 1.0913 -2.0029 0.9731
-6.4980 0.5151 -2.0049 0.9731
-6.4992 -0.6485 -2.0089 0.9730
-6.4217 -1.2266 -2.0109 0.9730
-6.2926 -1.7960 -2.0128 0.9730
-6.1128 -2.3520 -2.0146 0.9730
-5.8837 -2.8902 -2.0163 0.9729
-5.6070 -3.4060 -2.0178 0.9729
-4.9197 -4.3537 -2.0206 0.9729
-4.0726 -5.1640 -2.0228 0.9729
-3.5975 -5.5089 -2.0237 0.9728
-2.5633 -6.0638 -2.0249 0.9728
-1.4458 -6.4241 -2.0253 0.9728
-0.2817 -6.5778 -2.0250 0.9728
0.3058 -6.5753 -2.0246 0.9728
0.8906 -6.5199 -2.0240 0.9728
1.4679 -6.4121 -2.0232 0.9728
2.0328 -6.2527 -2.0223 0.9729
2.5808 -6.0432 -2.0212 0.9729
3.1074 -5.7854 -2.0199 0.9729
5.2791 -3.8611 -2.0117 0.9730
5.5970 -3.3718 -2.0098 0.9730
5.8696 -2.8565 -2.0078 0.9731
6.2709 -1.7650 -2.0037 0.9731
6.4946 -0.0422 -1.9976 0.9732
6.4660 0.5365 -1.9956 0.9732
5.2592 3.7426 -1.9854 0.9733
4.5052 4.6114 -1.9829 0.9734
4.0740 4.9922 -1.9819 0.9734
3.1201 5.6321 -1.9804 0.9734
2.6048 5.8864 -1.9799 0.9734
1.5175 6.2538 -1.9794 0.9734
0.9538 6.3643 -1.9794 0.9734
0.3826 6.4246 -1.9796 0.9734
-1.8899 6.1609 -1.9821 0.9734
-2.4330 5.9709 -1.9831 0.9734
-2.9575 5.7337 -1.9843 0.9734
-3.4593 5.4508 -1.9857 0.9733
-3.9344 5.1244 -1.9871 0.9733
-4.7899 4.3513 -1.9904 0.9733
-5.1635 3.9104 -1.9922 0.9733
-5.7870 2.9367 -1.9960 0.9732
-6.0318 2.4114 -1.9980 0.9732
-6.3772 1.3043 -2.0021 0.9731
-6.5208 0.1512 -2.0062 0.9731
-6.4567 -1.0114 -2.0102 0.9730
-6.3468 -1.5846 -2.0121 0.9730
-6.1859 -2.1462 -2.0139 0.9730
-5.9750 -2.6915 -2.0156 0.9729
-5.7158 -3.2161 -2.0173 0.9729
-5.4104 -3.7158 -2.0188 0.9729
-5.0610 -4.1862 -2.0202 0.9729
-3.7786 -5.3850 -2.0234 0.9728
-3.2846 -5.7026 -2.0241 0.9728
-2.7639 -5.9744 -2.0247 0.9728
0.6728 -6.5468 -2.0243 0.9728
1.2534 -6.4585 -2.0235 0.9728
2.9134 -5.8872 -2.0204 0.9729
3.9073 -5.2687 -2.0175 0.9729
4.7731 -4.4835 -2.0142 0.9730
5.4835 -3.5579 -2.0105 0.9730
6.0163 -2.5224 -2.0065 0.9731
6.3557 -1.4107 -2.0025 0.9731
6.4920 -0.2589 -1.9984 0.9732
6.3105 1.4642 -1.9925 0.9733
6.1492 2.0192 -1.9907 0.9733
3.8235 -4.7065 -2.0157 0.9748
4.9208 -3.5182 -2.0108 0.9748
5.2103 -3.0627 -2.0090 0.9748
5.4576 -2.5836 -2.0072 0.9749
5.6610 -2.0847 -2.0053 0.9749
5.8188 -1.5702 -2.0034 0.9749
5.9300 -1.0441 -2.0015 0.9749
5.9938 -0.5107 -1.9996 0.9750
6.0099 0.0257 -1.9977 0.9750
5.9782 0.5610 -1.9959 0.9750
5.7733 1.6111 -1.9924 0.9751
5.6021 2.1177 -1.9908 0.9751
5.3868 2.6068 -1.9892 0.9751
5.1292 3.0745 -1.9878 0.9751
4.4959 3.9317 -1.9853 0.9751
3.7223 4.6630 -1.9833 0.9752
3.2904 4.9744 -1.9825 0.9752
2.8329 5.2464 -1.9819 0.9752
1.3428 5.8065 -1.9810 0.9752
0.8197 5.9032 -1.9811 0.9752
-0.2419 5.9566 -1.9816 0.9752
-0.7722 5.9129 -1.9822 0.9752
-1.2968 5.8225 -1.9829 0.9752
-2.7957 5.2795 -1.9858 0.9751
-3.2574 5.0123 -1.9870 0.9751
-3.6939 4.7052 -1.9884 0.9751
-4.4777 3.9804 -1.9915 0.9751
-4.8189 3.5682 -1.9931 0.9750
-5.1223 3.1271 -1.9949 0.9750
-5.3856 2.6603 -1.9967 0.9750
-5.6065 2.1715 -1.9985 0.9750
-5.9142 1.1433 -2.0023 0.9749
-6.0228 -0.4640 -2.0080 0.9749
-5.9629 -1.0001 -2.0098 0.9748
-5.8550 -1.5291 -2.0115 0.9748
-5.2540 -3.0313 -2.0163 0.9748
-4.9662 -3.4901 -2.0177 0.9747
-3.4399 -5.0165 -2.0219 0.9747
-2.9799 -5.3050 -2.0226 0.9747
-2.4956 -5.5509 -2.0231 0.9747
0.1455 -6.0843 -2.0230 0.9747
0.6872 -6.0456 -2.0225 0.9747
1.7488 -5.8230 -2.0210 0.9747
2.2599 -5.6411 -2.0200 0.9747
2.7524 -5.4141 -2.0189 0.9747
3.2221 -5.1438 -2.0176 0.9747
3.6654 -4.8327 -2.0162 0.9748
4.0787 -4.4833 -2.0147 0.9748
5.5903 -2.2731 -2.0060 0.9749
5.8940 -1.2417 -2.0022 0.9749
5.9956 0.3614 -1.9966 0.9750
5.6713 1.9303 -1.9914 0.9751
5.2303 2.9025 -1.9883 0.9751
4.9472 3.3550 -1.9870 0.9751
4.2676 4.1754 -1.9846 0.9751
3.8764 4.5370 -1.9836 0.9752
3.4550 4.8626 -1.9828 0.9752
1.0161 5.8724 -1.9810 0.9752
0.4885 5.9401 -1.9812 0.9752
-0.5746 5.9347 -1.9820 0.9752
-1.1018 5.8617 -1.9826 0.9752
-1.6207 5.7424 -1.9834 0.9752
-2.1273 5.5776 -1.9843 0.9752
-4.6957 3.7258 -1.9925 0.9750
-5.0135 3.2951 -1.9942 0.9750
-5.9724 0.8114 -2.0035 0.9749
-6.0267 0.2759 -2.0054 0.9749
-5.9909 -0.8004 -2.0091 0.9748
-5.9009 -1.3326 -2.0109 0.9748
-5.7635 -1.8550 -2.0126 0.9748
-5.5796 -2.3634 -2.0142 0.9748
-5.3507 -2.8537 -2.0158 0.9748
-4.7652 -3.7638 -2.0185 0.9747
-3.1548 -5.2020 -2.0223 0.9747
-2.6791 -5.4642 -2.0229 0.9747
-2.1817 -5.6824 -2.0233 0.9747
-1.6665 -5.8550 -2.0235 0.9747
0.4853 -6.0658 -2.0227 0.9747
1.0239 -5.9965 -2.0221 0.9747
1.5539 -5.8790 -2.0213 0.9747
2.0709 -5.7144 -2.0204 0.9747
3.0495 -5.2497 -2.0181 0.9747
3.9280 -4.6182 -2.0153 0.9748
4.3208 -4.2462 -2.0137 0.9748
4.6783 -3.8409 -2.0121 0.9748
4.9979 -3.4055 -2.0103 0.9748
5.5133 -2.4592 -2.0067 0.9749
5.8514 -1.4381 -2.0029 0.9749
5.9506 -0.9098 -2.0010 0.9749
6.0064 0.1613 -1.9973 0.9750
5.9626 0.6956 -1.9954 0.9750
5.0576 3.1889 -1.9875 0.9751
4.7501 3.6248 -1.9862 0.9751
4.0263 4.4060 -1.9840 0.9752
3.1771 5.0470 -1.9824 0.9752
2.7136 5.3086 -1.9818 0.9752
1.7270 5.7043 -1.9811 0.9752
1.2114 5.8353 -1.9810 0.9752
0.6863 5.9203 -1.9811 0.9752
-0.3763 5.9500 -1.9818 0.9752
-0.9056 5.8944 -1.9823 0.9752
-1.4281 5.7923 -1.9830 0.9752
-2.9146 5.2158 -1.9861 0.9751
-3.3702 4.9384 -1.9874 0.9751
-4.8992 3.4593 -1.9936 0.9750
-5.6554 2.0449 -1.9990 0.9750
-5.8207 1.5340 -2.0009 0.9749
-5.9399 1.0098 -2.0028 0.9749
-6.0362 -0.0614 -2.0066 0.9749
-6.0122 -0.6000 -2.0084 0.9749
-5.9401 -1.1346 -2.0102 0.9748
-5.6537 -2.1754 -2.0136 0.9748
-5.1852 -3.1497 -2.0167 0.9748
-4.5491 -4.0258 -2.0192 0.9747
-3.7655 -4.7746 -2.0213 0.9747
-2.3698 -5.6061 -2.0232 0.9747
-1.8608 -5.7959 -2.0235 0.9747
-1.3367 -5.9391 -2.0236 0.9747
-0.8018 -6.0345 -2.0235 0.9747
-0.2605 -6.0813 -2.0233 0.9747
0.2828 -6.0791 -2.0229 0.9747
1.3572 -5.9285 -2.0216 0.9747
1.8796 -5.7813 -2.0208 0.9747
2.3863 -5.5879 -2.0197 0.9747
3.3368 -5.0690 -2.0173 0.9747
5.4301 -2.6426 -2.0074 0.9749
5.6388 -2.1459 -2.0055 0.9749
5.8022 -1.6330 -2.0036 0.9749
5.9887 -0.5754 -1.9998 0.9750
5.9845 0.4965 -1.9961 0.9750
5.6252 2.0574 -1.9910 0.9751
4.5383 3.8832 -1.9854 0.9751
4.1717 4.2701 -1.9843 0.9752
0.8833 5.8939 -1.9811 0.9752
0.3543 5.9498 -1.9812 0.9752
-0.7084 5.9207 -1.9821 0.9752
-1.2339 5.8359 -1.9828 0.9752
-1.7501 5.7050 -1.9836 0.9752
-3.2029 5.0468 -1.9869 0.9751
-4.0541 4.4039 -1.9897 0.9751
-4.7796 3.6196 -1.9929 0.9750
-5.5821 2.2316 -1.9983 0.9750
-5.7643 1.7266 -2.0002 0.9750
-5.9009 1.2069 -2.0021 0.9749
-5.9727 -0.9356 -2.0096 0.9748
-5.8706 -1.4657 -2.0113 0.9748
-5.5259 -2.4892 -2.0146 0.9748
-5.2859 -2.9742 -2.0161 0.9748
-5.0032 -3.4361 -2.0175 0.9747
-4.6798 -3.8710 -2.0188 0.9747
-4.3184 -4.2752 -2.0199 0.9747
-3.9220 -4.6456 -2.0209 0.9747
-1.5340 -5.8912 -2.0236 0.9747
-0.4632 -6.0695 -2.0234 0.9747
1.1589 -5.9713 -2.0219 0.9747
1.6860 -5.8418 -2.0211 0.9747
2.6940 -5.4438 -2.0190 0.9747
3.1667 -5.1787 -2.0178 0.9747
3.6134 -4.8724 -2.0164 0.9748
4.4146 -4.1468 -2.0133 0.9748
4.7628 -3.7335 -2.0116 0.9748
5.0723 -3.2911 -2.0099 0.9748
5.7466 -1.8263 -2.0043 0.9749
5.9682 -0.7751 -2.0005 0.9750
6.0079 -0.2396 -1.9987 0.9750
5.6924 1.8692 -1.9916 0.9751
3.5523 -4.3727 -2.0147 0.9764
5.2614 -1.9376 -2.0051 0.9765
5.5719 -0.4748 -1.9998 0.9765
5.5581 0.5216 -1.9963 0.9766
5.4849 1.0142 -1.9947 0.9766
5.2094 1.9693 -1.9916 0.9766
4.4934 3.2712 -1.9876 0.9767
3.4623 4.3373 -1.9846 0.9767
2.6351 4.8801 -1.9833 0.9767
1.2491 5.4013 -1.9825 0.9767
-0.2250 5.5408 -1.9831 0.9767
-1.2063 5.4158 -1.9842 0.9767
-2.6002 4.9102 -1.9869 0.9767
-3.0294 4.6616 -1.9881 0.9767
-3.4352 4.3757 -1.9894 0.9766
-3.8143 4.0548 -1.9908 0.9766
-4.1637 3.7012 -1.9922 0.9766
-4.4807 3.3178 -1.9938 0.9766
-5.3760 1.5473 -2.0005 0.9765
-5.5752 0.5688 -2.0041 0.9765
-5.5411 -0.9293 -2.0092 0.9764
-5.4406 -1.4209 -2.0109 0.9764
-5.1094 -2.3682 -2.0139 0.9764
-4.3087 -3.6430 -2.0177 0.9763
-3.9688 -4.0147 -2.0188 0.9763
-2.3180 -5.1559 -2.0216 0.9763
-1.8494 -5.3429 -2.0219 0.9763
-0.8710 -5.5869 -2.0220 0.9763
1.1361 -5.5344 -2.0204 0.9763
2.0993 -5.2402 -2.0187 0.9763
3.7896 -4.1655 -2.0138 0.9764
4.1428 -3.8082 -2.0123 0.9764
4.4624 -3.4210 -2.0108 0.9764
5.1956 -2.1127 -2.0057 0.9765
5.3586 -1.6396 -2.0040 0.9765
5.5741 0.3360 -1.9970 0.9766
5.5173 0.8310 -1.9953 0.9766
5.2736 1.7949 -1.9921 0.9766
4.8640 2.6992 -1.9893 0.9766
4.3020 3.5160 -1.9869 0.9767
3.9693 3.8835 -1.9858 0.9767
3.2137 4.5230 -1.9842 0.9767
2.3579 5.0190 -1.9830 0.9767
1.9007 5.2084 -1.9827 0.9767
0.9452 5.4626 -1.9825 0.9767
-0.0401 5.5448 -1.9829 0.9767
-0.5344 5.5204 -1.9834 0.9767
-1.9786 5.1878 -1.9855 0.9767
-2.4345 4.9932 -1.9865 0.9767
-2.8716 4.7589 -1.9876 0.9767
-4.0369 3.8370 -1.9917 0.9766
-4.3662 3.4644 -1.9932 0.9766
-4.9202 2.6381 -1.9964 0.9766
-5.3197 1.7252 -1.9999 0.9765
-5.4571 1.2451 -2.0016 0.9765
-5.5513 0.7542 -2.0034 0.9765
-5.6013 0.2564 -2.0052 0.9765
-5.6067 -0.2442 -2.0069 0.9764
-5.5673 -0.7438 -2.0086 0.9764
-5.1842 -2.1959 -2.0134 0.9764
-4.9713 -2.6513 -2.0148 0.9764
-4.7182 -3.0860 -2.0161 0.9763
-2.9304 -4.8320 -2.0209 0.9763
-2.4885 -5.0754 -2.0214 0.9763
-1.5479 -5.4382 -2.0220 0.9763
-1.0569 -5.5548 -2.0221 0.9763
0.4508 -5.6342 -2.0213 0.9763
2.8330 -4.8770 -2.0170 0.9763
3.2546 -4.6021 -2.0157 0.9763
4.0146 -3.9454 -2.0129 0.9764
4.9039 -2.7356 -2.0081 0.9764
5.1239 -2.2855 -2.0064 0.9764
5.3027 -1.8179 -2.0046 0.9765
5.4389 -1.3367 -2.0029 0.9765
5.5315 -0.8457 -2.0011 0.9765
5.5437 0.6467 -1.9959 0.9766
5.1627 2.0859 -1.9912 0.9766
4.9526 2.5362 -1.9898 0.9766
3.7449 4.0981 -1.9852 0.9767
2.0734 5.1424 -1.9828 0.9767
0.6384 5.5071 -1.9826 0.9767
0.1448 5.5427 -1.9828 0.9767
-0.3500 5.5346 -1.9832 0.9767
-0.8423 5.4828 -1.9837 0.9767
-2.2662 5.0706 -1.9861 0.9767
-3.1343 4.5927 -1.9884 0.9767
-3.9056 3.9684 -1.9911 0.9766
-5.2574 1.9010 -1.9992 0.9765
-5.5878 0.4430 -2.0045 0.9765
-5.6099 -0.0571 -2.0063 0.9764
-5.5873 -0.5575 -2.0080 0.9764
-5.5199 -1.0544 -2.0096 0.9764
-5.4082 -1.5436 -2.0113 0.9764
-5.0556 -2.4834 -2.0143 0.9764
-4.2260 -3.7398 -2.0180 0.9763
-3.8776 -4.1038 -2.0190 0.9763
-3.4978 -4.4351 -2.0199 0.9763
-2.2012 -5.2072 -2.0217 0.9763
-1.2415 -5.5164 -2.0221 0.9763
-0.7447 -5.6050 -2.0220 0.9763
-0.2419 -5.6485 -2.0218 0.9763
1.2607 -5.5069 -2.0202 0.9763
1.7459 -5.3704 -2.0194 0.9763
2.2168 -5.1909 -2.0185 0.9763
3.5053 -4.4112 -2.0149 0.9763
4.2269 -3.7130 -2.0119 0.9764
5.0464 -2.4559 -2.0070 0.9764
5.2408 -1.9944 -2.0053 0.9765
5.2308 1.9131 -1.9918 0.9766
4.8011 2.8079 -1.9890 0.9766
4.2210 3.6117 -1.9866 0.9767
3.8802 3.9716 -1.9856 0.9767
3.5090 4.2999 -1.9847 0.9767
2.6877 4.8515 -1.9834 0.9767
1.7826 5.2498 -1.9827 0.9767
0.3296 5.5345 -1.9827 0.9767
-0.6590 5.5073 -1.9835 0.9767
-1.1477 5.4283 -1.9841 0.9767
-1.6278 5.3064 -1.9849 0.9767
-2.0954 5.1424 -1.9858 0.9767
-2.5469 4.9377 -1.9868 0.9767
-2.9787 4.6936 -1.9880 0.9767
-3.3875 4.4121 -1.9892 0.9766
-4.4442 3.3656 -1.9936 0.9766
-4.9795 2.5269 -1.9969 0.9766
-5.3584 1.6050 -2.0003 0.9765
-5.4850 1.1218 -2.0021 0.9765
-5.6010 -0.3708 -2.0073 0.9764
-5.5503 -0.8694 -2.0090 0.9764
-4.9110 -2.7633 -2.0151 0.9763
-4.6480 -3.1922 -2.0164 0.9763
-3.6432 -4.3153 -2.0196 0.9763
-3.2452 -4.6248 -2.0204 0.9763
-2.8208 -4.8973 -2.0210 0.9763
-2.3734 -5.1305 -2.0215 0.9763
-1.9068 -5.3226 -2.0219 0.9763
-0.4302 -5.6376 -2.0219 0.9763
0.5778 -5.6222 -2.0211 0.9763
1.5661 -5.4265 -2.0198 0.9763
2.0428 -5.2629 -2.0188 0.9763
2.5027 -5.0572 -2.0178 0.9763
2.9419 -4.8111 -2.0166 0.9763
3.7447 -4.2065 -2.0140 0.9764
4.1019 -3.8530 -2.0125 0.9764
4.4257 -3.4692 -2.0110 0.9764
4.7135 -3.0583 -2.0093 0.9764
4.9633 -2.6237 -2.0076 0.9764
5.4664 -1.2134 -2.0024 0.9765
5.5265 0.7715 -1.9955 0.9766
5.4313 1.2602 -1.9939 0.9766
5.2932 1.7381 -1.9923 0.9766
3.6616 -3.7646 -2.0125 0.9778
4.5174 -2.6554 -2.0081 0.9778
4.9093 -1.8079 -2.0049 0.9778
5.2145 0.0223 -1.9983 0.9779
5.1876 0.4868 -1.9967 0.9779
4.8629 1.8383 -1.9923 0.9780
4.4533 2.6693 -1.9897 0.9780
3.9041 3.4141 -1.9875 0.9780
3.5824 3.7469 -1.9866 0.9780
2.8578 4.3204 -1.9851 0.9781
2.4606 4.5568 -1.9846 0.9781
1.6115 4.9198 -1.9839 0.9781
0.2520 5.1711 -1.9840 0.9781
-0.2101 5.1738 -1.9843 0.9781
-2.4276 4.5844 -1.9879 0.9780
-2.8283 4.3521 -1.9890 0.9780
-3.5607 3.7852 -1.9915 0.9780
-3.8867 3.4550 -1.9929 0.9780
-4.4452 2.7137 -1.9958 0.9779
-4.6731 2.3084 -1.9974 0.9779
-4.8643 1.8840 -1.9990 0.9779
-5.0170 1.4440 -2.0006 0.9779
-5.2022 0.5308 -2.0039 0.9778
-5.2331 0.0649 -2.0056 0.9778
-5.0755 -1.3255 -2.0103 0.9778
-4.7661 -2.2091 -2.0131 0.9777
-4.3033 -3.0242 -2.0156 0.9777
-3.3543 -4.0612 -2.0185 0.9777
-2.9799 -4.3456 -2.0192 0.9777
-2.1617 -4.8082 -2.0203 0.9777
-1.7246 -4.9825 -2.0205 0.9777
-1.2736 -5.1168 -2.0207 0.9777
-0.3445 -5.2613 -2.0205 0.9777
0.1260 -5.2702 -2.0202 0.9777
0.5953 -5.2369 -2.0198 0.9777
1.9580 -4.8873 -2.0176 0.9777
2.7920 -4.4572 -2.0155 0.9777
3.8646 -3.5525 -2.0116 0.9778
4.6564 -2.3976 -2.0071 0.9778
5.0001 -1.5299 -2.0038 0.9778
5.1838 -0.6164 -2.0005 0.9779
5.2139 -0.1516 -1.9989 0.9779
5.0563 1.2308 -1.9942 0.9780
4.9228 1.6755 -1.9928 0.9780
3.7060 3.6259 -1.9869 0.9780
3.3665 3.9403 -1.9861 0.9780
3.0007 4.2232 -1.9853 0.9781
2.6114 4.4726 -1.9848 0.9781
1.7748 4.8635 -1.9840 0.9781
0.8826 5.1009 -1.9838 0.9781
-0.4990 5.1547 -1.9846 0.9781
-0.9569 5.0910 -1.9851 0.9781
-2.2730 4.6619 -1.9876 0.9780
-2.6810 4.4430 -1.9886 0.9780
-3.4317 3.9009 -1.9910 0.9780
-3.7684 3.5818 -1.9924 0.9780
-4.3510 2.8597 -1.9953 0.9779
-4.5922 2.4622 -1.9968 0.9779
-4.7973 2.0446 -1.9984 0.9779
-5.2264 0.2393 -2.0050 0.9778
-5.2312 -0.2279 -2.0066 0.9778
-5.1941 -0.6939 -2.0082 0.9778
-5.1155 -1.1552 -2.0097 0.9778
-4.9958 -1.6079 -2.0112 0.9778
-4.8359 -2.0484 -2.0126 0.9778
-4.4008 -2.8784 -2.0152 0.9777
-4.1289 -3.2612 -2.0163 0.9777
-3.4873 -3.9464 -2.0182 0.9777
-3.1227 -4.2433 -2.0190 0.9777
-2.7328 -4.5062 -2.0196 0.9777
-1.4435 -5.0714 -2.0207 0.9777
-0.9856 -5.1801 -2.0207 0.9777
-0.5197 -5.2471 -2.0206 0.9777
1.7942 -4.9507 -2.0179 0.9777
2.2274 -4.7688 -2.0170 0.9777
3.7450 -3.6804 -2.0122 0.9778
4.0553 -3.3294 -2.0107 0.9778
4.5752 -2.5523 -2.0077 0.9778
4.7808 -2.1325 -2.0061 0.9778
5.0752 -1.2474 -2.0028 0.9779
5.1620 -0.7892 -2.0012 0.9779
5.2075 -0.3255 -1.9995 0.9779
5.1743 0.6036 -1.9963 0.9779
4.9773 1.5108 -1.9933 0.9780
4.8194 1.9472 -1.9919 0.9780
4.6235 2.3676 -1.9906 0.9780
3.1403 4.1213 -1.9856 0.9780
2.3570 4.6109 -1.9845 0.9781
1.0522 5.0686 -1.9838 0.9781
0.5961 5.1424 -1.9839 0.9781
0.1352 5.1756 -1.9841 0.9781
-0.3268 5.1680 -1.9844 0.9781
-1.6845 4.9019 -1.9863 0.9780
-2.1158 4.7343 -1.9872 0.9780
-2.9262 4.2877 -1.9893 0.9780
-4.2520 3.0023 -1.9947 0.9779
-4.5062 2.6132 -1.9962 0.9779
-4.7250 2.2028 -1.9978 0.9779
-5.0493 1.3307 -2.0011 0.9779
-5.1497 -0.9837 -2.0091 0.9778
-4.7158 -2.3165 -2.0134 0.9777
-4.2345 -3.1210 -2.0159 0.9777
-3.6164 -3.8273 -2.0179 0.9777
-3.2621 -4.1362 -2.0187 0.9777
-2.8813 -4.4121 -2.0194 0.9777
-2.0527 -4.8560 -2.0203 0.9777
-1.1578 -5.1443 -2.0207 0.9777
-0.6945 -5.2269 -2.0207 0.9777
-0.2256 -5.2676 -2.0205 0.9777
0.2449 -5.2658 -2.0201 0.9777
0.7133 -5.2217 -2.0196 0.9777
1.1757 -5.1357 -2.0190 0.9777
2.0675 -4.8413 -2.0174 0.9777
2.4897 -4.6353 -2.0164 0.9777
2.8915 -4.3924 -2.0152 0.9777
3.6211 -3.8042 -2.0127 0.9778
3.9431 -3.4637 -2.0113 0.9778
4.2331 -3.0961 -2.0098 0.9778
4.7084 -2.2914 -2.0067 0.9778
4.8900 -1.8609 -2.0051 0.9778
5.0324 -1.4164 -2.0034 0.9779
5.2149 -0.0339 -1.9985 0.9779
5.1931 0.4309 -1.9969 0.9779
4.8829 1.7859 -1.9924 0.9780
4.7010 2.2127 -1.9911 0.9780
4.4822 2.6214 -1.9898 0.9780
4.2281 3.0088 -1.9887 0.9780
3.6228 3.7082 -1.9867 0.9780
3.2764 4.0149 -1.9859 0.9780
2.9044 4.2895 -1.9852 0.9781
2.0953 4.7349 -1.9842 0.9781
1.2207 5.0307 -1.9838 0.9781
0.3078 5.1680 -1.9840 0.9781
-0.6153 5.1424 -1.9847 0.9781
-1.0717 5.0685 -1.9853 0.9781
-1.9564 4.8014 -1.9869 0.9780
-2.3779 4.6100 -1.9878 0.9780
-2.7810 4.3820 -1.9889 0.9780
-3.1625 4.1190 -1.9901 0.9780
-3.5194 3.8231 -1.9913 0.9780
-3.8489 3.4964 -1.9927 0.9780
-4.4153 2.7613 -1.9957 0.9779
-4.6475 2.3584 -1.9972 0.9779
-4.8432 1.9362 -1.9988 0.9779
-5.1184 1.0469 -2.0021 0.9779
-5.2258 -0.3459 -2.0070 0.9778
-5.1782 -0.8112 -2.0086 0.9778
-4.9591 -1.7205 -2.0116 0.9778
-4.7893 -2.1574 -2.0129 0.9778
-4.3353 -2.9774 -2.0155 0.9777
-3.7414 -3.7040 -2.0176 0.9777
-3.3977 -4.0246 -2.0184 0.9777
-3.0264 -4.3131 -2.0192 0.9777
-2.6306 -4.5671 -2.0198 0.9777
-2.2134 -4.7845 -2.0202 0.9777
-1.7782 -4.9636 -2.0205 0.9777
-0.4012 -5.2573 -2.0206 0.9777
0.0692 -5.2714 -2.0203 0.9777
1.0039 -5.1727 -2.0193 0.9777
2.3342 -4.7167 -2.0168 0.9777
2.7440 -4.4874 -2.0157 0.9777
3.4931 -3.9238 -2.0132 0.9777
3.8264 -3.5943 -2.0118 0.9778
4.3975 -2.8532 -2.0088 0.9778
5.2125 -0.2079 -1.9991 0.9779
3.1014 -3.8177 -2.0131 0.9790
3.4273 -3.5237 -2.0118 0.9790
4.2290 -2.4859 -2.0077 0.9790
4.8165 -0.8480 -2.0016 0.9791
4.8692 -0.4149 -2.0001 0.9791
4.8582 0.4559 -1.9971 0.9791
4.6933 1.3097 -1.9942 0.9792
4.1714 2.5004 -1.9905 0.9792
3.9297 2.8608 -1.9894 0.9792
3.6572 3.1983 -1.9884 0.9792
3.3560 3.5101 -1.9876 0.9792
3.0285 3.7939 -1.9868 0.9792
2.3052 4.2691 -1.9857 0.9792
1.9150 4.4568 -1.9853 0.9793
1.5098 4.6092 -1.9851 0.9793
-0.1968 4.8471 -1.9854 0.9793
-1.0552 4.7375 -1.9864 0.9792
-2.2741 4.2944 -1.9888 0.9792
-3.0039 3.8264 -1.9910 0.9792
-4.1630 2.5415 -1.9962 0.9791
-4.3763 2.1617 -1.9977 0.9791
-4.5550 1.7643 -1.9992 0.9791
-4.8033 0.9286 -2.0023 0.9791
-1.9105 0.0237 -0.7820 0.9918
-1.9547 -0.1506 -0.8024 0.9916
-4.7511 -1.2408 -2.0097 0.9790
-4.2615 -2.4587 -2.0136 0.9790
-3.4641 -3.5042 -2.0167 0.9789
-3.1391 -3.8006 -2.0175 0.9789
-2.4156 -4.3003 -2.0187 0.9789
-1.6139 -4.6626 -2.0194 0.9789
-0.3223 -4.9234 -2.0194 0.9789
0.9916 -4.8302 -2.0181 0.9789
1.4178 -4.7209 -2.0174 0.9789
1.8324 -4.5739 -2.0166 0.9789
2.2319 -4.3903 -2.0157 0.9789
2.6131 -4.1717 -2.0147 0.9789
3.3087 -3.6369 -2.0123 0.9790
3.6175 -3.3253 -2.0110 0.9790
3.8969 -2.9875 -2.0097 0.9790
4.1448 -2.6262 -2.0082 0.9790
4.5386 -1.8455 -2.0053 0.9790
4.7869 -1.0085 -2.0022 0.9791
4.8541 -0.5772 -2.0006 0.9791
4.8825 -0.1420 -1.9991 0.9791
4.8720 0.2937 -1.9976 0.9791
4.7355 1.1527 -1.9947 0.9792
4.2534 2.3604 -1.9909 0.9792
4.0238 2.7287 -1.9898 0.9792
3.7625 3.0750 -1.9888 0.9792
3.4718 3.3967 -1.9879 0.9792
3.1538 3.6913 -1.9871 0.9792
2.8111 3.9564 -1.9864 0.9792
1.6627 4.5565 -1.9851 0.9793
1.2497 4.6862 -1.9850 0.9793
-0.0351 4.8507 -1.9853 0.9793
-0.8965 4.7695 -1.9862 0.9792
-1.3186 4.6720 -1.9868 0.9792
-1.7306 4.5376 -1.9876 0.9792
-2.5114 4.1619 -1.9895 0.9792
-2.8740 3.9236 -1.9905 0.9792
-3.2143 3.6538 -1.9917 0.9792
-3.5296 3.3548 -1.9930 0.9792
-4.0749 2.6782 -1.9957 0.9791
-4.3006 2.3058 -1.9972 0.9791
-1.9487 0.2648 -0.8049 0.9915
-1.9381 0.0887 -0.7941 0.9916
-1.9366 -0.0844 -0.7933 0.9917
-1.9497 -0.2605 -0.8050 0.9915
-4.7886 -1.0814 -2.0092 0.9790
-4.6764 -1.5051 -2.0106 0.9790
-4.5265 -1.9173 -2.0119 0.9790
-4.1189 -2.6940 -2.0143 0.9790
-3.8643 -3.0522 -2.0154 0.9789
-2.9224 -3.9710 -2.0179 0.9789
-2.1717 -4.4292 -2.0190 0.9789
-1.7684 -4.6060 -2.0193 0.9789
-0.4864 -4.9101 -2.0194 0.9789
-0.0466 -4.9334 -2.0192 0.9789
2.4730 -4.2573 -2.0151 0.9789
4.4758 -1.9964 -2.0058 0.9790
4.6325 -1.5882 -2.0043 0.9791
4.7520 -1.1679 -2.0028 0.9791
4.8457 0.5653 -1.9967 0.9791
4.5140 1.8239 -1.9926 0.9792
4.1134 2.5935 -1.9902 0.9792
2.9419 3.8610 -1.9866 0.9792
2.2081 4.3198 -1.9856 0.9793
0.9858 4.7487 -1.9849 0.9793
-0.7369 4.7962 -1.9860 0.9792
-1.1619 4.7128 -1.9866 0.9792
-2.3707 4.2426 -1.9891 0.9792
-2.7410 4.0164 -1.9901 0.9792
-3.4149 3.4698 -1.9925 0.9792
-3.7131 3.1536 -1.9938 0.9792
-4.4248 2.0628 -1.9981 0.9791
-4.5946 1.6613 -1.9996 0.9791
-4.7280 1.2460 -2.0011 0.9791
-2.1286 0.3619 -0.8837 0.9907
-1.9083 -0.0194 -0.7811 0.9918
-1.9578 -0.1954 -0.8052 0.9915
-2.2132 -0.4228 -0.9222 0.9903
-4.7228 -1.3480 -2.0101 0.9790
-4.5868 -1.7649 -2.0114 0.9790
-3.3845 -3.5819 -2.0169 0.9789
-2.6963 -4.1289 -2.0183 0.9789
-2.3180 -4.3540 -2.0188 0.9789
-1.0834 -4.8140 -2.0195 0.9789
-0.6499 -4.8913 -2.0195 0.9789
-0.2111 -4.9293 -2.0193 0.9789
0.2292 -4.9277 -2.0190 0.9789
1.5239 -4.6873 -2.0172 0.9789
1.9349 -4.5309 -2.0164 0.9789
2.3301 -4.3382 -2.0154 0.9789
3.0603 -3.8512 -2.0132 0.9790
3.3894 -3.5608 -2.0120 0.9790
3.6910 -3.2423 -2.0107 0.9790
4.2023 -2.5316 -2.0079 0.9790
4.4080 -2.1452 -2.0064 0.9790
4.5783 -1.7423 -2.0049 0.9791
4.7118 -1.3261 -2.0033 0.9791
4.8649 -0.4674 -2.0003 0.9791
4.8632 0.4035 -1.9972 0.9791
4.8044 0.8349 -1.9958 0.9791
4.5734 1.6727 -1.9931 0.9792
4.4033 2.0725 -1.9918 0.9792
4.1984 2.4554 -1.9906 0.9792
3.6917 3.1588 -1.9885 0.9792
2.3512 4.2441 -1.9857 0.9792
1.9630 4.4359 -1.9853 0.9793
1.5594 4.5927 -1.9851 0.9793
0.7189 4.7964 -1.9850 0.9793
0.2883 4.8418 -1.9851 0.9793
-1.8328 4.4978 -1.9878 0.9792
-2.6050 4.1047 -1.9897 0.9792
-2.9623 3.8583 -1.9908 0.9792
-3.2965 3.5809 -1.9920 0.9792
-3.6050 3.2748 -1.9933 0.9792
-3.8852 2.9423 -1.9947 0.9792
-4.1350 2.5860 -1.9961 0.9791
-4.6825 1.4026 -2.0005 0.9791
-4.7926 0.9802 -2.0021 0.9791
-1.9560 0.2209 -0.8056 0.9915
-1.9205 0.0445 -0.7862 0.9917
-4.7639 -1.1894 -2.0096 0.9790
-4.6420 -1.6105 -2.0109 0.9790
-4.4828 -2.0193 -2.0122 0.9790
-4.2875 -2.4125 -2.0135 0.9790
-4.0576 -2.7867 -2.0146 0.9790
-3.7949 -3.1390 -2.0156 0.9789
-2.8322 -4.0363 -2.0181 0.9789
-0.8126 -4.8670 -2.0195 0.9789
-0.3754 -4.9197 -2.0194 0.9789
0.0647 -4.9330 -2.0191 0.9789
0.9395 -4.8408 -2.0182 0.9789
2.5682 -4.1999 -2.0148 0.9789
3.5817 -3.3644 -2.0112 0.9790
4.1166 -2.6710 -2.0084 0.9790
4.8811 -0.1947 -1.9993 0.9791
4.8753 0.2412 -1.9978 0.9791
4.8309 0.6744 -1.9963 0.9791
2.9116 -3.5840 -2.0124 0.9801
3.4976 -3.0062 -2.0100 0.9801
3.7493 -2.6806 -2.0087 0.9801
3.9707 -2.3341 -2.0073 0.9801
4.1601 -1.9694 -2.0059 0.9801
4.4374 -1.1974 -2.0031 0.9801
4.5232 -0.7964 -2.0016 0.9802
4.5862 0.0196 -1.9988 0.9802
4.5630 0.4282 -1.9974 0.9802
4.5036 0.8328 -1.9960 0.9802
4.4085 1.2302 -1.9947 0.9802
4.1149 1.9913 -1.9923 0.9803
3.9188 2.3489 -1.9912 0.9803
3.6918 2.6876 -1.9902 0.9803
3.4359 3.0047 -1.9892 0.9803
3.1530 3.2978 -1.9884 0.9803
1.7993 4.1875 -1.9863 0.9803
1.4186 4.3307 -1.9861 0.9803
0.6268 4.5137 -1.9860 0.9803
-0.9914 4.4511 -1.9874 0.9803
-1.3848 4.3463 -1.9880 0.9803
-1.7674 4.2072 -1.9888 0.9803
-2.1365 4.0345 -1.9896 0.9803
-3.4196 3.0397 -1.9940 0.9802
-3.9102 2.3871 -1.9966 0.9802
-1.5677 0.4512 -0.7109 0.9929
-1.5012 0.2902 -0.6664 0.9934
-1.5249 0.0189 -0.6646 0.9934
-1.5290 -0.1178 -0.6683 0.9933
-1.5954 -0.5729 -0.7388 0.9926
-4.1881 -1.9412 -2.0118 0.9801
-3.7808 -2.6571 -2.0140 0.9800
-3.5305 -2.9850 -2.0149 0.9800
-3.2517 -3.2893 -2.0158 0.9800
-2.6175 -3.8172 -2.0171 0.9800
0.5229 -4.5999 -2.0176 0.9800
1.3309 -4.4314 -2.0165 0.9800
2.0951 -4.1212 -2.0149 0.9800
2.4531 -3.9161 -2.0139 0.9800
3.3962 -3.1219 -2.0105 0.9801
3.8917 -2.4658 -2.0079 0.9801
4.0932 -2.1076 -2.0065 0.9801
4.2618 -1.7330 -2.0051 0.9801
4.3962 -1.3451 -2.0036 0.9801
4.4954 -0.9471 -2.0022 0.9802
4.5759 0.2758 -1.9979 0.9802
4.4481 1.0828 -1.9952 0.9802
2.9631 3.4681 -1.9880 0.9803
1.5623 4.2812 -1.9862 0.9803
0.7770 4.4902 -1.9860 0.9803
0.3735 4.5419 -1.9861 0.9803
-0.8423 4.4812 -1.9872 0.9803
-1.6259 4.2631 -1.9885 0.9803
-3.8275 2.5156 -1.9961 0.9802
-4.2192 1.7982 -1.9989 0.9802
-1.5177 0.2062 -0.6675 0.9933
-1.5278 -0.3450 -0.6826 0.9932
-1.5834 -0.5096 -0.7249 0.9928
-4.2496 -1.8000 -2.0113 0.9801
-3.6275 -2.8651 -2.0146 0.9800
-3.3591 -3.1786 -2.0155 0.9800
-2.7431 -3.7274 -2.0169 0.9800
-2.4004 -3.9582 -2.0175 0.9800
-1.6598 -4.3232 -2.0182 0.9800
-1.2679 -4.4544 -2.0184 0.9800
-0.8657 -4.5498 -2.0184 0.9800
-0.4565 -4.6086 -2.0184 0.9800
-0.0438 -4.6305 -2.0181 0.9800
1.1825 -4.4738 -2.0167 0.9800
1.9568 -4.1895 -2.0152 0.9800
3.2910 -3.2342 -2.0109 0.9801
3.5640 -2.9260 -2.0097 0.9801
3.8082 -2.5949 -2.0084 0.9801
4.0217 -2.2435 -2.0070 0.9801
4.2028 -1.8746 -2.0056 0.9801
4.4625 -1.0968 -2.0027 0.9801
4.5392 -0.6940 -2.0013 0.9802
4.5797 -0.2863 -1.9998 0.9802
4.5838 0.1231 -1.9984 0.9802
4.5514 0.5310 -1.9970 0.9802
4.4829 0.9341 -1.9957 0.9802
4.3789 1.3292 -1.9944 0.9802
4.0683 2.0833 -1.9920 0.9803
3.6298 2.7699 -1.9899 0.9803
3.3669 3.0812 -1.9890 0.9803
3.0775 3.3678 -1.9882 0.9803
2.7640 3.6275 -1.9876 0.9803
2.4289 3.8584 -1.9870 0.9803
1.7043 4.2269 -1.9862 0.9803
0.9263 4.4618 -1.9860 0.9803
-1.0917 4.4279 -1.9875 0.9803
-1.8621 4.1666 -1.9890 0.9803
-3.2078 3.2594 -1.9931 0.9802
-3.4878 2.9622 -1.9943 0.9802
-3.7405 2.6412 -1.9956 0.9802
-1.5960 0.5771 -0.7396 0.9926
-1.5049 0.2558 -0.6653 0.9934
-1.5288 0.1212 -0.6684 0.9933
-4.3063 -1.6569 -2.0109 0.9801
-3.7204 -2.7421 -2.0142 0.9800
-3.4626 -3.0643 -2.0151 0.9800
-3.1769 -3.3622 -2.0160 0.9800
-2.8655 -3.6334 -2.0167 0.9800
-2.5309 -3.8756 -2.0173 0.9800
-1.4157 -4.4095 -2.0183 0.9800
-1.0169 -4.5184 -2.0184 0.9800
0.6266 -4.5867 -2.0175 0.9800
1.0327 -4.5113 -2.0170 0.9800
2.1873 -4.0724 -2.0146 0.9800
2.5405 -3.8592 -2.0136 0.9800
3.4653 -3.0440 -2.0102 0.9801
3.7205 -2.7211 -2.0089 0.9801
3.9457 -2.3770 -2.0075 0.9801
4.1390 -2.0143 -2.0061 0.9801
4.2991 -1.6360 -2.0047 0.9801
4.4246 -1.2453 -2.0033 0.9801
4.5148 -0.8452 -2.0018 0.9802
4.5127 0.7842 -1.9962 0.9802
4.2961 1.5713 -1.9936 0.9802
3.1886 3.2637 -1.9885 0.9803
2.8838 3.5338 -1.9878 0.9803
2.5565 3.7757 -1.9872 0.9803
1.8444 4.1679 -1.9864 0.9803
1.4652 4.3152 -1.9861 0.9803
0.2709 4.5492 -1.9861 0.9803
-0.5416 4.5265 -1.9868 0.9803
-0.9433 4.4613 -1.9873 0.9803
-1.3377 4.3608 -1.9879 0.9803
-2.0927 4.0571 -1.9895 0.9803
-2.4473 3.8562 -1.9905 0.9803
-3.0967 3.3639 -1.9926 0.9802
-3.3863 3.0762 -1.9938 0.9802
-3.6494 2.7638 -1.9951 0.9802
-3.8839 2.4290 -1.9964 0.9802
-4.0878 2.0744 -1.9978 0.9802
-4.2595 1.7028 -1.9992 0.9802
-1.5108 0.3090 -0.6721 0.9933
-1.5238 0.1721 -0.6683 0.9933
-1.5921 -0.5524 -0.7344 0.9927
-4.0250 -2.2647 -2.0128 0.9800
-3.8090 -2.6160 -2.0138 0.9800
-3.5623 -2.9466 -2.0148 0.9800
-3.2868 -3.2539 -2.0157 0.9800
-2.3106 -4.0116 -2.0176 0.9800
-0.3524 -4.6177 -2.0183 0.9800
0.0608 -4.6301 -2.0181 0.9800
2.4108 -3.9426 -2.0140 0.9800
3.0694 -3.4479 -2.0118 0.9801
3.3626 -3.1586 -2.0106 0.9801
3.6286 -2.8444 -2.0094 0.9801
4.0706 -2.1518 -2.0066 0.9801
4.2433 -1.7790 -2.0052 0.9801
4.3818 -1.3926 -2.0038 0.9801
4.4853 -0.9956 -2.0023 0.9802
4.5529 -0.5913 -2.0009 0.9802
4.5842 -0.1828 -1.9995 0.9802
4.5790 0.2265 -1.9981 0.9802
4.5375 0.6334 -1.9967 0.9802
2.7405 -3.3734 -2.0118 0.9810
3.7380 -2.1973 -2.0070 0.9811
3.9164 -1.8540 -2.0057 0.9811
4.2588 -0.7498 -2.0017 0.9811
4.3058 -0.3669 -2.0003 0.9811
4.3184 0.0185 -1.9990 0.9811
4.2968 0.4032 -1.9976 0.9812
3.8754 1.8754 -1.9928 0.9812
3.6908 2.2123 -1.9918 0.9812
3.4772 2.5313 -1.9909 0.9812
2.6801 3.3575 -1.9886 0.9812
2.0401 3.7782 -1.9876 0.9813
1.6949 3.9444 -1.9872 0.9813
1.3363 4.0794 -1.9870 0.9813
-0.5561 4.2581 -1.9877 0.9813
-0.9338 4.1926 -1.9882 0.9812
-1.3043 4.0939 -1.9888 0.9812
-2.0123 3.8000 -1.9904 0.9812
-2.3441 3.6071 -1.9913 0.9812
-2.6577 3.3854 -1.9923 0.9812
-3.6821 2.2479 -1.9969 0.9812
-3.8704 1.9119 -1.9982 0.9812
-1.3308 0.5155 -0.6606 0.9937
-1.3224 0.3806 -0.6370 0.9940
-1.3382 -0.1031 -0.6213 0.9941
-1.3203 -0.2214 -0.6197 0.9941
-1.3138 -0.3431 -0.6285 0.9940
-1.3333 -0.4788 -0.6558 0.9938
-1.3128 -0.6085 -0.6698 0.9936
-3.3228 -2.8094 -2.0142 0.9810
-2.4634 -3.5924 -2.0163 0.9810
-1.7869 -3.9745 -2.0171 0.9810
-1.4255 -4.1185 -2.0173 0.9810
-1.0527 -4.2294 -2.0175 0.9810
-0.2847 -4.3489 -2.0173 0.9810
0.1042 -4.3564 -2.0171 0.9810
1.2525 -4.1705 -2.0156 0.9810
2.9238 -3.2138 -2.0111 0.9810
3.1969 -2.9386 -2.0100 0.9810
3.6635 -2.3212 -2.0075 0.9811
3.8534 -1.9841 -2.0062 0.9811
4.0123 -1.6315 -2.0049 0.9811
4.2922 -0.5104 -2.0008 0.9811
4.3177 -0.1256 -1.9995 0.9811
4.3089 0.2597 -1.9981 0.9812
4.1889 1.0197 -1.9956 0.9812
4.0788 1.3883 -1.9944 0.9812
3.7632 2.0884 -1.9922 0.9812
3.0722 3.0058 -1.9895 0.9812
2.4878 3.5014 -1.9882 0.9812
2.1652 3.7084 -1.9877 0.9813
1.1061 4.1476 -1.9869 0.9813
-0.7934 4.2210 -1.9880 0.9812
-1.1669 4.1346 -1.9886 0.9812
-1.8841 3.8644 -1.9900 0.9812
-2.2221 3.6826 -1.9909 0.9812
-2.8438 3.2326 -1.9929 0.9812
-3.1224 2.9678 -1.9940 0.9812
-3.3766 2.6792 -1.9952 0.9812
-3.6043 2.3689 -1.9964 0.9812
-1.3310 0.4316 -0.6477 0.9939
-1.3004 0.2967 -0.6174 0.9941
-1.3293 0.1806 -0.6210 0.9941
-1.3382 0.0613 -0.6201 0.9941
-1.3298 -0.1777 -0.6210 0.9941
-1.2994 -0.2934 -0.6166 0.9941
-1.3242 -0.5609 -0.6657 0.9937
-3.8351 -2.0453 -2.0119 0.9810
-3.4141 -2.6966 -2.0138 0.9810
-1.9183 -3.9124 -2.0170 0.9810
-1.5620 -4.0685 -2.0173 0.9810
-0.4296 -4.3371 -2.0174 0.9810
0.3475 -4.3433 -2.0169 0.9810
0.7332 -4.2941 -2.0164 0.9810
1.1129 -4.2104 -2.0159 0.9810
1.4833 -4.0931 -2.0152 0.9810
1.8417 -3.9430 -2.0144 0.9810
2.5105 -3.5499 -2.0126 0.9810
2.8155 -3.3102 -2.0115 0.9810
3.0977 -3.0443 -2.0104 0.9810
3.3549 -2.7543 -2.0092 0.9810
3.5849 -2.4427 -2.0080 0.9811
3.7860 -2.1120 -2.0067 0.9811
3.9566 -1.7648 -2.0054 0.9811
4.3122 -0.2696 -2.0000 0.9811
4.2215 0.8796 -1.9960 0.9812
4.1238 1.2517 -1.9948 0.9812
3.6395 2.2947 -1.9916 0.9812
3.4188 2.6089 -1.9906 0.9812
3.1712 2.9021 -1.9898 0.9812
2.6035 3.4169 -1.9884 0.9812
1.9543 3.8231 -1.9875 0.9813
1.6053 3.9816 -1.9872 0.9813
1.2438 4.1085 -1.9870 0.9813
0.8725 4.2029 -1.9869 0.9813
0.4943 4.2640 -1.9870 0.9813
0.1121 4.2915 -1.9872 0.9813
-1.3965 4.0637 -1.9890 0.9812
-2.0977 3.7540 -1.9906 0.9812
-3.0211 3.0696 -1.9936 0.9812
-3.2846 2.7897 -1.9948 0.9812
-3.5224 2.4872 -1.9960 0.9812
-3.7325 2.1646 -1.9972 0.9812
-1.3119 0.6116 -0.6700 0.9936
-1.3147 0.3465 -0.6293 0.9940
-1.3195 0.2243 -0.6196 0.9941
-1.3381 0.1061 -0.6213 0.9941
-1.3349 -0.0136 -0.6179 0.9941
-1.3363 -0.1333 -0.6216 0.9941
-1.3121 -0.2506 -0.6183 0.9941
-1.3217 -0.3773 -0.6362 0.9940
-1.3312 -0.5122 -0.6602 0.9937
-3.9004 -1.9159 -2.0115 0.9810
-3.7159 -2.2572 -2.0125 0.9810
-3.5016 -2.5808 -2.0135 0.9810
-3.2589 -2.8840 -2.0144 0.9810
-2.6968 -3.4195 -2.0158 0.9810
-2.3818 -3.6473 -2.0164 0.9810
-1.6968 -4.0139 -2.0172 0.9810
-1.3323 -4.1497 -2.0174 0.9810
-0.9570 -4.2521 -2.0175 0.9810
-0.5740 -4.3204 -2.0174 0.9810
-0.1865 -4.3541 -2.0173 0.9810
0.2025 -4.3528 -2.0170 0.9810
0.5896 -4.3165 -2.0166 0.9810
1.3462 -4.1408 -2.0155 0.9810
1.7094 -4.0028 -2.0147 0.9810
2.0587 -3.8328 -2.0139 0.9810
2.3911 -3.6323 -2.0130 0.9810
2.9951 -3.1466 -2.0108 0.9810
3.2619 -2.8653 -2.0097 0.9810
3.7143 -2.2376 -2.0072 0.9811
4.0474 -1.5403 -2.0045 0.9811
4.3019 -0.4133 -2.0005 0.9811
4.3187 -0.0281 -1.9991 0.9811
4.0459 1.4798 -1.9941 0.9812
3.8956 1.8336 -1.9930 0.9812
3.2667 2.7952 -1.9901 0.9812
3.0033 3.0741 -1.9893 0.9812
2.7163 3.3285 -1.9886 0.9812
1.7373 3.9260 -1.9873 0.9813
0.6362 4.2451 -1.9869 0.9813
-0.5102 4.2637 -1.9877 0.9813
-1.9711 3.8213 -1.9903 0.9812
-2.9164 3.1680 -1.9932 0.9812
-3.1891 2.8970 -1.9943 0.9812
-3.4367 2.6027 -1.9955 0.9812
-3.6574 2.2873 -1.9968 0.9812
-1.3290 0.5313 -0.6625 0.9937
-1.3341 0.1507 -0.6215 0.9941
-1.3365 0.0310 -0.6188 0.9941
-1.3385 -0.0886 -0.6209 0.9941
-1.3095 -0.3269 -0.6248 0.9941
-1.3336 -0.4627 -0.6534 0.9938
-3.7884 -2.1316 -2.0121 0.9810
-3.5851 -2.4622 -2.0131 0.9810
-3.3528 -2.7733 -2.0141 0.9810
-2.8090 -3.3272 -2.0156 0.9810
-2.1745 -3.7753 -2.0167 0.9810
-1.4699 -4.1028 -2.0173 0.9810
-0.7178 -4.2990 -2.0175 0.9810
-0.3316 -4.3456 -2.0174 0.9810
0.4454 -4.3341 -2.0168 0.9810
1.5752 -4.0582 -2.0150 0.9810
2.5896 -3.4919 -2.0123 0.9810
2.8891 -3.2454 -2.0113 0.9810
3.4157 -2.6775 -2.0089 0.9811
4.2230 -0.9374 -2.0023 0.9811
4.2868 -0.5567 -2.0010 0.9811
4.3165 -0.1721 -1.9996 0.9811
4.1999 0.9745 -1.9957 0.9812
4.0938 1.3443 -1.9945 0.9812
2.5854 -3.1824 -2.0113 0.9819
3.1062 -2.6698 -2.0091 0.9819
3.3300 -2.3808 -2.0080 0.9819
3.6954 -1.7493 -2.0055 0.9819
3.8342 -1.4120 -2.0043 0.9820
4.0634 -0.3462 -2.0004 0.9820
4.0027 0.7402 -1.9967 0.9820
3.9184 1.0935 -1.9955 0.9820
3.8032 1.4377 -1.9944 0.9820
3.2823 2.3895 -1.9915 0.9821
3.0549 2.6715 -1.9907 0.9821
2.2368 3.3816 -1.9888 0.9821
1.9260 3.5668 -1.9884 0.9821
1.6000 3.7237 -1.9881 0.9821
-0.5250 4.0198 -1.9885 0.9821
-0.8815 3.9579 -1.9890 0.9821
-1.5715 3.7407 -1.9903 0.9821
-2.2127 3.4049 -1.9919 0.9821
-2.7850 2.9606 -1.9938 0.9821
-3.2702 2.4215 -1.9960 0.9820
-1.1525 0.4464 -0.6063 0.9945
-1.1927 0.1217 -0.5881 0.9947
-1.1960 0.0148 -0.5867 0.9947
-1.1820 -0.1982 -0.5879 0.9947
-1.1582 -0.3025 -0.5872 0.9947
-1.1385 -0.5277 -0.6155 0.9944
-3.5523 -2.0495 -2.0117 0.9819
-3.1345 -2.6502 -2.0135 0.9819
-2.8868 -2.9203 -2.0142 0.9819
-1.3446 -3.8847 -2.0165 0.9819
-0.9930 -3.9894 -2.0166 0.9819
-0.6333 -4.0620 -2.0166 0.9819
0.4642 -4.0834 -2.0159 0.9819
0.8262 -4.0248 -2.0154 0.9819
1.1815 -3.9340 -2.0149 0.9819
1.5270 -3.8117 -2.0142 0.9819
2.4782 -3.2675 -2.0116 0.9819
3.2494 -2.4911 -2.0084 0.9819
3.6358 -1.8721 -2.0060 0.9819
3.7859 -1.5394 -2.0047 0.9820
3.9056 -1.1950 -2.0034 0.9820
4.0505 -0.4817 -2.0009 0.9820
4.0747 -0.1185 -1.9996 0.9820
3.9536 0.9624 -1.9959 0.9820
3.8498 1.3103 -1.9948 0.9820
3.7157 1.6475 -1.9937 0.9821
3.5522 1.9712 -1.9927 0.9821
3.3607 2.2791 -1.9918 0.9821
3.1428 2.5685 -1.9910 0.9821
2.9001 2.8374 -1.9902 0.9821
2.6347 3.0837 -1.9895 0.9821
2.3486 3.3054 -1.9890 0.9821
1.7234 3.6685 -1.9882 0.9821
1.0442 3.9155 -1.9878 0.9821
0.6909 3.9930 -1.9878 0.9821
-0.7490 3.9847 -1.9888 0.9821
-1.1016 3.9031 -1.9894 0.9821
-1.4457 3.7905 -1.9900 0.9821
-1.7786 3.6479 -1.9907 0.9821
-2.4003 3.2768 -1.9924 0.9821
-2.6842 3.0512 -1.9934 0.9821
-2.9471 2.8012 -1.9945 0.9820
-3.1870 2.5287 -1.9956 0.9820
-3.4017 2.2358 -1.9968 0.9820
-1.1664 0.2661 -0.5868 0.9947
-1.1880 0.1614 -0.5881 0.9947
-1.1671 -0.2635 -0.5869 0.9947
-1.1468 -0.4857 -0.6109 0.9945
-3.4332 -2.2455 -2.0123 0.9819
-3.2207 -2.5438 -2.0132 0.9819
-2.9822 -2.8220 -2.0140 0.9819
-2.7197 -3.0777 -2.0147 0.9819
-2.4351 -3.3089 -2.0153 0.9819
-2.1309 -3.5137 -2.0158 0.9819
-0.7684 -4.0387 -2.0166 0.9819
-0.4052 -4.0909 -2.0165 0.9819
-0.0388 -4.1104 -2.0163 0.9819
0.3278 -4.0969 -2.0160 0.9819
0.6916 -4.0505 -2.0156 0.9819
1.0497 -3.9716 -2.0151 0.9819
2.0612 -3.5483 -2.0129 0.9819
2.3683 -3.3489 -2.0120 0.9819
3.3823 -2.3047 -2.0077 0.9819
3.7333 -1.6652 -2.0052 0.9820
3.8645 -1.3249 -2.0039 0.9820
3.9647 -0.9744 -2.0026 0.9820
4.0695 -0.2544 -2.0001 0.9820
3.9843 0.8302 -1.9964 0.9820
3.8922 1.1815 -1.9952 0.9820
3.7693 1.5230 -1.9941 0.9821
2.1598 3.4310 -1.9887 0.9821
1.5155 3.7588 -1.9880 0.9821
0.1059 4.0514 -1.9880 0.9821
-1.3183 3.8362 -1.9897 0.9821
-1.6557 3.7046 -1.9904 0.9821
-1.9802 3.5436 -1.9912 0.9821
-2.5805 3.1385 -1.9931 0.9821
-3.1002 2.6330 -1.9952 0.9820
-3.5227 2.0429 -1.9975 0.9820
-1.1583 0.3052 -0.5876 0.9947
-1.1815 0.2009 -0.5879 0.9947
-1.1959 -0.0122 -0.5867 0.9947
-1.1930 -0.1190 -0.5881 0.9947
-1.1589 -0.3308 -0.5912 0.9946
-1.1529 -0.4436 -0.6059 0.9945
-1.1316 -0.5559 -0.6185 0.9944
-3.3032 -2.4346 -2.0129 0.9819
-3.0742 -2.7206 -2.0137 0.9819
-2.5439 -3.2255 -2.0150 0.9819
-2.2467 -3.4404 -2.0156 0.9819
-1.6005 -3.7862 -2.0163 0.9819
-0.5414 -4.0752 -2.0166 0.9819
-0.1759 -4.1070 -2.0164 0.9819
0.5562 -4.0716 -2.0158 0.9819
0.9168 -4.0049 -2.0153 0.9819
1.6125 -3.7759 -2.0140 0.9819
2.5510 -3.2103 -2.0114 0.9819
2.8257 -2.9686 -2.0104 0.9819
3.0774 -2.7033 -2.0093 0.9819
3.5045 -2.1112 -2.0069 0.9819
3.8191 -1.4534 -2.0044 0.9820
3.9309 -1.1064 -2.0031 0.9820
4.0597 -0.3900 -2.0006 0.9820
4.0107 0.6970 -1.9968 0.9820
3.8187 1.3967 -1.9945 0.9820
3.5064 2.0507 -1.9925 0.9821
3.3080 2.3541 -1.9916 0.9821
2.8351 2.9019 -1.9900 0.9821
2.5642 3.1421 -1.9894 0.9821
1.6401 3.7063 -1.9881 0.9821
0.6006 4.0076 -1.9878 0.9821
0.2409 4.0455 -1.9879 0.9821
-0.4816 4.0251 -1.9885 0.9821
-0.8388 3.9670 -1.9889 0.9821
-1.1895 3.8775 -1.9895 0.9821
-2.7528 2.9903 -1.9937 0.9821
-1.1272 0.5720 -0.6201 0.9944
-1.1731 0.2399 -0.5873 0.9947
-1.1842 -0.1855 -0.5880 0.9947
-3.5740 -2.0110 -2.0116 0.9819
-2.6497 -3.1386 -2.0148 0.9819
-2.0512 -3.5611 -2.0159 0.9819
-1.7258 -3.7305 -2.0162 0.9819
-1.3864 -3.8700 -2.0165 0.9819
0.0539 -4.1101 -2.0163 0.9819
0.4201 -4.0882 -2.0159 0.9819
1.1390 -3.9466 -2.0149 0.9819
1.4859 -3.8281 -2.0143 0.9819
1.8206 -3.6790 -2.0135 0.9819
2.9862 -2.8050 -2.0097 0.9819
3.6157 -1.9113 -2.0061 0.9819
4.0454 -0.5254 -2.0010 0.9820
4.0693 0.2013 -1.9985 0.9820
4.0326 0.5630 -1.9973 0.9820
3.9640 0.9198 -1.9961 0.9820
3.8640 1.2688 -1.9950 0.9820
2.9365 -2.5239 -2.0087 0.9827
3.3343 -1.9600 -2.0065 0.9827
3.4938 -1.6539 -2.0053 0.9827
3.6252 -1.3350 -2.0041 0.9827
3.7275 -1.0058 -2.0029 0.9828
3.8000 -0.6691 -2.0017 0.9828
3.5968 1.3597 -1.9948 0.9828
3.2950 1.9750 -1.9929 0.9828
3.1044 2.2600 -1.9921 0.9828
2.6517 2.7734 -1.9906 0.9829
2.3931 2.9979 -1.9900 0.9829
2.1157 3.1986 -1.9895 0.9829
0.5272 3.7967 -1.9886 0.9829
0.1866 3.8289 -1.9887 0.9829
-0.4966 3.8022 -1.9893 0.9829
-1.1646 3.6554 -1.9903 0.9829
-2.3726 3.0222 -1.9933 0.9828
-2.6339 2.8000 -1.9943 0.9828
-3.0926 2.2900 -1.9964 0.9828
-0.9841 0.6008 -0.5981 0.9948
-1.0322 0.5099 -0.5973 0.9948
-1.0557 0.4089 -0.5873 0.9949
-1.0637 0.3062 -0.5742 0.9950
-1.0931 -0.1833 -0.5750 0.9950
-1.0593 -0.3804 -0.5839 0.9949
-1.0415 -0.4827 -0.5955 0.9948
-0.9988 -0.5763 -0.5982 0.9948
-3.1732 -2.2300 -2.0121 0.9827
-2.4725 -2.9935 -2.0142 0.9827
-2.1963 -3.2029 -2.0147 0.9827
-1.9024 -3.3867 -2.0152 0.9826
-1.5931 -3.5434 -2.0155 0.9826
-1.2709 -3.6717 -2.0157 0.9826
-0.5986 -3.8393 -2.0158 0.9826
0.0929 -3.8839 -2.0155 0.9826
0.4387 -3.8595 -2.0151 0.9826
1.1167 -3.7184 -2.0142 0.9827
1.7583 -3.4586 -2.0128 0.9827
2.6075 -2.8662 -2.0102 0.9827
3.0719 -2.3550 -2.0081 0.9827
3.6927 -1.1299 -2.0034 0.9827
3.8531 -0.1120 -1.9997 0.9828
3.8454 0.2318 -1.9986 0.9828
3.7389 0.9101 -1.9963 0.9828
3.3596 1.8644 -1.9932 0.9828
2.4920 2.9167 -1.9902 0.9829
2.2214 3.1265 -1.9897 0.9829
1.3141 3.6011 -1.9887 0.9829
0.6535 3.7770 -1.9885 0.9829
0.3142 3.8204 -1.9886 0.9829
-0.7084 3.7690 -1.9895 0.9829
-1.0420 3.6918 -1.9900 0.9829
-1.3674 3.5853 -1.9906 0.9829
-2.2701 3.0991 -1.9930 0.9828
-2.5386 2.8857 -1.9939 0.9828
-2.7872 2.6492 -1.9949 0.9828
-3.0139 2.3914 -1.9959 0.9828
-1.0492 0.4472 -0.5917 0.9949
-1.0785 0.2461 -0.5739 0.9950
-1.1065 0.0507 -0.5746 0.9950
-1.1065 -0.0482 -0.5746 0.9950
-1.0624 -0.3419 -0.5790 0.9950
-1.0497 -0.4446 -0.5914 0.9949
-3.2453 -2.1226 -2.0117 0.9827
-3.0444 -2.4045 -2.0126 0.9827
-2.8189 -2.6674 -2.0133 0.9827
-2.5706 -2.9091 -2.0140 0.9827
-2.3017 -3.1276 -2.0145 0.9827
-2.0141 -3.3211 -2.0150 0.9826
-1.7103 -3.4881 -2.0154 0.9826
