ply
format ascii 1.0
element vertex 1586
property float32 x
property float32 y
property float32 z
property float32 I
end_header
-6.5111 11.3130 -1.8495 0.9486
-10.0371 9.9414 -2.0017 0.9445
-10.8839 9.0065 -2.0017 0.9445
-11.6438 7.9998 -2.0017 0.9445
-12.3110 6.9293 -2.0017 0.9445
-13.7062 3.4227 -2.0017 0.9445
-14.0963 0.9328 -2.0017 0.9445
-14.1233 -0.3283 -2.0017 0.9445
-14.0377 -1.5867 -2.0017 0.9445
-13.5324 -4.0557 -2.0017 0.9445
-12.5964 -6.3957 -2.0017 0.9445
-11.9758 -7.4938 -2.0017 0.9445
-11.2596 -8.5321 -2.0017 0.9445
-9.5644 -10.3970 -2.0017 0.9445
-8.5989 -11.2087 -2.0017 0.9445
-7.5649 -11.9310 -2.0017 0.9445
-6.3770 -12.3767 -1.9727 0.9453
-4.9197 -12.0903 -1.8495 0.9486
-2.6932 -12.7721 -1.8495 0.9486
-0.3809 -13.0474 -1.8495 0.9486
1.9435 -12.9074 -1.8495 0.9486
3.0870 -12.6826 -1.8495 0.9486
4.2060 -12.3567 -1.8495 0.9486
5.2914 -11.9323 -1.8495 0.9486
6.3346 -11.4128 -1.8495 0.9486
10.7427 -9.1745 -2.0017 0.9445
13.2728 -4.8383 -2.0017 0.9445
13.9212 -2.4030 -2.0017 0.9445
14.1267 0.1088 -2.0017 0.9445
13.1966 5.0422 -2.0017 0.9445
12.0852 7.3035 -2.0008 0.9445
9.7940 8.6288 -1.8495 0.9486
-3.2020 10.7603 -1.8495 0.9555
-4.1490 10.4318 -1.8495 0.9555
-8.1553 9.0070 -2.0017 0.9519
-10.2489 6.5264 -2.0017 0.9519
-11.6111 3.5801 -2.0017 0.9519
-11.8841 2.5302 -2.0017 0.9519
-12.0624 1.4600 -2.0017 0.9519
-12.1446 0.3783 -2.0017 0.9519
-12.1299 -0.7065 -2.0017 0.9519
-11.8114 -2.8505 -2.0017 0.9519
-11.5100 -3.8927 -2.0017 0.9519
-10.6352 -5.8759 -2.0017 0.9519
-9.4219 -7.6721 -2.0017 0.9519
-7.9088 -9.2242 -2.0017 0.9519
-7.0545 -9.8928 -2.0017 0.9519
-3.0227 -11.2632 -1.9211 0.9538
-0.9403 -11.2262 -1.8559 0.9554
1.0704 -11.2249 -1.8576 0.9553
2.0927 -11.2207 -1.8804 0.9548
4.2556 -11.2033 -1.9743 0.9526
5.3032 -10.9134 -1.9989 0.9520
6.2642 -10.4113 -2.0017 0.9519
7.1679 -9.8110 -2.0017 0.9519
8.7971 -8.3813 -2.0017 0.9519
9.5096 -7.5632 -2.0017 0.9519
10.1463 -6.6848 -2.0017 0.9519
10.7021 -5.7531 -2.0017 0.9519
11.1726 -4.7756 -2.0017 0.9519
11.5541 -3.7600 -2.0017 0.9519
12.1373 -0.5669 -2.0017 0.9519
12.1394 0.5180 -2.0017 0.9519
12.0448 1.5987 -2.0017 0.9519
11.8542 2.6667 -2.0017 0.9519
11.1918 4.7306 -2.0017 0.9519
10.7252 5.7100 -2.0017 0.9519
5.8266 9.5962 -1.8495 0.9555
4.9474 10.0777 -1.8495 0.9555
4.0287 10.4788 -1.8495 0.9555
3.0780 10.7964 -1.8495 0.9555
2.1027 11.0279 -1.8495 0.9555
-3.8230 10.5556 -1.8495 0.9555
-4.7493 10.1725 -1.8495 0.9555
-5.6378 9.7083 -1.8495 0.9555
-8.6658 8.5169 -2.0017 0.9519
-10.0412 6.8416 -2.0017 0.9519
-11.0971 4.9486 -2.0017 0.9519
-12.0113 1.8340 -2.0017 0.9519
-12.1270 0.7553 -2.0017 0.9519
-12.1460 -0.3294 -2.0017 0.9519
-12.0682 -1.4115 -2.0017 0.9519
-11.6254 -3.5333 -2.0017 0.9519
-11.2639 -4.5562 -2.0017 0.9519
-8.9593 -8.2076 -2.0017 0.9519
-6.4666 -10.2868 -2.0017 0.9519
-5.5233 -10.8226 -2.0017 0.9519
-2.3217 -11.2258 -1.8885 0.9546
-1.2923 -11.2242 -1.8613 0.9552
-0.2843 -11.2312 -1.8508 0.9555
0.7197 -11.2285 -1.8536 0.9554
3.8632 -11.2072 -1.9529 0.9531
4.9556 -11.0591 -1.9964 0.9521
8.5325 -8.6505 -2.0017 0.9519
9.9338 -6.9967 -2.0017 0.9519
10.5183 -6.0828 -2.0017 0.9519
11.0189 -5.1203 -2.0017 0.9519
11.4317 -4.1171 -2.0017 0.9519
11.9813 -2.0203 -2.0017 0.9519
12.1497 0.1407 -2.0017 0.9519
12.0887 1.2239 -2.0017 0.9519
11.3333 4.3807 -2.0017 0.9519
10.3746 6.3248 -2.0017 0.9519
9.7691 7.2249 -2.0017 0.9519
8.6881 7.7144 -1.9141 0.9540
3.4118 10.6956 -1.8495 0.9555
0.4584 11.2172 -1.8495 0.9555
-0.5440 11.2134 -1.8495 0.9555
-1.5420 11.1202 -1.8495 0.9555
-2.5278 10.9383 -1.8495 0.9555
-4.4311 10.3151 -1.8495 0.9555
-5.3335 9.8788 -1.8495 0.9555
-6.1934 9.3637 -1.8495 0.9555
-7.3869 9.2536 -1.9506 0.9531
-8.3971 8.7819 -2.0017 0.9519
-9.1470 7.9979 -2.0017 0.9519
-9.8239 7.1502 -2.0017 0.9519
-10.9381 5.2908 -2.0017 0.9519
-11.7041 3.2631 -2.0017 0.9519
-11.9485 2.2062 -2.0017 0.9519
-12.0977 1.1316 -2.0017 0.9519
-11.9656 -2.1117 -2.0017 0.9519
-10.9795 -5.2043 -2.0017 0.9519
-10.4716 -6.1628 -2.0017 0.9519
-9.8801 -7.0723 -2.0017 0.9519
-9.2099 -7.9254 -2.0017 0.9519
-7.6551 -9.4357 -2.0017 0.9519
-6.7830 -10.0809 -2.0017 0.9519
-5.8567 -10.6458 -2.0017 0.9519
-3.8258 -11.3798 -1.9778 0.9525
-2.6910 -11.2390 -1.9038 0.9542
-1.6469 -11.2236 -1.8688 0.9551
0.3701 -11.2309 -1.8512 0.9555
3.4788 -11.2108 -1.9337 0.9535
5.6044 -10.7776 -2.0012 0.9519
6.5449 -10.2371 -2.0017 0.9519
10.8546 -5.4601 -2.0017 0.9519
12.0786 -1.3194 -2.0017 0.9519
12.1209 0.8478 -2.0017 0.9519
11.4639 4.0266 -2.0017 0.9519
11.0590 5.0331 -2.0017 0.9519
10.5660 5.9995 -2.0017 0.9519
9.9888 6.9180 -2.0017 0.9519
9.2367 7.7020 -1.9812 0.9524
7.9466 7.9302 -1.8495 0.9555
6.4111 9.2160 -1.8495 0.9555
5.5635 9.7511 -1.8495 0.9555
4.6716 10.2085 -1.8495 0.9555
-0.1954 11.2249 -1.8495 0.9555
-3.1603 10.7726 -1.8495 0.9555
-4.1086 10.4478 -1.8495 0.9555
-5.0241 10.0396 -1.8495 0.9555
-5.8996 9.5515 -1.8495 0.9555
-6.7280 8.9872 -1.8495 0.9555
-8.1203 9.0385 -2.0017 0.9519
-10.2235 6.5661 -2.0017 0.9519
-12.1326 -0.6595 -2.0017 0.9519
-11.5250 -3.8481 -2.0017 0.9519
-10.6579 -5.8346 -2.0017 0.9519
-10.0950 -6.7621 -2.0017 0.9519
-6.1846 -10.4588 -2.0017 0.9519
-4.2154 -11.3577 -1.9958 0.9521
-3.0712 -11.2690 -1.9242 0.9538
-2.0044 -11.2214 -1.8779 0.9548
-0.9841 -11.2257 -1.8564 0.9553
4.2062 -11.2038 -1.9715 0.9526
7.1298 -9.8387 -2.0017 0.9519
7.9790 -9.1635 -2.0017 0.9519
9.4802 -7.6000 -2.0017 0.9519
10.6797 -5.7946 -2.0017 0.9519
11.8328 -2.7603 -2.0017 0.9519
11.8645 2.6208 -2.0017 0.9519
11.2100 4.6872 -2.0017 0.9519
10.7473 5.6684 -2.0017 0.9519
10.1988 6.6044 -2.0017 0.9519
8.2370 7.7244 -1.8603 0.9553
7.4715 8.3794 -1.8495 0.9555
6.6943 9.0124 -1.8495 0.9555
4.9864 10.0584 -1.8495 0.9555
2.1455 11.0197 -1.8495 0.9555
1.1540 11.1671 -1.8495 0.9555
-0.8486 11.1945 -1.8495 0.9555
-1.8437 11.0742 -1.8495 0.9555
-2.8242 10.8656 -1.8495 0.9555
-4.7099 10.1908 -1.8495 0.9555
-6.4457 9.1918 -1.8495 0.9555
-9.3610 7.7463 -2.0017 0.9519
-11.0779 4.9915 -2.0017 0.9519
-11.4789 3.9835 -2.0017 0.9519
-11.7885 2.9438 -2.0017 0.9519
-12.0041 1.8805 -2.0017 0.9519
-11.6390 -3.4883 -2.0017 0.9519
-11.2815 -4.5125 -2.0017 0.9519
-10.3001 -6.4453 -2.0017 0.9519
-9.6842 -7.3383 -2.0017 0.9519
-8.9910 -8.1729 -2.0017 0.9519
-8.2262 -8.9423 -2.0017 0.9519
-6.5064 -10.2616 -2.0017 0.9519
-4.5743 -11.2415 -1.9994 0.9520
-3.4649 -11.3158 -1.9496 0.9532
0.6760 -11.2289 -1.8532 0.9554
2.7302 -11.2167 -1.9018 0.9543
3.8149 -11.2077 -1.9504 0.9531
5.8967 -10.6237 -2.0017 0.9519
6.8208 -10.0554 -2.0017 0.9519
7.6905 -9.4070 -2.0017 0.9519
8.4989 -8.6835 -2.0017 0.9519
9.9066 -7.0352 -2.0017 0.9519
10.9990 -5.1630 -2.0017 0.9519
11.7413 -3.1265 -2.0017 0.9519
11.9734 -2.0668 -2.0017 0.9519
12.1100 -0.9905 -2.0017 0.9519
12.1501 0.0936 -2.0017 0.9519
11.6918 3.3071 -2.0017 0.9519
11.3502 4.3367 -2.0017 0.9519
9.7970 7.1870 -2.0017 0.9519
8.7545 7.7129 -1.9221 0.9538
-3.6364 9.1430 -1.8495 0.9607
-5.2031 8.3513 -1.8495 0.9607
-6.3979 8.4775 -1.9963 0.9577
-7.8234 7.2252 -2.0017 0.9576
-8.4367 6.4985 -2.0017 0.9576
-10.1766 3.1378 -2.0017 0.9576
-10.5722 1.2797 -2.0017 0.9576
-10.5337 -1.5650 -2.0017 0.9576
-10.3521 -2.4984 -2.0017 0.9576
-10.0880 -3.4118 -2.0017 0.9576
-9.7435 -4.2980 -2.0017 0.9576
-9.3213 -5.1500 -2.0017 0.9576
-8.8248 -5.9609 -2.0017 0.9576
-8.2579 -6.7243 -2.0017 0.9576
-6.1830 -8.6706 -2.0017 0.9576
-5.3849 -9.1876 -2.0017 0.9576
-4.5439 -9.6313 -2.0017 0.9576
-3.6667 -9.9982 -2.0017 0.9576
-2.7603 -10.2854 -2.0017 0.9576
-1.8319 -10.4906 -2.0017 0.9576
0.0613 -10.6492 -2.0017 0.9576
1.9525 -10.4688 -2.0017 0.9576
2.8785 -10.2529 -2.0017 0.9576
3.7815 -9.9553 -2.0017 0.9576
5.4903 -9.1250 -2.0017 0.9576
6.2823 -8.5989 -2.0017 0.9576
7.0243 -8.0043 -2.0017 0.9576
7.7102 -7.3458 -2.0017 0.9576
9.7923 -4.1856 -2.0017 0.9576
10.5510 -1.4437 -2.0017 0.9576
10.6397 0.4540 -2.0017 0.9576
10.5568 1.4012 -2.0017 0.9576
10.3897 2.3373 -2.0017 0.9576
8.9163 5.8231 -2.0017 0.9576
8.3613 6.5952 -2.0017 0.9576
6.8217 7.7105 -1.9351 0.9590
5.1067 8.4107 -1.8495 0.9607
4.3361 8.8326 -1.8495 0.9607
1.8430 9.6655 -1.8495 0.9607
0.9735 9.7913 -1.8495 0.9607
-2.5122 9.5135 -1.8495 0.9607
-3.3507 9.2515 -1.8495 0.9607
-4.9412 8.5089 -1.8495 0.9607
-5.9502 8.4157 -1.9373 0.9589
-8.2308 6.7574 -2.0017 0.9576
-9.3005 5.1875 -2.0017 0.9576
-10.3420 2.5400 -2.0017 0.9576
-10.5273 1.6074 -2.0017 0.9576
-10.6288 0.6620 -2.0017 0.9576
-10.4247 -2.1756 -2.0017 0.9576
-7.8524 -7.1936 -2.0017 0.9576
-7.1795 -7.8654 -2.0017 0.9576
-6.4493 -8.4744 -2.0017 0.9576
-4.8409 -9.4855 -2.0017 0.9576
-3.9755 -9.8795 -2.0017 0.9576
-3.0784 -10.1947 -2.0017 0.9576
-1.2180 -10.5795 -2.0017 0.9576
-0.2695 -10.6459 -2.0017 0.9576
2.5587 -10.3374 -2.0017 0.9576
3.4705 -10.0680 -2.0017 0.9576
5.2042 -9.2911 -2.0017 0.9576
7.4784 -7.5817 -2.0017 0.9576
8.1248 -6.8845 -2.0017 0.9576
8.7065 -6.1323 -2.0017 0.9576
9.2188 -5.3313 -2.0017 0.9576
9.6576 -4.4877 -2.0017 0.9576
10.0194 -3.6084 -2.0017 0.9576
10.3013 -2.7003 -2.0017 0.9576
10.5011 -1.7707 -2.0017 0.9576
10.6486 0.1233 -2.0017 0.9576
10.5952 1.0727 -2.0017 0.9576
10.4573 2.0135 -2.0017 0.9576
9.0928 5.5434 -2.0017 0.9576
7.9632 7.0708 -2.0017 0.9576
7.2516 7.7007 -1.9882 0.9579
5.3655 8.2480 -1.8495 0.9607
3.8146 9.0701 -1.8495 0.9607
2.1423 9.6036 -1.8495 0.9607
1.2771 9.7564 -1.8495 0.9607
0.4018 9.8314 -1.8495 0.9607
-0.4768 9.8280 -1.8495 0.9607
-1.3515 9.7463 -1.8495 0.9607
-3.0618 9.3511 -1.8495 0.9607
-3.8837 9.0407 -1.8495 0.9607
-5.4401 8.2248 -1.8535 0.9607
-7.3597 7.6970 -2.0017 0.9576
-9.1349 5.4738 -2.0017 0.9576
-9.5867 4.6372 -2.0017 0.9576
-9.9621 3.7636 -2.0017 0.9576
-10.2581 2.8600 -2.0017 0.9576
-10.4723 1.9336 -2.0017 0.9576
-10.6493 0.0421 -2.0017 0.9576
-10.4873 -1.8508 -2.0017 0.9576
-9.9915 -3.6848 -2.0017 0.9576
-8.6595 -6.1986 -2.0017 0.9576
-6.7094 -8.2700 -2.0017 0.9576
-5.9450 -8.8355 -2.0017 0.9576
-5.1332 -9.3306 -2.0017 0.9576
-2.4797 -10.3566 -2.0017 0.9576
-1.5460 -10.5365 -2.0017 0.9576
-0.6000 -10.6324 -2.0017 0.9576
3.1561 -10.1709 -2.0017 0.9576
4.0508 -9.8489 -2.0017 0.9576
6.5137 -8.4250 -2.0017 0.9576
7.2393 -7.8104 -2.0017 0.9576
7.9071 -7.1335 -2.0017 0.9576
8.5118 -6.3998 -2.0017 0.9576
9.0487 -5.6150 -2.0017 0.9576
9.5135 -4.7855 -2.0017 0.9576
9.9025 -3.9179 -2.0017 0.9576
10.5864 -1.1564 -2.0017 0.9576
10.6473 -0.2075 -2.0017 0.9576
10.6234 0.7431 -2.0017 0.9576
10.5148 1.6877 -2.0017 0.9576
10.3223 2.6188 -2.0017 0.9576
10.0476 3.5291 -2.0017 0.9576
9.6927 4.4113 -2.0017 0.9576
8.7547 6.0633 -2.0017 0.9576
8.1790 6.8200 -2.0017 0.9576
7.5217 7.5061 -1.9973 0.9577
6.4633 7.7185 -1.8922 0.9599
5.6191 8.0774 -1.8495 0.9607
4.8762 8.5464 -1.8495 0.9607
4.0944 8.9473 -1.8495 0.9607
1.5795 9.7120 -1.8495 0.9607
0.7069 9.8142 -1.8495 0.9607
-0.1713 9.8381 -1.8495 0.9607
-1.9166 9.6511 -1.8495 0.9607
-2.7698 9.4417 -1.8495 0.9607
-4.4034 8.7993 -1.8495 0.9607
-9.8404 4.0712 -2.0017 0.9576
-10.1643 3.1772 -2.0017 0.9576
-10.4072 2.2579 -2.0017 0.9576
-10.6428 0.3728 -2.0017 0.9576
-10.6336 -0.5780 -2.0017 0.9576
-10.5397 -1.5242 -2.0017 0.9576
-9.7601 -4.2602 -2.0017 0.9576
-9.3412 -5.1138 -2.0017 0.9576
-8.8478 -5.9266 -2.0017 0.9576
-8.2839 -6.6922 -2.0017 0.9576
-6.9630 -8.0576 -2.0017 0.9576
-3.7055 -9.9839 -2.0017 0.9576
-2.8002 -10.2746 -2.0017 0.9576
-1.8725 -10.4834 -2.0017 0.9576
-0.9300 -10.6087 -2.0017 0.9576
0.0200 -10.6493 -2.0017 0.9576
0.9698 -10.6051 -2.0017 0.9576
1.9119 -10.4763 -2.0017 0.9576
5.4549 -9.1462 -2.0017 0.9576
7.6817 -7.3756 -2.0017 0.9576
8.3090 -6.6611 -2.0017 0.9576
8.8700 -5.8934 -2.0017 0.9576
10.5454 -1.4846 -2.0017 0.9576
10.6413 0.4128 -2.0017 0.9576
9.8251 4.1081 -2.0017 0.9576
8.9388 5.7885 -2.0017 0.9576
8.3868 6.5627 -2.0017 0.9576
7.7659 7.2826 -2.0011 0.9576
5.8672 7.8990 -1.8495 0.9607
5.1393 8.3908 -1.8495 0.9607
-0.7438 9.8115 -1.8495 0.9607
-1.6160 9.7060 -1.8495 0.9607
-3.3148 9.2644 -1.8495 0.9607
-4.1280 8.9318 -1.8495 0.9607
-4.9082 8.5280 -1.8495 0.9607
-6.8676 8.1391 -2.0017 0.9576
-7.5662 7.4941 -2.0017 0.9576
-8.7774 6.0304 -2.0017 0.9576
-9.7092 4.3749 -2.0017 0.9576
-10.0608 3.4914 -2.0017 0.9576
-10.3321 2.5801 -2.0017 0.9576
-10.6261 0.7032 -2.0017 0.9576
-10.6465 -0.2474 -2.0017 0.9576
-10.5820 -1.1961 -2.0017 0.9576
-10.2010 -3.0573 -2.0017 0.9576
-9.4955 -4.8212 -2.0017 0.9576
-9.0276 -5.6490 -2.0017 0.9576
-8.4878 -6.4317 -2.0017 0.9576
-6.4821 -8.4494 -2.0017 0.9576
-5.7026 -8.9938 -2.0017 0.9576
-3.1179 -10.1827 -2.0017 0.9576
-0.3108 -10.6448 -2.0017 0.9576
2.5186 -10.3472 -2.0017 0.9576
3.4315 -10.0814 -2.0017 0.9576
5.1682 -9.3112 -2.0017 0.9576
5.9781 -8.8131 -2.0017 0.9576
6.7404 -8.2448 -2.0017 0.9576
7.4489 -7.6107 -2.0017 0.9576
8.6827 -6.1660 -2.0017 0.9576
9.1981 -5.3670 -2.0017 0.9576
9.6401 -4.5251 -2.0017 0.9576
10.0053 -3.6472 -2.0017 0.9576
10.4942 -1.8114 -2.0017 0.9576
10.6139 -0.8682 -2.0017 0.9576
10.6490 0.0820 -2.0017 0.9576
10.4650 1.9729 -2.0017 0.9576
8.5866 6.2991 -2.0017 0.9576
-5.7044 7.5585 -2.0017 0.9620
-6.9566 6.4247 -2.0017 0.9620
-8.4093 4.3536 -2.0017 0.9620
-8.7642 3.5862 -2.0017 0.9620
-9.0491 2.7902 -2.0017 0.9620
-9.2619 1.9719 -2.0017 0.9620
-9.4009 1.1379 -2.0017 0.9620
-9.4649 0.2948 -2.0017 0.9620
-8.9704 -3.0338 -2.0017 0.9620
-7.8471 -5.3005 -2.0017 0.9620
-7.3430 -5.9793 -2.0017 0.9620
-6.7804 -6.6104 -2.0017 0.9620
-6.1637 -7.1889 -2.0017 0.9620
-4.7883 -8.1697 -2.0017 0.9620
-4.0405 -8.5642 -2.0017 0.9620
-1.6289 -9.3283 -2.0017 0.9620
0.0545 -9.4693 -2.0017 0.9620
0.8989 -9.4267 -2.0017 0.9620
7.4113 -5.8944 -2.0017 0.9620
7.9075 -5.2098 -2.0017 0.9620
8.3407 -4.4837 -2.0017 0.9620
8.7074 -3.7219 -2.0017 0.9620
9.0047 -2.9304 -2.0017 0.9620
9.2302 -2.1155 -2.0017 0.9620
9.3821 -1.2838 -2.0017 0.9620
9.3872 1.2460 -2.0017 0.9620
9.2386 2.0783 -2.0017 0.9620
9.0164 2.8941 -2.0017 0.9620
7.9284 5.1779 -2.0017 0.9620
6.2747 7.0923 -2.0017 0.9620
5.6003 7.6010 -1.9957 0.9621
4.6847 7.7156 -1.9080 0.9638
3.8557 7.8541 -1.8495 0.9649
2.3989 8.4142 -1.8495 0.9649
0.8656 8.7065 -1.8495 0.9649
0.0856 8.7490 -1.8495 0.9649
-2.9795 8.2265 -1.8495 0.9649
-4.6179 7.9521 -1.9438 0.9631
-6.1347 7.2136 -2.0017 0.9620
-7.3189 6.0088 -2.0017 0.9620
-8.2701 4.6127 -2.0017 0.9620
-8.9581 3.0699 -2.0017 0.9620
-9.3610 1.4293 -2.0017 0.9620
-9.4660 -0.2567 -2.0017 0.9620
-9.2698 -1.9346 -2.0017 0.9620
-8.4268 -4.3198 -2.0017 0.9620
-8.0079 -5.0542 -2.0017 0.9620
-6.9824 -6.3966 -2.0017 0.9620
-5.7347 -7.5355 -2.0017 0.9620
-5.0397 -8.0170 -2.0017 0.9620
-4.3046 -8.4346 -2.0017 0.9620
-3.5351 -8.7849 -2.0017 0.9620
-2.7374 -9.0652 -2.0017 0.9620
-1.9179 -9.2732 -2.0017 0.9620
-1.0831 -9.4074 -2.0017 0.9620
1.4462 -9.3584 -2.0017 0.9620
3.0860 -8.9525 -2.0017 0.9620
5.3461 -7.8160 -2.0017 0.9620
6.0220 -7.3080 -2.0017 0.9620
6.6498 -6.7417 -2.0017 0.9620
7.2247 -6.1217 -2.0017 0.9620
7.7419 -5.4529 -2.0017 0.9620
9.3377 -1.5746 -2.0017 0.9620
9.4689 0.1097 -2.0017 0.9620
9.4213 0.9538 -2.0017 0.9620
9.1019 2.6127 -2.0017 0.9620
8.8326 3.4141 -2.0017 0.9620
8.0854 4.9292 -2.0017 0.9620
7.6135 5.6308 -2.0017 0.9620
3.3919 8.0652 -1.8495 0.9649
2.6590 8.3356 -1.8495 0.9649
1.9049 8.5396 -1.8495 0.9649
1.1356 8.6755 -1.8495 0.9649
0.3572 8.7422 -1.8495 0.9649
-0.4240 8.7392 -1.8495 0.9649
-1.2018 8.6665 -1.8495 0.9649
-2.7226 8.3151 -1.8495 0.9649
-4.2507 7.8731 -1.8913 0.9641
-5.2144 7.8836 -1.9980 0.9621
-6.5443 6.8442 -2.0017 0.9620
-7.6563 5.5725 -2.0017 0.9620
-8.8584 3.3466 -2.0017 0.9620
-9.3121 1.7194 -2.0017 0.9620
-9.4283 0.8819 -2.0017 0.9620
-9.4350 -0.8074 -2.0017 0.9620
-9.3254 -1.6458 -2.0017 0.9620
-8.8846 -3.2765 -2.0017 0.9620
-8.5569 -4.0559 -2.0017 0.9620
-8.1610 -4.8030 -2.0017 0.9620
-6.5982 -6.7923 -2.0017 0.9620
-5.9660 -7.3538 -2.0017 0.9620
-5.2863 -7.8566 -2.0017 0.9620
-2.2050 -9.2092 -2.0017 0.9620
-1.3748 -9.3692 -2.0017 0.9620
-0.5336 -9.4544 -2.0017 0.9620
1.1548 -9.3988 -2.0017 0.9620
1.9886 -9.2583 -2.0017 0.9620
2.8065 -9.0441 -2.0017 0.9620
3.6020 -8.7577 -2.0017 0.9620
5.7921 -7.4915 -2.0017 0.9620
6.4372 -6.9450 -2.0017 0.9620
8.4595 -4.2553 -2.0017 0.9620
8.8054 -3.4838 -2.0017 0.9620
9.2843 -1.8638 -2.0017 0.9620
9.4135 -1.0282 -2.0017 0.9620
9.4677 -0.1845 -2.0017 0.9620
9.4464 0.6607 -2.0017 0.9620
8.9344 3.1381 -2.0017 0.9620
8.2346 4.6757 -2.0017 0.9620
7.7848 5.3916 -2.0017 0.9620
6.0790 7.2596 -2.0015 0.9620
4.4052 7.7209 -1.8790 0.9643
2.1692 8.4763 -1.8495 0.9649
0.6286 8.7269 -1.8495 0.9649
-0.1523 8.7481 -1.8495 0.9649
-2.4630 8.3956 -1.8495 0.9649
-4.9578 8.0267 -1.9943 0.9622
-6.9317 6.4516 -2.0017 0.9620
-8.3924 4.3862 -2.0017 0.9620
-9.0382 2.8252 -2.0017 0.9620
-9.2542 2.0078 -2.0017 0.9620
-9.4637 0.3315 -2.0017 0.9620
-9.3720 -1.3553 -2.0017 0.9620
-8.9821 -2.9990 -2.0017 0.9620
-7.8675 -5.2700 -2.0017 0.9620
-7.3661 -5.9508 -2.0017 0.9620
-6.1915 -7.1649 -2.0017 0.9620
-5.5278 -7.6886 -2.0017 0.9620
-4.8200 -8.1510 -2.0017 0.9620
-4.0737 -8.5485 -2.0017 0.9620
-3.2949 -8.8778 -2.0017 0.9620
-1.6651 -9.3220 -2.0017 0.9620
0.0178 -9.4695 -2.0017 0.9620
0.8624 -9.4301 -2.0017 0.9620
2.5242 -9.1269 -2.0017 0.9620
4.1057 -8.5331 -2.0017 0.9620
5.5566 -7.6678 -2.0017 0.9620
6.8306 -6.5585 -2.0017 0.9620
9.4574 -0.4785 -2.0017 0.9620
9.4624 0.3670 -2.0017 0.9620
9.3919 1.2096 -2.0017 0.9620
9.2466 2.0425 -2.0017 0.9620
9.0276 2.8591 -2.0017 0.9620
8.7365 3.6530 -2.0017 0.9620
7.9485 5.1472 -2.0017 0.9620
7.4577 5.8356 -2.0017 0.9620
4.7252 7.7148 -1.9123 0.9637
2.4314 8.4048 -1.8495 0.9649
-1.4369 8.6306 -1.8495 0.9649
-2.2010 8.4681 -1.8495 0.9649
-4.5710 7.9420 -1.9370 0.9632
-6.7280 6.6638 -2.0017 0.9620
-7.2955 6.0371 -2.0017 0.9620
-8.2521 4.6447 -2.0017 0.9620
-9.4669 -0.2200 -2.0017 0.9620
-9.4096 -1.0636 -2.0017 0.9620
-9.0709 -2.7186 -2.0017 0.9620
-8.7922 -3.5168 -2.0017 0.9620
-8.4435 -4.2871 -2.0017 0.9620
-7.5474 -5.7191 -2.0017 0.9620
-7.0072 -6.3695 -2.0017 0.9620
-6.4111 -6.9692 -2.0017 0.9620
-5.0708 -7.9974 -2.0017 0.9620
-4.3372 -8.4178 -2.0017 0.9620
-3.5691 -8.7711 -2.0017 0.9620
-2.7725 -9.0545 -2.0017 0.9620
-1.1195 -9.4031 -2.0017 0.9620
0.5691 -9.4524 -2.0017 0.9620
2.2395 -9.2009 -2.0017 0.9620
5.3158 -7.8367 -2.0017 0.9620
5.9936 -7.3313 -2.0017 0.9620
6.6236 -6.7675 -2.0017 0.9620
7.2009 -6.1497 -2.0017 0.9620
8.5721 -4.0238 -2.0017 0.9620
9.4250 0.9173 -2.0017 0.9620
9.3056 1.7543 -2.0017 0.9620
9.1120 2.5774 -2.0017 0.9620
8.8458 3.3798 -2.0017 0.9620
8.5091 4.1554 -2.0017 0.9620
7.1053 6.2599 -2.0017 0.9620
-2.2968 7.7184 -1.8926 0.9675
-3.8332 7.5863 -1.9976 0.9657
-4.5037 7.2287 -2.0017 0.9656
-5.1305 6.7981 -2.0017 0.9656
-6.7473 5.1972 -2.0017 0.9656
-7.5634 3.9157 -2.0017 0.9656
-7.8825 3.2254 -2.0017 0.9656
-8.3302 1.7735 -2.0017 0.9656
-8.4551 1.0234 -2.0017 0.9656
-8.5127 0.2652 -2.0017 0.9656
-8.5025 -0.4952 -2.0017 0.9656
-8.4244 -1.2516 -2.0017 0.9656
-8.2792 -1.9981 -2.0017 0.9656
-8.0679 -2.7286 -2.0017 0.9656
-7.7924 -3.4374 -2.0017 0.9656
-7.4548 -4.1187 -2.0017 0.9656
-7.0577 -4.7672 -2.0017 0.9656
-6.6043 -5.3778 -2.0017 0.9656
-6.0983 -5.9454 -2.0017 0.9656
-3.6340 -7.7027 -2.0017 0.9656
-2.2076 -8.2258 -2.0017 0.9656
0.0490 -8.5167 -2.0017 0.9656
1.5615 -8.3725 -2.0017 0.9656
2.3021 -8.1998 -2.0017 0.9656
3.0243 -7.9618 -2.0017 0.9656
5.6177 -6.4015 -2.0017 0.9656
8.0988 -2.6356 -2.0017 0.9656
8.4383 -1.1546 -2.0017 0.9656
8.5076 -0.3973 -2.0017 0.9656
8.4428 1.1206 -2.0017 0.9656
7.5178 4.0024 -2.0017 0.9656
7.1308 4.6570 -2.0017 0.9656
6.6870 5.2745 -2.0017 0.9656
6.1899 5.8500 -2.0017 0.9656
5.6434 6.3788 -2.0017 0.9656
5.0520 6.8567 -2.0017 0.9656
4.4192 7.2783 -2.0012 0.9656
3.7414 7.6212 -1.9954 0.9657
2.2008 7.7195 -1.8866 0.9676
0.7785 7.8307 -1.8495 0.9682
0.0770 7.8689 -1.8495 0.9682
-0.6252 7.8444 -1.8495 0.9682
-1.3224 7.7574 -1.8495 0.9682
-3.5915 7.6926 -1.9953 0.9657
-4.2770 7.3651 -2.0017 0.9656
-5.5176 6.4879 -2.0017 0.9656
-6.0743 5.9699 -2.0017 0.9656
-6.5826 5.4043 -2.0017 0.9656
-7.7785 3.4687 -2.0017 0.9656
-8.0569 2.7610 -2.0017 0.9656
-8.5004 0.5294 -2.0017 0.9656
-8.3372 -1.7400 -2.0017 0.9656
-8.1488 -2.4767 -2.0017 0.9656
-7.5791 -3.8852 -2.0017 0.9656
-7.2023 -4.5457 -2.0017 0.9656
-5.1578 -6.7775 -2.0017 0.9656
-4.5327 -7.2105 -2.0017 0.9656
-3.1794 -7.9012 -2.0017 0.9656
-2.4620 -8.1533 -2.0017 0.9656
-1.7249 -8.3404 -2.0017 0.9656
-0.9741 -8.4610 -2.0017 0.9656
-0.2155 -8.5141 -2.0017 0.9656
0.5448 -8.4994 -2.0017 0.9656
1.3007 -8.4170 -2.0017 0.9656
2.0463 -8.2674 -2.0017 0.9656
3.4827 -7.7723 -2.0017 0.9656
5.9809 -6.0635 -2.0017 0.9656
6.4979 -5.5059 -2.0017 0.9656
6.9631 -4.9044 -2.0017 0.9656
7.7237 -3.5891 -2.0017 0.9656
8.0131 -2.8858 -2.0017 0.9656
8.2385 -2.1596 -2.0017 0.9656
8.4912 -0.6614 -2.0017 0.9656
8.5163 0.0986 -2.0017 0.9656
8.1863 2.3498 -2.0017 0.9656
7.9441 3.0707 -2.0017 0.9656
7.6385 3.7670 -2.0017 0.9656
7.2721 4.4333 -2.0017 0.9656
6.8476 5.0643 -2.0017 0.9656
5.8388 6.2004 -2.0017 0.9656
4.6442 7.1392 -2.0017 0.9656
3.2405 7.7051 -1.9645 0.9662
1.0214 7.8027 -1.8495 0.9682
0.3213 7.8627 -1.8495 0.9682
-0.3813 7.8600 -1.8495 0.9682
-1.0809 7.7947 -1.8495 0.9682
-4.6985 7.1036 -2.0017 0.9656
-6.4116 5.6061 -2.0017 0.9656
-6.8861 5.0119 -2.0017 0.9656
-7.3057 4.3777 -2.0017 0.9656
-8.4799 0.7932 -2.0017 0.9656
-8.5168 0.0336 -2.0017 0.9656
-8.4859 -0.7262 -2.0017 0.9656
-8.3873 -1.4802 -2.0017 0.9656
-8.2218 -2.2224 -2.0017 0.9656
-7.9908 -2.9469 -2.0017 0.9656
-7.6961 -3.6479 -2.0017 0.9656
-7.3400 -4.3198 -2.0017 0.9656
-6.9255 -4.9573 -2.0017 0.9656
-5.9344 -6.1090 -2.0017 0.9656
-5.3659 -6.6140 -2.0017 0.9656
-4.1053 -7.4622 -2.0017 0.9656
-2.7141 -8.0729 -2.0017 0.9656
-1.9832 -8.2828 -2.0017 0.9656
-1.2365 -8.4266 -2.0017 0.9656
-0.4799 -8.5033 -2.0017 0.9656
0.2805 -8.5123 -2.0017 0.9656
1.0386 -8.4533 -2.0017 0.9656
2.5241 -8.1342 -2.0017 0.9656
3.2396 -7.8767 -2.0017 0.9656
4.5876 -7.1757 -2.0017 0.9656
6.8074 -5.1183 -2.0017 0.9656
7.6085 -3.8273 -2.0017 0.9656
8.3503 -1.6763 -2.0017 0.9656
8.5153 -0.1659 -2.0017 0.9656
8.4092 1.3497 -2.0017 0.9656
8.2553 2.0944 -2.0017 0.9656
8.0356 2.8224 -2.0017 0.9656
7.7518 3.5279 -2.0017 0.9656
7.4062 4.2053 -2.0017 0.9656
7.0016 4.8492 -2.0017 0.9656
6.0286 6.0161 -2.0017 0.9656
4.2157 7.3888 -1.9993 0.9656
2.7271 7.7128 -1.9227 0.9669
1.9762 7.7220 -1.8733 0.9678
1.2632 7.7672 -1.8495 0.9682
0.5654 7.8489 -1.8495 0.9682
-0.1370 7.8681 -1.8495 0.9682
-0.8382 7.8245 -1.8495 0.9682
-2.2644 7.7188 -1.8905 0.9675
-3.0371 7.7231 -1.9504 0.9665
-3.8032 7.6000 -1.9973 0.9657
-4.4756 7.2461 -2.0017 0.9656
-5.1041 6.8180 -2.0017 0.9656
-6.7271 5.2234 -2.0017 0.9656
-7.1662 4.6025 -2.0017 0.9656
-7.5481 3.9450 -2.0017 0.9656
-7.8699 3.2560 -2.0017 0.9656
-8.1290 2.5410 -2.0017 0.9656
-8.5117 0.2982 -2.0017 0.9656
-8.0785 -2.6973 -2.0017 0.9656
-6.6251 -5.3521 -2.0017 0.9656
-6.1213 -5.9217 -2.0017 0.9656
-5.5687 -6.4441 -2.0017 0.9656
-4.9717 -6.9152 -2.0017 0.9656
-3.6639 -7.6885 -2.0017 0.9656
-2.2394 -8.2172 -2.0017 0.9656
1.5290 -8.3785 -2.0017 0.9656
3.6927 -7.6747 -2.0017 0.9656
4.9976 -6.8965 -2.0017 0.9656
6.1435 -5.8987 -2.0017 0.9656
7.0938 -4.7133 -2.0017 0.9656
7.4860 -4.0617 -2.0017 0.9656
7.8184 -3.3778 -2.0017 0.9656
8.0885 -2.6670 -2.0017 0.9656
7.8577 3.2855 -2.0017 0.9656
7.1488 4.6294 -2.0017 0.9656
6.7074 5.2486 -2.0017 0.9656
6.2125 5.8259 -2.0017 0.9656
4.4479 7.2621 -2.0015 0.9656
3.7714 7.6076 -1.9956 0.9657
2.9982 7.7089 -1.9440 0.9666
0.8089 7.8276 -1.8495 0.9682
-2.0070 7.7217 -1.8751 0.9677
-2.7603 7.7145 -1.9256 0.9669
-3.5612 7.7054 -1.9950 0.9657
-4.2484 7.3816 -2.0017 0.9656
-6.5616 5.4298 -2.0017 0.9656
-7.4220 4.1775 -2.0017 0.9656
-7.7650 3.4988 -2.0017 0.9656
-8.0461 2.7923 -2.0017 0.9656
-8.2631 2.0634 -2.0017 0.9656
-8.4143 1.3181 -2.0017 0.9656
-8.5146 -0.1979 -2.0017 0.9656
-8.1583 -2.4451 -2.0017 0.9656
-5.7662 -6.2681 -2.0017 0.9656
-5.1841 -6.7574 -2.0017 0.9656
-3.9009 -7.5710 -2.0017 0.9656
-1.0069 -8.4571 -2.0017 0.9656
-0.2485 -8.5132 -2.0017 0.9656
0.5118 -8.5015 -2.0017 0.9656
1.2681 -8.4219 -2.0017 0.9656
3.4526 -7.7857 -2.0017 0.9656
5.3906 -6.5938 -2.0017 0.9656
6.4765 -5.5310 -2.0017 0.9656
6.9440 -4.9313 -2.0017 0.9656
7.7097 -3.6190 -2.0017 0.9656
8.0018 -2.9169 -2.0017 0.9656
8.2301 -2.1915 -2.0017 0.9656
8.3928 -1.4487 -2.0017 0.9656
8.5166 0.0656 -2.0017 0.9656
8.4768 0.8250 -2.0017 0.9656
8.3694 1.5778 -2.0017 0.9656
8.1954 2.3181 -2.0017 0.9656
7.6531 3.7374 -2.0017 0.9656
7.2892 4.4051 -2.0017 0.9656
6.8672 5.0377 -2.0017 0.9656
-2.8571 7.1835 -2.0017 0.9686
-4.6570 6.1708 -2.0017 0.9686
-5.1889 5.7308 -2.0017 0.9686
-5.6794 5.2451 -2.0017 0.9686
-7.1550 2.9278 -2.0017 0.9686
-7.5614 1.6098 -2.0017 0.9686
-7.6749 0.9290 -2.0017 0.9686
-6.4063 -4.3273 -2.0017 0.9686
-5.9948 -4.8815 -2.0017 0.9686
-5.5355 -5.3967 -2.0017 0.9686
-4.4885 -6.2944 -2.0017 0.9686
-3.2987 -6.9918 -2.0017 0.9686
-2.0038 -7.4667 -2.0017 0.9686
-1.3298 -7.6156 -2.0017 0.9686
2.0896 -7.4431 -2.0017 0.9686
2.7452 -7.2270 -2.0017 0.9686
3.9857 -6.6243 -2.0017 0.9686
5.5972 -5.3327 -2.0017 0.9686
6.4557 -4.2533 -2.0017 0.9686
6.8093 -3.6605 -2.0017 0.9686
7.5355 -1.7271 -2.0017 0.9686
7.6595 -1.0481 -2.0017 0.9686
7.7225 -0.3607 -2.0017 0.9686
7.7238 0.3296 -2.0017 0.9686
7.6637 1.0172 -2.0017 0.9686
7.3610 2.3627 -2.0017 0.9686
6.8240 3.6331 -2.0017 0.9686
5.1226 5.7901 -2.0017 0.9686
4.5857 6.2239 -2.0017 0.9686
3.4069 6.9397 -2.0017 0.9686
2.7743 7.2159 -2.0017 0.9686
2.1165 7.4237 -1.9987 0.9686
0.7622 7.6659 -1.9946 0.9687
-1.2954 7.5984 -1.9958 0.9687
-1.9704 7.4620 -1.9983 0.9686
-3.8823 6.6854 -2.0017 0.9686
-4.4631 6.3124 -2.0017 0.9686
-5.0084 5.8892 -2.0017 0.9686
-7.0607 3.1486 -2.0017 0.9686
-7.3134 2.5062 -2.0017 0.9686
-7.5077 1.8439 -2.0017 0.9686
-7.6423 1.1669 -2.0017 0.9686
-7.7159 0.4806 -2.0017 0.9686
-7.7280 -0.2096 -2.0017 0.9686
-7.5678 -1.5794 -2.0017 0.9686
-7.3968 -2.2481 -2.0017 0.9686
-6.8796 -3.5266 -2.0017 0.9686
-3.5142 -6.8860 -2.0017 0.9686
-2.8860 -7.1720 -2.0017 0.9686
-0.8842 -7.6801 -2.0017 0.9686
0.4945 -7.7150 -2.0017 0.9686
1.1807 -7.6402 -2.0017 0.9686
3.7780 -6.7449 -2.0017 0.9686
4.3646 -6.3810 -2.0017 0.9686
4.9163 -5.9663 -2.0017 0.9686
5.4289 -5.5040 -2.0017 0.9686
5.8982 -4.9978 -2.0017 0.9686
6.3205 -4.4517 -2.0017 0.9686
6.6924 -3.8702 -2.0017 0.9686
7.0109 -3.2579 -2.0017 0.9686
7.7304 0.0895 -2.0017 0.9686
7.6916 0.7787 -2.0017 0.9686
7.5914 1.4617 -2.0017 0.9686
6.9336 3.4194 -2.0017 0.9686
6.2157 4.5969 -2.0017 0.9686
5.7809 5.1330 -2.0017 0.9686
4.7768 6.0785 -2.0017 0.9686
4.2156 6.4804 -2.0017 0.9686
2.3473 7.3585 -1.9998 0.9686
1.0001 7.6402 -1.9950 0.9687
-1.7369 7.5161 -1.9973 0.9686
-2.4040 7.3421 -2.0003 0.9686
-6.2506 4.5494 -2.0017 0.9686
-6.6315 3.9737 -2.0017 0.9686
-7.6024 1.4037 -2.0017 0.9686
-7.6973 0.7200 -2.0017 0.9686
-7.7308 0.0305 -2.0017 0.9686
-7.6132 -1.3436 -2.0017 0.9686
-6.9858 -3.3113 -2.0017 0.9686
-6.6626 -3.9212 -2.0017 0.9686
-5.8599 -5.0426 -2.0017 0.9686
-4.8707 -6.0036 -2.0017 0.9686
-3.7264 -6.7735 -2.0017 0.9686
-1.8001 -7.5184 -2.0017 0.9686
0.9428 -7.6732 -2.0017 0.9686
4.7286 -6.1161 -2.0017 0.9686
6.1792 -4.6459 -2.0017 0.9686
6.9063 -3.4740 -2.0017 0.9686
7.1887 -2.8442 -2.0017 0.9686
7.7120 0.5394 -2.0017 0.9686
7.6332 1.2252 -2.0017 0.9686
7.2940 2.5620 -2.0017 0.9686
7.0364 3.2024 -2.0017 0.9686
6.3555 4.4017 -2.0017 0.9686
5.9375 4.9510 -2.0017 0.9686
5.4722 5.4609 -2.0017 0.9686
4.9633 5.9272 -2.0017 0.9686
4.4148 6.3463 -2.0017 0.9686
3.8312 6.7148 -2.0017 0.9686
3.2170 7.0298 -2.0017 0.9686
2.5763 7.2864 -2.0010 0.9686
1.9130 7.4752 -1.9978 0.9686
0.5534 7.6826 -1.9943 0.9687
-2.8292 7.1946 -2.0017 0.9686
-3.4597 6.9135 -2.0017 0.9686
-4.0626 6.5774 -2.0017 0.9686
-4.6331 6.1888 -2.0017 0.9686
-5.6590 5.2671 -2.0017 0.9686
-6.1062 4.7413 -2.0017 0.9686
-6.5048 4.1778 -2.0017 0.9686
-7.3788 2.3065 -2.0017 0.9686
-7.7261 0.2706 -2.0017 0.9686
-7.6513 -1.1065 -2.0017 0.9686
-7.5221 -1.7845 -2.0017 0.9686
-7.0853 -3.0927 -2.0017 0.9686
-6.4231 -4.3024 -2.0017 0.9686
-5.0548 -5.8494 -2.0017 0.9686
-4.5129 -6.2770 -2.0017 0.9686
-2.0328 -7.4588 -2.0017 0.9686
-1.3594 -7.6104 -2.0017 0.9686
-0.6751 -7.7013 -2.0017 0.9686
0.7040 -7.6988 -2.0017 0.9686
2.0608 -7.4511 -2.0017 0.9686
2.7172 -7.2376 -2.0017 0.9686
3.9599 -6.6397 -2.0017 0.9686
4.5364 -6.2600 -2.0017 0.9686
5.5765 -5.3543 -2.0017 0.9686
6.0319 -4.8356 -2.0017 0.9686
6.7951 -3.6869 -2.0017 0.9686
7.3421 -2.4208 -2.0017 0.9686
7.7251 0.2996 -2.0017 0.9686
7.6675 0.9875 -2.0017 0.9686
7.5489 1.6675 -2.0017 0.9686
6.8381 3.6066 -2.0017 0.9686
6.0884 4.7642 -2.0017 0.9686
5.6392 5.2883 -2.0017 0.9686
5.1450 5.7702 -2.0017 0.9686
4.0379 6.5926 -2.0017 0.9686
3.4337 6.9265 -2.0017 0.9686
2.8022 7.2051 -2.0017 0.9686
2.1454 7.4159 -1.9988 0.9686
0.1051 7.6997 -1.9938 0.9687
-0.5822 7.6806 -1.9944 0.9687
-1.2658 7.6031 -1.9957 0.9687
-2.6041 7.2780 -2.0014 0.9686
-3.2433 7.0176 -2.0017 0.9686
-3.8563 6.7004 -2.0017 0.9686
-4.4386 6.3297 -2.0017 0.9686
-7.0484 3.1759 -2.0017 0.9686
-7.6377 1.1965 -2.0017 0.9686
-7.7288 -0.1796 -2.0017 0.9686
-7.5739 -1.5501 -2.0017 0.9686
-7.4054 -2.2194 -2.0017 0.9686
-7.1779 -2.8711 -2.0017 0.9686
-6.8932 -3.5000 -2.0017 0.9686
-6.5536 -4.1009 -2.0017 0.9686
-4.7056 -6.1338 -2.0017 0.9686
-3.5409 -6.8723 -2.0017 0.9686
-2.9138 -7.1607 -2.0017 0.9686
-0.9140 -7.6767 -2.0017 0.9686
-0.2256 -7.7276 -2.0017 0.9686
0.4646 -7.7169 -2.0017 0.9686
1.1511 -7.6447 -2.0017 0.9686
4.3398 -6.3979 -2.0017 0.9686
4.8931 -5.9853 -2.0017 0.9686
5.4075 -5.5250 -2.0017 0.9686
5.8788 -5.0206 -2.0017 0.9686
6.3032 -4.4762 -2.0017 0.9686
6.9982 -3.2850 -2.0017 0.9686
7.4706 -1.9893 -2.0017 0.9686
7.6182 -1.3150 -2.0017 0.9686
7.7051 -0.6302 -2.0017 0.9686
7.7306 0.0596 -2.0017 0.9686
7.6945 0.7489 -2.0017 0.9686
7.2217 2.7593 -2.0017 0.9686
6.9468 3.3925 -2.0017 0.9686
-2.6131 6.5701 -2.0017 0.9710
-3.1888 6.3108 -2.0017 0.9710
-4.7458 5.2414 -2.0017 0.9710
-5.1944 4.7972 -2.0017 0.9710
-5.6016 4.3147 -2.0017 0.9710
-6.2791 3.2508 -2.0017 0.9710
-6.5440 2.6777 -2.0017 0.9710
-6.7568 2.0834 -2.0017 0.9710
-6.9157 1.4724 -2.0017 0.9710
-7.0587 -0.4111 -2.0017 0.9710
-6.8733 -1.6588 -2.0017 0.9710
-6.1889 -3.4193 -2.0017 0.9710
-5.8592 -3.9578 -2.0017 0.9710
-5.4829 -4.4646 -2.0017 0.9710
-3.5753 -6.1001 -2.0017 0.9710
-1.8327 -6.8290 -2.0017 0.9710
-1.2163 -6.9653 -2.0017 0.9710
0.0407 -7.0706 -2.0017 0.9710
0.6712 -7.0388 -2.0017 0.9710
1.2964 -6.9508 -2.0017 0.9710
1.9112 -6.8075 -2.0017 0.9710
2.5108 -6.6099 -2.0017 0.9710
3.6453 -6.0586 -2.0017 0.9710
4.1712 -5.7093 -2.0017 0.9710
4.6638 -5.3145 -2.0017 0.9710
5.1193 -4.8773 -2.0017 0.9710
5.5339 -4.4012 -2.0017 0.9710
6.2279 -3.3479 -2.0017 0.9710
6.5017 -2.7791 -2.0017 0.9710
7.0054 -0.9586 -2.0017 0.9710
6.7324 2.1610 -2.0017 0.9710
6.2413 3.3228 -2.0017 0.9710
5.9200 3.8663 -2.0017 0.9710
5.1388 4.8566 -2.0017 0.9710
4.6852 5.2956 -2.0017 0.9710
1.9386 6.7997 -2.0017 0.9710
0.6995 7.0360 -2.0017 0.9710
-0.5618 7.0483 -2.0017 0.9710
-2.4078 6.6481 -2.0017 0.9710
-2.9912 6.4068 -2.0017 0.9710
-3.5508 6.1145 -2.0017 0.9710
-5.0429 4.9562 -2.0017 0.9710
-5.4649 4.4866 -2.0017 0.9710
-5.8433 3.9813 -2.0017 0.9710
-6.1751 3.4442 -2.0017 0.9710
-6.8666 1.6865 -2.0017 0.9710
-6.9897 1.0673 -2.0017 0.9710
-7.0570 0.4395 -2.0017 0.9710
-7.0681 -0.1917 -2.0017 0.9710
-6.5548 -2.6514 -2.0017 0.9710
-6.2921 -3.2255 -2.0017 0.9710
-5.6189 -4.2922 -2.0017 0.9710
-4.7668 -5.2222 -2.0017 0.9710
-4.2820 -5.6266 -2.0017 0.9710
-3.2141 -6.2979 -2.0017 0.9710
-2.0439 -6.7688 -2.0017 0.9710
-0.8087 -7.0243 -2.0017 0.9710
-0.1790 -7.0684 -2.0017 0.9710
1.6988 -6.8636 -2.0017 0.9710
2.3043 -6.6847 -2.0017 0.9710
3.4554 -6.1689 -2.0017 0.9710
5.3945 -4.5710 -2.0017 0.9710
6.1209 -3.5397 -2.0017 0.9710
6.4122 -2.9796 -2.0017 0.9710
6.6524 -2.3958 -2.0017 0.9710
6.8396 -1.7929 -2.0017 0.9710
7.0493 -0.5491 -2.0017 0.9710
7.0702 0.0819 -2.0017 0.9710
6.9432 1.3368 -2.0017 0.9710
6.7962 1.9508 -2.0017 0.9710
6.5951 2.5492 -2.0017 0.9710
6.3415 3.1274 -2.0017 0.9710
6.0372 3.6805 -2.0017 0.9710
4.8474 5.1476 -2.0017 0.9710
3.8556 5.9270 -2.0017 0.9710
3.3116 6.2473 -2.0017 0.9710
2.7411 6.5177 -2.0017 0.9710
2.1488 6.7363 -2.0017 0.9710
1.5394 6.9011 -2.0017 0.9710
0.9177 7.0109 -2.0017 0.9710
0.2887 7.0648 -2.0017 0.9710
-0.9712 7.0037 -2.0017 0.9710
-4.8865 5.1104 -2.0017 0.9710
-6.3651 3.0789 -2.0017 0.9710
-6.8109 1.8989 -2.0017 0.9710
-6.9532 1.2838 -2.0017 0.9710
-7.0399 0.6585 -2.0017 0.9710
-7.0706 0.0279 -2.0017 0.9710
-7.0449 -0.6029 -2.0017 0.9710
-6.9631 -1.2288 -2.0017 0.9710
-6.3893 -3.0285 -2.0017 0.9710
-6.0937 -3.5863 -2.0017 0.9710
-5.3595 -4.6120 -2.0017 0.9710
-4.9267 -5.0717 -2.0017 0.9710
-3.9472 -5.8664 -2.0017 0.9710
-3.4082 -6.1951 -2.0017 0.9710
-2.2532 -6.7021 -2.0017 0.9710
-1.0265 -6.9958 -2.0017 0.9710
-0.3984 -7.0594 -2.0017 0.9710
0.8623 -7.0179 -2.0017 0.9710
1.4848 -6.9130 -2.0017 0.9710
2.6895 -6.5392 -2.0017 0.9710
4.8066 -5.1857 -2.0017 0.9710
5.2499 -4.7363 -2.0017 0.9710
5.6515 -4.2492 -2.0017 0.9710
6.0080 -3.7281 -2.0017 0.9710
6.3166 -3.1774 -2.0017 0.9710
6.7806 -2.0045 -2.0017 0.9710
6.9324 -1.3917 -2.0017 0.9710
7.0289 -0.7678 -2.0017 0.9710
7.0693 -0.1378 -2.0017 0.9710
7.0534 0.4933 -2.0017 0.9710
5.0049 4.9945 -2.0017 0.9710
3.5040 6.1414 -2.0017 0.9710
2.9422 6.4295 -2.0017 0.9710
1.7530 6.8499 -2.0017 0.9710
0.5080 7.0524 -2.0017 0.9710
-1.3773 6.9352 -2.0017 0.9710
-3.7157 6.0157 -2.0017 0.9710
-4.7254 5.2597 -2.0017 0.9710
-5.1757 4.8173 -2.0017 0.9710
-5.5848 4.3364 -2.0017 0.9710
-6.2664 3.2751 -2.0017 0.9710
-6.5336 2.7031 -2.0017 0.9710
-6.9099 1.4992 -2.0017 0.9710
-7.0161 0.8768 -2.0017 0.9710
-7.0663 0.2475 -2.0017 0.9710
-7.0603 -0.3838 -2.0017 0.9710
-6.9979 -1.0120 -2.0017 0.9710
-6.7067 -2.2393 -2.0017 0.9710
-5.5001 -4.4433 -2.0017 0.9710
-5.0819 -4.9162 -2.0017 0.9710
-4.6231 -5.3499 -2.0017 0.9710
-3.5990 -6.0862 -2.0017 0.9710
-3.0417 -6.3830 -2.0017 0.9710
-2.4603 -6.6289 -2.0017 0.9710
0.6439 -7.0413 -2.0017 0.9710
1.2694 -6.9558 -2.0017 0.9710
3.0657 -6.3715 -2.0017 0.9710
3.6218 -6.0727 -2.0017 0.9710
4.1490 -5.7254 -2.0017 0.9710
4.6432 -5.3325 -2.0017 0.9710
6.2148 -3.3720 -2.0017 0.9710
7.0654 0.2741 -2.0017 0.9710
7.0128 0.9032 -2.0017 0.9710
6.7407 2.1349 -2.0017 0.9710
6.5234 2.7276 -2.0017 0.9710
5.5685 4.3574 -2.0017 0.9710
5.1576 4.8367 -2.0017 0.9710
4.2162 5.6761 -2.0017 0.9710
3.6931 6.0296 -2.0017 0.9710
1.3512 6.9404 -2.0017 0.9710
0.0965 7.0700 -2.0017 0.9710
-0.5345 7.0504 -2.0017 0.9710
-2.3820 6.6574 -2.0017 0.9710
-3.5270 6.1282 -2.0017 0.9710
-4.0596 5.7892 -2.0017 0.9710
-4.5598 5.4040 -2.0017 0.9710
-5.4474 4.5078 -2.0017 0.9710
-5.8278 4.0039 -2.0017 0.9710
-6.1617 3.4681 -2.0017 0.9710
-6.4465 2.9047 -2.0017 0.9710
-6.6799 2.3181 -2.0017 0.9710
-6.9855 1.0943 -2.0017 0.9710
-6.7730 -2.0299 -2.0017 0.9710
-6.5650 -2.6260 -2.0017 0.9710
-6.3046 -3.2010 -2.0017 0.9710
-2.6649 -6.5492 -2.0017 0.9710
-0.8359 -7.0211 -2.0017 0.9710
-0.2063 -7.0677 -2.0017 0.9710
0.4249 -7.0579 -2.0017 0.9710
2.2783 -6.6936 -2.0017 0.9710
2.8663 -6.4637 -2.0017 0.9710
3.9692 -5.8515 -2.0017 0.9710
4.4753 -5.4742 -2.0017 0.9710
5.7649 -4.0940 -2.0017 0.9710
6.4006 -3.0045 -2.0017 0.9710
6.6431 -2.4216 -2.0017 0.9710
6.8326 -1.8194 -2.0017 0.9710
6.9676 -1.2027 -2.0017 0.9710
7.0705 0.0545 -2.0017 0.9710
6.8037 1.9245 -2.0017 0.9710
6.6050 2.5237 -2.0017 0.9710
5.7011 4.1823 -2.0017 0.9710
-2.4051 6.0471 -2.0017 0.9731
-4.3680 4.8241 -2.0017 0.9731
-5.1556 3.9713 -2.0017 0.9731
-5.7792 2.9920 -2.0017 0.9731
-6.0231 2.4646 -2.0017 0.9731
-6.2189 1.9175 -2.0017 0.9731
-6.3651 1.3552 -2.0017 0.9731
-6.5046 0.2026 -2.0017 0.9731
-6.4371 -0.9564 -2.0017 0.9731
-6.1648 -2.0849 -2.0017 0.9731
-5.9542 -2.6265 -2.0017 0.9731
-5.3928 -3.6427 -2.0017 0.9731
-5.0464 -4.1092 -2.0017 0.9731
-4.2360 -4.9405 -2.0017 0.9731
-3.7784 -5.2986 -2.0017 0.9731
-3.2907 -5.6145 -2.0017 0.9731
-1.6868 -6.2854 -2.0017 0.9731
-0.5432 -6.4851 -2.0017 0.9731
0.0375 -6.5077 -2.0017 0.9731
1.1932 -6.3975 -2.0017 0.9731
1.7590 -6.2656 -2.0017 0.9731
2.8443 -5.8533 -2.0017 0.9731
3.8391 -5.2548 -2.0017 0.9731
5.4344 -3.5804 -2.0017 0.9731
5.9841 -2.5578 -2.0017 0.9731
6.4477 -0.8823 -2.0017 0.9731
6.5007 -0.3036 -2.0017 0.9731
6.4512 0.8563 -2.0017 0.9731
6.3491 1.4283 -2.0017 0.9731
6.1964 1.9889 -2.0017 0.9731
5.4487 3.5585 -2.0017 0.9731
2.8679 5.8418 -2.0017 0.9731
2.3354 6.0743 -2.0017 0.9731
1.7842 6.2584 -2.0017 0.9731
0.6438 6.4759 -2.0017 0.9731
0.0636 6.5075 -2.0017 0.9731
-0.5171 6.4872 -2.0017 0.9731
-1.6615 6.2921 -2.0017 0.9731
-2.2161 6.1188 -2.0017 0.9731
-3.2681 5.6277 -2.0017 0.9731
-4.2160 4.9575 -2.0017 0.9731
-5.6835 3.1700 -2.0017 0.9731
-5.9436 2.6505 -2.0017 0.9731
-6.3200 1.5522 -2.0017 0.9731
-6.4952 0.4045 -2.0017 0.9731
-6.5054 -0.1764 -2.0017 0.9731
-6.4637 -0.7560 -2.0017 0.9731
-6.2266 -1.8925 -2.0017 0.9731
-6.0329 -2.4403 -2.0017 0.9731
-5.5033 -3.4734 -2.0017 0.9731
-5.1716 -3.9505 -2.0017 0.9731
-3.9411 -5.1787 -2.0017 0.9731
-3.4635 -5.5096 -2.0017 0.9731
-2.9583 -5.7966 -2.0017 0.9731
-0.7443 -6.4651 -2.0017 0.9731
0.4162 -6.4945 -2.0017 0.9731
1.5636 -6.3172 -2.0017 0.9731
2.1208 -6.1525 -2.0017 0.9731
2.6612 -5.9388 -2.0017 0.9731
3.6741 -5.3715 -2.0017 0.9731
4.1385 -5.0224 -2.0017 0.9731
4.5700 -4.6332 -2.0017 0.9731
5.3205 -3.7475 -2.0017 0.9731
6.1228 -2.2051 -2.0017 0.9731
6.4172 -1.0821 -2.0017 0.9731
6.5074 0.0754 -2.0017 0.9731
6.4747 0.6555 -2.0017 0.9731
6.2552 1.7955 -2.0017 0.9731
6.0701 2.3463 -2.0017 0.9731
5.8366 2.8784 -2.0017 0.9731
5.5566 3.3875 -2.0017 0.9731
5.2323 3.8697 -2.0017 0.9731
4.8663 4.3210 -2.0017 0.9731
4.4615 4.7378 -2.0017 0.9731
4.0211 5.1169 -2.0017 0.9731
2.5229 5.9989 -2.0017 0.9731
1.4169 6.3517 -2.0017 0.9731
0.8447 6.4528 -2.0017 0.9731
0.2657 6.5024 -2.0017 0.9731
-0.8939 6.4461 -2.0017 0.9731
-3.0917 5.7265 -2.0017 0.9731
-4.4975 4.7036 -2.0017 0.9731
-5.2617 3.8296 -2.0017 0.9731
-5.5823 3.3450 -2.0017 0.9731
-6.2687 1.7477 -2.0017 0.9731
-6.4795 0.6061 -2.0017 0.9731
-6.4841 -0.5549 -2.0017 0.9731
-6.1058 -2.2518 -2.0017 0.9731
-5.8806 -2.7874 -2.0017 0.9731
-5.6086 -3.3008 -2.0017 0.9731
-4.9328 -4.2448 -2.0017 0.9731
-4.5345 -4.6679 -2.0017 0.9731
-4.1001 -5.0538 -2.0017 0.9731
-3.6330 -5.3994 -2.0017 0.9731
-3.1369 -5.7019 -2.0017 0.9731
-1.5153 -6.3289 -2.0017 0.9731
-0.9448 -6.4389 -2.0017 0.9731
-0.3667 -6.4975 -2.0017 0.9731
0.2143 -6.5043 -2.0017 0.9731
1.3666 -6.3627 -2.0017 0.9731
2.4754 -6.0186 -2.0017 0.9731
3.0024 -5.7738 -2.0017 0.9731
5.2016 -3.9109 -2.0017 0.9731
5.8137 -2.9244 -2.0017 0.9731
6.0514 -2.3942 -2.0017 0.9731
6.2408 -1.8449 -2.0017 0.9731
6.3805 -1.2809 -2.0017 0.9731
6.4693 -0.7067 -2.0017 0.9731
6.5066 -0.1268 -2.0017 0.9731
6.1401 2.1566 -2.0017 0.9731
5.9232 2.6957 -2.0017 0.9731
5.3500 3.7053 -2.0017 0.9731
4.9982 4.1677 -2.0017 0.9731
4.1781 4.9895 -2.0017 0.9731
2.7080 5.9176 -2.0017 0.9731
1.0447 6.4234 -2.0017 0.9731
0.4676 6.4910 -2.0017 0.9731
-1.2676 6.3831 -2.0017 0.9731
-1.8319 6.2446 -2.0017 0.9731
-3.9001 5.2097 -2.0017 0.9731
-4.3492 4.8410 -2.0017 0.9731
-5.1402 3.9912 -2.0017 0.9731
-5.4757 3.5168 -2.0017 0.9731
-5.7676 3.0144 -2.0017 0.9731
-6.0135 2.4879 -2.0017 0.9731
-6.2114 1.9416 -2.0017 0.9731
-6.3598 1.3798 -2.0017 0.9731
-6.4576 0.8070 -2.0017 0.9731
-6.5038 0.2278 -2.0017 0.9731
-6.3321 -1.5022 -2.0017 0.9731
-5.4069 -3.6218 -2.0017 0.9731
-4.6773 -4.5248 -2.0017 0.9731
-4.2551 -4.9240 -2.0017 0.9731
-3.7989 -5.2839 -2.0017 0.9731
-3.3125 -5.6017 -2.0017 0.9731
-1.1443 -6.4064 -2.0017 0.9731
-0.5683 -6.4829 -2.0017 0.9731
0.0122 -6.5078 -2.0017 0.9731
0.5926 -6.4808 -2.0017 0.9731
1.1684 -6.4021 -2.0017 0.9731
1.7348 -6.2723 -2.0017 0.9731
2.8216 -5.8643 -2.0017 0.9731
4.6943 -4.5073 -2.0017 0.9731
5.4204 -3.6014 -2.0017 0.9731
5.7201 -3.1036 -2.0017 0.9731
6.1805 -2.0378 -2.0017 0.9731
6.5029 0.2522 -2.0017 0.9731
6.4545 0.8313 -2.0017 0.9731
5.7562 3.0360 -2.0017 0.9731
5.4625 3.5373 -2.0017 0.9731
4.7470 4.4516 -2.0017 0.9731
3.8805 5.2243 -2.0017 0.9731
1.8085 6.2515 -2.0017 0.9731
0.6689 6.4733 -2.0017 0.9731
0.0889 6.5072 -2.0017 0.9731
-1.0688 6.4194 -2.0017 0.9731
-1.6371 6.2985 -2.0017 0.9731
-2.1924 6.1274 -2.0017 0.9731
-4.1968 4.9738 -2.0017 0.9731
-4.6237 4.5796 -2.0017 0.9731
-6.3139 1.5767 -2.0017 0.9731
-6.4294 1.0072 -2.0017 0.9731
-6.2339 -1.8683 -2.0017 0.9731
-6.0424 -2.4169 -2.0017 0.9731
-5.1869 -3.9304 -2.0017 0.9731
-4.4060 -4.7895 -2.0017 0.9731
-3.9612 -5.1634 -2.0017 0.9731
-2.9807 -5.7851 -2.0017 0.9731
-1.9054 -6.2226 -2.0017 0.9731
-1.3427 -6.3678 -2.0017 0.9731
-0.7694 -6.4622 -2.0017 0.9731
3.6532 -5.3857 -2.0017 0.9731
4.5520 -4.6509 -2.0017 0.9731
4.9487 -4.2263 -2.0017 0.9731
5.6209 -3.2798 -2.0017 0.9731
5.8911 -2.7653 -2.0017 0.9731
6.1142 -2.2288 -2.0017 0.9731
6.4772 0.6304 -2.0017 0.9731
6.3952 1.2056 -2.0017 0.9731
6.0792 2.3228 -2.0017 0.9731
5.2473 3.8494 -2.0017 0.9731
4.8830 4.3021 -2.0017 0.9731
-2.7157 5.3746 -2.0017 0.9749
-3.6275 4.8065 -2.0017 0.9749
-4.7706 3.6746 -2.0017 0.9749
-5.3476 2.7685 -2.0017 0.9749
-5.5732 2.2805 -2.0017 0.9749
-5.9781 0.7236 -2.0017 0.9749
-6.0116 -0.3501 -2.0017 0.9749
-5.9564 -0.8849 -2.0017 0.9749
-5.8537 -1.4127 -2.0017 0.9749
-5.5095 -2.4303 -2.0017 0.9749
-4.9900 -3.3706 -2.0017 0.9749
-2.5694 -5.4461 -2.0017 0.9749
-2.0734 -5.6535 -2.0017 0.9749
-1.0358 -5.9320 -2.0017 0.9749
0.5716 -5.9946 -2.0017 0.9749
1.1040 -5.9197 -2.0017 0.9749
1.6277 -5.7976 -2.0017 0.9749
2.1383 -5.6293 -2.0017 0.9749
2.6319 -5.4161 -2.0017 0.9749
3.1045 -5.1598 -2.0017 0.9749
3.5524 -4.8623 -2.0017 0.9749
4.3598 -4.1537 -2.0017 0.9749
4.7129 -3.7483 -2.0017 0.9749
5.0285 -3.3130 -2.0017 0.9749
5.3040 -2.8512 -2.0017 0.9749
5.5371 -2.3668 -2.0017 0.9749
5.7262 -1.8634 -2.0017 0.9749
5.9662 -0.8164 -2.0017 0.9749
6.0152 -0.2809 -2.0017 0.9749
6.0163 0.2567 -2.0017 0.9749
5.9694 0.7923 -2.0017 0.9749
5.8749 1.3216 -2.0017 0.9749
5.7336 1.8404 -2.0017 0.9749
5.5466 2.3445 -2.0017 0.9749
5.0418 3.2927 -2.0017 0.9749
4.3765 4.1362 -2.0017 0.9749
3.9901 4.5100 -2.0017 0.9749
2.1609 5.6206 -2.0017 0.9749
1.6510 5.7910 -2.0017 0.9749
1.1279 5.9152 -2.0017 0.9749
0.0589 6.0215 -2.0017 0.9749
-0.4785 6.0027 -2.0017 0.9749
-1.5374 5.8222 -2.0017 0.9749
-5.8479 1.4363 -2.0017 0.9749
-5.9527 0.9089 -2.0017 0.9749
-6.0101 0.3743 -2.0017 0.9749
-5.9810 -0.6995 -2.0017 0.9749
-4.4402 -4.0677 -2.0017 0.9749
-3.2048 -5.0981 -2.0017 0.9749
-2.7373 -5.3636 -2.0017 0.9749
-1.7407 -5.7647 -2.0017 0.9749
-1.2196 -5.8969 -2.0017 0.9749
0.3852 -6.0094 -2.0017 0.9749
0.9196 -5.9511 -2.0017 0.9749
1.4468 -5.8454 -2.0017 0.9749
2.4624 -5.4953 -2.0017 0.9749
2.9428 -5.2537 -2.0017 0.9749
3.8294 -4.6472 -2.0017 0.9749
4.9232 -3.4676 -2.0017 0.9749
5.2128 -3.0146 -2.0017 0.9749
5.4609 -2.5376 -2.0017 0.9749
5.8249 -1.5269 -2.0017 0.9749
5.9379 -1.0013 -2.0017 0.9749
6.0213 0.0697 -2.0017 0.9749
5.9911 0.6065 -2.0017 0.9749
5.7880 1.6614 -2.0017 0.9749
5.4007 2.6634 -2.0017 0.9749
5.1416 3.1345 -2.0017 0.9749
4.5028 3.9982 -2.0017 0.9749
4.1283 4.3839 -2.0017 0.9749
3.2836 5.0477 -2.0017 0.9749
1.3110 5.8773 -2.0017 0.9749
0.2459 6.0167 -2.0017 0.9749
-1.3558 5.8671 -2.0017 0.9749
-1.8738 5.7228 -2.0017 0.9749
-2.3768 5.5328 -2.0017 0.9749
-3.3220 5.0225 -2.0017 0.9749
-4.8687 3.5436 -2.0017 0.9749
-5.1654 3.0952 -2.0017 0.9749
-5.6331 2.1281 -2.0017 0.9749
-5.8005 1.6172 -2.0017 0.9749
-5.9216 1.0934 -2.0017 0.9749
-6.0217 0.0238 -2.0017 0.9749
-5.9998 -0.5134 -2.0017 0.9749
-5.6498 -2.0836 -2.0017 0.9749
-5.4414 -2.5792 -2.0017 0.9749
-4.8965 -3.5050 -2.0017 0.9749
-4.5644 -3.9278 -2.0017 0.9749
-3.7939 -4.6763 -2.0017 0.9749
-3.3616 -4.9961 -2.0017 0.9749
-2.9026 -5.2760 -2.0017 0.9749
-2.4204 -5.5139 -2.0017 0.9749
-1.9189 -5.7078 -2.0017 0.9749
-0.3393 -6.0122 -2.0017 0.9749
0.7344 -5.9768 -2.0017 0.9749
1.7847 -5.7512 -2.0017 0.9749
2.2905 -5.5691 -2.0017 0.9749
4.0935 -4.4164 -2.0017 0.9749
4.4711 -4.0337 -2.0017 0.9749
4.8131 -3.6188 -2.0017 0.9749
5.3795 -2.7060 -2.0017 0.9749
5.5994 -2.2154 -2.0017 0.9749
5.7747 -1.7071 -2.0017 0.9749
5.9861 -0.6539 -2.0017 0.9749
6.0206 -0.1173 -2.0017 0.9749
6.0071 0.4202 -2.0017 0.9749
5.8368 1.4808 -2.0017 0.9749
4.2624 4.2536 -2.0017 0.9749
2.9842 5.2303 -2.0017 0.9749
2.5058 5.4756 -2.0017 0.9749
2.0074 5.6773 -2.0017 0.9749
0.9667 5.9436 -2.0017 0.9749
0.4326 6.0062 -2.0017 0.9749
-0.1048 6.0208 -2.0017 0.9749
-1.1730 5.9064 -2.0017 0.9749
-2.2038 5.6040 -2.0017 0.9749
-2.6948 5.3851 -2.0017 0.9749
-4.0244 4.4795 -2.0017 0.9749
-4.4079 4.1026 -2.0017 0.9749
-4.7563 3.6931 -2.0017 0.9749
-5.3368 2.7892 -2.0017 0.9749
-5.5643 2.3021 -2.0017 0.9749
-5.7475 1.7966 -2.0017 0.9749
-5.9753 0.7468 -2.0017 0.9749
-6.0129 -0.3268 -2.0017 0.9749
-5.9598 -0.8619 -2.0017 0.9749
-5.5189 -2.4090 -2.0017 0.9749
-5.0031 -3.3512 -2.0017 0.9749
-4.6842 -3.7841 -2.0017 0.9749
-3.9373 -4.5562 -2.0017 0.9749
-3.0650 -5.1833 -2.0017 0.9749
-2.5905 -5.4361 -2.0017 0.9749
-1.0588 -5.9279 -2.0017 0.9749
0.0113 -6.0217 -2.0017 0.9749
0.5484 -5.9967 -2.0017 0.9749
1.0811 -5.9239 -2.0017 0.9749
3.5335 -4.8760 -2.0017 0.9749
3.9543 -4.5414 -2.0017 0.9749
4.3437 -4.1706 -2.0017 0.9749
4.6984 -3.7665 -2.0017 0.9749
5.5279 -2.3882 -2.0017 0.9749
5.8643 -1.3680 -2.0017 0.9749
6.0141 -0.3043 -2.0017 0.9749
5.9724 0.7692 -2.0017 0.9749
5.7407 1.8181 -2.0017 0.9749
4.0076 4.4945 -2.0017 0.9749
3.1452 5.1351 -2.0017 0.9749
2.6746 5.3952 -2.0017 0.9749
2.1827 5.6122 -2.0017 0.9749
1.1508 5.9108 -2.0017 0.9749
0.0822 6.0212 -2.0017 0.9749
-0.4552 6.0045 -2.0017 0.9749
-1.5148 5.8281 -2.0017 0.9749
-2.5263 5.4662 -2.0017 0.9749
-3.8833 4.6023 -2.0017 0.9749
-4.6393 3.8391 -2.0017 0.9749
-4.9632 3.4099 -2.0017 0.9749
-5.2476 2.9536 -2.0017 0.9749
-5.4901 2.4738 -2.0017 0.9749
-5.8423 1.4589 -2.0017 0.9749
-5.9836 -0.6763 -2.0017 0.9749
-5.8994 -1.2074 -2.0017 0.9749
-5.5910 -2.2364 -2.0017 0.9749
-5.1047 -3.1942 -2.0017 0.9749
-4.7994 -3.6368 -2.0017 0.9749
-4.4559 -4.0504 -2.0017 0.9749
-4.0769 -4.4318 -2.0017 0.9749
-3.6653 -4.7777 -2.0017 0.9749
-3.2246 -5.0856 -2.0017 0.9749
-2.2696 -5.5777 -2.0017 0.9749
-1.7631 -5.7579 -2.0017 0.9749
-0.7119 -5.9795 -2.0017 0.9749
-0.1757 -6.0192 -2.0017 0.9749
0.8966 -5.9546 -2.0017 0.9749
1.4242 -5.8509 -2.0017 0.9749
2.4411 -5.5048 -2.0017 0.9749
2.9224 -5.2651 -2.0017 0.9749
3.3804 -4.9834 -2.0017 0.9749
3.8114 -4.6621 -2.0017 0.9749
4.9097 -3.4866 -2.0017 0.9749
5.4511 -2.5588 -2.0017 0.9749
5.6576 -2.0624 -2.0017 0.9749
5.8190 -1.5495 -2.0017 0.9749
5.9340 -1.0243 -2.0017 0.9749
6.0017 -0.4909 -2.0017 0.9749
6.0216 0.0464 -2.0017 0.9749
5.7944 1.6390 -2.0017 0.9749
5.4110 2.6424 -2.0017 0.9749
4.5183 3.9807 -2.0017 0.9749
-1.5965 5.3649 -2.0017 0.9765
-2.9599 4.7508 -2.0017 0.9765
-3.3718 4.4678 -2.0017 0.9765
-4.1120 3.7976 -2.0017 0.9765
-4.4344 3.4157 -2.0017 0.9765
-4.9707 2.5734 -2.0017 0.9765
-5.1804 2.1198 -2.0017 0.9765
-5.3489 1.6492 -2.0017 0.9765
-5.4747 1.1656 -2.0017 0.9765
-5.5568 0.6726 -2.0017 0.9765
-5.5366 -0.8226 -2.0017 0.9765
-5.3023 -1.7933 -2.0017 0.9765
-4.8993 -2.7069 -2.0017 0.9765
-4.6384 -3.1331 -2.0017 0.9765
-4.3404 -3.5343 -2.0017 0.9765
-4.0078 -3.9074 -2.0017 0.9765
-3.6433 -4.2493 -2.0017 0.9765
-2.3883 -5.0623 -2.0017 0.9765
-0.9628 -5.5139 -2.0017 0.9765
0.0322 -5.5973 -2.0017 0.9765
0.5313 -5.5721 -2.0017 0.9765
1.5130 -5.3890 -2.0017 0.9765
2.4464 -5.0344 -2.0017 0.9765
2.8857 -4.7962 -2.0017 0.9765
3.3020 -4.5196 -2.0017 0.9765
3.6920 -4.2071 -2.0017 0.9765
4.0526 -3.8610 -2.0017 0.9765
5.4559 -1.2505 -2.0017 0.9765
5.5457 -0.7588 -2.0017 0.9765
5.5923 0.2386 -2.0017 0.9765
5.5487 0.7365 -2.0017 0.9765
5.4609 1.2285 -2.0017 0.9765
4.9408 2.6304 -2.0017 0.9765
4.6865 3.0607 -2.0017 0.9765
4.3948 3.4665 -2.0017 0.9765
4.0681 3.8447 -2.0017 0.9765
3.7089 4.1922 -2.0017 0.9765
3.3202 4.5063 -2.0017 0.9765
2.0087 5.2245 -2.0017 0.9765
1.5346 5.3829 -2.0017 0.9765
1.0484 5.4983 -2.0017 0.9765
0.5538 5.5699 -2.0017 0.9765
0.0547 5.5971 -2.0017 0.9765
-1.9061 5.2628 -2.0017 0.9765
-2.8109 4.8404 -2.0017 0.9765
-3.2314 4.5704 -2.0017 0.9765
-4.6257 3.1517 -2.0017 0.9765
-4.8884 2.7266 -2.0017 0.9765
-5.2951 1.8146 -2.0017 0.9765
-5.5332 0.8449 -2.0017 0.9765
-5.5865 0.3480 -2.0017 0.9765
-5.5953 -0.1517 -2.0017 0.9765
-5.4793 -1.1435 -2.0017 0.9765
-4.9810 -2.5534 -2.0017 0.9765
-4.7334 -2.9875 -2.0017 0.9765
-3.7736 -4.1341 -2.0017 0.9765
-3.3898 -4.4542 -2.0017 0.9765
-2.9790 -4.7388 -2.0017 0.9765
-2.5444 -4.9856 -2.0017 0.9765
-2.0896 -5.1927 -2.0017 0.9765
-1.6181 -5.3584 -2.0017 0.9765
-1.1337 -5.4814 -2.0017 0.9765
0.8548 -5.5317 -2.0017 0.9765
1.8241 -5.2918 -2.0017 0.9765
