ply
format ascii 1.0
element vertex 1595
property float32 x
property float32 y
property float32 z
property float32 I
end_header
11.9505 2.2842 -2.0044 0.9519
11.6698 3.3323 -1.9993 0.9520
7.7603 4.7154 -1.4959 0.9639
9.0459 6.6692 -1.8514 0.9555
8.4144 7.4487 -1.8513 0.9555
7.7160 8.1685 -1.8511 0.9555
6.1411 9.4074 -1.8507 0.9555
4.3715 10.3463 -1.8503 0.9555
3.3746 10.5174 -1.8196 0.9562
2.3938 10.6455 -1.7975 0.9567
0.4647 10.8975 -1.7969 0.9567
-2.5066 10.9392 -1.8488 0.9555
-3.4717 10.6709 -1.8486 0.9555
-4.4089 10.3177 -1.8484 0.9555
-5.3108 9.8824 -1.8482 0.9555
-6.1702 9.3686 -1.8480 0.9555
-6.9804 8.7803 -1.8479 0.9555
-7.7349 8.1222 -1.8477 0.9555
-8.4277 7.3996 -1.8476 0.9556
-9.0533 6.6182 -1.8475 0.9556
-9.9243 5.9753 -1.9084 0.9541
-11.3431 4.3134 -1.9992 0.9520
-11.6822 3.2846 -1.9991 0.9520
-12.1347 0.0756 -1.9991 0.9520
-12.0933 -1.0068 -1.9991 0.9520
-10.4757 -6.1308 -1.9996 0.9520
7.0876 6.8371 -1.8510 0.9607
5.7595 7.9859 -1.8507 0.9607
4.2485 8.8803 -1.8503 0.9607
3.4394 9.2229 -1.8502 0.9607
2.6031 9.4918 -1.8500 0.9607
1.7461 9.6851 -1.8498 0.9607
0.8755 9.8012 -1.8496 0.9607
-0.8793 9.7988 -1.8492 0.9607
-1.7493 9.6804 -1.8490 0.9608
-4.2479 8.8696 -1.8485 0.9608
-7.6581 6.1639 -1.8478 0.9608
-9.3406 5.0923 -1.9996 0.9576
-9.7570 4.2390 -1.9995 0.9576
-10.3543 2.4383 -1.9994 0.9576
-10.5304 1.5053 -1.9994 0.9576
-10.6227 0.5603 -1.9994 0.9576
-10.5535 -1.3355 -1.9995 0.9576
-10.3927 -2.2713 -1.9995 0.9576
-10.1491 -3.1891 -1.9996 0.9576
-9.8247 -4.0816 -1.9997 0.9576
-9.4221 -4.9416 -1.9998 0.9576
-8.3956 -6.5375 -2.0000 0.9576
-5.5821 -9.0632 -2.0007 0.9576
-2.9852 -10.2204 -2.0013 0.9576
-2.0621 -10.4470 -2.0015 0.9576
1.7210 -10.5130 -2.0023 0.9576
2.6519 -10.3187 -2.0025 0.9576
3.5618 -10.0422 -2.0027 0.9576
4.4435 -9.6855 -2.0029 0.9576
6.0943 -8.7437 -2.0033 0.9575
6.8502 -8.1660 -2.0034 0.9575
7.5516 -7.5232 -2.0036 0.9575
8.1929 -6.8203 -2.0037 0.9575
9.2751 -5.2571 -2.0039 0.9575
10.0621 -3.5263 -2.0041 0.9575
10.3366 -2.6150 -2.0041 0.9575
10.5288 -1.6829 -2.0041 0.9575
10.5985 1.1638 -2.0041 0.9575
9.1580 3.6284 -1.8515 0.9607
7.8696 5.9218 -1.8512 0.9607
7.3097 6.5995 -1.8511 0.9607
6.6916 7.2244 -1.8509 0.9607
4.5396 8.7355 -1.8504 0.9607
3.7422 9.1046 -1.8502 0.9607
2.9152 9.4011 -1.8500 0.9607
2.0651 9.6226 -1.8498 0.9607
1.1987 9.7674 -1.8497 0.9607
-0.5552 9.8229 -1.8493 0.9607
-2.2908 9.5661 -1.8489 0.9608
-3.1343 9.3228 -1.8487 0.9608
-7.4506 6.4136 -1.8478 0.9608
-8.0329 5.7524 -1.8571 0.9606
-9.9798 3.6835 -1.9995 0.9576
-10.2682 2.7789 -1.9995 0.9576
-10.4750 1.8522 -1.9994 0.9576
-10.5984 0.9108 -1.9994 0.9576
-10.5918 -0.9863 -1.9995 0.9576
-9.5800 -4.6277 -1.9997 0.9576
-9.1297 -5.4638 -1.9999 0.9576
-8.6067 -6.2566 -2.0000 0.9576
-8.0151 -6.9996 -2.0001 0.9576
-6.6454 -8.3133 -2.0005 0.9576
-4.2093 -9.7785 -2.0010 0.9576
-3.3209 -10.1159 -2.0012 0.9576
-2.4059 -10.3728 -2.0014 0.9576
-1.4715 -10.5471 -2.0016 0.9576
0.4254 -10.6430 -2.0021 0.9576
1.3729 -10.5637 -2.0023 0.9576
2.3096 -10.4003 -2.0025 0.9576
4.9813 -9.4208 -2.0030 0.9576
6.5766 -8.3875 -2.0034 0.9575
7.2989 -7.7683 -2.0035 0.9575
7.9630 -7.0870 -2.0037 0.9575
8.5638 -6.3490 -2.0038 0.9575
9.0962 -5.5604 -2.0039 0.9575
9.5562 -4.7274 -2.0040 0.9575
10.2446 -2.9549 -2.0041 0.9575
10.4674 -2.0297 -2.0041 0.9575
10.6068 -1.0882 -2.0041 0.9575
10.6616 -0.1381 -2.0041 0.9575
10.5162 1.7579 -2.0041 0.9575
10.3172 2.6885 -2.0040 0.9575
9.6041 3.4428 -1.9177 0.9593
8.9392 4.1375 -1.8515 0.9607
7.9274 4.5682 -1.7197 0.9634
8.0611 5.6589 -1.8512 0.9607
6.9267 6.9997 -1.8510 0.9607
4.8258 8.5811 -1.8505 0.9607
4.0410 8.9764 -1.8503 0.9607
3.2241 9.3000 -1.8501 0.9607
1.5206 9.7228 -1.8497 0.9607
0.6475 9.8187 -1.8495 0.9607
-1.1067 9.7755 -1.8491 0.9608
-1.9737 9.6369 -1.8490 0.9608
-2.8249 9.4216 -1.8488 0.9608
-4.4527 8.7683 -1.8484 0.9608
-7.2349 6.6562 -1.8479 0.9608
-7.7992 5.9842 -1.8477 0.9608
-8.9621 5.6838 -1.9947 0.9577
-9.8528 4.0111 -1.9995 0.9576
-10.5625 1.2602 -1.9994 0.9576
-10.6328 0.3134 -1.9994 0.9576
-10.3372 -2.5122 -1.9995 0.9576
-10.0724 -3.4241 -1.9996 0.9576
-8.8084 -5.9688 -1.9999 0.9576
-7.6092 -7.4396 -2.0002 0.9576
-6.1677 -8.6744 -2.0006 0.9576
-5.3702 -9.1906 -2.0008 0.9576
-4.5297 -9.6338 -2.0010 0.9576
-1.8189 -10.4923 -2.0016 0.9576
1.9649 -10.4705 -2.0024 0.9576
2.8910 -10.2546 -2.0026 0.9576
4.6674 -9.5798 -2.0030 0.9576
5.5035 -9.1263 -2.0032 0.9576
7.7245 -7.3459 -2.0036 0.9575
8.3493 -6.6282 -2.0037 0.9575
8.9075 -5.8577 -2.0038 0.9575
9.3948 -5.0402 -2.0039 0.9575
10.1413 -3.2915 -2.0041 0.9575
10.6512 -0.4900 -2.0041 0.9575
10.6524 0.4617 -2.0041 0.9575
10.4005 2.3464 -2.0040 0.9575
10.1236 3.2560 -1.9988 0.9576
8.2438 5.3898 -1.8513 0.9607
7.1543 6.7674 -1.8510 0.9607
6.5218 7.3778 -1.8509 0.9607
4.3353 8.8384 -1.8504 0.9607
2.6959 9.4660 -1.8500 0.9607
1.8409 9.6677 -1.8498 0.9607
0.0943 9.8389 -1.8494 0.9607
-2.5123 9.5100 -1.8488 0.9608
-3.3500 9.2472 -1.8487 0.9608
-4.1608 8.9109 -1.8485 0.9608
-6.3693 7.4900 -1.8480 0.9608
-7.0113 6.8917 -1.8479 0.9608
-8.5044 5.7959 -1.9344 0.9590
-9.2903 5.1835 -1.9996 0.9576
-10.0626 3.4507 -1.9995 0.9576
-10.3300 2.5396 -1.9994 0.9576
-10.5152 1.6083 -1.9994 0.9576
-10.6167 0.6643 -1.9994 0.9576
-10.5661 -1.2321 -1.9995 0.9576
-10.4144 -2.1695 -1.9995 0.9576
-10.1798 -3.0896 -1.9996 0.9576
-9.8642 -3.9851 -1.9997 0.9576
-9.4700 -4.8491 -1.9998 0.9576
-7.8505 -7.1841 -2.0002 0.9576
-5.6705 -9.0080 -2.0007 0.9576
-3.9810 -9.8739 -2.0011 0.9576
-3.0851 -10.1906 -2.0013 0.9576
0.6726 -10.6305 -2.0021 0.9576
2.5507 -10.3441 -2.0025 0.9576
4.3484 -9.7284 -2.0029 0.9576
6.0083 -8.8028 -2.0033 0.9575
7.4775 -7.5967 -2.0036 0.9575
8.1257 -6.9002 -2.0037 0.9575
9.6636 -4.5041 -2.0040 0.9575
10.3105 -2.7161 -2.0041 0.9575
10.6292 -0.8415 -2.0041 0.9575
10.6619 0.1097 -2.0041 0.9575
10.2519 2.9275 -2.0040 0.9575
6.0963 7.7324 -1.8508 0.9607
5.3820 8.2445 -1.8506 0.9607
3.8312 9.0676 -1.8502 0.9607
1.2943 9.7553 -1.8497 0.9607
0.4192 9.8308 -1.8495 0.9607
-1.3334 9.7469 -1.8491 0.9608
-2.1970 9.5882 -1.8489 0.9608
-3.0429 9.3531 -1.8487 0.9608
-4.6551 8.6623 -1.8484 0.9608
-5.4085 8.2120 -1.8482 0.9608
-6.7801 7.1196 -1.8479 0.9608
-7.3875 6.4862 -1.8478 0.9608
-7.9360 5.8013 -1.8477 0.9608
-9.9433 3.7811 -1.9995 0.9576
-10.4564 1.9547 -1.9994 0.9576
-10.5889 1.0145 -1.9994 0.9576
-10.6373 0.0662 -1.9994 0.9576
-10.6009 -0.8826 -1.9995 0.9576
-8.6675 -6.1719 -2.0000 0.9576
-7.4344 -7.6145 -2.0003 0.9576
-6.7264 -8.2478 -2.0004 0.9576
6.8192 5.4933 -1.8510 0.9648
4.4671 7.5284 -1.8504 0.9648
3.0583 8.2008 -1.8501 0.9648
2.3146 8.4400 -1.8499 0.9649
1.5527 8.6120 -1.8498 0.9649
-0.0018 8.7492 -1.8494 0.9649
-1.5556 8.6082 -1.8491 0.9649
-3.7775 7.8875 -1.8486 0.9649
-4.4654 7.5186 -1.8484 0.9649
-5.1177 7.0900 -1.8483 0.9649
-6.9772 5.6159 -1.8932 0.9640
-7.8701 5.2515 -1.9999 0.9621
-8.3067 4.5287 -1.9999 0.9621
-8.9785 2.9810 -1.9997 0.9621
-9.3649 1.3387 -1.9997 0.9621
-9.4470 0.4983 -1.9997 0.9621
-9.4539 -0.3461 -1.9997 0.9621
-9.2424 -2.0199 -1.9998 0.9621
-8.7372 -3.6298 -1.9999 0.9621
-6.9185 -6.4568 -2.0004 0.9620
-5.6624 -7.5842 -2.0007 0.9620
-4.9640 -8.0595 -2.0008 0.9620
-2.6545 -9.0883 -2.0014 0.9620
2.3580 -9.1751 -2.0025 0.9620
3.1670 -8.9291 -2.0026 0.9620
4.7035 -8.2259 -2.0030 0.9620
6.0907 -7.2606 -2.0032 0.9620
6.7143 -6.6890 -2.0034 0.9620
7.7965 -5.3906 -2.0036 0.9620
8.6307 -3.9203 -2.0037 0.9620
9.1903 -2.3250 -2.0038 0.9620
9.4780 0.1903 -2.0039 0.9620
9.4231 1.0347 -2.0038 0.9620
9.0890 2.6919 -2.0037 0.9620
7.4391 4.6206 -1.8511 0.9648
6.9971 5.2652 -1.8510 0.9648
6.4993 5.8678 -1.8509 0.9648
5.9497 6.4235 -1.8508 0.9648
5.3529 6.9279 -1.8506 0.9648
4.0365 7.7673 -1.8503 0.9648
1.8362 8.5563 -1.8498 0.9649
-1.2705 8.6551 -1.8491 0.9649
-6.0912 6.2721 -1.8481 0.9649
-6.6258 5.7036 -1.8480 0.9649
-7.6753 5.4963 -1.9955 0.9621
-8.1527 4.8005 -1.9999 0.9621
-9.4254 0.8100 -1.9997 0.9621
-9.3040 -1.7136 -1.9998 0.9621
-7.6539 -5.5639 -2.0002 0.9621
-7.1277 -6.2247 -2.0003 0.9620
-5.9096 -7.3928 -2.0006 0.9620
-5.2272 -7.8910 -2.0008 0.9620
-3.7431 -8.6955 -2.0011 0.9620
-2.1394 -9.2237 -2.0015 0.9620
-1.3085 -9.3786 -2.0017 0.9620
-0.4670 -9.4588 -2.0018 0.9620
0.3783 -9.4637 -2.0020 0.9620
1.2208 -9.3931 -2.0022 0.9620
2.0537 -9.2477 -2.0024 0.9620
3.6643 -8.7373 -2.0027 0.9620
4.4292 -8.3765 -2.0029 0.9620
5.8475 -7.4576 -2.0032 0.9620
6.4896 -6.9069 -2.0033 0.9620
7.0800 -6.3011 -2.0034 0.9620
7.6141 -5.6450 -2.0036 0.9620
9.4522 0.7230 -2.0038 0.9620
9.1730 2.3903 -2.0037 0.9620
8.9116 3.1946 -2.0011 0.9620
6.6897 5.6501 -1.8509 0.9648
6.1588 6.2237 -1.8508 0.9648
5.5789 6.7476 -1.8507 0.9648
4.9546 7.2176 -1.8505 0.9648
4.2909 7.6300 -1.8504 0.9648
2.1178 8.4913 -1.8499 0.9649
0.5757 8.7309 -1.8495 0.9649
-2.5120 8.3781 -1.8489 0.9649
-3.9596 7.7974 -1.8486 0.9649
-7.3643 5.6506 -1.9621 0.9628
-7.9899 5.0672 -1.9999 0.9621
-8.4096 4.3344 -1.9998 0.9621
-9.2562 1.9539 -1.9997 0.9621
-9.3935 1.1208 -1.9997 0.9621
-9.4560 0.2787 -1.9997 0.9621
-9.4433 -0.5656 -1.9997 0.9621
-9.1930 -2.2341 -1.9998 0.9621
-8.9575 -3.0451 -1.9999 0.9621
-8.6507 -3.8318 -1.9999 0.9621
-8.2749 -4.5882 -2.0000 0.9621
-7.3292 -5.9858 -2.0003 0.9621
-6.1503 -7.1935 -2.0005 0.9620
-5.4848 -7.7138 -2.0007 0.9620
-4.0280 -8.5668 -2.0010 0.9620
-1.6174 -9.3300 -2.0016 0.9620
0.9099 -9.4280 -2.0021 0.9620
2.5706 -9.1181 -2.0025 0.9620
3.3737 -8.8533 -2.0027 0.9620
4.1500 -8.5179 -2.0028 0.9620
6.2578 -7.1173 -2.0033 0.9620
7.4234 -5.8932 -2.0035 0.9620
7.9198 -5.2079 -2.0036 0.9620
8.7195 -3.7188 -2.0038 0.9620
9.2418 -2.1109 -2.0038 0.9620
9.3933 -1.2784 -2.0039 0.9620
9.4699 -0.4357 -2.0039 0.9620
9.4710 0.4105 -2.0038 0.9620
9.3965 1.2533 -2.0038 0.9620
8.4335 3.5703 -1.9358 0.9633
7.3297 4.7921 -1.8511 0.9648
6.8727 5.4263 -1.8510 0.9648
5.1903 7.0503 -1.8506 0.9648
3.8548 7.8588 -1.8503 0.9648
3.1384 8.1705 -1.8501 0.9648
2.3972 8.4170 -1.8499 0.9649
1.6369 8.5965 -1.8498 0.9649
0.8638 8.7074 -1.8496 0.9649
0.0839 8.7489 -1.8494 0.9649
-0.6965 8.7207 -1.8493 0.9649
-1.4712 8.6231 -1.8491 0.9649
-2.2341 8.4568 -1.8489 0.9649
-2.9790 8.2232 -1.8488 0.9649
-3.7001 7.9241 -1.8486 0.9649
-4.3916 7.5620 -1.8485 0.9649
-5.0480 7.1398 -1.8483 0.9649
-5.6642 6.6608 -1.8482 0.9649
-7.8132 5.3249 -1.9986 0.9621
-8.2620 4.6098 -1.9999 0.9621
-8.6398 3.8546 -1.9998 0.9621
-8.9489 3.0687 -1.9997 0.9621
-9.1867 2.2585 -1.9997 0.9621
-9.3514 1.4303 -1.9997 0.9621
-9.4568 -0.2535 -1.9997 0.9621
-8.0041 -5.0464 -2.0001 0.9621
-6.3843 -6.9863 -2.0005 0.9620
-5.7363 -7.5283 -2.0006 0.9620
-5.0426 -8.0105 -2.0008 0.9620
-2.7433 -9.0618 -2.0013 0.9620
-1.9246 -9.2712 -2.0015 0.9620
-0.2472 -9.4674 -2.0019 0.9620
0.5981 -9.4526 -2.0021 0.9620
2.2680 -9.1977 -2.0024 0.9620
3.0794 -8.9596 -2.0026 0.9620
3.8664 -8.6500 -2.0028 0.9620
4.6227 -8.2715 -2.0029 0.9620
6.6484 -6.7544 -2.0034 0.9620
8.5919 -4.0046 -2.0037 0.9620
8.9150 -3.2226 -2.0038 0.9620
9.1670 -2.4149 -2.0038 0.9620
9.4328 0.9424 -2.0038 0.9620
9.3110 1.7797 -2.0038 0.9620
9.1149 2.6028 -2.0037 0.9620
8.8209 3.3953 -1.9979 0.9621
7.8602 3.8623 -1.8512 0.9648
7.0483 5.1965 -1.8510 0.9648
6.5565 5.8039 -1.8509 0.9648
6.0124 6.3650 -1.8508 0.9648
5.4205 6.8752 -1.8506 0.9648
4.7854 7.3306 -1.8505 0.9648
4.1124 7.7275 -1.8503 0.9648
1.9199 8.5380 -1.8498 0.9649
1.1509 8.6744 -1.8497 0.9649
0.3727 8.7416 -1.8495 0.9649
-1.1857 8.6672 -1.8491 0.9649
-1.9537 8.5262 -1.8490 0.9649
-3.4365 8.0422 -1.8487 0.9649
-4.1396 7.7031 -1.8485 0.9649
-6.5697 5.7682 -1.8480 0.9649
-7.6161 5.5676 -1.9942 0.9622
-8.1054 4.8802 -1.9999 0.9621
-8.8427 3.3626 -1.9998 0.9621
-9.1072 2.5606 -1.9997 0.9621
-9.4276 -0.7849 -1.9997 0.9621
-9.3203 -1.6224 -1.9997 0.9621
-9.1387 -2.4471 -1.9998 0.9621
-8.8844 -3.2524 -1.9999 0.9621
-8.5594 -4.0318 -2.0000 0.9621
-8.1662 -4.7792 -2.0001 0.9621
5.6675 5.4671 -1.8507 0.9682
5.1571 5.9503 -1.8506 0.9682
2.7505 7.3756 -1.8500 0.9682
2.0817 7.5908 -1.8499 0.9682
-0.7032 7.8370 -1.8493 0.9682
-1.3991 7.7424 -1.8491 0.9682
-2.0838 7.5862 -1.8490 0.9682
-2.7517 7.3696 -1.8488 0.9682
-4.6031 6.3771 -1.8484 0.9682
-5.1531 5.9409 -1.8483 0.9682
-5.6690 5.4642 -1.8505 0.9682
-6.6173 5.3262 -1.9964 0.9657
-7.0790 4.7237 -2.0001 0.9656
-8.0761 2.6814 -1.9999 0.9656
-8.2829 1.9505 -1.9999 0.9656
-8.4237 1.2041 -1.9999 0.9656
-8.4975 0.4482 -1.9999 0.9656
-8.4422 -1.0683 -1.9999 0.9656
-8.3135 -1.8169 -2.0000 0.9656
-7.1547 -4.6094 -2.0003 0.9656
-6.7156 -5.2293 -2.0004 0.9656
-6.2229 -5.8077 -2.0005 0.9656
-5.6806 -6.3398 -2.0006 0.9656
-4.4648 -7.2491 -2.0009 0.9656
-2.3875 -8.1742 -2.0014 0.9656
-1.6493 -8.3552 -2.0016 0.9656
-0.8977 -8.4697 -2.0017 0.9656
-0.1389 -8.5167 -2.0019 0.9656
2.1207 -8.2518 -2.0024 0.9656
3.5533 -7.7451 -2.0027 0.9656
4.8732 -6.9917 -2.0030 0.9656
6.0383 -6.0156 -2.0032 0.9656
7.0115 -4.8479 -2.0034 0.9656
7.7617 -3.5256 -2.0035 0.9656
8.0454 -2.8195 -2.0036 0.9656
8.2649 -2.0909 -2.0036 0.9656
8.3574 1.6824 -2.0036 0.9656
8.1738 2.4208 -2.0035 0.9656
7.9251 3.1400 -2.0035 0.9656
7.3701 3.7115 -1.9394 0.9667
5.3509 5.7769 -1.8506 0.9682
4.8141 6.2306 -1.8505 0.9682
2.3313 7.5182 -1.8499 0.9682
1.6515 7.6955 -1.8498 0.9682
0.9586 7.8114 -1.8496 0.9682
0.2582 7.8651 -1.8495 0.9682
-0.4441 7.8562 -1.8493 0.9682
-1.1427 7.7846 -1.8492 0.9682
-1.8322 7.6511 -1.8490 0.9682
-3.7910 6.8918 -1.8486 0.9682
-4.9543 6.1080 -1.8484 0.9682
-5.4789 5.6415 -1.8483 0.9682
-7.3333 4.3180 -2.0001 0.9656
-7.6888 3.6468 -2.0000 0.9656
-8.2140 2.2230 -1.9999 0.9656
-8.3794 1.4817 -1.9999 0.9656
-8.5093 -0.0303 -1.9999 0.9656
-8.1983 -2.2816 -2.0000 0.9656
-7.6632 -3.7018 -2.0002 0.9656
-4.0503 -7.4890 -2.0010 0.9656
-2.6560 -8.0907 -2.0013 0.9656
-1.1769 -8.4352 -2.0017 0.9656
-0.4201 -8.5072 -2.0018 0.9656
0.3402 -8.5115 -2.0020 0.9656
1.0979 -8.4480 -2.0022 0.9656
1.8470 -8.3171 -2.0023 0.9656
3.2955 -7.8580 -2.0026 0.9656
5.8363 -6.2116 -2.0032 0.9656
6.8475 -5.0767 -2.0034 0.9656
7.2732 -4.4460 -2.0035 0.9656
7.9478 -3.0836 -2.0036 0.9656
8.3694 -1.6228 -2.0036 0.9656
8.4808 -0.8701 -2.0037 0.9656
8.5246 -0.1103 -2.0036 0.9656
8.5004 0.6502 -2.0036 0.9656
8.4084 1.4055 -2.0036 0.9656
8.2494 2.1497 -2.0035 0.9656
7.7120 3.5695 -1.9972 0.9657
6.4457 4.5249 -1.8509 0.9682
6.0162 5.0813 -1.8508 0.9682
5.0173 6.0684 -1.8506 0.9682
3.8590 6.8621 -1.8503 0.9682
3.2315 7.1783 -1.8501 0.9682
2.5784 7.4373 -1.8500 0.9682
0.5178 7.8525 -1.8495 0.9682
-0.1844 7.8668 -1.8494 0.9682
-1.5786 7.7077 -1.8491 0.9682
-4.7500 6.2684 -1.8484 0.9682
-5.2897 5.8195 -1.8483 0.9682
-5.9639 5.4869 -1.9046 0.9672
-6.7485 5.1781 -1.9991 0.9657
-7.1868 4.5579 -2.0001 0.9656
-7.5643 3.8987 -2.0000 0.9656
-7.8816 3.2086 -2.0000 0.9656
-8.1361 2.4930 -1.9999 0.9656
-8.4494 1.0081 -1.9999 0.9656
-8.5056 0.2507 -1.9999 0.9656
-8.2691 -2.0096 -2.0000 0.9656
-8.0572 -2.7390 -2.0000 0.9656
-7.4431 -4.1270 -2.0002 0.9656
-6.5924 -5.3840 -2.0004 0.9656
-4.9333 -6.9382 -2.0008 0.9656
-4.2953 -7.3510 -2.0010 0.9656
-3.6229 -7.7053 -2.0011 0.9656
-2.9217 -7.9983 -2.0013 0.9656
-2.1970 -8.2276 -2.0014 0.9656
-1.4547 -8.3915 -2.0016 0.9656
-0.7007 -8.4885 -2.0018 0.9656
2.3119 -8.2005 -2.0024 0.9656
3.0342 -7.9623 -2.0026 0.9656
3.7323 -7.6606 -2.0027 0.9656
4.4008 -7.2978 -2.0029 0.9656
5.0344 -6.8767 -2.0030 0.9656
5.6279 -6.4008 -2.0031 0.9656
6.6761 -5.2999 -2.0033 0.9656
7.1224 -4.6837 -2.0034 0.9656
8.1087 -2.6318 -2.0036 0.9656
8.3112 -1.8983 -2.0036 0.9656
8.5163 -0.3918 -2.0037 0.9656
8.4503 1.1271 -2.0036 0.9656
8.3160 1.8761 -2.0036 0.9656
7.0606 3.7638 -1.8805 0.9677
6.5918 4.3097 -1.8509 0.9682
5.7208 5.4114 -1.8507 0.9682
5.2151 5.8996 -1.8506 0.9682
4.6679 6.3407 -1.8505 0.9682
4.0836 6.7312 -1.8503 0.9682
3.4669 7.0679 -1.8502 0.9682
2.1560 7.5701 -1.8499 0.9682
1.4722 7.7316 -1.8498 0.9682
0.0754 7.8688 -1.8494 0.9682
-0.6265 7.8436 -1.8493 0.9682
-1.3233 7.7558 -1.8491 0.9682
-2.0094 7.6063 -1.8490 0.9682
-2.6794 7.3962 -1.8488 0.9682
-3.3281 7.1273 -1.8487 0.9682
-3.9501 6.8017 -1.8486 0.9682
-5.0948 5.9911 -1.8483 0.9682
-5.6084 5.5127 -1.8482 0.9682
-6.5611 5.3876 -1.9953 0.9657
-7.0325 4.7928 -2.0001 0.9656
-7.4316 4.1464 -2.0001 0.9656
-7.7714 3.4671 -2.0000 0.9656
-8.0494 2.7603 -1.9999 0.9656
-8.5063 -0.2280 -1.9999 0.9656
-8.4522 -0.9856 -1.9999 0.9656
-8.3308 -1.7354 -2.0000 0.9656
-7.8906 -3.1878 -2.0001 0.9656
-7.5752 -3.8789 -2.0002 0.9656
-6.7664 -5.1633 -2.0004 0.9656
-6.2794 -5.7464 -2.0005 0.9656
-5.7424 -6.2838 -2.0006 0.9656
-5.1595 -6.7713 -2.0008 0.9656
-4.5355 -7.2050 -2.0009 0.9656
-1.7310 -8.3386 -2.0015 0.9656
-0.9806 -8.4604 -2.0017 0.9656
-0.2223 -8.5149 -2.0019 0.9656
6.9637 -4.9163 -2.0034 0.9656
7.3746 -4.2759 -2.0035 0.9656
7.7268 -3.6014 -2.0035 0.9656
8.2440 -2.1717 -2.0036 0.9656
8.4049 -1.4280 -2.0036 0.9656
8.5249 0.0877 -2.0036 0.9656
8.3735 1.6005 -2.0036 0.9656
6.7306 4.0897 -1.8510 0.9682
6.3388 4.6734 -1.8509 0.9682
5.8965 5.2197 -1.8508 0.9682
5.4072 5.7243 -1.8507 0.9682
4.8749 6.1832 -1.8505 0.9682
1.0351 7.8017 -1.8497 0.9682
-0.3671 7.8602 -1.8493 0.9682
-1.7572 7.6687 -1.8490 0.9682
-2.4338 7.4809 -1.8489 0.9682
-5.4234 5.6950 -1.8483 0.9682
-6.2822 5.5158 -1.9648 0.9662
-6.8705 5.0225 -2.0002 0.9656
-7.6528 3.7219 -2.0000 0.9656
-7.9540 3.0246 -2.0000 0.9656
-8.1918 2.3033 -1.9999 0.9656
-8.3645 1.5636 -1.9999 0.9656
-8.5092 0.0530 -1.9999 0.9656
-8.4801 -0.7060 -1.9999 0.9656
-6.9331 -4.9369 -2.0003 0.9656
-5.3802 -6.5971 -2.0007 0.9656
5.5664 4.4841 -1.8507 0.9709
4.6809 5.4009 -1.8505 0.9709
3.6466 6.1457 -1.8503 0.9709
3.0839 6.4459 -1.8501 0.9709
1.8896 6.8902 -1.8499 0.9709
1.2676 7.0307 -1.8497 0.9709
-0.0015 7.1429 -1.8494 0.9709
-0.6383 7.1138 -1.8493 0.9709
-1.2700 7.0280 -1.8492 0.9709
-4.6779 5.3930 -1.8484 0.9709
-7.5191 1.7706 -2.0001 0.9686
-7.7140 0.4069 -2.0001 0.9686
-7.7196 -0.2826 -2.0001 0.9686
-7.1343 -2.9638 -2.0003 0.9686
-6.8418 -3.5883 -2.0003 0.9686
-6.4949 -4.1843 -2.0004 0.9686
-6.0962 -4.7470 -2.0005 0.9686
-5.1567 -5.7550 -2.0007 0.9686
-4.0529 -6.5803 -2.0010 0.9686
-3.4502 -6.9160 -2.0011 0.9686
-2.8200 -7.1966 -2.0013 0.9686
-2.1672 -7.4200 -2.0014 0.9686
-0.8149 -7.6881 -2.0017 0.9686
0.5638 -7.7118 -2.0020 0.9686
1.2493 -7.6313 -2.0022 0.9686
2.5853 -7.2891 -2.0025 0.9685
3.2252 -7.0300 -2.0026 0.9685
4.9717 -5.9268 -2.0030 0.9685
6.7312 -3.8153 -2.0033 0.9685
7.5015 -1.8978 -2.0035 0.9685
7.5855 1.5270 -2.0034 0.9685
7.4189 2.1973 -2.0034 0.9685
7.1932 2.8500 -2.0033 0.9685
6.9006 3.4751 -2.0005 0.9686
6.2320 3.8708 -1.8995 0.9701
5.3053 4.7898 -1.8507 0.9709
4.3696 5.6553 -1.8504 0.9709
3.8477 6.0221 -1.8503 0.9709
2.7164 6.6088 -1.8500 0.9709
1.4991 6.9852 -1.8498 0.9709
0.2344 7.1393 -1.8495 0.9709
-0.4031 7.1312 -1.8493 0.9709
-1.6631 6.9452 -1.8491 0.9709
-2.8700 6.5384 -1.8488 0.9709
-4.4973 5.5446 -1.8485 0.9709
-5.2317 5.3870 -1.9443 0.9694
-5.8536 5.0389 -1.9998 0.9686
-6.2812 4.4980 -2.0003 0.9686
-6.9798 3.3105 -2.0002 0.9686
-7.4566 2.0180 -2.0001 0.9686
-7.6963 0.6614 -2.0001 0.9686
-7.4423 -2.0712 -2.0002 0.9686
-7.2282 -2.7266 -2.0002 0.9686
-6.6294 -3.9675 -2.0004 0.9686
-5.8198 -5.0825 -2.0006 0.9686
-5.3438 -5.5815 -2.0007 0.9686
-3.0560 -7.0994 -2.0012 0.9686
-2.4110 -7.3442 -2.0014 0.9686
-1.7466 -7.5304 -2.0015 0.9686
-0.3813 -7.7221 -2.0018 0.9686
0.3088 -7.7259 -2.0020 0.9686
0.9966 -7.6682 -2.0021 0.9686
2.3432 -7.3703 -2.0024 0.9685
4.2112 -6.4886 -2.0028 0.9685
5.2973 -5.6380 -2.0030 0.9685
6.6015 -4.0354 -2.0033 0.9685
7.4347 -2.1444 -2.0034 0.9685
7.6975 -0.7897 -2.0035 0.9685
7.6318 1.2757 -2.0034 0.9685
7.4875 1.9511 -2.0034 0.9685
7.2835 2.6109 -2.0033 0.9685
6.6063 3.8069 -1.9742 0.9690
5.8505 4.1070 -1.8508 0.9709
5.0274 5.0804 -1.8506 0.9709
2.3404 6.7508 -1.8500 0.9709
1.7290 6.9321 -1.8498 0.9709
1.1038 7.0581 -1.8497 0.9709
-0.8034 7.0969 -1.8493 0.9709
-1.4329 6.9965 -1.8491 0.9709
-2.0510 6.8404 -1.8490 0.9709
-3.7875 6.0524 -1.8486 0.9709
-4.3119 5.6902 -1.8485 0.9709
-4.8668 5.3542 -1.8734 0.9705
-5.6744 5.2205 -1.9964 0.9686
-6.1293 4.7030 -2.0003 0.9686
-6.5240 4.1376 -2.0003 0.9686
-7.1548 2.9127 -2.0001 0.9686
-7.7214 0.2276 -2.0001 0.9686
-7.7109 -0.4619 -2.0001 0.9686
-6.7567 -3.7464 -2.0004 0.9686
-6.3960 -4.3341 -2.0004 0.9686
-5.9844 -4.8874 -2.0005 0.9686
-5.5250 -5.4019 -2.0007 0.9686
-4.4782 -6.2982 -2.0009 0.9686
-3.2887 -6.9944 -2.0012 0.9686
-2.6521 -7.2603 -2.0013 0.9686
-0.6361 -7.7051 -2.0018 0.9686
0.7428 -7.6967 -2.0021 0.9686
3.3877 -6.9533 -2.0026 0.9685
4.5695 -6.2417 -2.0029 0.9685
6.8181 -3.6579 -2.0033 0.9685
7.1173 -3.0354 -2.0034 0.9685
7.5436 -1.7230 -2.0035 0.9685
7.6672 -1.0435 -2.0035 0.9685
7.7306 0.3351 -2.0035 0.9685
7.6698 1.0230 -2.0034 0.9685
7.5479 1.7028 -2.0034 0.9685
7.1250 3.0163 -2.0033 0.9685
6.8097 3.6301 -1.9980 0.9686
5.1925 4.9117 -1.8506 0.9709
3.7066 6.1097 -1.8503 0.9709
2.5621 6.6700 -1.8500 0.9709
1.9570 6.8714 -1.8499 0.9709
-1.2012 7.0402 -1.8492 0.9709
-2.4323 6.7139 -1.8489 0.9709
-3.0210 6.4698 -1.8488 0.9709
-3.5857 6.1743 -1.8487 0.9709
-4.1217 5.8296 -1.8486 0.9709
-4.6249 5.4386 -1.8485 0.9709
-5.4898 5.3961 -1.9931 0.9687
-6.3839 4.3508 -2.0003 0.9686
-7.0548 3.1474 -2.0002 0.9686
-7.6728 -0.8948 -2.0001 0.9686
-7.3922 -2.2435 -2.0002 0.9686
-7.1629 -2.8938 -2.0002 0.9686
-6.5355 -4.1205 -2.0004 0.9686
-4.6836 -6.1467 -2.0009 0.9686
-4.1171 -6.5403 -2.0010 0.9686
-0.8901 -7.6797 -2.0017 0.9686
0.4883 -7.7168 -2.0020 0.9686
3.7735 -6.7521 -2.0027 0.9685
4.3608 -6.3891 -2.0028 0.9685
4.9135 -5.9751 -2.0030 0.9685
5.8973 -5.0078 -2.0032 0.9685
6.3206 -4.4622 -2.0032 0.9685
7.7138 -0.6107 -2.0035 0.9685
7.7375 0.0796 -2.0035 0.9685
7.6995 0.7692 -2.0035 0.9685
7.6001 1.4527 -2.0034 0.9685
7.2208 2.7794 -2.0033 0.9685
5.7534 4.2418 -1.8508 0.9709
4.9079 5.1957 -1.8506 0.9709
4.4248 5.6123 -1.8504 0.9709
3.9065 5.9841 -1.8503 0.9709
2.7810 6.5820 -1.8501 0.9709
1.5674 6.9702 -1.8498 0.9709
0.9396 7.0817 -1.8496 0.9709
0.3043 7.1367 -1.8495 0.9709
-0.3333 7.1349 -1.8494 0.9709
-0.9681 7.0762 -1.8492 0.9709
-1.5951 6.9612 -1.8491 0.9709
-2.8058 6.5662 -1.8488 0.9709
-3.3799 6.2895 -1.8487 0.9709
-6.2369 4.5593 -2.0003 0.9686
-6.6183 3.9848 -2.0002 0.9686
-6.9471 3.3787 -2.0002 0.9686
-7.2205 2.7457 -2.0001 0.9686
-7.4365 2.0909 -2.0001 0.9686
-7.6895 0.7367 -2.0001 0.9686
-7.6105 -1.3248 -2.0001 0.9686
-7.2545 -2.6557 -2.0002 0.9686
-6.9890 -3.2921 -2.0003 0.9686
-6.2937 -4.4816 -2.0005 0.9686
-5.3981 -5.5289 -2.0007 0.9686
-4.8839 -5.9886 -2.0008 0.9686
5.0908 4.1009 -1.8506 0.9732
4.7046 4.5383 -1.8505 0.9732
4.2810 4.9395 -1.8504 0.9732
3.3351 5.6207 -1.8502 0.9732
1.1593 6.4302 -1.8497 0.9732
0.5813 6.5076 -1.8496 0.9732
-1.1616 6.4280 -1.8492 0.9732
-1.7300 6.2984 -1.8491 0.9732
-2.2846 6.1186 -1.8490 0.9732
-3.3347 5.6149 -1.8487 0.9732
-3.8219 5.2948 -1.8486 0.9732
-4.5964 5.2991 -1.9858 0.9713
-5.0881 4.9042 -2.0006 0.9710
-5.5049 4.4308 -2.0005 0.9711
-5.8778 3.9221 -2.0004 0.9711
-6.2039 3.3823 -2.0003 0.9711
-6.8775 1.6196 -2.0002 0.9711
-6.9945 0.9998 -2.0002 0.9711
-6.7410 -2.1182 -2.0003 0.9711
-6.5255 -2.7109 -2.0004 0.9711
-5.1668 -4.8220 -2.0007 0.9710
-3.1557 -6.3256 -2.0012 0.9710
-1.3692 -6.9366 -2.0016 0.9710
-0.7453 -7.0316 -2.0017 0.9710
0.5156 -7.0531 -2.0020 0.9710
2.3645 -6.6664 -2.0024 0.9710
3.5115 -6.1412 -2.0027 0.9710
4.5469 -5.4204 -2.0029 0.9710
5.8202 -4.0241 -2.0031 0.9710
6.1560 -3.4892 -2.0032 0.9710
6.6782 -2.3404 -2.0033 0.9710
6.9879 -1.1169 -2.0033 0.9710
7.0597 -0.4894 -2.0033 0.9710
7.0342 0.7724 -2.0033 0.9710
6.9372 1.3965 -2.0033 0.9710
5.9957 3.7240 -1.9981 0.9711
5.3116 3.9970 -1.8819 0.9727
4.8520 4.3806 -1.8506 0.9732
3.9963 5.1722 -1.8504 0.9732
3.5190 5.5076 -1.8502 0.9732
1.3710 6.3886 -1.8498 0.9732
0.7958 6.4850 -1.8496 0.9732
0.2144 6.5297 -1.8495 0.9732
-0.3687 6.5223 -1.8494 0.9732
-0.9487 6.4630 -1.8492 0.9732
-1.5211 6.3522 -1.8491 0.9732
-2.6250 5.9803 -1.8489 0.9732
-3.1476 5.7220 -1.8488 0.9732
-4.9161 5.0621 -1.9976 0.9711
-5.3556 4.6102 -2.0005 0.9711
-6.6286 2.4466 -2.0003 0.9711
-6.9576 1.2303 -2.0002 0.9711
-6.9489 -1.2799 -2.0003 0.9711
-6.8072 -1.8944 -2.0003 0.9711
-6.6113 -2.4939 -2.0004 0.9711
-6.0636 -3.6289 -2.0005 0.9711
-4.8876 -5.1051 -2.0008 0.9710
-4.4132 -5.5209 -2.0009 0.9710
-3.9036 -5.8928 -2.0010 0.9710
-3.3628 -6.2178 -2.0011 0.9710
-2.2051 -6.7171 -2.0014 0.9710
-0.9770 -7.0029 -2.0017 0.9710
-0.3487 -7.0627 -2.0018 0.9710
0.9115 -7.0133 -2.0021 0.9710
1.5333 -6.9045 -2.0022 0.9710
2.1430 -6.7407 -2.0024 0.9710
3.8514 -5.9342 -2.0027 0.9710
4.8447 -5.1563 -2.0029 0.9710
5.2854 -4.7039 -2.0030 0.9710
5.6840 -4.2141 -2.0031 0.9710
6.0374 -3.6906 -2.0032 0.9710
6.3426 -3.1376 -2.0032 0.9710
6.5972 -2.5596 -2.0033 0.9710
6.7993 -1.9612 -2.0033 0.9710
7.0396 -0.7222 -2.0033 0.9710
7.0760 -0.0916 -2.0033 0.9710
7.0559 0.5397 -2.0033 0.9710
6.9796 1.1667 -2.0033 0.9710
6.8476 1.7844 -2.0032 0.9710
6.6610 2.3878 -2.0032 0.9710
6.1246 3.5293 -2.0011 0.9710
4.9941 4.2180 -1.8506 0.9732
4.5978 4.6463 -1.8505 0.9732
4.1650 5.0375 -1.8504 0.9732
3.6990 5.3885 -1.8503 0.9732
3.2036 5.6965 -1.8502 0.9732
2.6827 5.9591 -1.8501 0.9732
2.1405 6.1742 -1.8499 0.9732
1.5813 6.3400 -1.8498 0.9732
-0.1531 6.5311 -1.8494 0.9732
-1.8759 6.2564 -1.8490 0.9732
-4.7394 5.2141 -1.9947 0.9711
-5.2006 4.7846 -2.0005 0.9710
-5.6063 4.3017 -2.0005 0.9711
-5.9673 3.7845 -2.0004 0.9711
-6.5443 2.6642 -2.0003 0.9711
-6.7557 2.0700 -2.0002 0.9711
-6.9133 1.4593 -2.0002 0.9711
-7.0158 0.8371 -2.0002 0.9711
-7.0625 0.2081 -2.0002 0.9711
-6.9873 -1.0497 -2.0003 0.9711
-6.8660 -1.6686 -2.0003 0.9711
-6.6900 -2.2742 -2.0003 0.9711
-6.4608 -2.8618 -2.0004 0.9711
-6.1801 -3.4266 -2.0005 0.9711
-5.8501 -3.9642 -2.0006 0.9710
-5.0534 -4.9408 -2.0007 0.9710
-4.0959 -5.7605 -2.0010 0.9710
-3.0079 -6.3973 -2.0012 0.9710
-1.8240 -6.8308 -2.0015 0.9710
-1.2077 -6.9667 -2.0016 0.9710
0.6794 -7.0394 -2.0020 0.9710
1.3045 -6.9512 -2.0022 0.9710
2.5188 -6.6098 -2.0024 0.9710
4.1791 -5.7085 -2.0028 0.9710
4.6717 -5.3133 -2.0029 0.9710
5.1271 -4.8758 -2.0030 0.9710
5.5417 -4.3994 -2.0031 0.9710
5.9121 -3.8879 -2.0031 0.9710
6.5091 -2.7760 -2.0033 0.9710
6.7308 -2.1846 -2.0033 0.9710
6.8989 -1.5757 -2.0033 0.9710
7.0699 0.3064 -2.0033 0.9710
7.0143 0.9356 -2.0033 0.9710
6.7363 2.1666 -2.0032 0.9710
6.5161 2.7585 -2.0032 0.9710
5.9014 3.8583 -1.9960 0.9711
5.1308 4.0509 -1.8506 0.9732
4.3291 4.8974 -1.8504 0.9732
3.8750 5.2636 -1.8503 0.9732
2.3432 6.1003 -1.8500 0.9732
0.6449 6.5016 -1.8496 0.9732
0.0626 6.5327 -1.8495 0.9732
-1.0986 6.4391 -1.8492 0.9732
-1.6683 6.3151 -1.8491 0.9732
-2.2246 6.1408 -1.8490 0.9732
-3.7699 5.3320 -1.8486 0.9732
-5.4612 4.4845 -2.0005 0.9711
-5.8392 3.9795 -2.0004 0.9711
-6.1705 3.4429 -2.0003 0.9711
-6.4528 2.8789 -2.0003 0.9711
-6.6837 2.2920 -2.0003 0.9711
-7.0518 0.4412 -2.0002 0.9711
-7.0630 -0.1893 -2.0002 0.9711
-6.9173 -1.4410 -2.0003 0.9711
-6.5517 -2.6469 -2.0004 0.9711
-6.2898 -3.2207 -2.0004 0.9711
-5.9778 -3.7688 -2.0005 0.9710
-5.6181 -4.2870 -2.0006 0.9710
-5.2137 -4.7712 -2.0007 0.9710
-4.2838 -5.6220 -2.0009 0.9710
-3.2175 -6.2943 -2.0012 0.9710
-0.1846 -7.0690 -2.0019 0.9710
0.4466 -7.0578 -2.0020 0.9710
1.6933 -6.8671 -2.0023 0.9710
2.8866 -6.4580 -2.0025 0.9710
3.4511 -6.1752 -2.0026 0.9710
3.9883 -5.8432 -2.0028 0.9710
6.1215 -3.5493 -2.0032 0.9710
6.4138 -2.9894 -2.0032 0.9710
6.6550 -2.4056 -2.0033 0.9710
6.8431 -1.8027 -2.0033 0.9710
6.9766 -1.1853 -2.0033 0.9710
7.0545 -0.5585 -2.0033 0.9710
7.0762 0.0728 -2.0033 0.9710
7.0415 0.7035 -2.0033 0.9710
6.9506 1.3285 -2.0033 0.9710
6.8043 1.9430 -2.0032 0.9710
6.6037 2.5419 -2.0032 0.9710
6.3505 3.1205 -2.0031 0.9710
5.4007 3.9818 -1.8995 0.9725
4.8947 4.3329 -1.8506 0.9732
4.0468 5.1329 -1.8504 0.9732
3.0703 5.7693 -1.8501 0.9732
2.5434 6.0197 -1.8500 0.9732
0.2783 6.5273 -1.8495 0.9732
-0.3048 6.5256 -1.8494 0.9732
-0.8854 6.4720 -1.8493 0.9732
-3.0914 5.7526 -1.8488 0.9732
-3.5919 5.4537 -1.8487 0.9732
-4.8642 5.1077 -1.9967 0.9711
-6.0536 3.6448 -2.0004 0.9711
-6.8019 1.9125 -2.0002 0.9711
-6.9453 1.2983 -2.0002 0.9711
-7.0413 -0.5862 -2.0002 0.9711
-6.8254 -1.8277 -2.0003 0.9711
-6.6354 -2.4291 -2.0004 0.9711
-6.3926 -3.0112 -2.0004 0.9711
-5.7565 -4.0991 -2.0006 0.9710
-5.3683 -4.5963 -2.0007 0.9710
-4.9374 -5.0570 -2.0008 0.9710
-4.4670 -5.4774 -2.0009 0.9710
4.9935 4.0225 -1.9722 0.9735
3.9400 4.5461 -1.8504 0.9751
3.5188 4.8790 -1.8503 0.9751
3.0695 5.1731 -1.8502 0.9751
2.1016 5.6354 -1.8499 0.9751
1.0670 5.9183 -1.8497 0.9751
0.5350 5.9895 -1.8496 0.9751
-1.0691 5.9164 -1.8492 0.9752
-2.1028 5.6317 -1.8490 0.9752
-2.5965 5.4215 -1.8489 0.9752
-3.7499 5.1950 -1.9707 0.9735
-4.6832 4.5140 -2.0007 0.9731
-5.4102 3.6101 -2.0005 0.9731
-5.9651 2.5915 -2.0004 0.9731
-6.1723 2.0493 -2.0004 0.9731
-6.3304 1.4907 -2.0003 0.9732
-6.4992 -0.2379 -2.0003 0.9732
-5.7601 -3.0210 -2.0006 0.9731
-5.4680 -3.5227 -2.0006 0.9731
-4.3412 -4.8449 -2.0009 0.9731
-3.4119 -5.5396 -2.0011 0.9731
-2.9045 -5.8221 -2.0012 0.9731
-2.3740 -6.0583 -2.0014 0.9731
-1.8244 -6.2462 -2.0015 0.9731
-1.2602 -6.3845 -2.0016 0.9731
1.0516 -6.4238 -2.0021 0.9731
1.6203 -6.3048 -2.0022 0.9731
3.2318 -5.6521 -2.0026 0.9731
3.7231 -5.3417 -2.0027 0.9731
4.1848 -4.9886 -2.0028 0.9731
4.6132 -4.5958 -2.0029 0.9731
5.0048 -4.1663 -2.0029 0.9731
5.3565 -3.7036 -2.0030 0.9731
6.3139 -1.5973 -2.0032 0.9731
6.4312 -1.0280 -2.0032 0.9731
6.4973 -0.4504 -2.0032 0.9731
6.4738 0.7109 -2.0032 0.9731
6.3846 1.2853 -2.0032 0.9731
5.8163 2.9290 -2.0030 0.9731
5.5317 3.4359 -2.0029 0.9731
4.5410 4.0998 -1.8817 0.9747
3.6780 4.7603 -1.8503 0.9751
3.2387 5.0690 -1.8502 0.9751
2.2866 5.5630 -1.8500 0.9751
1.2619 5.8800 -1.8497 0.9751
0.7325 5.9687 -1.8496 0.9751
-0.3393 6.0031 -1.8494 0.9752
-1.4001 5.8467 -1.8492 0.9752
-1.9157 5.6982 -1.8490 0.9752
-3.4784 5.1706 -1.9167 0.9743
-4.0888 5.0409 -1.9964 0.9732
-5.2881 3.7868 -2.0005 0.9731
-5.6045 3.3001 -2.0005 0.9731
-6.2777 1.6989 -2.0004 0.9732
-6.4796 0.5568 -2.0003 0.9732
-6.4755 -0.6030 -2.0004 0.9732
-6.3961 -1.1780 -2.0004 0.9731
-5.5812 -3.3402 -2.0006 0.9731
-4.8996 -4.2788 -2.0008 0.9731
-3.5929 -5.4238 -2.0011 0.9731
-2.5727 -5.9765 -2.0013 0.9731
-2.0296 -6.1825 -2.0014 0.9731
-1.4703 -6.3392 -2.0016 0.9731
-0.8993 -6.4455 -2.0017 0.9731
-0.3210 -6.5004 -2.0018 0.9731
0.2600 -6.5035 -2.0019 0.9731
1.4112 -6.3548 -2.0022 0.9731
3.5446 -5.4616 -2.0027 0.9731
4.0177 -5.1240 -2.0027 0.9731
5.5564 -3.3966 -2.0031 0.9731
6.0717 -2.3557 -2.0032 0.9731
6.4788 -0.6647 -2.0032 0.9731
6.5123 -0.0843 -2.0032 0.9731
6.4236 1.0738 -2.0032 0.9731
5.9099 2.7354 -2.0030 0.9731
5.6422 3.2514 -2.0030 0.9731
4.2317 4.2763 -1.8504 0.9751
3.8333 4.6363 -1.8503 0.9751
3.4044 4.9594 -1.8502 0.9751
2.9485 5.2429 -1.8501 0.9751
1.4554 5.8352 -1.8498 0.9751
0.3957 6.0002 -1.8495 0.9751
-0.6763 5.9743 -1.8493 0.9752
-1.2063 5.8898 -1.8492 0.9752
-1.7266 5.7585 -1.8491 0.9752
-2.2330 5.5812 -1.8490 0.9752
-3.2202 5.1458 -1.8671 0.9749
-3.9153 5.1668 -1.9939 0.9732
-6.2182 1.9053 -2.0004 0.9731
-6.3633 1.3432 -2.0003 0.9732
-6.4577 0.7705 -2.0003 0.9732
-6.5007 0.1916 -2.0003 0.9732
-6.1578 -2.0933 -2.0005 0.9731
-5.6884 -3.1540 -2.0006 0.9731
-4.2275 -4.9446 -2.0009 0.9731
-2.7685 -5.8881 -2.0013 0.9731
-1.1116 -6.4121 -2.0016 0.9731
-0.5354 -6.4861 -2.0018 0.9731
1.2006 -6.3977 -2.0022 0.9731
1.7664 -6.2656 -2.0023 0.9731
2.3182 -6.0835 -2.0024 0.9731
2.8516 -5.8529 -2.0025 0.9731
3.3623 -5.5756 -2.0026 0.9731
3.8463 -5.2538 -2.0027 0.9731
4.2996 -4.8901 -2.0028 0.9731
5.1003 -4.0490 -2.0030 0.9731
5.9905 -2.5549 -2.0031 0.9731
6.1946 -2.0106 -2.0032 0.9731
6.3493 -1.4502 -2.0032 0.9731
6.5067 0.2820 -2.0032 0.9731
6.3530 1.4332 -2.0031 0.9731
6.1997 1.9940 -2.0031 0.9731
5.9970 2.5388 -2.0030 0.9731
5.4477 3.5617 -2.0019 0.9731
5.0766 4.0082 -1.9895 0.9733
3.9844 4.5073 -1.8504 0.9751
3.5664 4.8444 -1.8503 0.9751
3.1200 5.1428 -1.8502 0.9751
2.1567 5.6146 -1.8499 0.9751
1.6473 5.7842 -1.8498 0.9751
1.1249 5.9076 -1.8497 0.9751
0.5936 5.9840 -1.8496 0.9751
-1.5355 5.8125 -1.8491 0.9752
-2.0476 5.6521 -1.8490 0.9752
-2.5433 5.4467 -1.8489 0.9752
-3.0187 5.1979 -1.8488 0.9752
-3.6679 5.1878 -1.9542 0.9738
-4.2085 4.9490 -1.9982 0.9732
-5.0267 4.1277 -2.0006 0.9731
-5.3746 3.6629 -2.0005 0.9731
-5.9394 2.6498 -2.0004 0.9731
-6.1520 2.1096 -2.0004 0.9731
-6.5012 -0.1743 -2.0003 0.9732
-6.4598 -0.7533 -2.0004 0.9731
-6.3670 -1.3263 -2.0004 0.9731
-6.2235 -1.8888 -2.0004 0.9731
-5.7894 -2.9644 -2.0005 0.9731
-4.3884 -4.8022 -2.0009 0.9731
-3.9429 -5.1746 -2.0010 0.9731
-3.4660 -5.5059 -2.0011 0.9731
-2.9614 -5.7934 -2.0012 0.9731
-2.4331 -6.0347 -2.0013 0.9731
1.5585 -6.3203 -2.0022 0.9731
4.9637 -4.2151 -2.0029 0.9731
5.3200 -3.7558 -2.0030 0.9731
5.6339 -3.2666 -2.0031 0.9731
6.2979 -1.6590 -2.0032 0.9731
6.4208 -1.0909 -2.0032 0.9731
6.4925 -0.5140 -2.0032 0.9731
6.5125 0.0670 -2.0032 0.9731
6.4805 0.6474 -2.0032 0.9731
6.3969 1.2227 -2.0032 0.9731
5.8447 2.8719 -2.0030 0.9731
5.2271 3.8538 -1.9975 0.9732
4.6169 4.0869 -1.8965 0.9745
4.1311 4.3734 -1.8504 0.9751
3.7245 4.7241 -1.8503 0.9751
3.2882 5.0371 -1.8502 0.9751
2.8258 5.3099 -1.8501 0.9751
1.3194 5.8674 -1.8498 0.9751
0.7909 5.9613 -1.8496 0.9751
0.2562 6.0077 -1.8495 0.9751
-0.8149 5.9569 -1.8493 0.9752
-1.3428 5.8601 -1.8492 0.9752
-2.3621 5.5278 -1.8489 0.9752
-2.8454 5.2948 -1.8488 0.9752
-4.4858 4.7104 -2.0007 0.9731
-6.0790 2.3116 -2.0004 0.9731
-6.2608 1.7603 -2.0004 0.9732
-6.4738 0.6202 -2.0003 0.9732
-6.5034 0.0405 -2.0003 0.9732
-6.4811 -0.5396 -2.0004 0.9732
-5.8840 -2.7716 -2.0005 0.9731
-5.6136 -3.2854 -2.0006 0.9731
-5.2985 -3.7730 -2.0007 0.9731
-4.9412 -4.2306 -2.0008 0.9731
-4.1115 -5.0415 -2.0010 0.9731
4.6853 3.7743 -1.9999 0.9750
4.2700 4.1191 -1.9721 0.9753
3.6595 4.2225 -1.8574 0.9767
3.2559 4.5145 -1.8502 0.9768
2.8402 4.7866 -1.8501 0.9768
2.4019 5.0205 -1.8500 0.9768
1.9446 5.2144 -1.8499 0.9768
1.4718 5.3667 -1.8498 0.9768
0.9873 5.4763 -1.8497 0.9768
0.4950 5.5421 -1.8496 0.9768
-0.0011 5.5639 -1.8495 0.9768
-0.9893 5.4746 -1.8493 0.9768
-1.4734 5.3642 -1.8491 0.9768
-2.4144 5.0413 -1.8580 0.9767
-3.5181 4.8740 -1.9981 0.9750
-4.6887 3.7738 -2.0007 0.9749
-5.0063 3.3406 -2.0006 0.9749
-5.2842 2.8808 -2.0006 0.9750
-5.5198 2.3981 -2.0005 0.9750
-5.8579 1.3795 -2.0005 0.9750
-6.0097 0.3170 -2.0004 0.9750
-6.0141 -0.2202 -2.0004 0.9750
-5.9705 -0.7556 -2.0005 0.9750
-5.8795 -1.2850 -2.0005 0.9750
-5.7416 -1.8041 -2.0005 0.9750
-5.5580 -2.3090 -2.0006 0.9749
-5.3301 -2.7955 -2.0006 0.9749
-5.0598 -3.2597 -2.0007 0.9749
-4.0171 -4.4832 -2.0010 0.9749
-2.6877 -5.3874 -2.0013 0.9749
-2.1967 -5.6059 -2.0014 0.9749
-0.6347 -5.9884 -2.0017 0.9749
0.4391 -6.0067 -2.0020 0.9749
0.9730 -5.9439 -2.0021 0.9749
3.4449 -4.9425 -2.0026 0.9749
3.8721 -4.6159 -2.0027 0.9749
4.2684 -4.2524 -2.0028 0.9749
4.6308 -3.8550 -2.0029 0.9749
4.9562 -3.4268 -2.0029 0.9749
5.2422 -2.9713 -2.0030 0.9749
5.6868 -1.9930 -2.0031 0.9749
5.8420 -1.4779 -2.0031 0.9749
6.0117 -0.4167 -2.0031 0.9749
6.0248 0.1210 -2.0031 0.9749
5.9900 0.6577 -2.0031 0.9749
5.9074 1.1892 -2.0030 0.9749
5.6020 2.2195 -2.0030 0.9749
4.8130 3.6217 -2.0022 0.9749
4.4573 4.0242 -1.9962 0.9750
3.4098 4.4131 -1.8538 0.9768
2.9968 4.6903 -1.8501 0.9768
2.1157 5.1475 -1.8499 0.9768
1.6482 5.3153 -1.8498 0.9768
0.1826 5.5610 -1.8495 0.9768
-0.3140 5.5548 -1.8494 0.9768
-0.8080 5.5044 -1.8493 0.9768
-1.2955 5.4101 -1.8492 0.9768
-2.2357 5.0934 -1.8490 0.9768
-3.7918 4.6748 -2.0008 0.9749
-4.5615 3.9267 -2.0007 0.9749
-4.8934 3.5041 -2.0006 0.9749
-5.1862 3.0538 -2.0006 0.9750
-5.4377 2.5791 -2.0005 0.9750
-5.9262 1.0479 -2.0004 0.9750
-5.9960 0.5153 -2.0004 0.9750
-5.9922 -0.5580 -2.0005 0.9750
-5.9187 -1.0901 -2.0005 0.9750
-5.7980 -1.6136 -2.0005 0.9750
-5.6311 -2.1242 -2.0006 0.9750
-5.4194 -2.6179 -2.0006 0.9749
-5.1646 -3.0908 -2.0007 0.9749
-4.5338 -3.9594 -2.0008 0.9749
-4.1629 -4.3481 -2.0009 0.9749
-3.3246 -5.0189 -2.0011 0.9749
-2.8640 -5.2956 -2.0012 0.9749
-2.3805 -5.5302 -2.0013 0.9749
-1.8780 -5.7208 -2.0015 0.9749
-1.3605 -5.8658 -2.0016 0.9749
-0.2970 -6.0149 -2.0018 0.9749
0.2406 -6.0178 -2.0019 0.9749
0.7762 -5.9727 -2.0021 0.9749
2.3298 -5.5552 -2.0024 0.9749
3.2798 -5.0535 -2.0026 0.9749
4.1256 -4.3909 -2.0028 0.9749
4.5009 -4.0057 -2.0028 0.9749
4.8403 -3.5885 -2.0029 0.9749
5.6179 -2.1796 -2.0030 0.9749
5.7900 -1.6700 -2.0031 0.9749
5.9159 -1.1471 -2.0031 0.9749
5.9946 -0.6150 -2.0031 0.9749
6.0256 -0.0780 -2.0031 0.9749
6.0085 0.4596 -2.0031 0.9749
5.8311 1.5195 -2.0030 0.9749
5.6723 2.0334 -2.0030 0.9749
5.4682 2.5310 -2.0029 0.9749
5.2206 3.0084 -2.0029 0.9749
4.9314 3.4618 -2.0028 0.9749
4.5928 3.8791 -1.9983 0.9750
4.1041 4.1473 -1.9395 0.9757
3.5469 4.2899 -1.8503 0.9768
-0.6258 5.5282 -1.8493 0.9768
-1.5976 5.3285 -1.8491 0.9768
-3.6333 4.7947 -1.9997 0.9750
-4.4295 4.0752 -2.0007 0.9749
-5.0826 3.2234 -2.0006 0.9749
-5.5741 2.2692 -2.0005 0.9750
-5.7541 1.7631 -2.0005 0.9750
-5.9757 0.7130 -2.0004 0.9750
-6.0073 -0.3598 -2.0005 0.9750
-5.8481 -1.4212 -2.0005 0.9750
-5.6982 -1.9371 -2.0006 0.9750
-5.2638 -2.9186 -2.0007 0.9749
-3.9119 -4.5754 -2.0010 0.9749
-3.4885 -4.9062 -2.0011 0.9749
-2.5618 -5.4485 -2.0013 0.9749
-2.0659 -5.6555 -2.0014 0.9749
0.5786 -5.9949 -2.0020 0.9749
1.1109 -5.9198 -2.0021 0.9749
1.6344 -5.7975 -2.0022 0.9749
2.1450 -5.6290 -2.0023 0.9749
3.5589 -4.8612 -2.0026 0.9749
3.9783 -4.5247 -2.0027 0.9749
4.7191 -3.7464 -2.0029 0.9749
5.0345 -3.3108 -2.0029 0.9749
5.3098 -2.8487 -2.0030 0.9749
6.0197 -0.2769 -2.0031 0.9749
6.0204 0.2609 -2.0031 0.9749
5.9731 0.7967 -2.0031 0.9749
5.7364 1.8450 -2.0030 0.9749
5.5489 2.3491 -2.0029 0.9749
4.7237 3.7295 -2.0006 0.9749
4.3416 4.1068 -1.9865 0.9751
3.7229 4.2115 -1.8685 0.9766
3.2999 4.4824 -1.8502 0.9768
2.4510 4.9968 -1.8500 0.9768
1.9955 5.1951 -1.8499 0.9768
0.0533 5.5637 -1.8495 0.9768
-1.8947 5.2300 -1.8491 0.9768
-2.3538 5.0409 -1.8493 0.9768
-2.9585 5.0943 -1.9582 0.9755
-3.4691 4.9066 -1.9975 0.9750
-3.8994 4.5854 -2.0008 0.9749
-4.2925 4.2193 -2.0007 0.9749
-5.2557 2.9324 -2.0006 0.9750
-5.6928 1.9522 -2.0005 0.9750
-5.9489 0.9099 -2.0004 0.9750
-6.0063 0.3758 -2.0004 0.9750
-5.8918 -1.2273 -2.0005 0.9750
-5.7590 -1.7478 -2.0005 0.9750
-5.3572 -2.7431 -2.0006 0.9749
-5.0914 -3.2100 -2.0007 0.9749
-3.6485 -4.7883 -2.0011 0.9749
-2.7403 -5.3608 -2.0013 0.9749
-1.2239 -5.8959 -2.0016 0.9749
0.3803 -6.0106 -2.0020 0.9749
1.4421 -5.8482 -2.0022 0.9749
2.4582 -5.4996 -2.0024 0.9749
2.9390 -5.2588 -2.0025 0.9749
3.3963 -4.9760 -2.0026 0.9749
3.8267 -4.6535 -2.0027 0.9749
4.2266 -4.2940 -2.0028 0.9749
4.5928 -3.9001 -2.0029 0.9749
5.6671 -2.0485 -2.0031 0.9749
5.8272 -1.5351 -2.0031 0.9749
5.9188 1.1313 -2.0031 0.9749
5.7942 1.6546 -2.0030 0.9749
4.8495 3.5754 -2.0028 0.9749
4.4979 3.9817 -1.9968 0.9750
2.6147 4.9132 -1.8501 0.9768
2.1660 5.1265 -1.8500 0.9768
1.7002 5.2989 -1.8498 0.9768
0.7318 5.5160 -1.8496 0.9768
0.2370 5.5590 -1.8495 0.9768
-2.1857 5.1150 -1.8490 0.9768
-2.7256 5.0719 -1.9139 0.9760
-3.3017 5.0131 -1.9953 0.9750
-3.7459 4.7118 -2.0009 0.9749
-4.8588 3.5519 -2.0006 0.9749
-5.1560 3.1044 -2.0006 0.9750
-5.4122 2.6322 -2.0005 0.9750
-5.7935 1.6289 -2.0005 0.9750
-5.9156 1.1058 -2.0004 0.9750
-5.8135 -1.5567 -2.0005 0.9750
-5.6517 -2.0689 -2.0006 0.9750
-5.4448 -2.5647 -2.0006 0.9749
-4.9030 -3.4913 -2.0008 0.9749
-4.5723 -3.9148 -2.0008 0.9749
4.3612 3.5132 -2.0027 0.9765
4.0240 3.8818 -1.9994 0.9765
3.0947 4.2911 -1.8920 0.9778
2.2326 4.6666 -1.8500 0.9783
0.9177 5.0903 -1.8497 0.9783
-0.0010 5.1718 -1.8495 0.9783
-0.4622 5.1508 -1.8494 0.9783
-0.9196 5.0888 -1.8493 0.9783
-1.8522 4.9605 -1.8936 0.9778
-2.8530 4.8037 -1.9980 0.9765
-4.0284 3.8828 -2.0008 0.9765
-4.3584 3.5080 -2.0007 0.9765
-4.6537 3.1053 -2.0007 0.9765
-4.9120 2.6779 -2.0006 0.9765
-5.3093 1.7628 -2.0006 0.9765
-5.4453 1.2823 -2.0005 0.9765
-5.5500 -0.7023 -2.0006 0.9765
-5.1665 -2.1464 -2.0007 0.9765
-4.9547 -2.5986 -2.0007 0.9765
-4.4146 -3.4376 -2.0009 0.9765
-3.7341 -4.1674 -2.0010 0.9765
-3.3478 -4.4840 -2.0011 0.9765
-2.9347 -4.7649 -2.0012 0.9765
-2.4983 -5.0078 -2.0013 0.9765
-1.0839 -5.4913 -2.0016 0.9765
0.4082 -5.5833 -2.0020 0.9765
1.3936 -5.4226 -2.0022 0.9765
1.8717 -5.2770 -2.0023 0.9765
3.5991 -4.2904 -2.0026 0.9765
4.3043 -3.5832 -2.0028 0.9765
4.6068 -3.1852 -2.0028 0.9765
5.0995 -2.3163 -2.0029 0.9765
5.4300 -1.3737 -2.0030 0.9765
5.5309 -0.8841 -2.0030 0.9765
5.4908 1.1053 -2.0030 0.9765
5.2070 2.0630 -2.0029 0.9765
4.7575 2.9550 -2.0028 0.9765
3.7934 4.0955 -1.9963 0.9766
3.2905 4.2587 -1.9246 0.9774
1.9666 4.7846 -1.8499 0.9783
1.0853 5.0573 -1.8497 0.9783
-0.7511 5.1165 -1.8493 0.9783
-1.2067 5.0392 -1.8530 0.9782
-1.6611 4.9409 -1.8641 0.9781
-2.1924 4.9947 -1.9506 0.9771
-2.6904 4.8909 -1.9962 0.9766
-3.1233 4.6427 -2.0010 0.9765
-4.2402 3.6501 -2.0008 0.9765
-5.0547 2.3974 -2.0006 0.9765
-5.2483 1.9371 -2.0006 0.9765
-5.4000 1.4614 -2.0006 0.9765
-5.5088 0.9741 -2.0005 0.9765
-5.5942 -0.0199 -2.0005 0.9765
-5.5702 -0.5187 -2.0006 0.9765
-5.5018 -1.0133 -2.0006 0.9765
-5.0377 -2.4335 -2.0007 0.9765
-4.8008 -2.8731 -2.0008 0.9765
-4.5256 -3.2899 -2.0008 0.9765
-3.8696 -4.0418 -2.0010 0.9765
-3.4940 -4.3709 -2.0011 0.9765
-2.6622 -4.9225 -2.0013 0.9765
-2.2128 -5.1406 -2.0014 0.9765
-0.7735 -5.5438 -2.0017 0.9765
-0.2761 -5.5910 -2.0018 0.9765
0.2236 -5.5936 -2.0019 0.9765
0.7215 -5.5517 -2.0020 0.9765
2.1655 -5.1636 -2.0023 0.9765
3.4554 -4.4069 -2.0026 0.9765
3.8348 -4.0814 -2.0027 0.9765
5.4987 -1.0662 -2.0030 0.9765
5.5719 -0.5717 -2.0030 0.9765
5.6007 -0.0725 -2.0030 0.9765
5.4200 1.4123 -2.0029 0.9765
5.0827 2.3525 -2.0028 0.9765
4.8525 2.7963 -2.0028 0.9765
4.2783 3.6135 -2.0026 0.9765
3.9301 3.9716 -1.9981 0.9765
2.9607 4.3130 -1.8708 0.9780
2.5359 4.5093 -1.8500 0.9783
1.6944 4.8875 -1.8499 0.9783
1.2518 5.0188 -1.8498 0.9783
-0.1212 5.1703 -1.8494 0.9783
-0.5817 5.1386 -1.8493 0.9783
-1.4851 4.9531 -1.8492 0.9783
-2.5253 4.9728 -1.9945 0.9766
-2.9658 4.7392 -1.9993 0.9765
-4.7246 2.9963 -2.0007 0.9765
-5.1815 2.1094 -2.0006 0.9765
-5.3488 1.6389 -2.0006 0.9765
-5.4736 1.1554 -2.0005 0.9765
-5.5548 0.6628 -2.0005 0.9765
-5.5918 0.1648 -2.0005 0.9765
-5.5842 -0.3345 -2.0005 0.9765
-5.5322 -0.8311 -2.0006 0.9765
-5.4362 -1.3211 -2.0006 0.9765
-4.8930 -2.7130 -2.0007 0.9765
-4.6317 -3.1386 -2.0008 0.9765
-4.3336 -3.5392 -2.0009 0.9765
-3.6363 -4.2531 -2.0010 0.9765
-1.9203 -5.2570 -2.0014 0.9765
-1.4440 -5.4076 -2.0016 0.9765
-0.9561 -5.5151 -2.0017 0.9765
1.5192 -5.3888 -2.0022 0.9765
1.9938 -5.2322 -2.0023 0.9765
2.4525 -5.0338 -2.0024 0.9765
3.6978 -4.2057 -2.0027 0.9765
4.3864 -3.4822 -2.0028 0.9765
4.6796 -3.0773 -2.0029 0.9765
4.9354 -2.6478 -2.0029 0.9765
5.3275 -1.7291 -2.0030 0.9765
5.4605 -1.2472 -2.0030 0.9765
5.5500 -0.7553 -2.0030 0.9765
5.5952 -0.2574 -2.0030 0.9765
5.4637 1.2326 -2.0030 0.9765
5.3319 1.7149 -2.0029 0.9765
5.1576 2.1834 -2.0029 0.9765
4.0630 3.8433 -2.0000 0.9765
3.6950 4.1799 -1.9951 0.9766
3.1521 4.2816 -1.9013 0.9777
2.2782 4.6446 -1.8500 0.9783
1.8549 4.8290 -1.8499 0.9783
0.9675 5.0811 -1.8497 0.9783
0.5106 5.1469 -1.8496 0.9783
0.0496 5.1716 -1.8495 0.9783
-1.3207 4.9995 -1.8492 0.9783
-2.3390 5.0091 -1.9770 0.9768
-2.8051 4.8301 -1.9974 0.9766
-3.2303 4.5688 -2.0010 0.9765
-3.6247 4.2624 -2.0009 0.9765
-3.9902 3.9221 -2.0008 0.9765
-4.8855 2.7259 -2.0006 0.9765
-5.2918 1.8147 -2.0006 0.9765
-5.4325 1.3356 -2.0005 0.9765
-5.5299 0.8458 -2.0005 0.9765
-5.3533 -1.6247 -2.0006 0.9765
-2.9812 -4.7359 -2.0012 0.9765
-2.5472 -4.9831 -2.0013 0.9765
-1.1377 -5.4804 -2.0016 0.9765
-0.1461 -5.5960 -2.0018 0.9765
0.8503 -5.5335 -2.0021 0.9765
1.8199 -5.2950 -2.0023 0.9765
3.5569 -4.3254 -2.0026 0.9765
4.5753 -3.2301 -2.0028 0.9765
4.8453 -2.8093 -2.0029 0.9765
5.0766 -2.3661 -2.0029 0.9765
5.4163 -1.4268 -2.0030 0.9765
5.5220 -0.9382 -2.0030 0.9765
5.5837 -0.4420 -2.0030 0.9765
5.6008 0.0576 -2.0030 0.9765
5.5733 0.5568 -2.0030 0.9765
5.5014 1.0515 -2.0030 0.9765
5.3856 1.5379 -2.0029 0.9765
5.2269 2.0119 -2.0029 0.9765
5.0266 2.4700 -2.0028 0.9765
4.5076 3.3233 -2.0027 0.9765
3.8344 4.0592 -1.9968 0.9766
3.3498 4.2488 -1.9349 0.9773
2.8318 4.3380 -1.8526 0.9782
2.4304 4.5669 -1.8500 0.9783
2.0134 4.7652 -1.8499 0.9783
1.1348 5.0465 -1.8497 0.9783
0.2203 5.1672 -1.8495 0.9783
-0.7010 5.1236 -1.8493 0.9783
-1.1550 5.0405 -1.8492 0.9783
-1.6057 4.9356 -1.8561 0.9782
-4.2043 3.6914 -2.0008 0.9765
-4.5166 3.3017 -2.0007 0.9765
-4.7929 2.8857 -2.0007 0.9765
-5.0310 2.4468 -2.0006 0.9765
-5.2290 1.9884 -2.0006 0.9765
-5.3855 1.5142 -2.0006 0.9765
-5.5941 0.0348 -2.0005 0.9765
-5.0613 -2.3841 -2.0007 0.9765
-4.8287 -2.8260 -2.0008 0.9765
-4.5576 -3.2454 -2.0008 0.9765
-4.2502 -3.6390 -2.0009 0.9765
-3.5365 -4.3365 -2.0011 0.9765
4.0696 3.2783 -2.0026 0.9779
3.7609 3.6280 -2.0025 0.9779
3.4175 3.9431 -1.9996 0.9779
3.0462 4.2238 -1.9957 0.9779
2.5819 4.3512 -1.9389 0.9786
0.8580 4.7590 -1.8531 0.9795
0.4303 4.8170 -1.8533 0.9795
-0.0010 4.8262 -1.8495 0.9795
-0.4313 4.8066 -1.8494 0.9795
-0.8731 4.8318 -1.8816 0.9792
-1.3415 4.8841 -1.9410 0.9785
-2.2525 4.7034 -1.9985 0.9779
-2.6665 4.4897 -2.0011 0.9779
-3.4213 3.9443 -2.0009 0.9779
-4.0673 3.2737 -2.0008 0.9779
-4.5839 2.4990 -2.0007 0.9779
-4.9547 1.6450 -2.0006 0.9779
-5.0816 1.1966 -2.0006 0.9779
-5.1680 0.7388 -2.0006 0.9779
-5.2133 0.2750 -2.0006 0.9779
-5.2171 -0.1910 -2.0006 0.9779
-5.1793 -0.6554 -2.0006 0.9779
-5.1003 -1.1147 -2.0007 0.9779
-4.9807 -1.5650 -2.0007 0.9779
-4.8214 -2.0030 -2.0007 0.9779
-4.6237 -2.4250 -2.0008 0.9779
-4.1197 -3.2079 -2.0009 0.9779
-3.1241 -4.1844 -2.0012 0.9779
-2.7387 -4.4465 -2.0012 0.9779
-1.9055 -4.8627 -2.0014 0.9779
-1.4643 -5.0135 -2.0015 0.9779
-0.5506 -5.1944 -2.0017 0.9779
0.3809 -5.2101 -2.0020 0.9779
0.8440 -5.1557 -2.0021 0.9779
1.3004 -5.0601 -2.0022 0.9779
1.7466 -4.9243 -2.0022 0.9779
2.1788 -4.7491 -2.0023 0.9779
2.9880 -4.2869 -2.0025 0.9779
3.3585 -4.0036 -2.0026 0.9779
4.2987 -2.9722 -2.0028 0.9779
4.5467 -2.5771 -2.0028 0.9779
4.7585 -2.1614 -2.0029 0.9779
5.0669 -1.2819 -2.0029 0.9779
5.1611 -0.8249 -2.0029 0.9779
5.1953 0.5705 -2.0029 0.9779
5.1237 1.0314 -2.0029 0.9779
4.6677 2.3506 -2.0028 0.9779
3.8787 3.5018 -2.0026 0.9779
3.5487 3.8312 -2.0012 0.9779
3.1862 4.1238 -1.9971 0.9779
1.8381 4.4721 -1.8529 0.9795
1.0128 4.7193 -1.8497 0.9795
-0.2723 4.8183 -1.8494 0.9795
-0.7065 4.8126 -1.8640 0.9794
-1.1649 4.8647 -1.9169 0.9788
-1.6530 4.9167 -1.9878 0.9780
-2.0945 4.7717 -1.9970 0.9779
-2.5168 4.5754 -2.0011 0.9779
-3.2892 4.0552 -2.0010 0.9779
-3.6376 3.7456 -2.0009 0.9779
-3.9570 3.4062 -2.0008 0.9779
-4.4989 2.6491 -2.0007 0.9779
-4.8977 1.8077 -2.0007 0.9779
-5.0393 1.3638 -2.0006 0.9779
-5.1408 0.9090 -2.0006 0.9779
-5.2014 0.4470 -2.0006 0.9779
-4.8849 -1.8427 -2.0007 0.9779
-4.7012 -2.2710 -2.0008 0.9779
-4.4801 -2.6812 -2.0008 0.9779
-3.6111 -3.7718 -2.0010 0.9779
-2.8840 -4.3536 -2.0012 0.9779
-1.6291 -4.9623 -2.0015 0.9779
-1.1801 -5.0881 -2.0016 0.9779
-0.7218 -5.1733 -2.0017 0.9779
0.6733 -5.1806 -2.0020 0.9779
1.1326 -5.1002 -2.0021 0.9779
1.5830 -4.9792 -2.0022 0.9779
2.0208 -4.8184 -2.0023 0.9779
2.4425 -4.6192 -2.0024 0.9779
2.8447 -4.3832 -2.0025 0.9779
3.9038 -3.4743 -2.0027 0.9779
4.1982 -3.1125 -2.0028 0.9779
4.6845 -2.3174 -2.0028 0.9779
4.8726 -1.8905 -2.0029 0.9779
5.0218 -1.4485 -2.0029 0.9779
5.1310 -0.9949 -2.0029 0.9779
5.0575 1.3179 -2.0029 0.9779
4.5280 2.6093 -2.0027 0.9779
4.2772 3.0026 -2.0027 0.9779
3.3231 4.0193 -1.9985 0.9779
2.0003 4.4434 -1.8674 0.9793
1.5811 4.5608 -1.8498 0.9795
0.3176 4.8159 -1.8496 0.9795
-0.5432 4.7983 -1.8506 0.9795
-0.9924 4.8454 -1.8954 0.9790
-1.4685 4.8977 -1.9594 0.9783
-1.9344 4.8349 -1.9956 0.9779
-2.3625 4.6523 -1.9995 0.9779
-2.7700 4.4265 -2.0011 0.9779
-3.1536 4.1617 -2.0010 0.9779
-4.6407 2.3919 -2.0007 0.9779
-5.2183 0.1538 -2.0006 0.9779
-5.2113 -0.3121 -2.0006 0.9779
-5.1627 -0.7756 -2.0006 0.9779
-5.0731 -1.2329 -2.0007 0.9779
-4.9430 -1.6804 -2.0007 0.9779
-4.5662 -2.5318 -2.0008 0.9779
-4.0441 -3.3028 -2.0009 0.9779
-3.3934 -3.9689 -2.0011 0.9779
-3.0261 -4.2559 -2.0012 0.9779
-2.6346 -4.5090 -2.0013 0.9779
-2.2222 -4.7262 -2.0014 0.9779
-1.7920 -4.9057 -2.0015 0.9779
-0.8922 -5.1465 -2.0017 0.9779
1.4177 -5.0286 -2.0022 0.9779
1.8605 -4.8824 -2.0023 0.9779
2.6984 -4.4747 -2.0024 0.9779
3.4506 -3.9245 -2.0026 0.9779
3.7869 -3.6013 -2.0027 0.9779
4.6054 -2.4708 -2.0028 0.9779
4.8075 -2.0503 -2.0029 0.9779
5.0953 -1.1638 -2.0029 0.9779
5.0983 1.1502 -2.0029 0.9779
4.9754 1.6002 -2.0028 0.9779
4.6118 2.4584 -2.0027 0.9779
3.4567 3.9104 -2.0001 0.9779
2.1668 4.4175 -1.8855 0.9791
1.7309 4.5062 -1.8499 0.9795
1.3221 4.6424 -1.8498 0.9795
