ply
format ascii 1.0
element vertex 1572
property float32 x
property float32 y
property float32 z
property float32 I
end_header
-4.7351 12.1761 0.2207 0.9491
-11.6685 13.0838 0.2961 0.9323
-5.2628 -19.0955 0.3346 0.9238
-0.0175 -19.7906 0.3343 0.9239
17.6293 9.2532 0.3363 0.9234
12.7003 9.8985 0.2720 0.9376
10.8543 10.1402 0.2509 0.9423
9.4040 10.5071 0.2382 0.9451
7.8538 10.5330 0.2219 0.9488
6.6808 10.8637 0.2154 0.9503
5.4045 10.8536 0.2048 0.9527
4.3386 11.0984 0.2013 0.9534
0.1761 11.5381 0.1949 0.9549
-0.8707 11.7306 0.1987 0.9540
-1.9478 11.8112 0.2022 0.9532
-3.1251 12.0979 0.2111 0.9512
-4.3169 12.1213 0.2174 0.9498
-5.7136 12.4093 0.2308 0.9468
-8.8942 12.7206 0.2622 0.9398
-7.0291 -18.5964 -0.1119 0.9236
-0.0788 -19.7824 -0.1114 0.9239
17.7363 9.2393 -0.1126 0.9231
14.9890 9.5989 -0.1002 0.9313
9.4567 10.5003 -0.0796 0.9450
7.9002 10.5270 -0.0741 0.9487
2.2752 11.3960 -0.0654 0.9546
1.2326 11.3999 -0.0646 0.9552
-4.2726 12.1156 -0.0723 0.9499
-5.6640 12.4029 -0.0768 0.9469
-7.1123 12.4873 -0.0809 0.9441
-8.8297 12.7122 -0.0871 0.9400
-7.2827 7.2771 -0.0580 0.9597
-2.3898 -19.4780 -0.1105 0.9245
12.4698 4.7243 -0.0751 0.9481
15.8049 9.4921 -0.1038 0.9289
11.6547 10.2126 -0.0872 0.9399
4.7295 11.0473 -0.0677 0.9531
3.6032 11.0519 -0.0654 0.9546
-0.4989 11.8037 -0.0665 0.9538
-1.5572 11.7651 -0.0668 0.9536
-2.6742 11.9063 -0.0687 0.9524
-5.1408 12.1714 -0.0744 0.9485
-8.3752 12.8298 -0.0863 0.9406
-6.3887 -18.6802 -0.1112 0.9241
14.3644 9.8578 -0.0981 0.9327
8.9263 10.5697 -0.0779 0.9462
7.4312 10.5884 -0.0728 0.9496
6.1926 10.7505 -0.0698 0.9516
2.9091 11.1804 -0.0650 0.9548
1.9153 11.4876 -0.0656 0.9545
0.8701 11.4473 -0.0646 0.9551
-0.1562 11.5817 -0.0652 0.9547
-1.2095 11.7196 -0.0663 0.9540
-2.3075 11.8583 -0.0680 0.9528
-3.5270 12.1951 -0.0715 0.9505
-4.7351 12.1761 -0.0736 0.9491
-6.0916 12.2877 -0.0772 0.9466
-7.8137 12.7563 -0.0842 0.9419
-9.5099 12.8012 -0.0898 0.9382
-11.6686 13.0838 -0.0987 0.9323
-1.7452 -19.2882 -0.1090 0.9255
17.6294 9.2532 -0.1121 0.9234
12.7004 9.8985 -0.0907 0.9376
10.8544 10.1402 -0.0836 0.9423
9.4041 10.5072 -0.0794 0.9452
7.8538 10.5330 -0.0740 0.9488
6.6808 10.8637 -0.0718 0.9503
5.4046 10.8537 -0.0683 0.9527
3.2423 11.1368 -0.0653 0.9547
2.2479 11.4441 -0.0657 0.9544
1.1974 11.4045 -0.0646 0.9552
-1.9478 11.8112 -0.0674 0.9532
-5.7136 12.4094 -0.0769 0.9468
-7.1678 12.4946 -0.0811 0.9440
-8.8942 12.7206 -0.0874 0.9398
-11.0273 13.1045 -0.0964 0.9338
-1.8048 -19.2803 -0.5453 0.9254
6.7239 10.8581 -0.3596 0.9502
5.4441 10.8486 -0.3418 0.9526
2.2752 11.3960 -0.3272 0.9546
-0.8426 11.8487 -0.3345 0.9536
-3.0955 12.1386 -0.3527 0.9511
-5.6641 12.4030 -0.3839 0.9469
-5.9005 -19.0220 -0.5608 0.9234
-2.3897 -19.4766 -0.5525 0.9245
12.4683 4.7237 -0.3754 0.9480
15.8050 9.4922 -0.5191 0.9289
11.6547 10.2126 -0.4363 0.9399
9.8056 10.2776 -0.4000 0.9447
8.3382 10.4697 -0.3769 0.9479
7.1288 10.8051 -0.3645 0.9495
5.8142 10.8001 -0.3454 0.9521
4.7295 11.0473 -0.3384 0.9531
-1.5572 11.7652 -0.3342 0.9536
-2.6742 11.9064 -0.3436 0.9523
-3.8678 12.0626 -0.3567 0.9506
-5.1408 12.1716 -0.3720 0.9485
-8.3752 12.8299 -0.4314 0.9405
-10.3166 13.0840 -0.4692 0.9355
-1.1919 -19.3605 -0.5462 0.9253
14.3645 9.8579 -0.4906 0.9327
12.1850 10.0730 -0.4452 0.9387
10.3183 10.2105 -0.4087 0.9436
6.1926 10.7506 -0.3493 0.9516
4.9975 10.8039 -0.3352 0.9535
1.9153 11.4877 -0.3279 0.9545
0.8701 11.4474 -0.3233 0.9551
-0.1563 11.5818 -0.3261 0.9547
-1.2095 11.7196 -0.3318 0.9539
-2.3075 11.8583 -0.3402 0.9528
-3.5271 12.1951 -0.3575 0.9505
-4.7351 12.1762 -0.3679 0.9491
-11.6687 13.0839 -0.4936 0.9323
-5.2621 -19.0927 -0.5577 0.9238
-1.7451 -19.2881 -0.5453 0.9254
-0.0175 -19.7877 -0.5572 0.9239
17.6296 9.2533 -0.5606 0.9234
12.7004 9.8986 -0.4534 0.9376
10.8544 10.1403 -0.4183 0.9423
9.4041 10.5073 -0.3971 0.9451
6.6809 10.8638 -0.3591 0.9502
5.4046 10.8537 -0.3414 0.9526
2.2479 11.4441 -0.3284 0.9544
1.1974 11.4045 -0.3229 0.9551
0.1761 11.5382 -0.3249 0.9549
-3.1251 12.0980 -0.3518 0.9512
-5.7136 12.4095 -0.3847 0.9468
-7.1679 12.4947 -0.4056 0.9440
-8.8943 12.7207 -0.4371 0.9398
-7.3321 7.2812 -0.2910 0.9595
-7.0290 -18.5962 -1.0082 0.9235
-5.3236 -19.0844 -1.0048 0.9237
-1.8048 -19.2802 -0.9821 0.9254
14.8634 9.5185 -0.8951 0.9317
4.3764 11.0936 -0.6048 0.9534
3.2785 11.1321 -0.5885 0.9546
2.2752 11.3961 -0.5893 0.9545
1.2326 11.4000 -0.5815 0.9551
-0.8394 11.8038 -0.6001 0.9537
-1.9102 11.8114 -0.6068 0.9532
-3.0457 11.9437 -0.6251 0.9518
-7.0080 12.3044 -0.7181 0.9449
-8.7004 12.5259 -0.7734 0.9407
-7.2812 7.2756 -0.5220 0.9596
-2.3895 -19.4751 -0.9951 0.9244
15.7037 9.4313 -0.9290 0.9293
11.3107 9.9112 -0.7627 0.9415
8.2621 10.3741 -0.6726 0.9483
3.5827 10.9892 -0.5862 0.9548
0.5417 11.4904 -0.5834 0.9550
-0.4970 11.7590 -0.5969 0.9540
-1.5572 11.7652 -0.6019 0.9536
-2.6742 11.9064 -0.6189 0.9523
-6.5125 12.2395 -0.7031 0.9460
-10.0358 12.7279 -0.8220 0.9371
-1.1918 -19.3604 -0.9837 0.9253
16.6117 9.3377 -0.9664 0.9265
14.0012 9.6085 -0.8612 0.9342
11.8964 9.8345 -0.7828 0.9401
10.1671 10.0609 -0.7254 0.9443
8.6942 10.2949 -0.6834 0.9475
7.3904 10.5303 -0.6524 0.9498
0.8701 11.4474 -0.5822 0.9551
-0.1563 11.5818 -0.5874 0.9547
-2.3075 11.8584 -0.6127 0.9528
-4.7017 12.0903 -0.6579 0.9494
-6.9663 -18.6044 -1.0075 0.9235
-1.7451 -19.2880 -0.9822 0.9254
-0.0175 -19.7863 -1.0034 0.9238
14.7765 9.5276 -0.8916 0.9320
12.5276 9.7639 -0.8055 0.9384
6.5641 10.6738 -0.6355 0.9511
5.4046 10.8538 -0.6149 0.9526
4.3387 11.0985 -0.6043 0.9534
3.2423 11.1369 -0.5882 0.9546
2.2394 11.4008 -0.5892 0.9545
0.1761 11.5383 -0.5852 0.9548
-0.8765 11.8087 -0.6005 0.9537
-3.0862 11.9475 -0.6258 0.9518
-7.0628 12.3115 -0.7198 0.9447
-7.0290 -18.5961 -1.4577 0.9234
-5.3080 -19.0285 -1.4485 0.9238
14.9893 9.5991 -1.3051 0.9311
12.7704 9.8896 -1.1843 0.9373
10.9139 10.1326 -1.0919 0.9420
9.3048 10.3316 -1.0195 0.9458
7.8653 10.4805 -0.9608 0.9488
6.5758 10.6190 -0.9158 0.9511
3.2412 11.0055 -0.8412 0.9550
2.2227 11.1331 -0.8324 0.9555
0.2093 11.3994 -0.8360 0.9553
-3.0244 11.8600 -0.8974 0.9521
-4.2484 12.0470 -0.9366 0.9501
-5.6641 12.4031 -0.9998 0.9468
-5.8821 -18.9628 -1.4557 0.9235
-2.3824 -19.4170 -1.4344 0.9245
-0.6364 -19.4331 -1.4256 0.9250
12.4654 4.7226 -0.9774 0.9479
11.4790 10.0586 -1.1191 0.9406
9.8057 10.2777 -1.0415 0.9446
6.9771 10.5753 -0.9290 0.9505
2.5481 11.0918 -0.8345 0.9554
-2.6512 11.8040 -0.8871 0.9526
-3.8427 11.9845 -0.9228 0.9508
-6.6090 12.4209 -1.0316 0.9451
-8.2489 12.6363 -1.1065 0.9413
-1.1918 -19.3604 -1.4222 0.9252
16.6824 9.3775 -1.4032 0.9261
10.3184 10.2106 -1.0644 0.9434
4.9942 10.7968 -0.8722 0.9534
3.9911 11.1441 -0.8679 0.9536
2.8754 11.0508 -0.8372 0.9552
1.8639 11.1791 -0.8310 0.9556
0.8597 11.3113 -0.8318 0.9555
-4.7130 12.1194 -0.9534 0.9492
-6.1185 12.3420 -1.0100 0.9462
-11.6688 13.0841 -1.2854 0.9321
-6.9662 -18.6043 -1.4566 0.9234
-1.7451 -19.2879 -1.4200 0.9253
14.9046 9.6102 -1.3003 0.9313
10.8546 10.1404 -1.0891 0.9422
6.5332 10.6237 -0.9145 0.9512
5.3556 10.7553 -0.8810 0.9530
3.2054 11.0099 -0.8408 0.9551
2.1877 11.1375 -0.8322 0.9555
0.1740 11.4042 -0.8363 0.9553
-0.8572 11.5481 -0.8491 0.9546
-7.1679 12.4948 -1.0562 0.9439
-8.8944 12.7208 -1.1381 0.9396
-10.9286 12.9872 -1.2445 0.9342
-11.3466 -15.5809 -1.8505 0.9255
-9.9140 -16.5360 -1.8510 0.9254
-6.8206 -18.0449 -1.8520 0.9254
-5.1846 -18.5864 -1.8525 0.9254
-3.5064 -18.9797 -1.8530 0.9254
-0.0770 -19.3095 -1.8538 0.9253
1.6467 -19.2432 -1.8542 0.9253
5.0426 -18.6505 -1.8548 0.9253
8.2795 -17.4616 -1.8553 0.9253
9.8055 -16.6546 -1.8555 0.9253
11.2532 -15.7142 -1.8556 0.9253
17.8352 7.3500 -1.8520 0.9254
14.9894 9.5992 -1.7089 0.9310
9.3142 10.3421 -1.3362 0.9456
7.9004 10.5272 -1.2636 0.9485
6.6226 10.6944 -1.2076 0.9507
2.2494 11.2669 -1.1030 0.9549
0.2118 11.5337 -1.1075 0.9547
-0.8299 11.6701 -1.1232 0.9541
-1.9102 11.8115 -1.1487 0.9531
-3.0488 11.9556 -1.1845 0.9516
-4.2727 12.1158 -1.2334 0.9497
-5.6642 12.4032 -1.3091 0.9467
-8.8299 12.7125 -1.4860 0.9397
-7.2796 7.2740 -0.9880 0.9595
-16.6947 9.4916 -1.8437 0.9257
-15.7209 -11.8170 -1.8881 0.9240
-14.3027 -12.9011 -1.8492 0.9255
-8.8960 -17.1094 -1.8513 0.9254
-5.7163 -18.4282 -1.8524 0.9254
-4.0502 -18.8696 -1.8528 0.9254
-1.8049 -14.7104 -1.4229 0.9422
-0.6319 -19.2980 -1.8537 0.9253
1.0928 -19.2814 -1.8541 0.9253
2.8094 -19.1106 -1.8544 0.9253
4.5042 -18.7868 -1.8547 0.9253
6.1635 -18.3126 -1.8550 0.9253
9.3224 -16.9292 -1.8554 0.9253
10.7966 -16.0310 -1.8556 0.9253
12.3791 4.6899 -1.2709 0.9482
17.3541 8.4151 -1.8516 0.9254
15.8053 9.4924 -1.7700 0.9286
5.8143 10.8003 -1.1776 0.9519
2.5784 11.2239 -1.1056 0.9548
1.5595 11.3573 -1.1006 0.9550
-0.4914 11.6258 -1.1171 0.9543
-2.6743 11.9065 -1.1716 0.9521
-3.8679 12.0628 -1.2162 0.9504
-10.1611 12.8868 -1.5755 0.9362
-13.1874 13.9576 -1.8435 0.9257
-14.3803 12.7252 -1.8435 0.9257
-15.4588 11.3917 -1.8436 0.9257
-16.4145 9.9674 -1.8437 0.9257
-17.2398 8.4636 -1.8438 0.9257
-14.6662 -12.4834 -1.8490 0.9255
-13.4978 -13.7464 -1.8496 0.9255
-10.8458 -15.9360 -1.8506 0.9255
-2.9004 -19.0834 -1.8531 0.9254
-1.1863 -19.2705 -1.8536 0.9254
0.5380 -19.3036 -1.8540 0.9253
8.8317 -17.1897 -1.8554 0.9253
10.3311 -16.3344 -1.8555 0.9253
18.7267 4.6632 -1.8528 0.9254
16.6826 9.3775 -1.8373 0.9260
7.4314 10.5886 -1.2419 0.9493
5.0426 10.9013 -1.1531 0.9529
3.9911 11.1441 -1.1364 0.9535
0.8701 11.4475 -1.1022 0.9549
-1.2096 11.7198 -1.1311 0.9538
-2.3076 11.8585 -1.1598 0.9526
-4.7352 12.1764 -1.2543 0.9489
-7.6959 12.5640 -1.4145 0.9425
-11.6689 13.0842 -1.6831 0.9320
-14.0085 13.1333 -1.8435 0.9257
-18.0850 7.5561 -1.8817 0.9243
-15.0176 -12.0555 -1.8488 0.9255
-12.6430 -14.5414 -1.8499 0.9255
-8.3475 -17.3857 -1.8515 0.9254
-3.4475 -18.9906 -1.8530 0.9254
-0.0171 -19.3098 -1.8538 0.9253
1.7064 -19.2382 -1.8542 0.9253
3.4168 -19.0126 -1.8545 0.9253
5.1005 -18.6349 -1.8548 0.9253
6.7439 -18.1079 -1.8551 0.9253
8.3337 -17.4359 -1.8553 0.9253
17.0756 8.9626 -1.8514 0.9254
12.7007 9.8988 -1.5459 0.9373
10.8546 10.1404 -1.4261 0.9421
9.2624 10.3489 -1.3334 0.9457
6.5802 10.7000 -1.2060 0.9508
5.4047 10.8539 -1.1641 0.9524
4.3387 11.0986 -1.1440 0.9532
1.1974 11.4047 -1.1009 0.9550
-1.9478 11.8114 -1.1493 0.9530
-3.0897 11.9609 -1.1860 0.9516
-10.9287 12.9873 -1.6296 0.9341
-7.3270 7.2761 -0.9913 0.9594
-15.8140 10.8937 -1.8436 0.9257
-16.8022 -0.8050 -1.9982 0.9345
-16.6663 -2.3015 -1.9985 0.9345
-16.3977 -3.7802 -1.9989 0.9345
-14.8205 -7.9933 -2.0002 0.9344
-14.0514 -9.2860 -2.0007 0.9344
-13.1698 -10.5052 -2.0011 0.9344
-12.1828 -11.6412 -2.0016 0.9344
-10.8526 -12.4042 -1.9578 0.9358
-6.7887 -14.0275 -1.8511 0.9392
-5.5112 -14.5805 -1.8516 0.9391
-4.1890 -15.0173 -1.8519 0.9391
-2.8329 -15.3343 -1.8523 0.9391
-1.4536 -15.5289 -1.8527 0.9391
1.3302 -15.5453 -1.8533 0.9391
5.4020 -14.6435 -1.8540 0.9391
6.9757 -14.7118 -1.9340 0.9365
11.0242 -12.8049 -2.0071 0.9342
14.0214 -9.4276 -2.0070 0.9342
15.4718 -6.7843 -2.0068 0.9342
16.0140 -5.3762 -2.0066 0.9342
16.4279 -3.9254 -2.0063 0.9342
16.7105 -2.4435 -2.0061 0.9342
16.8734 0.5655 -2.0055 0.9343
16.7526 2.0685 -2.0051 0.9343
16.1012 3.4689 -1.9565 0.9358
14.8868 4.6303 -1.8519 0.9391
14.4111 5.9389 -1.8515 0.9391
13.8206 7.1995 -1.8511 0.9392
13.1201 8.4021 -1.8507 0.9392
10.9140 10.1327 -1.7690 0.9418
9.3143 10.3421 -1.6533 0.9455
7.9004 10.5272 -1.5635 0.9484
6.6226 10.6945 -1.4942 0.9506
4.3765 11.0937 -1.4166 0.9531
2.2495 11.2670 -1.3648 0.9548
0.2118 11.5338 -1.3703 0.9546
-0.8299 11.6701 -1.3898 0.9540
-1.9102 11.8116 -1.4213 0.9529
-3.0488 11.9556 -1.4656 0.9515
-5.5697 12.1964 -1.5927 0.9474
-7.1124 12.4877 -1.7071 0.9438
-8.8300 12.7125 -1.8386 0.9396
-9.9619 11.9132 -1.8447 0.9394
-7.2023 7.1968 -1.2094 0.9598
-13.5011 7.6760 -1.8448 0.9394
-15.8587 5.5789 -1.9970 0.9345
-16.2950 4.1421 -1.9972 0.9345
-16.6018 2.6719 -1.9974 0.9345
-16.7764 1.1800 -1.9977 0.9345
-16.8175 -0.3217 -1.9980 0.9345
-16.7246 -1.8214 -1.9984 0.9345
-16.4985 -3.3071 -1.9988 0.9345
-16.1409 -4.7670 -1.9992 0.9345
-15.0430 -7.5634 -2.0000 0.9344
-13.4653 -10.1215 -2.0010 0.9344
-12.5114 -11.2853 -2.0014 0.9344
-11.4150 -12.3140 -1.9945 0.9346
-9.7102 -12.5586 -1.8857 0.9381
-8.3916 -13.1259 -1.8506 0.9392
0.8828 -15.5763 -1.8532 0.9391
3.6384 -15.1757 -1.8537 0.9391
4.9786 -14.7923 -1.8540 0.9391
6.4355 -14.6458 -1.9003 0.9376
8.1253 -14.7553 -2.0009 0.9344
9.4382 -14.0140 -2.0070 0.9342
10.6515 -13.1164 -2.0071 0.9342
14.5661 -8.5608 -2.0069 0.9342
15.2708 -7.2264 -2.0068 0.9342
16.6341 -2.9230 -2.0062 0.9342
16.8836 0.0802 -2.0056 0.9343
16.8062 1.5862 -2.0052 0.9343
16.5945 3.0789 -2.0048 0.9343
12.3429 4.6762 -1.5679 0.9482
13.3572 8.0221 -1.8508 0.9392
11.4791 10.0587 -1.8130 0.9404
9.8058 10.2778 -1.6874 0.9444
8.3384 10.4699 -1.5899 0.9475
7.0213 10.6423 -1.5145 0.9499
3.6150 11.0882 -1.3854 0.9541
1.5595 11.3573 -1.3618 0.9549
-0.4914 11.6258 -1.3822 0.9542
-1.5572 11.7654 -1.4098 0.9533
-2.6743 11.9066 -1.4496 0.9520
-5.1668 12.2329 -1.5774 0.9479
-6.6095 12.4218 -1.6714 0.9449
-13.2747 8.0607 -1.8448 0.9394
-16.5174 3.1479 -1.9973 0.9345
-16.7347 1.6617 -1.9976 0.9345
-15.8248 -5.7366 -1.9995 0.9344
-15.2531 -7.1274 -1.9999 0.9344
-14.5596 -8.4619 -2.0004 0.9344
-13.7497 -9.7295 -2.0008 0.9344
-12.8297 -10.9202 -2.0013 0.9344
-7.5825 -13.6122 -1.8509 0.9392
-6.3390 -14.2377 -1.8513 0.9392
-5.0444 -14.7498 -1.8517 0.9391
-3.7090 -15.1442 -1.8521 0.9391
-2.3433 -15.4178 -1.8525 0.9391
0.4347 -15.5944 -1.8531 0.9391
3.2006 -15.2734 -1.8537 0.9391
4.5512 -14.9287 -1.8539 0.9391
5.9133 -14.5817 -1.8691 0.9386
11.4264 -12.4474 -2.0071 0.9342
12.4915 -11.3782 -2.0071 0.9342
13.4567 -10.2180 -2.0071 0.9342
14.3143 -8.9761 -2.0070 0.9342
15.0572 -7.6626 -2.0069 0.9342
15.6795 -6.2880 -2.0067 0.9342
16.1765 -4.8633 -2.0065 0.9342
16.5439 -3.4000 -2.0063 0.9342
16.8799 -0.4051 -2.0057 0.9342
16.8458 1.1025 -2.0053 0.9343
16.6771 2.6008 -2.0050 0.9343
14.7307 5.1016 -1.8518 0.9391
14.2136 6.3943 -1.8514 0.9391
13.5833 7.6354 -1.8509 0.9392
12.8448 8.8149 -1.8505 0.9392
10.3185 10.2107 -1.7244 0.9432
7.4314 10.5886 -1.5366 0.9492
6.1927 10.7508 -1.4738 0.9513
3.9912 11.1442 -1.4061 0.9534
2.9092 11.1806 -1.3723 0.9545
0.8701 11.4476 -1.3637 0.9548
-0.1563 11.5820 -1.3759 0.9544
-1.2096 11.7199 -1.3996 0.9536
-7.6959 12.5641 -1.7502 0.9424
-9.2610 12.4662 -1.8447 0.9394
-10.3362 11.5898 -1.8447 0.9394
-12.2318 9.5682 -1.8447 0.9394
-13.0373 8.4388 -1.8448 0.9394
-13.7391 7.2423 -1.8449 0.9394
-15.5109 6.4807 -1.9968 0.9345
-16.8064 0.6452 -1.9978 0.9345
-15.9821 -5.2790 -1.9993 0.9344
-14.7957 -8.0393 -2.0002 0.9344
-14.0226 -9.3296 -2.0007 0.9344
-13.1373 -10.5461 -2.0011 0.9344
-7.9700 -13.3876 -1.8507 0.9392
-6.7452 -14.0486 -1.8512 0.9392
-5.4660 -14.5976 -1.8516 0.9391
-2.7854 -15.3431 -1.8523 0.9391
-1.4054 -15.5334 -1.8527 0.9391
-0.0138 -15.5996 -1.8530 0.9391
1.3785 -15.5412 -1.8533 0.9391
4.1201 -15.0528 -1.8538 0.9391
8.6126 -14.5254 -2.0059 0.9342
9.8799 -13.7065 -2.0070 0.9342
13.1576 -10.6007 -2.0071 0.9342
14.0505 -9.3840 -2.0070 0.9342
14.8310 -8.0924 -2.0069 0.9342
16.0305 -5.3265 -2.0066 0.9342
16.4400 -3.8744 -2.0063 0.9342
16.7179 -2.3917 -2.0061 0.9342
16.8621 -0.8902 -2.0058 0.9342
16.8715 0.6178 -2.0054 0.9343
15.7759 3.4500 -1.9182 0.9370
14.8723 4.6764 -1.8519 0.9391
13.7981 7.2423 -1.8511 0.9392
13.0939 8.4427 -1.8507 0.9392
12.2854 9.5751 -1.8502 0.9392
10.8547 10.1405 -1.7645 0.9419
9.2624 10.3489 -1.6498 0.9456
6.5802 10.7001 -1.4921 0.9507
2.2140 11.2716 -1.3645 0.9548
0.1761 11.5384 -1.3708 0.9546
-0.8666 11.6750 -1.3906 0.9539
-1.9478 11.8115 -1.4220 0.9529
-5.6075 12.1790 -1.5927 0.9474
-8.8945 12.7210 -1.8438 0.9394
-7.2431 7.1927 -1.2125 0.9597
-14.0903 -0.6751 -1.9987 0.9446
-13.9760 -1.9300 -1.9990 0.9446
-12.9724 -5.5655 -2.0001 0.9446
-12.4264 -6.7021 -2.0004 0.9446
-11.7811 -7.7856 -2.0008 0.9445
-10.2136 -9.7596 -2.0016 0.9445
-8.3196 -11.4242 -2.0024 0.9445
-6.1494 -12.7065 -2.0001 0.9446
-0.0548 -13.7587 -1.9495 0.9459
1.1911 -13.9196 -1.9795 0.9451
2.4546 -13.9063 -2.0008 0.9445
3.6945 -13.6645 -2.0056 0.9444
4.8995 -13.2815 -2.0058 0.9444
6.0656 -12.7923 -2.0060 0.9444
8.2437 -11.5117 -2.0062 0.9444
10.1589 -9.8634 -2.0062 0.9444
11.7499 -7.9003 -2.0062 0.9444
12.9657 -5.6854 -2.0060 0.9444
13.4202 -4.5054 -2.0058 0.9444
13.7674 -3.2896 -2.0056 0.9444
14.0409 1.7337 -2.0046 0.9444
12.0796 4.9781 -1.8512 0.9486
10.9982 7.0432 -1.8505 0.9486
10.3239 7.9950 -1.8501 0.9486
6.6226 10.6946 -1.7823 0.9505
5.4442 10.8488 -1.7199 0.9521
4.2103 10.6724 -1.6256 0.9547
2.2495 11.2671 -1.6279 0.9546
1.2327 11.4002 -1.6247 0.9547
0.2118 11.5338 -1.6345 0.9545
-1.9102 11.8117 -1.6953 0.9528
-3.0488 11.9557 -1.7482 0.9514
-4.2727 12.1159 -1.8203 0.9494
-7.4305 10.6977 -1.8455 0.9487
-9.9981 8.3475 -1.8455 0.9487
-13.9230 2.2408 -1.9981 0.9446
-14.0250 -1.5274 -1.9989 0.9446
-12.6132 -6.3417 -2.0003 0.9446
-10.4893 -9.4614 -2.0015 0.9445
-9.6051 -10.3616 -2.0019 0.9445
-8.6440 -11.1796 -2.0023 0.9445
-7.6134 -11.9087 -2.0027 0.9445
-6.5185 -12.5368 -2.0021 0.9445
-5.3589 -13.0321 -1.9965 0.9447
-4.1057 -13.2359 -1.9635 0.9456
-2.8753 -13.3959 -1.9413 0.9462
-1.6626 -13.5507 -1.9344 0.9463
3.2997 -13.7630 -2.0053 0.9444
4.5156 -13.4165 -2.0058 0.9444
6.8295 -12.4021 -2.0061 0.9444
8.9259 -10.9915 -2.0062 0.9444
9.8712 -10.1513 -2.0062 0.9444
10.7376 -9.2300 -2.0062 0.9444
12.2064 -7.1740 -2.0061 0.9444
12.7972 -6.0559 -2.0060 0.9444
14.0856 1.3294 -2.0047 0.9444
13.9086 2.5806 -2.0043 0.9445
12.8652 3.5994 -1.8929 0.9475
9.8194 8.6044 -1.8499 0.9486
9.0107 9.4444 -1.8495 0.9486
4.5500 10.6279 -1.6381 0.9544
2.5784 11.2240 -1.6317 0.9545
1.5595 11.3574 -1.6243 0.9547
0.5417 11.4906 -1.6299 0.9546
-1.5572 11.7654 -1.6816 0.9532
-8.0646 10.2279 -1.8455 0.9487
-8.9449 9.4673 -1.8455 0.9487
-9.7540 8.6314 -1.8455 0.9487
-14.0343 1.3936 -1.9983 0.9446
-13.6432 -3.6064 -1.9995 0.9446
-13.2693 -4.8102 -1.9998 0.9446
-12.7895 -5.9762 -2.0002 0.9446
-11.5280 -8.1574 -2.0010 0.9445
-10.7562 -9.1553 -2.0014 0.9445
-8.9612 -10.9258 -2.0022 0.9445
-7.9521 -11.6841 -2.0026 0.9445
-6.8791 -12.3495 -2.0029 0.9445
-2.0520 -13.5013 -1.9350 0.9463
1.6460 -13.9785 -1.9943 0.9447
4.1280 -13.5404 -2.0057 0.9444
6.4700 -12.5930 -2.0060 0.9444
9.5753 -10.4309 -2.0062 0.9444
11.9954 -7.5223 -2.0061 0.9444
13.1398 -5.2695 -2.0059 0.9444
13.5564 -4.0756 -2.0057 0.9444
13.8646 -2.8494 -2.0055 0.9444
14.1469 -0.3395 -2.0050 0.9444
14.1187 0.9240 -2.0047 0.9444
13.9778 2.1798 -2.0044 0.9445
13.6807 3.4067 -1.9976 0.9446
12.3472 4.2762 -1.8514 0.9486
11.9142 5.3599 -1.8511 0.9486
10.0633 8.3191 -1.8500 0.9486
9.2790 9.1820 -1.8496 0.9486
6.1927 10.7508 -1.7579 0.9511
5.0426 10.9014 -1.7019 0.9526
3.8423 10.7286 -1.6147 0.9550
2.9092 11.1807 -1.6369 0.9544
1.8865 11.3146 -1.6253 0.9547
-1.2096 11.7199 -1.6694 0.9535
-8.6691 9.7206 -1.8455 0.9487
-10.2590 8.0249 -1.8455 0.9487
-12.4528 6.5643 -1.9946 0.9447
-13.0089 5.4353 -1.9976 0.9446
-13.7703 3.0369 -1.9980 0.9446
-13.9879 1.7963 -1.9982 0.9446
-13.7405 -3.2125 -1.9994 0.9446
-13.4013 -4.4266 -1.9997 0.9446
-11.7570 -7.8222 -2.0008 0.9445
-10.1834 -9.7913 -2.0016 0.9445
-9.2709 -10.6630 -2.0020 0.9445
-4.9167 -13.1307 -1.9866 0.9449
-1.2310 -13.6058 -1.9357 0.9463
-0.0122 -13.7642 -1.9502 0.9459
1.2351 -13.9253 -1.9808 0.9451
4.9407 -13.2663 -2.0058 0.9444
6.1052 -12.7735 -2.0060 0.9444
8.2793 -11.4861 -2.0062 0.9444
12.9832 -5.6451 -2.0059 0.9444
13.7775 -3.2469 -2.0056 0.9444
14.1401 0.5178 -2.0048 0.9444
14.0354 1.7772 -2.0045 0.9444
12.4657 3.9197 -1.8515 0.9486
12.0640 5.0155 -1.8512 0.9486
11.5662 6.0708 -1.8508 0.9486
10.9763 7.0773 -1.8505 0.9486
10.2990 8.0269 -1.8501 0.9486
8.7047 9.7258 -1.8494 0.9486
7.8006 10.4617 -1.8490 0.9486
4.1739 10.6771 -1.6243 0.9547
1.1974 11.4048 -1.6248 0.9547
0.1761 11.5385 -1.6351 0.9544
-1.9479 11.8115 -1.6962 0.9528
-3.0897 11.9610 -1.7504 0.9513
-4.3171 12.1217 -1.8232 0.9493
-5.4306 11.7949 -1.8398 0.9489
-6.4817 11.2986 -1.8456 0.9487
-7.2119 7.1617 -1.4401 0.9598
-10.0240 8.3165 -1.8455 0.9487
-12.1214 -0.5808 -1.9992 0.9520
-11.8284 -2.7268 -1.9997 0.9520
-11.1587 -4.7873 -2.0003 0.9520
-10.1334 -6.6967 -2.0010 0.9520
-8.0020 -9.1461 -2.0020 0.9519
-6.2510 -10.4263 -2.0027 0.9519
-5.2966 -10.9443 -2.0030 0.9519
-4.2996 -11.3751 -2.0033 0.9519
-3.2679 -11.7151 -2.0036 0.9519
-1.1339 -12.1129 -2.0042 0.9519
1.0375 -12.1245 -2.0047 0.9519
2.1155 -11.9849 -2.0049 0.9519
6.1763 -10.4905 -2.0055 0.9518
7.0880 -9.8979 -2.0056 0.9518
8.7348 -8.4807 -2.0056 0.9518
10.6682 -5.8640 -2.0055 0.9518
11.1483 -4.8885 -2.0054 0.9518
11.8379 -2.8286 -2.0051 0.9519
7.5128 8.3419 -1.8494 0.9555
6.7374 8.9775 -1.8491 0.9555
5.9084 9.5413 -1.8488 0.9555
5.0327 10.0287 -1.8485 0.9555
4.1171 10.4361 -1.8482 0.9555
3.1689 10.7602 -1.8479 0.9555
2.1958 10.9984 -1.8476 0.9556
0.2059 11.2106 -1.8471 0.9556
-0.7952 11.1829 -1.8469 0.9556
-1.7897 11.0661 -1.8467 0.9556
-3.7275 10.5699 -1.8464 0.9556
-4.6555 10.1945 -1.8463 0.9556
-5.5463 9.7379 -1.8462 0.9556
-7.1529 7.1474 -1.6658 0.9598
-11.0371 5.0301 -1.9982 0.9520
-11.9780 1.9277 -1.9986 0.9520
-12.1035 0.8513 -1.9988 0.9520
-11.2911 -4.4644 -2.0002 0.9520
-10.8495 -5.4549 -2.0005 0.9520
-3.6031 -11.6158 -2.0035 0.9519
-2.5527 -11.8927 -2.0038 0.9519
0.6885 -12.1489 -2.0046 0.9519
2.8376 -11.8355 -2.0050 0.9519
4.8969 -11.1444 -2.0053 0.9519
10.4954 -6.1684 -2.0055 0.9518
11.0034 -5.2070 -2.0054 0.9518
11.9867 -2.1063 -2.0049 0.9519
12.1256 -1.0282 -2.0047 0.9519
12.1676 0.0578 -2.0045 0.9519
12.1124 1.1432 -2.0042 0.9519
11.9604 2.2191 -2.0040 0.9519
10.1088 4.9018 -1.8508 0.9555
7.7499 8.1230 -1.8495 0.9555
6.1806 9.3680 -1.8489 0.9555
4.4156 10.3140 -1.8483 0.9555
2.5112 10.9313 -1.8477 0.9555
1.5256 11.1102 -1.8475 0.9556
-0.4734 11.2015 -1.8470 0.9556
-3.4222 10.6730 -1.8464 0.9556
-6.9384 8.7995 -1.8461 0.9556
-7.6958 8.1452 -1.8460 0.9556
-8.3919 7.4260 -1.8460 0.9556
-10.3532 6.2868 -1.9954 0.9521
-11.3220 4.3526 -1.9982 0.9520
-11.6660 3.3252 -1.9984 0.9520
-12.0736 1.1989 -1.9988 0.9520
-12.1338 0.1167 -1.9990 0.9520
-12.0973 -0.9665 -1.9993 0.9520
-11.9644 -2.0424 -1.9995 0.9520
-9.9156 -7.0164 -2.0011 0.9519
-8.5134 -8.6702 -2.0018 0.9519
-7.7071 -9.3968 -2.0021 0.9519
3.5494 -11.6426 -2.0051 0.9519
4.5745 -11.2803 -2.0053 0.9519
9.0004 -8.1982 -2.0056 0.9518
9.6959 -7.3623 -2.0056 0.9518
10.3139 -6.4676 -2.0055 0.9518
11.9216 -2.4501 -2.0050 0.9519
12.1407 0.7946 -2.0043 0.9519
12.0198 1.8745 -2.0041 0.9519
11.0674 3.8330 -1.9295 0.9536
10.2460 4.6094 -1.8509 0.9555
9.7922 5.5044 -1.8506 0.9555
9.2605 6.3551 -1.8503 0.9555
8.6550 7.1549 -1.8499 0.9555
7.9807 7.8973 -1.8496 0.9555
5.6013 9.7240 -1.8487 0.9555
4.7105 10.1833 -1.8484 0.9555
0.8498 11.1811 -1.8473 0.9556
-2.1411 11.0031 -1.8466 0.9556
-4.9777 10.0408 -1.8462 0.9556
-7.4585 8.3631 -1.8460 0.9556
-10.1287 6.5562 -1.9876 0.9523
-10.7294 5.6558 -1.9981 0.9520
-11.1919 4.6761 -1.9982 0.9520
-11.5653 3.6591 -1.9983 0.9520
-12.1250 0.4655 -1.9989 0.9520
-12.1196 -0.6184 -1.9992 0.9520
-12.0176 -1.6976 -1.9994 0.9520
-11.8199 -2.7635 -1.9997 0.9520
-11.5279 -3.8078 -2.0000 0.9520
-8.7586 -8.4214 -2.0017 0.9519
-7.9736 -9.1709 -2.0020 0.9519
-7.1247 -9.8475 -2.0023 0.9519
-6.2186 -10.4457 -2.0027 0.9519
-5.2626 -10.9607 -2.0030 0.9519
-4.2643 -11.3884 -2.0033 0.9519
-3.2316 -11.7253 -2.0036 0.9519
-0.0108 -12.1675 -2.0045 0.9519
1.0751 -12.1213 -2.0047 0.9519
6.2088 -10.4714 -2.0055 0.9518
7.1187 -9.8759 -2.0056 0.9518
7.9717 -9.2015 -2.0056 0.9518
8.7610 -8.4536 -2.0056 0.9518
10.6863 -5.8309 -2.0055 0.9518
11.1634 -4.8538 -2.0054 0.9518
11.8466 -2.7919 -2.0051 0.9519
12.0473 -1.7235 -2.0049 0.9519
12.1590 0.4452 -2.0044 0.9519
12.0692 1.5282 -2.0042 0.9519
10.3748 4.3132 -1.8510 0.9555
9.4399 6.0866 -1.8504 0.9555
8.8576 6.9035 -1.8500 0.9555
8.2049 7.6650 -1.8497 0.9555
7.4869 8.3651 -1.8494 0.9555
6.7094 8.9983 -1.8491 0.9555
5.0015 10.0442 -1.8485 0.9555
3.1355 10.7699 -1.8479 0.9555
0.1711 11.2111 -1.8471 0.9556
-0.8299 11.1803 -1.8469 0.9556
-3.7603 10.5583 -1.8464 0.9556
-4.6871 10.1800 -1.8463 0.9556
-6.4213 9.1839 -1.8461 0.9556
-7.2150 8.5741 -1.8460 0.9556
-7.1843 7.1344 -1.6680 0.9598
-8.6241 7.1551 -1.8460 0.9556
-10.6275 0.4410 -1.9993 0.9576
-10.6256 -0.5091 -1.9995 0.9576
-10.3683 -2.3902 -2.0000 0.9576
-9.7810 -4.1963 -2.0005 0.9576
-9.3689 -5.0530 -2.0008 0.9576
-8.3239 -6.6398 -2.0014 0.9576
-7.6994 -7.3571 -2.0017 0.9576
-7.0133 -8.0160 -2.0020 0.9576
-5.4784 -9.1377 -2.0026 0.9576
-3.7680 -9.9688 -2.0031 0.9576
-2.8639 -10.2666 -2.0034 0.9575
-1.9366 -10.4825 -2.0037 0.9575
-0.9936 -10.6148 -2.0039 0.9575
-0.0425 -10.6623 -2.0041 0.9575
0.9092 -10.6247 -2.0043 0.9575
2.7837 -10.2957 -2.0047 0.9575
5.4120 -9.1924 -2.0050 0.9575
6.2109 -8.6731 -2.0051 0.9575
6.9602 -8.0844 -2.0051 0.9575
7.6538 -7.4312 -2.0051 0.9575
8.2863 -6.7185 -2.0051 0.9575
8.8526 -5.9522 -2.0051 0.9575
9.3480 -5.1384 -2.0050 0.9575
9.7688 -4.2836 -2.0049 0.9575
10.6468 -0.5952 -2.0043 0.9575
10.6563 0.3571 -2.0041 0.9575
10.5807 1.3064 -2.0039 0.9575
10.1775 3.1655 -2.0034 0.9575
9.7179 4.0048 -1.9756 0.9581
8.2897 5.3087 -1.8503 0.9607
7.2119 6.6957 -1.8497 0.9607
6.5847 7.3114 -1.8494 0.9607
5.1787 8.3629 -1.8489 0.9608
3.6088 9.1476 -1.8484 0.9608
2.7777 9.4319 -1.8481 0.9608
1.0567 9.7730 -1.8476 0.9608
0.1805 9.8272 -1.8474 0.9608
-0.6971 9.8030 -1.8472 0.9608
-1.5689 9.7008 -1.8471 0.9608
-3.2677 9.2660 -1.8468 0.9608
-5.6043 8.0686 -1.8465 0.9608
-7.5410 6.2960 -1.8465 0.9608
-10.0311 3.5289 -1.9987 0.9576
-10.5002 1.6899 -1.9990 0.9576
-10.6101 0.7463 -1.9992 0.9576
-10.6354 -0.2035 -1.9994 0.9576
-10.5761 -1.1518 -1.9996 0.9576
-9.0465 -5.6117 -2.0010 0.9576
-8.5110 -6.3974 -2.0013 0.9576
-7.9073 -7.1325 -2.0016 0.9576
-7.2405 -7.8107 -2.0019 0.9576
-5.7385 -8.9760 -2.0025 0.9576
-4.9154 -9.4536 -2.0028 0.9576
-2.2370 -10.4221 -2.0036 0.9575
0.6034 -10.6461 -2.0043 0.9575
1.5511 -10.5508 -2.0045 0.9575
3.4023 -10.1087 -2.0048 0.9575
4.2910 -9.7654 -2.0049 0.9575
5.1455 -9.3440 -2.0050 0.9575
6.7249 -8.2811 -2.0051 0.9575
8.0898 -6.9540 -2.0051 0.9575
9.6418 -4.5627 -2.0050 0.9575
10.0099 -3.6839 -2.0048 0.9575
10.6256 -0.9010 -2.0044 0.9575
10.6143 1.0018 -2.0039 0.9575
10.4813 1.9447 -2.0037 0.9575
10.2647 2.8718 -2.0034 0.9575
9.9452 3.7678 -1.9990 0.9576
8.8678 4.3000 -1.8524 0.9607
8.4393 5.0685 -1.8504 0.9607
7.9522 5.8005 -1.8501 0.9607
7.4018 6.4859 -1.8498 0.9607
6.1292 7.6960 -1.8492 0.9607
4.6623 8.6603 -1.8487 0.9608
3.0478 9.3485 -1.8482 0.9608
2.2012 9.5819 -1.8479 0.9608
1.3373 9.7389 -1.8477 0.9608
-1.2894 9.7422 -1.8471 0.9608
-4.6148 8.6731 -1.8466 0.9608
-5.3701 8.2264 -1.8465 0.9608
-6.7466 7.1406 -1.8465 0.9608
-7.3568 6.5101 -1.8465 0.9608
-8.5319 6.2871 -1.9920 0.9578
-9.9253 3.8157 -1.9987 0.9576
-10.2269 2.9150 -1.9988 0.9576
-10.4470 1.9910 -1.9990 0.9576
-10.5839 1.0509 -1.9991 0.9576
-10.6365 0.1023 -1.9993 0.9576
-9.6429 -4.5058 -2.0006 0.9576
-9.2037 -5.3491 -2.0009 0.9576
-8.6909 -6.1499 -2.0012 0.9576
-7.4616 -7.5990 -2.0018 0.9576
-5.9939 -8.8069 -2.0024 0.9576
-4.3343 -9.7349 -2.0029 0.9576
-2.5356 -10.3531 -2.0035 0.9575
-1.6019 -10.5394 -2.0037 0.9575
-0.6551 -10.6415 -2.0040 0.9575
0.2971 -10.6587 -2.0042 0.9575
1.2471 -10.5907 -2.0044 0.9575
2.1873 -10.4381 -2.0046 0.9575
3.1102 -10.2021 -2.0047 0.9575
5.7021 -9.0155 -2.0051 0.9575
6.4840 -8.4710 -2.0051 0.9575
7.2141 -7.8587 -2.0051 0.9575
7.8866 -7.1837 -2.0051 0.9575
8.4960 -6.4512 -2.0051 0.9575
9.5068 -4.8380 -2.0050 0.9575
9.9001 -3.9702 -2.0049 0.9575
10.4467 -2.1470 -2.0046 0.9575
10.6599 -0.2558 -2.0042 0.9575
10.5333 1.6426 -2.0038 0.9575
10.3434 2.5757 -2.0035 0.9575
8.5819 4.8240 -1.8504 0.9607
7.5855 6.2708 -1.8499 0.9607
5.6513 8.0522 -1.8491 0.9608
4.9095 8.5231 -1.8488 0.9608
4.1289 8.9259 -1.8485 0.9608
2.4758 9.5151 -1.8480 0.9608
1.6167 9.6968 -1.8478 0.9608
0.7449 9.8012 -1.8476 0.9608
-1.0089 9.7755 -1.8472 0.9608
-1.8770 9.6456 -1.8470 0.9608
-2.7299 9.4389 -1.8469 0.9608
-6.5386 7.3316 -1.8465 0.9608
-7.1667 6.7189 -1.8465 0.9608
-8.0720 6.3142 -1.9263 0.9591
-9.4060 4.9582 -1.9985 0.9576
-9.8114 4.0993 -1.9986 0.9576
-10.5490 1.3547 -1.9991 0.9576
-10.6289 0.4080 -1.9993 0.9576
-10.6240 -0.5421 -1.9995 0.9576
-10.3609 -2.4224 -2.0000 0.9576
-10.1048 -3.3377 -2.0002 0.9576
-9.7680 -4.2266 -2.0005 0.9576
-9.3532 -5.0821 -2.0008 0.9576
-8.8637 -5.8972 -2.0011 0.9576
-8.3033 -6.6656 -2.0014 0.9576
-7.6766 -7.3810 -2.0017 0.9576
-6.2443 -8.6306 -2.0023 0.9576
-2.8320 -10.2755 -2.0034 0.9575
-1.9041 -10.4886 -2.0037 0.9575
-0.9607 -10.6179 -2.0039 0.9575
2.8156 -10.2871 -2.0047 0.9575
6.2378 -8.6538 -2.0051 0.9575
7.6768 -7.4074 -2.0051 0.9575
8.3071 -6.6928 -2.0051 0.9575
9.3639 -5.1094 -2.0050 0.9575
10.1219 -3.3632 -2.0048 0.9575
10.6485 -0.5622 -2.0043 0.9575
9.6571 4.0148 -1.9658 0.9583
7.7630 6.0504 -1.8500 0.9607
7.1911 6.7180 -1.8497 0.9607
6.5620 7.3317 -1.8494 0.9607
5.1528 8.3789 -1.8489 0.9608
2.7484 9.4404 -1.8481 0.9608
-1.5990 9.6959 -1.8471 0.9608
-4.1089 8.9242 -1.8467 0.9608
-4.8886 8.5216 -1.8466 0.9608
-5.6293 8.0511 -1.8465 0.9608
-6.3251 7.5166 -1.8465 0.9608
-8.7489 6.0268 -1.9969 0.9577
-9.4514 0.3922 -1.9995 0.9621
-9.4496 -0.4527 -1.9997 0.9621
-9.3724 -1.2943 -1.9999 0.9621
-9.2205 -2.1256 -2.0002 0.9621
-8.9951 -2.9402 -2.0004 0.9620
-6.8464 -6.5421 -2.0017 0.9620
-6.2362 -7.1278 -2.0019 0.9620
-5.5760 -7.6569 -2.0022 0.9620
-4.8712 -8.1250 -2.0025 0.9620
-4.1273 -8.5283 -2.0027 0.9620
-3.3503 -8.8637 -2.0030 0.9620
-2.5463 -9.1284 -2.0032 0.9620
-0.8834 -9.4377 -2.0037 0.9620
0.8083 -9.4462 -2.0040 0.9620
1.6481 -9.3372 -2.0042 0.9620
3.2820 -8.8968 -2.0045 0.9620
4.0630 -8.5689 -2.0046 0.9620
7.3669 -5.9731 -2.0048 0.9620
8.3109 -4.5683 -2.0047 0.9620
8.6850 -3.8083 -2.0046 0.9620
9.2225 -2.2037 -2.0043 0.9620
9.4659 -0.5292 -2.0040 0.9620
9.4745 0.3175 -2.0038 0.9620
9.4074 1.1616 -2.0036 0.9620
9.2652 1.9961 -2.0034 0.9620
9.0491 2.8146 -2.0032 0.9620
8.1145 4.2270 -1.9340 0.9633
6.9195 5.3585 -1.8499 0.9649
6.4129 5.9538 -1.8497 0.9649
4.6052 7.4367 -1.8490 0.9649
3.9227 7.8169 -1.8487 0.9649
1.7117 8.5736 -1.8481 0.9649
0.9398 8.6912 -1.8479 0.9649
0.1605 8.7395 -1.8477 0.9649
-2.1594 8.4678 -1.8472 0.9649
-2.9062 8.2408 -1.8471 0.9649
-4.9843 7.1759 -1.8469 0.9649
-5.6046 6.7024 -1.8468 0.9649
-6.1803 6.1755 -1.8468 0.9649
-9.1663 2.3300 -1.9992 0.9621
-9.3383 1.5029 -1.9993 0.9621
-9.4359 0.6637 -1.9995 0.9621
-9.4584 -0.1809 -1.9997 0.9621
-9.2775 -1.8597 -2.0001 0.9621
-8.8013 -3.4799 -2.0006 0.9620
-8.4567 -4.2519 -2.0008 0.9620
-7.5682 -5.6888 -2.0013 0.9620
-6.4382 -6.9453 -2.0019 0.9620
-5.1026 -7.9812 -2.0024 0.9620
-2.8076 -9.0510 -2.0031 0.9620
-1.9890 -9.2665 -2.0034 0.9620
-0.3103 -9.4745 -2.0038 0.9620
0.5364 -9.4653 -2.0040 0.9620
1.3790 -9.3805 -2.0042 0.9620
2.2107 -9.2207 -2.0043 0.9620
3.8149 -8.6820 -2.0046 0.9620
5.9787 -7.3623 -2.0047 0.9620
7.1922 -6.1824 -2.0048 0.9620
8.1762 -4.8053 -2.0047 0.9620
8.5720 -4.0565 -2.0046 0.9620
8.8994 -3.2752 -2.0045 0.9620
9.4470 -0.8011 -2.0041 0.9620
9.4800 0.0450 -2.0039 0.9620
9.4372 0.8907 -2.0037 0.9620
9.1266 2.5534 -2.0033 0.9620
7.5039 4.5067 -1.8503 0.9648
7.0709 5.1576 -1.8500 0.9649
6.5816 5.7673 -1.8498 0.9649
6.0400 6.3307 -1.8495 0.9649
4.8172 7.3015 -1.8490 0.9649
4.1460 7.7012 -1.8488 0.9649
3.4418 8.0394 -1.8486 0.9649
1.1892 8.6609 -1.8479 0.9649
0.4116 8.7316 -1.8477 0.9649
-1.1467 8.6641 -1.8474 0.9649
-1.9151 8.5266 -1.8472 0.9649
-2.6681 8.3211 -1.8471 0.9649
-4.1043 7.7136 -1.8469 0.9649
-4.7760 7.3163 -1.8469 0.9649
-5.4097 6.8608 -1.8468 0.9649
-6.0002 6.3507 -1.8468 0.9649
-7.6124 5.6096 -1.9988 0.9621
-8.0828 4.9081 -1.9989 0.9621
-8.4888 4.1674 -1.9989 0.9621
-8.8272 3.3935 -1.9990 0.9621
-9.0953 2.5925 -1.9991 0.9621
-9.2910 1.7707 -1.9993 0.9621
-9.4127 0.9346 -1.9994 0.9621
-8.8973 -3.2254 -2.0005 0.9620
-8.5751 -4.0069 -2.0007 0.9620
-7.7283 -5.4687 -2.0012 0.9620
-6.6349 -6.7571 -2.0018 0.9620
-4.6102 -8.2763 -2.0026 0.9620
-3.8538 -8.6558 -2.0028 0.9620
2.7652 -9.0703 -2.0044 0.9620
5.0694 -8.0152 -2.0047 0.9620
8.0348 -5.0384 -2.0047 0.9620
8.4520 -4.3012 -2.0046 0.9620
8.8017 -3.5298 -2.0045 0.9620
9.4203 -1.0724 -2.0041 0.9620
9.4776 -0.2275 -2.0040 0.9620
9.4592 0.6191 -2.0038 0.9620
9.1966 2.2901 -2.0033 0.9620
8.9545 3.1012 -2.0031 0.9620
7.6567 4.3040 -1.8566 0.9647
6.7450 5.5759 -1.8499 0.9649
5.6450 6.6843 -1.8494 0.9649
5.0253 7.1603 -1.8491 0.9649
4.3658 7.5792 -1.8489 0.9649
3.6716 7.9375 -1.8486 0.9649
2.2017 8.4617 -1.8482 0.9649
-5.2103 7.0135 -1.8468 0.9649
-5.8152 6.5205 -1.8468 0.9649
-6.5399 6.1313 -1.8949 0.9640
-8.3654 4.4097 -1.9989 0.9621
-8.7259 3.6458 -1.9990 0.9621
-9.0169 2.8528 -1.9991 0.9621
-9.3817 1.2048 -1.9994 0.9621
-9.4526 0.3629 -1.9996 0.9621
-9.4481 -0.4821 -1.9997 0.9621
-9.3684 -1.3233 -1.9999 0.9621
-8.9860 -2.9682 -2.0004 0.9620
-7.3836 -5.9272 -2.0014 0.9620
-6.2141 -7.1472 -2.0019 0.9620
-0.8542 -9.4404 -2.0037 0.9620
-0.0084 -9.4799 -2.0039 0.9620
2.5033 -9.1459 -2.0044 0.9620
3.3096 -8.8866 -2.0045 0.9620
4.8369 -8.1575 -2.0047 0.9620
5.5457 -7.6936 -2.0047 0.9620
6.2101 -7.1682 -2.0048 0.9620
6.8250 -6.5855 -2.0048 0.9620
7.3854 -5.9502 -2.0048 0.9620
8.6967 -3.7813 -2.0046 0.9620
9.2293 -2.1750 -2.0043 0.9620
8.0680 4.2347 -1.9261 0.9634
6.3943 5.9736 -1.8497 0.9649
3.8984 7.8290 -1.8487 0.9649
0.9128 8.6940 -1.8478 0.9649
-0.6470 8.7162 -1.8475 0.9649
-2.9317 8.2317 -1.8471 0.9649
-5.0065 7.1604 -1.8469 0.9649
-6.1994 6.1563 -1.8468 0.9649
-7.2606 6.0238 -1.9942 0.9622
-7.7872 5.3644 -1.9988 0.9621
-8.4303 -1.1642 -2.0001 0.9656
-8.2936 -1.9120 -2.0003 0.9656
-8.0908 -2.6446 -2.0005 0.9656
-7.4935 -4.0416 -2.0010 0.9656
-7.1038 -4.6946 -2.0012 0.9656
-5.6088 -6.4107 -2.0019 0.9656
-5.0150 -6.8865 -2.0022 0.9656
-3.0131 -7.9715 -2.0029 0.9656
-1.5485 -8.3819 -2.0033 0.9656
-0.7945 -8.4875 -2.0035 0.9656
0.7269 -8.4950 -2.0038 0.9656
1.4821 -8.3969 -2.0040 0.9656
2.2256 -8.2316 -2.0041 0.9656
2.9514 -8.0007 -2.0042 0.9656
3.6537 -7.7057 -2.0043 0.9656
4.3269 -7.3493 -2.0044 0.9656
6.1191 -5.9411 -2.0045 0.9656
6.6248 -5.3714 -2.0045 0.9656
8.4369 -1.2337 -2.0039 0.9656
8.5205 0.2855 -2.0036 0.9656
8.4602 1.0446 -2.0034 0.9656
8.3325 1.7952 -2.0033 0.9656
8.1382 2.5313 -2.0030 0.9656
7.8790 3.2470 -2.0028 0.9656
7.5509 3.9335 -2.0010 0.9656
6.2232 4.8194 -1.8499 0.9682
5.7677 5.3548 -1.8497 0.9682
4.7229 6.2932 -1.8492 0.9682
2.8865 7.3168 -1.8486 0.9682
2.2219 7.5444 -1.8484 0.9682
1.5397 7.7118 -1.8482 0.9682
0.8453 7.8176 -1.8480 0.9682
0.1443 7.8611 -1.8479 0.9682
-1.2551 7.7604 -1.8476 0.9682
-1.9424 7.6169 -1.8474 0.9682
-3.2650 7.1496 -1.8472 0.9682
-4.4836 6.4550 -1.8471 0.9682
-5.0416 6.0291 -1.8471 0.9682
-6.5294 5.4514 -1.9991 0.9657
-6.9899 4.8471 -1.9991 0.9657
-7.3947 4.2042 -1.9992 0.9657
-8.0249 2.8231 -1.9993 0.9656
-8.2452 2.0959 -1.9994 0.9656
-8.3999 1.3519 -1.9996 0.9656
-8.4876 0.5970 -1.9997 0.9656
-8.5077 -0.1628 -1.9999 0.9656
-7.6063 -3.8243 -2.0009 0.9656
-7.2356 -4.4883 -2.0011 0.9656
-5.2107 -6.7392 -2.0021 0.9656
-4.5891 -7.1781 -2.0023 0.9656
-2.5250 -8.1400 -2.0030 0.9656
0.4824 -8.5121 -2.0038 0.9656
1.2401 -8.4358 -2.0039 0.9656
1.9880 -8.2921 -2.0041 0.9656
2.7202 -8.0821 -2.0042 0.9656
3.4307 -7.8075 -2.0043 0.9656
4.1138 -7.4705 -2.0043 0.9656
4.7641 -7.0739 -2.0044 0.9656
5.3764 -6.6207 -2.0044 0.9656
5.9458 -6.1146 -2.0045 0.9656
6.4677 -5.5596 -2.0045 0.9656
6.9379 -4.9602 -2.0044 0.9656
7.3526 -4.3213 -2.0044 0.9656
8.0030 -2.9453 -2.0042 0.9656
8.2335 -2.2194 -2.0041 0.9656
8.4957 -0.7204 -2.0038 0.9656
8.5254 0.0405 -2.0037 0.9656
8.4870 0.8010 -2.0035 0.9656
8.3809 1.5550 -2.0033 0.9656
8.2079 2.2963 -2.0031 0.9656
7.6673 3.7179 -2.0027 0.9656
5.4324 5.6938 -1.8495 0.9682
4.9020 6.1551 -1.8493 0.9682
4.3327 6.5672 -1.8491 0.9682
2.4379 7.4777 -1.8485 0.9682
1.7607 7.6646 -1.8483 0.9682
1.0697 7.7903 -1.8481 0.9682
-0.3320 7.8550 -1.8478 0.9682
-1.7227 7.6698 -1.8475 0.9682
-3.0582 7.2406 -1.8473 0.9682
-4.2962 6.5813 -1.8471 0.9682
-5.6845 6.0165 -1.9453 0.9666
-6.3700 5.6368 -1.9991 0.9657
-6.8476 5.0460 -1.9991 0.9657
-7.2707 4.4150 -1.9992 0.9657
-7.9403 3.0525 -1.9993 0.9656
-8.1814 2.3320 -1.9994 0.9656
-8.3574 1.5927 -1.9995 0.9656
-8.5087 0.0819 -1.9998 0.9656
-8.3893 -1.4321 -2.0002 0.9656
-8.2288 -2.1752 -2.0004 0.9656
-8.0028 -2.9011 -2.0006 0.9656
-7.7128 -3.6040 -2.0008 0.9656
-7.3613 -4.2783 -2.0011 0.9656
-5.9675 -6.0773 -2.0018 0.9656
-5.4020 -6.5864 -2.0020 0.9656
-3.4659 -7.7846 -2.0027 0.9656
-2.7578 -8.0637 -2.0029 0.9656
-2.0275 -8.2785 -2.0031 0.9656
0.9971 -8.4678 -2.0039 0.9656
1.7488 -8.3456 -2.0040 0.9656
3.2048 -7.9028 -2.0042 0.9656
3.8973 -7.5856 -2.0043 0.9656
4.5588 -7.2078 -2.0044 0.9656
5.1839 -6.7724 -2.0044 0.9656
5.7676 -6.2829 -2.0045 0.9656
7.6007 -3.8680 -2.0043 0.9656
7.9152 -3.1742 -2.0043 0.9656
8.4224 1.3135 -2.0034 0.9656
8.2708 2.0595 -2.0032 0.9656
8.0531 2.7890 -2.0030 0.9656
7.7713 3.4961 -2.0027 0.9656
7.4083 4.1643 -1.9974 0.9657
6.5032 4.4630 -1.8537 0.9681
5.5940 5.5355 -1.8496 0.9682
3.9268 6.8170 -1.8489 0.9682
3.3024 7.1394 -1.8487 0.9682
2.6519 7.4048 -1.8485 0.9682
0.5959 7.8403 -1.8480 0.9682
-2.1839 7.5510 -1.8474 0.9682
-2.8488 7.3257 -1.8473 0.9682
-3.4910 7.0419 -1.8472 0.9682
-4.1053 6.7021 -1.8472 0.9682
-5.3376 5.9851 -1.8848 0.9676
-6.1954 5.8083 -1.9959 0.9657
-7.1407 4.6221 -1.9991 0.9657
-7.8492 3.2795 -1.9993 0.9656
-8.1109 2.5661 -1.9994 0.9656
-8.5026 0.3264 -1.9998 0.9656
-8.4985 -0.4336 -1.9999 0.9656
-8.4267 -1.1903 -2.0001 0.9656
-7.4810 -4.0648 -2.0010 0.9656
-7.0893 -4.7167 -2.0012 0.9656
-6.6409 -5.3311 -2.0014 0.9656
-6.1395 -5.9031 -2.0017 0.9656
-4.9936 -6.9020 -2.0022 0.9656
-3.6881 -7.6815 -2.0026 0.9656
-2.2645 -8.2165 -2.0031 0.9656
-0.7682 -8.4899 -2.0035 0.9656
-0.0075 -8.5254 -2.0037 0.9656
0.7533 -8.4927 -2.0038 0.9656
2.2512 -8.2247 -2.0041 0.9656
2.9762 -7.9915 -2.0042 0.9656
3.6776 -7.6944 -2.0043 0.9656
4.3497 -7.3358 -2.0044 0.9656
5.5846 -6.4461 -2.0045 0.9656
6.6414 -5.3508 -2.0045 0.9656
7.0923 -4.7368 -2.0044 0.9656
7.4864 -4.0849 -2.0044 0.9656
7.8208 -3.4005 -2.0043 0.9656
8.0926 -2.6889 -2.0042 0.9656
8.2998 -1.9560 -2.0041 0.9656
8.5141 -0.4495 -2.0038 0.9656
8.5195 0.3120 -2.0036 0.9656
8.4569 1.0708 -2.0034 0.9656
7.8689 3.2714 -2.0028 0.9656
6.8310 4.4045 -1.9102 0.9672
6.2082 4.8386 -1.8499 0.9682
5.7510 5.3727 -1.8497 0.9682
4.7033 6.3078 -1.8492 0.9682
4.1212 6.7016 -1.8490 0.9682
2.1984 7.5512 -1.8484 0.9682
1.5157 7.7165 -1.8482 0.9682
0.8210 7.8202 -1.8480 0.9682
0.1200 7.8615 -1.8479 0.9682
-1.2791 7.7564 -1.8476 0.9682
-1.9660 7.6108 -1.8474 0.9682
-3.2872 7.1394 -1.8472 0.9682
-3.9110 6.8174 -1.8472 0.9682
-4.5036 6.4410 -1.8471 0.9682
-6.0163 5.9745 -1.9927 0.9658
-7.0049 4.8254 -1.9991 0.9657
-7.7176 0.3203 -2.0000 0.9686
-7.7160 -0.3697 -2.0001 0.9686
-7.5287 -1.7356 -2.0005 0.9686
-7.3445 -2.4007 -2.0006 0.9686
-7.1017 -3.0468 -2.0008 0.9686
-6.8022 -3.6687 -2.0010 0.9686
-6.4484 -4.2615 -2.0013 0.9686
-3.3692 -6.9619 -2.0025 0.9685
-2.7349 -7.2355 -2.0028 0.9685
-2.0785 -7.4514 -2.0029 0.9685
-0.7212 -7.7036 -2.0033 0.9685
-0.0308 -7.7378 -2.0035 0.9685
0.6598 -7.7103 -2.0036 0.9685
2.0200 -7.4712 -2.0039 0.9685
2.6787 -7.2615 -2.0040 0.9685
4.5067 -6.2933 -2.0042 0.9685
5.5537 -5.3922 -2.0042 0.9685
6.0127 -4.8751 -2.0042 0.9685
6.4236 -4.3190 -2.0042 0.9685
7.0886 -3.1083 -2.0041 0.9685
7.7263 -0.4319 -2.0036 0.9685
7.7335 0.2592 -2.0035 0.9685
7.6789 0.9481 -2.0033 0.9685
7.5630 1.6294 -2.0031 0.9685
6.5024 4.1641 -1.9992 0.9686
5.2354 4.8606 -1.8497 0.9709
3.2028 6.3822 -1.8489 0.9709
0.1310 7.1363 -1.8480 0.9709
-2.3732 6.7294 -1.8475 0.9709
-2.9640 6.4905 -1.8475 0.9709
-4.0703 5.8600 -1.8474 0.9709
-4.9352 5.9019 -1.9920 0.9687
-5.4623 5.4581 -1.9993 0.9686
-5.9275 4.9489 -1.9993 0.9686
-6.7131 3.8166 -1.9994 0.9686
-7.4851 1.9027 -1.9997 0.9686
-7.6255 1.2272 -1.9998 0.9686
-7.5753 -1.5185 -2.0004 0.9686
-7.4103 -2.1885 -2.0006 0.9686
-6.9046 -3.4715 -2.0010 0.9686
-6.5680 -4.0742 -2.0012 0.9686
-6.1789 -4.6445 -2.0014 0.9686
-5.7405 -5.1779 -2.0016 0.9686
-4.7297 -6.1172 -2.0021 0.9686
-3.5679 -6.8619 -2.0025 0.9685
-2.9416 -7.1536 -2.0027 0.9685
-2.2918 -7.3883 -2.0029 0.9685
-1.6235 -7.5641 -2.0031 0.9685
0.4379 -7.7259 -2.0036 0.9685
3.7337 -6.7803 -2.0041 0.9685
4.8797 -6.0089 -2.0042 0.9685
5.3964 -5.5496 -2.0042 0.9685
6.6733 -3.9220 -2.0041 0.9685
7.2636 -2.6732 -2.0040 0.9685
7.6223 -1.3394 -2.0038 0.9685
7.7109 -0.6539 -2.0037 0.9685
7.7379 0.0368 -2.0035 0.9685
7.6069 1.4114 -2.0032 0.9685
6.9594 3.3747 -2.0026 0.9685
6.1501 4.4860 -1.9710 0.9690
5.3731 4.7083 -1.8497 0.9709
4.9310 5.1684 -1.8495 0.9709
4.4497 5.5871 -1.8493 0.9709
3.9330 5.9613 -1.8491 0.9709
3.3850 6.2878 -1.8489 0.9709
2.2130 6.7879 -1.8486 0.9709
1.5983 6.9577 -1.8484 0.9709
-5.7828 5.1173 -1.9993 0.9686
-6.2164 4.5809 -1.9994 0.9686
-6.6005 4.0080 -1.9994 0.9686
-6.9320 3.4032 -1.9995 0.9686
-7.2083 2.7711 -1.9995 0.9686
-7.5869 1.4459 -1.9997 0.9686
-7.6861 0.7632 -1.9999 0.9686
-7.7241 0.0743 -2.0000 0.9686
-7.7006 -0.6153 -2.0002 0.9686
-7.4699 -1.9746 -2.0005 0.9686
-7.0013 -3.2715 -2.0009 0.9686
-6.3097 -4.4648 -2.0013 0.9686
-5.8867 -5.0106 -2.0015 0.9686
-4.9034 -5.9785 -2.0020 0.9686
-4.3509 -6.3928 -2.0022 0.9686
-3.7635 -6.7563 -2.0024 0.9685
-2.5032 -7.3192 -2.0028 0.9685
-1.8403 -7.5140 -2.0030 0.9685
-1.1625 -7.6490 -2.0032 0.9685
-0.4754 -7.7229 -2.0034 0.9685
0.2156 -7.7351 -2.0035 0.9685
0.9050 -7.6855 -2.0037 0.9685
2.2570 -7.4032 -2.0039 0.9685
2.9087 -7.1726 -2.0040 0.9685
4.7049 -6.1467 -2.0042 0.9685
5.7226 -5.2126 -2.0042 0.9685
6.1648 -4.6811 -2.0042 0.9685
6.5578 -4.1123 -2.0042 0.9685
6.8984 -3.5106 -2.0041 0.9685
7.6891 -0.8753 -2.0037 0.9685
7.7360 -0.1857 -2.0036 0.9685
7.7211 0.5053 -2.0034 0.9685
7.6445 1.1921 -2.0032 0.9685
7.3095 2.5315 -2.0029 0.9685
7.0538 3.1733 -2.0027 0.9685
6.3567 4.3624 -1.9961 0.9686
5.0777 5.0247 -1.8496 0.9709
4.1029 5.8459 -1.8492 0.9709
2.9978 6.4808 -1.8488 0.9709
2.4073 6.7217 -1.8486 0.9709
1.1740 7.0413 -1.8483 0.9709
-1.3631 7.0049 -1.8477 0.9709
-3.7269 6.0843 -1.8474 0.9709
-4.3555 5.8629 -1.8910 0.9703
-6.0821 4.7577 -1.9993 0.9686
-6.4825 4.1960 -1.9994 0.9686
-7.5421 1.6633 -1.9997 0.9686
-7.6609 0.9838 -1.9998 0.9686
-7.7186 0.2963 -2.0000 0.9686
-7.7149 -0.3936 -2.0001 0.9686
-6.0281 -4.8391 -2.0015 0.9686
-5.5729 -5.3583 -2.0017 0.9686
-4.5327 -6.2649 -2.0021 0.9686
-3.9560 -6.6451 -2.0023 0.9686
-3.3476 -6.9723 -2.0026 0.9685
-2.7124 -7.2440 -2.0028 0.9685
-2.0554 -7.4578 -2.0030 0.9685
-1.3819 -7.6122 -2.0031 0.9685
-0.0069 -7.7379 -2.0035 0.9685
2.0432 -7.4649 -2.0039 0.9685
2.7013 -7.2532 -2.0040 0.9685
3.3378 -6.9835 -2.0041 0.9685
3.9478 -6.6580 -2.0041 0.9685
4.5262 -6.2793 -2.0042 0.9685
5.0686 -5.8505 -2.0042 0.9685
5.5704 -5.3749 -2.0042 0.9685
7.3449 -2.4405 -2.0040 0.9685
7.5330 -1.7753 -2.0039 0.9685
7.7276 -0.4080 -2.0036 0.9685
7.7326 0.2832 -2.0035 0.9685
7.3795 2.3204 -2.0029 0.9685
5.8265 4.5411 -1.9127 0.9699
5.2203 4.8768 -1.8497 0.9709
4.7638 5.3226 -1.8495 0.9709
3.7410 6.0833 -1.8491 0.9709
1.3759 7.0048 -1.8483 0.9709
0.7453 7.0990 -1.8482 0.9709
0.1089 7.1366 -1.8480 0.9709
-2.3940 6.7220 -1.8475 0.9709
-2.9842 6.4813 -1.8475 0.9709
-7.0591 0.2929 -2.0001 0.9711
-7.0576 -0.3382 -2.0003 0.9711
-6.9998 -0.9666 -2.0004 0.9711
-5.1122 -4.8849 -2.0017 0.9710
-3.6369 -6.0662 -2.0023 0.9710
-1.9010 -6.8147 -2.0028 0.9710
-1.2854 -6.9577 -2.0030 0.9710
-0.6595 -7.0452 -2.0032 0.9710
1.8473 -6.8325 -2.0037 0.9710
3.0327 -6.3959 -2.0039 0.9710
3.5914 -6.1000 -2.0039 0.9710
4.1214 -5.7553 -2.0040 0.9710
4.6186 -5.3647 -2.0040 0.9710
5.0789 -4.9312 -2.0040 0.9710
6.4826 -2.8426 -2.0039 0.9710
6.7101 -2.2527 -2.0038 0.9710
7.0030 -1.0240 -2.0036 0.9710
7.0660 -0.3950 -2.0034 0.9710
7.0725 0.2370 -2.0033 0.9710
7.0227 0.8671 -2.0032 0.9710
5.9562 3.8143 -2.0023 0.9710
5.5813 4.3223 -1.9984 0.9711
5.0074 4.6489 -1.9343 0.9720
4.3721 4.8545 -1.8495 0.9732
2.9294 5.8374 -1.8489 0.9732
2.3966 6.0749 -1.8488 0.9732
1.8448 6.2640 -1.8486 0.9732
1.2784 6.4031 -1.8484 0.9732
0.1199 6.5273 -1.8482 0.9732
-0.4630 6.5115 -1.8480 0.9732
-2.7112 5.9369 -1.8476 0.9732
-3.2652 5.7329 -1.8677 0.9729
-4.0148 5.7802 -1.9923 0.9712
-6.1404 3.4911 -1.9996 0.9711
-6.6636 2.3442 -1.9997 0.9711
-6.9749 1.1225 -1.9999 0.9711
-7.0476 0.4957 -2.0001 0.9711
-7.0642 -0.1351 -2.0002 0.9711
-6.9288 -1.3889 -2.0005 0.9710
-6.7778 -2.0017 -2.0007 0.9710
-6.3152 -3.1752 -2.0010 0.9710
-5.6514 -4.2480 -2.0014 0.9710
-4.3258 -5.5947 -2.0020 0.9710
-3.2631 -6.2757 -2.0024 0.9710
-2.6903 -6.5425 -2.0026 0.9710
-2.0960 -6.7571 -2.0028 0.9710
0.4004 -7.0656 -2.0034 0.9710
1.6502 -6.8827 -2.0037 0.9710
2.2578 -6.7083 -2.0038 0.9710
2.8475 -6.4804 -2.0038 0.9710
3.4145 -6.2007 -2.0039 0.9710
4.4625 -5.4952 -2.0040 0.9710
4.9351 -5.0751 -2.0040 0.9710
5.3682 -4.6145 -2.0040 0.9710
5.7585 -4.1171 -2.0040 0.9710
6.6427 -2.4447 -2.0038 0.9710
6.8340 -1.8421 -2.0037 0.9710
7.0766 0.0336 -2.0034 0.9710
7.0449 0.6649 -2.0032 0.9710
6.9569 1.2907 -2.0031 0.9710
6.8134 1.9062 -2.0029 0.9710
6.3649 3.0864 -2.0025 0.9710
5.7101 4.1651 -2.0008 0.9710
5.2570 4.6065 -1.9787 0.9714
4.0698 5.1101 -1.8494 0.9732
3.0960 5.7510 -1.8490 0.9732
1.4619 6.3639 -1.8485 0.9732
0.8882 6.4684 -1.8483 0.9732
-0.2757 6.5223 -1.8481 0.9732
-1.4304 6.3686 -1.8478 0.9732
-2.5394 6.0124 -1.8477 0.9732
-4.3679 5.5396 -1.9971 0.9711
-4.8508 5.1341 -1.9995 0.9711
-5.2895 4.6807 -1.9995 0.9711
-5.6862 4.1901 -1.9996 0.9711
-6.0375 3.6661 -1.9996 0.9711
-7.0434 -0.5628 -2.0003 0.9711
-6.9657 -1.1891 -2.0005 0.9711
-6.6445 -2.4087 -2.0008 0.9710
-5.7710 -4.0836 -2.0014 0.9710
-5.3841 -4.5827 -2.0016 0.9710
-4.9542 -5.0454 -2.0018 0.9710
-4.4847 -5.4679 -2.0020 0.9710
-3.4420 -6.1792 -2.0024 0.9710
-2.2893 -6.6938 -2.0027 0.9710
-1.0632 -6.9954 -2.0031 0.9710
-0.4348 -7.0629 -2.0032 0.9710
0.8276 -7.0287 -2.0035 0.9710
2.0640 -6.7704 -2.0037 0.9710
4.3027 -5.6212 -2.0040 0.9710
5.2334 -4.7669 -2.0040 0.9710
6.5698 -2.6347 -2.0038 0.9710
6.9328 -1.4248 -2.0036 0.9710
7.0319 -0.8005 -2.0035 0.9710
6.8655 1.7096 -2.0029 0.9710
4.7431 4.6935 -1.8890 0.9726
2.7419 5.9275 -1.8489 0.9732
1.0738 6.4403 -1.8484 0.9732
-0.6702 6.4933 -1.8480 0.9732
-1.8134 6.2701 -1.8478 0.9732
-3.5263 5.7570 -1.9112 0.9723
-4.2021 5.6564 -1.9948 0.9711
-5.1528 4.8309 -1.9995 0.9711
-5.5633 4.3518 -1.9995 0.9711
-6.5177 2.7232 -1.9997 0.9711
-7.0072 0.8999 -2.0000 0.9711
-7.0565 -0.3600 -2.0003 0.9711
-6.8813 -1.6088 -2.0006 0.9710
-6.7108 -2.2167 -2.0007 0.9710
-6.4869 -2.8069 -2.0009 0.9710
-6.2111 -3.3748 -2.0011 0.9710
-5.8858 -3.9159 -2.0013 0.9710
-5.5134 -4.4260 -2.0015 0.9710
-5.0970 -4.9007 -2.0017 0.9710
-4.6398 -5.3365 -2.0019 0.9710
-4.1456 -5.7298 -2.0021 0.9710
-2.4807 -6.6251 -2.0027 0.9710
-1.8798 -6.8206 -2.0029 0.9710
-1.2638 -6.9617 -2.0030 0.9710
-0.6376 -7.0473 -2.0032 0.9710
-0.0063 -7.0766 -2.0033 0.9710
1.2519 -6.9659 -2.0036 0.9710
1.8685 -6.8268 -2.0037 0.9710
3.0525 -6.3865 -2.0039 0.9710
4.6352 -5.3503 -2.0040 0.9710
5.0942 -4.9154 -2.0040 0.9710
5.8866 -3.9316 -2.0040 0.9710
6.2138 -3.3905 -2.0039 0.9710
6.4914 -2.8225 -2.0039 0.9710
7.0061 -1.0023 -2.0036 0.9710
7.0671 -0.3731 -2.0034 0.9710
7.0718 0.2590 -2.0033 0.9710
7.0199 0.8889 -2.0032 0.9710
6.9120 1.5116 -2.0030 0.9710
4.9811 4.6534 -1.9297 0.9721
4.3570 4.8681 -1.8495 0.9732
0.6817 6.4932 -1.8483 0.9732
0.0996 6.5276 -1.8481 0.9732
-0.4832 6.5100 -1.8480 0.9732
-2.1898 6.1486 -1.8477 0.9732
-4.5477 5.4044 -1.9995 0.9711
-5.4359 4.5099 -1.9995 0.9711
-5.8167 4.0070 -1.9996 0.9711
-6.4962 -0.3113 -2.0004 0.9731
-6.1831 -2.0211 -2.0008 0.9731
-5.9786 -2.5650 -2.0010 0.9731
-5.7264 -3.0885 -2.0012 0.9731
-5.4285 -3.5874 -2.0013 0.9731
-5.0872 -4.0579 -2.0015 0.9731
-3.8318 -5.2617 -2.0021 0.9731
-2.3020 -6.0903 -2.0026 0.9731
-1.1830 -6.4035 -2.0029 0.9731
-0.6070 -6.4840 -2.0031 0.9731
0.5553 -6.4895 -2.0033 0.9731
2.2546 -6.1116 -2.0036 0.9731
2.7910 -5.8863 -2.0037 0.9731
3.3052 -5.6139 -2.0038 0.9731
3.7930 -5.2967 -2.0038 0.9731
5.0604 -4.1030 -2.0038 0.9731
5.4063 -3.6351 -2.0038 0.9731
5.7090 -3.1381 -2.0038 0.9731
6.1755 -2.0732 -2.0036 0.9731
6.5030 -0.3636 -2.0033 0.9731
6.4632 0.7980 -2.0030 0.9731
6.3658 1.3715 -2.0029 0.9731
6.2175 1.9339 -2.0027 0.9731
5.7738 3.0077 -2.0024 0.9731
5.4819 3.5106 -2.0022 0.9731
4.7616 4.4207 -1.9985 0.9732
4.2724 4.7438 -1.9636 0.9736
2.6962 5.3729 -1.8490 0.9752
1.6980 5.7656 -1.8487 0.9752
1.1767 5.8936 -1.8485 0.9752
0.1103 6.0081 -1.8483 0.9752
-3.2075 5.6315 -1.9934 0.9732
-3.7081 5.3386 -1.9993 0.9732
