ply
format ascii 1.0
element vertex 1564
property float32 x
property float32 y
property float32 z
property float32 I
end_header
3.3341 12.6256 1.7005 0.9487
2.1829 12.8122 1.6925 0.9489
1.0359 13.0299 1.7021 0.9486
-9.6403 -16.1491 2.4492 0.9269
-3.1707 -17.3770 2.3002 0.9312
3.3695 -18.8137 2.4889 0.9258
16.0107 10.3476 2.4825 0.9260
11.8853 11.1305 2.1204 0.9364
7.3475 11.9866 1.8308 0.9449
5.9965 12.0885 1.7572 0.9470
3.6363 12.5683 1.7038 0.9486
2.4883 12.7862 1.6963 0.9488
1.3380 12.9725 1.6983 0.9488
0.1766 13.2249 1.7223 0.9480
-12.2144 -11.1728 2.1556 0.9354
-8.4722 -16.5879 2.4255 0.9276
-5.2148 -17.2637 2.3484 0.9298
-2.0548 -17.8666 2.3419 0.9300
14.3332 10.6660 2.3266 0.9305
9.1006 11.6590 1.9260 0.9421
7.6971 11.9203 1.8477 0.9444
6.3215 12.0268 1.7693 0.9467
3.1305 7.5192 1.0606 0.9677
1.6390 12.9154 1.6953 0.9488
-0.7119 13.5161 1.7625 0.9469
-10.6919 -16.1399 2.5211 0.9249
-8.8160 -16.3056 2.4138 0.9280
-3.9850 -17.2225 2.3020 0.9312
-2.4708 -17.7962 2.3397 0.9301
0.7530 -18.4039 2.3986 0.9284
-8.7326 -16.3215 1.9877 0.9282
-3.9090 -17.2369 1.8979 0.9314
-2.3931 -17.8081 1.9295 0.9303
0.8344 -18.4198 1.9800 0.9285
5.4059 12.3171 1.4444 0.9473
4.2266 12.5788 1.4250 0.9480
3.0610 12.8001 1.4132 0.9484
1.9052 13.0194 1.4129 0.9484
0.7407 13.2404 1.4240 0.9480
-0.4519 13.4668 1.4469 0.9472
-9.1829 -16.2360 2.0030 0.9277
-7.6139 -16.8095 1.9816 0.9285
15.3892 10.4655 1.9984 0.9279
13.2603 10.8695 1.8412 0.9333
7.0041 12.0517 1.4968 0.9455
4.5234 12.4846 1.4259 0.9480
1.0480 13.1821 1.4200 0.9482
-9.6404 -16.1492 2.0196 0.9271
-8.0579 -16.7343 1.9944 0.9280
-4.7999 -17.3498 1.9330 0.9301
16.0106 10.3476 2.0471 0.9262
10.1192 11.3358 1.6317 0.9407
6.0665 12.2297 1.4659 0.9466
3.6699 12.6845 1.4179 0.9483
0.1783 13.3472 1.4334 0.9477
-10.2662 -16.3157 2.0700 0.9254
-8.4723 -16.5882 2.0002 0.9278
-5.2145 -17.2625 1.9364 0.9300
1.1917 -18.4950 1.9901 0.9282
10.5139 11.2361 1.6524 0.9400
7.6970 11.9202 1.5237 0.9445
6.3953 12.1673 1.4760 0.9462
3.1300 7.5180 0.8745 0.9678
0.4893 13.2881 1.4279 0.9479
-0.7119 13.5161 1.4534 0.9470
-10.7421 -16.2156 2.0887 0.9247
-8.8160 -16.3056 1.9905 0.9281
-3.9850 -17.2225 1.8982 0.9314
-2.4706 -17.7950 1.9292 0.9303
0.7530 -18.4026 1.9778 0.9286
2.4164 -18.4374 1.9968 0.9279
-8.7326 -16.3215 1.5670 0.9284
-2.3929 -17.8070 1.5210 0.9304
0.8343 -18.4185 1.5608 0.9287
14.6811 10.4958 1.5277 0.9301
12.7551 10.9654 1.4239 0.9347
10.9864 11.3010 1.3342 0.9387
6.6663 12.1158 1.1706 0.9460
4.2266 12.5788 1.1233 0.9481
3.0610 12.8000 1.1141 0.9485
0.7407 13.2404 1.1226 0.9482
-0.4519 13.4667 1.1406 0.9473
-9.1829 -16.2360 1.5790 0.9279
-4.3863 -17.4356 1.5220 0.9304
-2.8084 -17.7366 1.5202 0.9304
0.3999 -18.3270 1.5518 0.9291
2.0518 -18.3682 1.5646 0.9285
15.2497 10.3707 1.5612 0.9286
7.0040 12.0517 1.1800 0.9456
5.7257 12.2564 1.1452 0.9471
3.3649 12.7423 1.1157 0.9485
2.2379 13.1350 1.1279 0.9479
1.0480 13.1821 1.1194 0.9483
-8.0574 -16.7332 1.5722 0.9282
-4.7996 -17.3486 1.5238 0.9303
-3.1707 -17.3771 1.4953 0.9315
1.6094 -18.2843 1.5538 0.9290
15.9526 10.3100 1.6079 0.9266
13.6501 10.6639 1.4663 0.9328
10.2610 11.4946 1.3044 0.9400
8.7186 11.7263 1.2370 0.9430
3.6699 12.6845 1.1178 0.9484
2.5448 13.0767 1.1278 0.9479
1.3537 13.1241 1.1169 0.9484
-10.2655 -16.3146 1.6317 0.9255
-8.4725 -16.5886 1.5768 0.9280
-5.2141 -17.2614 1.5264 0.9302
-3.5777 -17.2999 1.4955 0.9315
1.1916 -18.4937 1.5688 0.9283
2.9171 -18.8211 1.6123 0.9264
16.4709 10.1056 1.6358 0.9254
9.1006 11.6589 1.2520 0.9424
7.7292 11.9700 1.2062 0.9444
6.3953 12.1672 1.1636 0.9463
3.1295 7.5168 0.6893 0.9678
1.6582 13.0663 1.1150 0.9485
0.4958 13.4656 1.1407 0.9473
-8.8160 -16.3057 1.5692 0.9283
-2.4705 -17.7938 1.5207 0.9304
0.7529 -18.4014 1.5590 0.9287
-10.6511 -16.2321 1.2039 0.9251
-3.9090 -17.2370 1.0960 0.9316
-2.3928 -17.8058 1.1141 0.9305
14.9135 10.6619 1.1368 0.9292
9.4154 11.5991 0.9264 0.9419
6.6663 12.1158 0.8575 0.9461
5.4643 12.4500 0.8431 0.9470
4.2266 12.5788 0.8229 0.9482
-7.6129 -16.8072 1.1441 0.9287
-4.3860 -17.4345 1.1148 0.9305
0.3999 -18.3258 1.1367 0.9292
2.0518 -18.3683 1.1461 0.9286
11.4284 11.2171 0.9930 0.9378
9.8525 11.5721 0.9424 0.9409
8.3485 11.7965 0.8962 0.9437
4.5234 12.4845 0.8234 0.9482
3.3649 12.7423 0.8172 0.9486
-0.1371 13.5857 0.8425 0.9470
1.6094 -18.2843 1.1382 0.9291
13.6501 10.6639 1.0741 0.9329
10.2610 11.4946 0.9555 0.9401
8.7185 11.7263 0.9061 0.9431
6.0665 12.2296 0.8465 0.9468
4.8867 12.5597 0.8357 0.9474
3.6699 12.6844 0.8188 0.9485
2.5448 13.0767 0.8261 0.9480
0.1800 13.4806 0.8360 0.9474
-1.0348 13.5773 0.8444 0.9469
-10.2648 -16.3134 1.1952 0.9257
-2.0544 -17.8631 1.1150 0.9305
1.1915 -18.4925 1.1491 0.9284
14.2924 10.6356 1.1047 0.9311
12.5229 11.1882 1.0413 0.9349
10.6367 11.3674 0.9654 0.9395
6.3953 12.1672 0.8524 0.9464
3.9762 12.6263 0.8209 0.9483
1.6582 13.0662 0.8167 0.9486
0.4958 13.4656 0.8356 0.9474
-10.7405 -16.2133 1.2060 0.9250
-8.8161 -16.3057 1.1495 0.9284
-3.9850 -17.2226 1.0962 0.9316
-2.4703 -17.7927 1.1139 0.9305
0.7529 -18.4001 1.1420 0.9289
2.4164 -18.4375 1.1531 0.9282
-8.7326 -16.3216 0.7299 0.9286
0.8342 -18.4160 0.7269 0.9289
14.9134 10.6618 0.7229 0.9292
7.9863 11.8652 0.5640 0.9444
4.2266 12.5787 0.5232 0.9483
3.0610 12.8000 0.5189 0.9487
1.9052 13.0193 0.5188 0.9487
-2.8080 -17.7343 0.7080 0.9306
2.0518 -18.3683 0.7288 0.9287
15.3218 10.4197 0.7306 0.9285
13.2602 10.8694 0.6761 0.9337
11.4284 11.2171 0.6314 0.9379
9.8525 11.5721 0.5993 0.9410
7.0040 12.0517 0.5496 0.9457
3.3649 12.7423 0.5197 0.9486
2.2379 13.1349 0.5254 0.9481
1.0479 13.1820 0.5214 0.9484
-0.1371 13.5857 0.5357 0.9471
-9.6405 -16.1493 0.7416 0.9275
-8.0563 -16.7309 0.7322 0.9284
-3.1708 -17.3772 0.6965 0.9317
1.6094 -18.2844 0.7238 0.9292
3.3845 -18.8977 0.7570 0.9260
13.6501 10.6638 0.6830 0.9330
11.8852 11.1304 0.6421 0.9369
7.4456 12.1466 0.5618 0.9446
6.0665 12.2296 0.5383 0.9468
4.8867 12.5596 0.5314 0.9475
3.6699 12.6844 0.5207 0.9485
1.3537 13.1240 0.5202 0.9486
0.1800 13.4806 0.5316 0.9475
-10.2641 -16.3123 0.7599 0.9257
-5.2134 -17.2591 0.7109 0.9304
1.1915 -18.4912 0.7306 0.9285
16.6632 10.2236 0.7709 0.9247
14.2924 10.6356 0.7025 0.9312
12.5228 11.1881 0.6622 0.9350
10.6367 11.3673 0.6139 0.9396
3.9762 12.6263 0.5220 0.9484
2.8518 13.0184 0.5255 0.9480
0.4958 13.4655 0.5313 0.9475
-0.7119 13.5160 0.5337 0.9473
-10.7398 -16.2121 0.7668 0.9251
-8.8161 -16.3058 0.7309 0.9285
0.7528 -18.3989 0.7261 0.9289
0.8342 -18.4148 0.3114 0.9289
2.5007 -18.4536 0.3146 0.9282
10.9863 11.3009 0.2662 0.9389
9.4154 11.5991 0.2524 0.9420
1.9052 13.0193 0.2223 0.9487
0.7407 13.2403 0.2240 0.9483
-9.1830 -16.2362 0.3151 0.9281
-4.3854 -17.4322 0.3036 0.9306
2.0518 -18.3684 0.3122 0.9287
15.3217 10.4197 0.3130 0.9286
9.8524 11.5721 0.2567 0.9410
8.3484 11.7965 0.2441 0.9438
7.0040 12.0516 0.2355 0.9458
3.3649 12.7422 0.2226 0.9486
2.2379 13.1349 0.2251 0.9481
-8.0557 -16.7298 0.3137 0.9284
-3.1708 -17.3772 0.2984 0.9318
13.6500 10.6638 0.2926 0.9331
10.2609 11.4945 0.2603 0.9402
8.7185 11.7262 0.2468 0.9432
4.8867 12.5596 0.2276 0.9475
3.6698 12.6844 0.2231 0.9485
2.5448 13.0766 0.2250 0.9481
1.3537 13.1239 0.2229 0.9486
-12.2089 -11.1678 0.2795 0.9359
-10.2633 -16.3111 0.3255 0.9258
-8.4730 -16.5896 0.3147 0.9282
-5.2131 -17.2579 0.3045 0.9304
-3.5777 -17.3000 0.2984 0.9318
1.1914 -18.4900 0.3130 0.9286
2.9165 -18.8173 0.3217 0.9267
9.1005 11.6588 0.2498 0.9425
7.7998 12.0793 0.2429 0.9441
6.3953 12.1671 0.2322 0.9465
0.4958 13.4655 0.2276 0.9475
-0.7119 13.5160 0.2286 0.9473
-2.4700 -17.7903 0.3034 0.9307
2.4165 -18.4376 0.3141 0.9283
-8.7327 -16.3217 -0.1042 0.9286
-3.9090 -17.2371 -0.0995 0.9317
-2.3923 -17.8023 -0.1011 0.9307
0.8341 -18.4135 -0.1038 0.9289
2.5007 -18.4536 -0.1048 0.9282
14.9133 10.6618 -0.1032 0.9293
12.8825 11.0749 -0.0956 0.9343
9.4154 11.5990 -0.0841 0.9420
5.4643 12.4500 -0.0765 0.9471
4.2266 12.5787 -0.0747 0.9483
3.0610 12.7999 -0.0741 0.9487
1.9052 13.0192 -0.0741 0.9487
0.7407 13.2403 -0.0747 0.9483
-9.1830 -16.2362 -0.1050 0.9281
-4.3852 -17.4311 -0.1012 0.9306
-2.8076 -17.7320 -0.1011 0.9307
0.3998 -18.3221 -0.1032 0.9293
15.3216 10.4196 -0.1043 0.9286
13.2601 10.8694 -0.0965 0.9337
7.0040 12.0516 -0.0785 0.9458
5.7256 12.2562 -0.0762 0.9473
1.0480 13.1819 -0.0745 0.9485
-0.1371 13.5856 -0.0765 0.9471
-9.6405 -16.1494 -0.1059 0.9275
-4.7984 -17.3441 -0.1013 0.9305
-3.1708 -17.3773 -0.0995 0.9318
13.6500 10.6638 -0.0975 0.9331
10.3547 11.5995 -0.0875 0.9397
6.0664 12.2295 -0.0769 0.9469
4.8867 12.5596 -0.0759 0.9475
2.5448 13.0766 -0.0750 0.9481
1.3536 13.1239 -0.0743 0.9486
0.1801 13.4805 -0.0759 0.9475
-1.0348 13.5772 -0.0767 0.9470
-12.2076 -11.1666 -0.0931 0.9360
-10.2626 -16.3100 -0.1085 0.9258
-8.4732 -16.5899 -0.1049 0.9282
-5.2128 -17.2568 -0.1015 0.9304
-3.5777 -17.3000 -0.0995 0.9318
16.6631 10.2235 -0.1101 0.9248
12.5227 11.1881 -0.0945 0.9350
10.6366 11.3673 -0.0876 0.9396
6.3952 12.1671 -0.0774 0.9465
3.1275 7.5120 -0.0458 0.9680
3.9761 12.6262 -0.0745 0.9484
2.8518 13.0183 -0.0750 0.9481
1.6582 13.0661 -0.0742 0.9487
0.4958 13.4655 -0.0759 0.9475
-8.8161 -16.3058 -0.1044 0.9285
-2.4698 -17.7892 -0.1011 0.9307
0.7527 -18.3964 -0.1037 0.9290
-8.7327 -16.3217 -0.5212 0.9286
-3.9090 -17.2372 -0.4977 0.9317
2.5007 -18.4537 -0.5244 0.9282
14.9133 10.6617 -0.5162 0.9293
12.8824 11.0748 -0.4784 0.9343
10.9862 11.3009 -0.4438 0.9389
9.4153 11.5990 -0.4207 0.9420
7.9862 11.8651 -0.4027 0.9444
6.6662 12.1156 -0.3894 0.9462
5.4383 12.3909 -0.3810 0.9473
3.0610 12.7999 -0.3706 0.9487
-9.1830 -16.2363 -0.5252 0.9281
-2.8074 -17.7308 -0.5055 0.9307
0.3998 -18.3208 -0.5160 0.9293
13.2600 10.8693 -0.4828 0.9337
9.9424 11.6777 -0.4319 0.9405
8.3484 11.7964 -0.4069 0.9438
7.0040 12.0515 -0.3925 0.9457
1.0479 13.1819 -0.3723 0.9485
-4.7980 -17.3429 -0.5067 0.9305
-3.1708 -17.3773 -0.4974 0.9318
3.3838 -18.8938 -0.5405 0.9261
13.6828 10.6895 -0.4889 0.9329
11.8850 11.1303 -0.4585 0.9369
10.3546 11.5995 -0.4378 0.9397
6.0664 12.2295 -0.3844 0.9468
4.8867 12.5595 -0.3795 0.9475
3.6698 12.6843 -0.3718 0.9485
2.5448 13.0766 -0.3751 0.9481
0.1800 13.4804 -0.3796 0.9475
-12.2063 -11.1654 -0.4658 0.9359
-8.4734 -16.5902 -0.5245 0.9282
-5.2124 -17.2557 -0.5076 0.9304
-3.5777 -17.3001 -0.4974 0.9317
-2.0539 -17.8583 -0.5062 0.9306
2.9161 -18.8146 -0.5361 0.9266
12.5227 11.1880 -0.4728 0.9350
9.1005 11.6588 -0.4165 0.9425
7.7997 12.0793 -0.4049 0.9441
6.3952 12.1671 -0.3870 0.9465
3.1270 7.5108 -0.2291 0.9680
2.8518 13.0183 -0.3753 0.9481
1.6582 13.0661 -0.3709 0.9487
-7.7185 -17.9435 -0.5500 0.9248
-2.4696 -17.7880 -0.5057 0.9307
0.7527 -18.3951 -0.5184 0.9290
-10.6474 -16.2264 -0.9843 0.9252
-8.7327 -16.3218 -0.9388 0.9285
-2.3920 -17.7999 -0.9108 0.9306
0.8340 -18.4110 -0.9347 0.9288
17.1923 10.1019 -1.0113 0.9232
14.9132 10.6617 -0.9297 0.9292
10.8458 11.1565 -0.7891 0.9396
6.5937 11.9840 -0.6937 0.9467
1.8934 12.9386 -0.6632 0.9490
0.7355 13.1478 -0.6678 0.9486
-1.7433 14.1053 -0.7208 0.9447
-7.6103 -16.8014 -0.9354 0.9288
-4.3846 -17.4288 -0.9114 0.9305
2.0518 -18.3685 -0.9373 0.9286
15.3213 10.4194 -0.9397 0.9285
13.1383 10.7695 -0.8615 0.9342
9.6860 11.3766 -0.7577 0.9419
8.2417 11.6456 -0.7235 0.9445
6.9223 11.9111 -0.6987 0.9463
4.5033 12.4292 -0.6704 0.9484
3.3437 12.6620 -0.6642 0.9489
-0.1342 13.2982 -0.6744 0.9481
-1.4176 14.1975 -0.7236 0.9445
-9.6406 -16.1495 -0.9538 0.9274
-8.0541 -16.7263 -0.9415 0.9283
-3.1708 -17.3774 -0.8958 0.9317
1.6094 -18.2846 -0.9309 0.9291
3.3836 -18.8924 -0.9734 0.9260
13.6717 10.6807 -0.8798 0.9329
10.0876 11.3004 -0.7682 0.9411
6.0081 12.1119 -0.6857 0.9473
4.8866 12.5595 -0.6835 0.9475
3.6461 12.6023 -0.6653 0.9488
-1.0249 13.4466 -0.6839 0.9474
-3.5777 -17.3001 -0.8959 0.9317
2.9159 -18.8133 -0.9655 0.9266
14.2289 10.5883 -0.8995 0.9314
12.2253 10.9223 -0.8314 0.9364
10.5007 11.2220 -0.7794 0.9403
8.9842 11.5098 -0.7405 0.9432
7.5985 11.7677 -0.7104 0.9454
3.9495 12.5416 -0.6668 0.9487
0.4858 13.1916 -0.6695 0.9485
-0.7055 13.3940 -0.6802 0.9477
-10.7367 -16.2076 -0.9859 0.9251
-7.7199 -17.9466 -0.9908 0.9247
-3.9851 -17.2228 -0.8965 0.9316
-2.4695 -17.7868 -0.9107 0.9306
2.4165 -18.4377 -0.9431 0.9282
-8.7328 -16.3218 -1.3573 0.9284
-3.9091 -17.2373 -1.2960 0.9316
0.8313 -18.3510 -1.3469 0.9290
2.5007 -18.4538 -1.3654 0.9280
14.9132 10.6616 -1.3442 0.9291
12.7548 10.9651 -1.2333 0.9348
7.9862 11.8651 -1.0487 0.9443
6.6570 12.0990 -1.0125 0.9461
5.4642 12.4499 -0.9969 0.9469
0.7380 13.1934 -0.9689 0.9484
-7.5860 -16.7479 -1.3481 0.9289
-4.3700 -17.3708 -1.3134 0.9307
0.3985 -18.2616 -1.3393 0.9294
2.0518 -18.3686 -1.3552 0.9286
7.5056 -14.8146 -1.2177 0.9356
13.2600 10.8693 -1.2571 0.9335
11.4282 11.2169 -1.1741 0.9378
9.8113 11.5238 -1.1097 0.9411
6.9973 12.0401 -1.0211 0.9457
4.5209 12.4777 -0.9731 0.9482
3.3518 12.6926 -0.9626 0.9487
2.1995 12.9099 -0.9602 0.9488
1.0441 13.1333 -0.9660 0.9485
-0.1349 13.3669 -0.9801 0.9478
-1.4178 14.1991 -1.0463 0.9444
-9.6406 -16.1495 -1.3791 0.9273
-4.7822 -17.2857 -1.3150 0.9306
-3.1708 -17.3774 -1.2952 0.9316
1.6094 -18.2846 -1.3458 0.9290
11.8850 11.1302 -1.1939 0.9368
8.7184 11.7261 -1.0714 0.9431
4.8866 12.5595 -0.9881 0.9474
3.6559 12.6362 -0.9645 0.9486
1.3485 13.0739 -0.9637 0.9487
-12.1279 -11.0937 -1.2051 0.9362
-10.2278 -16.2546 -1.4081 0.9259
-8.4737 -16.5909 -1.3660 0.9280
-5.1957 -17.2003 -1.3174 0.9305
-3.4968 -16.9088 -1.2660 0.9331
1.1872 -18.4245 -1.3537 0.9286
16.6629 10.2234 -1.4334 0.9246
10.6365 11.3672 -1.1414 0.9395
9.1004 11.6587 -1.0844 0.9424
7.6969 11.9200 -1.0404 0.9447
3.1260 7.5084 -0.5963 0.9679
1.6517 13.0151 -0.9619 0.9487
0.4876 13.2429 -0.9717 0.9482
-0.7101 13.4829 -0.9900 0.9473
-8.8162 -16.3060 -1.3592 0.9284
-7.6354 -17.7504 -1.4168 0.9254
0.7502 -18.3343 -1.3454 0.9290
2.4165 -18.4378 -1.3635 0.9281
-16.4502 -9.9272 -1.8446 0.9257
-11.9389 -15.0655 -1.8455 0.9257
-8.7328 -16.3219 -1.7772 0.9283
-7.5226 -17.7009 -1.8465 0.9256
-3.9091 -17.2373 -1.6969 0.9314
-2.3841 -17.7409 -1.7185 0.9306
-0.8498 -19.2317 -1.8481 0.9256
2.5007 -18.4538 -1.7878 0.9279
4.2815 -18.7830 -1.8495 0.9255
7.5585 -17.7307 -1.8504 0.9255
19.3446 3.3912 -1.8855 0.9241
18.6556 5.0221 -1.8548 0.9253
18.1322 6.6680 -1.8548 0.9253
16.6550 9.7863 -1.8546 0.9253
14.4188 10.3082 -1.7016 0.9313
9.4152 11.5989 -1.4342 0.9417
7.9862 11.8650 -1.3731 0.9441
6.6661 12.1156 -1.3276 0.9459
4.2265 12.5786 -1.2740 0.9481
1.9052 13.0191 -1.2632 0.9485
0.7407 13.2401 -1.2731 0.9481
-0.4519 13.4664 -1.2936 0.9473
-1.7440 14.1114 -1.3651 0.9445
-4.0613 18.8333 -1.8497 0.9255
-7.3433 17.8015 -1.8487 0.9255
-8.9015 17.0703 -1.8483 0.9256
-10.3879 16.2033 -1.8478 0.9256
-11.7906 15.2072 -1.8474 0.9256
-13.0987 14.0903 -1.8470 0.9256
-14.3016 12.8615 -1.8466 0.9256
-15.3900 11.5306 -1.8462 0.9256
-14.7179 -12.3557 -1.8449 0.9257
-13.5574 -13.6224 -1.8451 0.9257
-10.9210 -15.8217 -1.8457 0.9257
-7.5855 -16.7467 -1.7650 0.9288
-2.7977 -17.6693 -1.7175 0.9306
-1.3004 -19.2052 -1.8480 0.9256
0.3984 -18.2604 -1.7535 0.9292
7.1402 -17.9018 -1.8503 0.9255
7.4900 -14.7838 -1.5911 0.9356
11.6384 -15.3800 -1.8517 0.9254
18.7683 4.5833 -1.8548 0.9253
18.2837 6.2410 -1.8548 0.9253
17.6527 7.8486 -1.8547 0.9253
16.8803 9.3932 -1.8546 0.9253
14.9965 10.1985 -1.7411 0.9297
11.4282 11.2169 -1.5373 0.9377
8.3483 11.7963 -1.3874 0.9436
5.7418 12.2910 -1.3024 0.9469
3.3649 12.7421 -1.2652 0.9484
-0.1353 13.4064 -1.2871 0.9476
-5.2931 18.5212 -1.8493 0.9255
-6.9243 17.9699 -1.8488 0.9255
-8.4993 17.2755 -1.8484 0.9256
-10.0057 16.4434 -1.8479 0.9256
-11.4315 15.4805 -1.8475 0.9256
-13.9969 13.1940 -1.8467 0.9256
-16.1145 10.4894 -1.8460 0.9256
-16.9331 -9.1643 -1.8485 0.9255
-16.0140 -10.6180 -1.8447 0.9257
-15.0032 -12.0069 -1.8448 0.9257
-13.8726 -13.3003 -1.8451 0.9257
-11.2885 -15.5607 -1.8456 0.9257
-9.6406 -16.1496 -1.8057 0.9272
-8.0271 -16.6703 -1.7763 0.9283
-3.1708 -17.3774 -1.6959 0.9315
-0.0314 -19.2526 -1.8483 0.9256
3.3725 -18.8306 -1.8366 0.9260
5.0768 -18.5862 -1.8497 0.9255
6.7180 -18.0631 -1.8502 0.9255
8.3064 -17.3953 -1.8507 0.9255
9.8291 -16.5881 -1.8511 0.9254
11.2739 -15.6477 -1.8516 0.9254
17.8321 7.4327 -1.8547 0.9253
17.0962 8.9950 -1.8546 0.9253
11.8849 11.1302 -1.5632 0.9367
8.7184 11.7261 -1.4028 0.9430
7.3473 11.9863 -1.3497 0.9451
0.1783 13.3469 -1.2815 0.9478
-1.0348 13.5771 -1.3072 0.9468
-3.1743 19.0055 -1.8499 0.9255
-6.5015 18.1285 -1.8490 0.9255
-8.0924 17.4711 -1.8485 0.9255
-9.6180 16.6745 -1.8481 0.9256
-11.0661 15.7452 -1.8476 0.9256
-12.4251 14.6906 -1.8472 0.9256
-14.8341 12.2407 -1.8464 0.9256
-15.8649 10.8649 -1.8460 0.9256
-17.6454 -9.0215 -1.9026 0.9235
-15.2802 -11.6515 -1.8448 0.9257
-12.9669 -14.1874 -1.8452 0.9257
-11.6498 -15.2910 -1.8455 0.9257
-10.2271 -16.2535 -1.8436 0.9257
-7.1839 -17.8419 -1.8465 0.9256
-3.4970 -16.9095 -1.6577 0.9330
-2.0471 -17.7992 -1.7201 0.9305
-0.4828 -19.2454 -1.8482 0.9256
1.1871 -18.4233 -1.7724 0.9285
2.9061 -18.7499 -1.8216 0.9266
6.2923 -18.2145 -1.8501 0.9255
7.8957 -17.5842 -1.8505 0.9255
12.2831 -14.8730 -1.8519 0.9254
18.0016 7.0126 -1.8547 0.9253
14.3327 10.6656 -1.7152 0.9307
10.6365 11.3671 -1.4946 0.9394
7.6969 11.9199 -1.3622 0.9446
2.8142 12.8466 -1.2626 0.9485
1.6581 13.0660 -1.2645 0.9485
0.4893 13.2878 -1.2766 0.9480
-4.4196 18.7514 -1.8496 0.9255
-9.2250 16.8966 -1.8482 0.9256
-10.6945 16.0013 -1.8477 0.9256
-12.0780 14.9788 -1.8473 0.9256
-14.5437 12.5858 -1.8465 0.9256
-16.4934 -9.8552 -1.8446 0.9257
-15.5488 -11.2897 -1.8447 0.9257
-14.4800 -12.6346 -1.8449 0.9257
-12.0046 -15.0131 -1.8455 0.9257
-8.8162 -16.3060 -1.7796 0.9282
-7.5998 -17.6676 -1.8464 0.9256
-5.9929 -18.2796 -1.8468 0.9256
-2.4612 -17.7275 -1.7182 0.9306
2.4165 -18.4378 -1.7853 0.9280
5.8630 -18.3558 -1.8500 0.9255
10.5266 -16.1570 -1.8513 0.9254
-16.5671 2.8853 -1.9976 0.9345
-16.7574 1.3942 -1.9974 0.9345
-16.8140 -0.1079 -1.9973 0.9345
-16.1831 -4.5606 -1.9972 0.9345
-15.7114 -5.9878 -1.9972 0.9345
-13.3593 -9.7895 -1.9673 0.9355
-11.6758 -10.2780 -1.8477 0.9393
-10.7014 -11.2693 -1.8460 0.9393
-7.3344 -13.7082 -1.8468 0.9393
-6.0818 -14.3107 -1.8471 0.9393
-4.7803 -14.7992 -1.8474 0.9393
-3.4402 -15.1697 -1.8477 0.9393
-2.0721 -15.4192 -1.8480 0.9393
-0.6869 -15.5456 -1.8484 0.9392
0.7043 -15.5480 -1.8488 0.9392
3.4604 -15.1808 -1.8495 0.9392
4.8033 -14.8141 -1.8499 0.9392
6.1083 -14.3289 -1.8503 0.9392
7.3650 -13.7289 -1.8506 0.9392
10.4913 -13.2086 -2.0037 0.9343
11.6311 -12.2211 -2.0041 0.9343
12.6782 -11.1355 -2.0044 0.9343
14.4614 -8.7052 -2.0050 0.9343
15.1831 -7.3799 -2.0053 0.9343
15.7835 -5.9952 -2.0055 0.9343
16.2575 -4.5622 -2.0058 0.9342
16.8126 -1.5975 -2.0061 0.9342
16.8302 1.4191 -2.0063 0.9342
16.6366 2.9165 -2.0063 0.9342
15.4201 4.1511 -1.8969 0.9377
14.1069 6.6726 -1.8537 0.9391
13.4539 7.9053 -1.8536 0.9391
12.6933 9.0746 -1.8535 0.9391
11.8311 10.1711 -1.8533 0.9391
10.8744 11.1858 -1.8531 0.9391
9.4152 11.5989 -1.7746 0.9416
1.9052 13.0191 -1.5630 0.9484
0.7407 13.2401 -1.5752 0.9480
-0.4519 13.4664 -1.6005 0.9472
-1.7443 14.1137 -1.6893 0.9443
-3.2824 15.2213 -1.8496 0.9392
-5.9355 14.3887 -1.8489 0.9392
-8.3972 13.0981 -1.8482 0.9393
-9.5315 12.2935 -1.8478 0.9393
-10.5894 11.3911 -1.8475 0.9393
-14.3118 8.8453 -1.9985 0.9345
-15.6530 6.1566 -1.9980 0.9345
-16.1385 4.7336 -1.9978 0.9345
-16.4952 3.2731 -1.9976 0.9345
-16.5938 -2.7089 -1.9972 0.9345
-16.2855 -4.1799 -1.9972 0.9345
-15.8474 -5.6177 -1.9972 0.9345
-15.2828 -7.0107 -1.9973 0.9345
-13.7549 -9.5919 -1.9919 0.9347
-9.9360 -11.9513 -1.8462 0.9393
-8.8301 -12.7926 -1.8464 0.9393
-7.6535 -13.5320 -1.8467 0.9393
-6.4154 -14.1636 -1.8470 0.9393
-5.1258 -14.6824 -1.8473 0.9393
-2.4329 -15.3656 -1.8480 0.9393
-1.0512 -15.5245 -1.8483 0.9392
0.3395 -15.5594 -1.8487 0.9392
1.7280 -15.4700 -1.8490 0.9392
3.1033 -15.2570 -1.8494 0.9392
5.7704 -14.4674 -1.8502 0.9392
7.0407 -13.8971 -1.8505 0.9392
8.6302 -13.8154 -1.9350 0.9365
10.1782 -13.4503 -2.0036 0.9343
15.6381 -6.3634 -2.0055 0.9343
16.5241 -3.4807 -2.0059 0.9342
16.8587 1.0240 -2.0063 0.9342
16.7004 2.5256 -2.0063 0.9342
16.2576 3.9702 -1.9879 0.9348
8.3483 11.7963 -1.7166 0.9434
5.7418 12.2909 -1.6114 0.9468
4.5361 12.5198 -1.5818 0.9478
3.3649 12.7421 -1.5655 0.9483
-0.1353 13.4063 -1.5926 0.9474
-1.4180 14.2016 -1.6953 0.9441
-4.2781 14.9695 -1.8494 0.9392
-5.5967 14.5247 -1.8490 0.9392
-6.8701 13.9640 -1.8486 0.9392
-8.0882 13.2921 -1.8482 0.9392
-12.2213 9.6120 -1.8469 0.9393
-14.0925 9.1732 -1.9974 0.9345
-15.5048 6.5221 -1.9981 0.9345
-16.0235 5.1108 -1.9978 0.9345
-16.8010 0.6805 -1.9974 0.9345
-16.7939 -0.8226 -1.9973 0.9345
-16.6529 -2.3190 -1.9972 0.9345
-14.7879 -8.0033 -1.9974 0.9345
-14.0061 -9.2866 -1.9962 0.9345
-12.4551 -9.9677 -1.8949 0.9378
-10.2132 -11.7147 -1.8461 0.9393
-7.9684 -13.3483 -1.8466 0.9393
-6.7455 -14.0087 -1.8469 0.9393
-5.4684 -14.5575 -1.8472 0.9393
-4.1472 -14.9903 -1.8475 0.9393
-0.0254 -15.5623 -1.8486 0.9392
1.3648 -15.5054 -1.8489 0.9392
4.1031 -15.0215 -1.8497 0.9392
9.8518 -13.6739 -2.0019 0.9344
13.1412 -10.5873 -2.0046 0.9343
14.0363 -9.3729 -2.0049 0.9343
14.8194 -8.0831 -2.0052 0.9343
15.4841 -6.7281 -2.0054 0.9343
16.7186 -2.3838 -2.0060 0.9342
16.8658 -0.8813 -2.0062 0.9342
16.8779 0.6285 -2.0063 0.9342
16.7549 2.1333 -2.0063 0.9342
16.4771 3.6166 -2.0038 0.9343
14.8835 4.6937 -1.8538 0.9391
14.4045 6.0040 -1.8537 0.9391
13.8102 7.2661 -1.8537 0.9391
12.2955 9.6056 -1.8534 0.9391
11.3875 10.6643 -1.8532 0.9391
10.2181 11.4465 -1.8226 0.9401
8.7184 11.7260 -1.7357 0.9428
7.3473 11.9862 -1.6700 0.9449
2.5112 12.9041 -1.5616 0.9484
1.3536 13.1237 -1.5672 0.9482
0.1783 13.3468 -1.5856 0.9477
-3.9261 15.0665 -1.8495 0.9392
-5.2549 14.6527 -1.8491 0.9392
-7.7747 13.4787 -1.8483 0.9392
-8.9456 12.7281 -1.8480 0.9393
-14.6739 8.2283 -1.9984 0.9345
-15.3481 6.8841 -1.9981 0.9345
-16.3244 4.0430 -1.9977 0.9345
-16.7807 1.0743 -1.9974 0.9345
-16.8087 -0.4286 -1.9973 0.9345
-16.4636 -3.4119 -1.9972 0.9345
-14.2287 -8.9612 -1.9974 0.9345
-11.4661 -10.4883 -1.8459 0.9393
-9.4195 -12.3636 -1.8463 0.9393
-7.0718 -13.8461 -1.8468 0.9393
-4.4973 -14.8883 -1.8474 0.9393
1.0008 -15.5324 -1.8489 0.9392
2.3844 -15.3840 -1.8492 0.9392
3.7495 -15.1127 -1.8496 0.9392
6.3808 -14.2104 -1.8504 0.9392
7.6589 -13.6452 -1.8587 0.9389
9.5072 -13.8701 -1.9975 0.9345
11.8625 -11.9975 -2.0041 0.9343
12.8888 -10.8920 -2.0045 0.9343
13.8122 -9.6990 -2.0048 0.9343
15.3216 -7.0891 -2.0054 0.9343
16.3419 -4.2513 -2.0058 0.9342
16.6578 -2.7752 -2.0060 0.9342
16.5780 3.2333 -2.0063 0.9342
13.9769 6.9404 -1.8537 0.9391
13.3005 8.1604 -1.8536 0.9391
11.6347 10.3947 -1.8533 0.9391
6.3952 12.1670 -1.6327 0.9461
3.9761 12.6261 -1.5724 0.9481
2.8142 12.8466 -1.5622 0.9484
0.4893 13.2878 -1.5795 0.9478
-0.7119 13.5158 -1.6077 0.9469
-2.2047 15.4168 -1.8499 0.9392
-3.5720 15.1552 -1.8496 0.9392
-7.4569 13.6580 -1.8484 0.9392
-9.7639 12.1090 -1.8477 0.9393
-14.4775 8.5704 -1.9985 0.9345
-15.1830 7.2423 -1.9982 0.9345
-15.7672 5.8567 -1.9980 0.9345
-16.2256 4.4248 -1.9977 0.9345
-16.5544 2.9578 -1.9976 0.9345
-16.8144 -0.0344 -1.9973 0.9345
-16.5391 -3.0249 -1.9972 0.9345
-16.2028 -4.4898 -1.9972 0.9345
-15.7374 -5.9190 -1.9972 0.9345
-13.4562 -9.7703 -1.9753 0.9352
-9.7065 -12.1390 -1.8462 0.9393
-6.1443 -14.2839 -1.8470 0.9393
-4.8449 -14.7780 -1.8474 0.9393
-0.7549 -15.5423 -1.8484 0.9392
0.6363 -15.5507 -1.8488 0.9392
2.0229 -15.4349 -1.8491 0.9392
3.3939 -15.1957 -1.8495 0.9392
4.7384 -14.8349 -1.8499 0.9392
6.0455 -14.3553 -1.8503 0.9392
7.3049 -13.7608 -1.8506 0.9392
-14.0363 -1.3494 -1.9980 0.9446
-13.8595 -2.5975 -1.9979 0.9446
-12.6758 -6.1786 -1.9980 0.9446
-12.0739 -7.2862 -1.9981 0.9446
-11.3756 -8.3359 -1.9982 0.9446
-9.6954 -10.2100 -1.9950 0.9447
-8.4686 -10.6863 -1.9319 0.9464
-2.8846 -12.7197 -1.8480 0.9487
-0.5759 -13.0341 -1.8486 0.9487
0.5905 -13.0356 -1.8489 0.9486
4.2131 -12.9941 -1.9355 0.9463
5.5323 -12.9777 -1.9989 0.9446
6.6820 -12.4556 -2.0027 0.9445
7.7689 -11.8110 -2.0031 0.9445
8.7940 -11.0718 -2.0034 0.9445
9.7492 -10.2438 -2.0037 0.9445
10.6266 -9.3335 -2.0040 0.9445
11.4192 -8.3483 -2.0043 0.9445
12.1206 -7.2961 -2.0045 0.9444
12.7252 -6.1852 -2.0047 0.9444
13.2281 -5.0246 -2.0049 0.9444
13.6252 -3.8235 -2.0051 0.9444
14.1539 -0.0751 -2.0055 0.9444
13.9422 2.4441 -2.0056 0.9444
13.6683 3.6795 -2.0056 0.9444
12.7074 4.6730 -1.9184 0.9468
11.2752 6.6251 -1.8529 0.9485
9.9154 8.5242 -1.8527 0.9485
9.1138 9.3748 -1.8525 0.9485
8.2393 10.1503 -1.8524 0.9486
7.2991 10.8443 -1.8522 0.9486
5.2279 11.9115 -1.8431 0.9488
4.1619 12.3863 -1.8514 0.9486
3.0387 12.7066 -1.8511 0.9486
1.8915 12.9252 -1.8509 0.9486
0.7295 13.0403 -1.8506 0.9486
-0.4379 13.0512 -1.8503 0.9486
-1.6015 12.9577 -1.8499 0.9486
-2.7518 12.7608 -1.8496 0.9486
-6.0327 11.5690 -1.8487 0.9487
-7.9921 10.3079 -1.8481 0.9487
-8.8793 9.5515 -1.8478 0.9487
-9.7828 8.7977 -1.8642 0.9482
-12.6145 6.3153 -1.9988 0.9446
-13.1267 5.1630 -1.9986 0.9446
-13.8335 2.7449 -1.9983 0.9446
-14.0996 0.2402 -1.9980 0.9446
-13.9166 -2.2718 -1.9979 0.9446
-12.8171 -5.8796 -1.9980 0.9446
-12.2413 -7.0010 -1.9981 0.9446
-11.5678 -8.0667 -1.9982 0.9446
-8.8264 -10.6166 -1.9562 0.9457
-6.4180 -11.3474 -1.8472 0.9487
-4.2981 -12.3115 -1.8477 0.9487
-3.1819 -12.6480 -1.8479 0.9487
-0.8814 -13.0164 -1.8485 0.9487
0.2847 -13.0453 -1.8488 0.9487
1.4488 -12.9699 -1.8491 0.9486
5.2191 -13.0852 -1.9961 0.9447
6.3878 -12.6083 -2.0027 0.9445
7.4895 -11.9894 -2.0030 0.9445
8.5317 -11.2745 -2.0033 0.9445
10.4044 -9.5798 -2.0039 0.9445
11.9458 -7.5780 -2.0044 0.9445
13.5315 -4.1418 -2.0051 0.9444
14.0545 -1.6688 -2.0054 0.9444
14.1481 -0.4070 -2.0055 0.9444
13.7508 3.3580 -2.0056 0.9444
11.9503 5.3132 -1.8530 0.9485
10.8134 7.3537 -1.8529 0.9485
10.1128 8.2895 -1.8527 0.9485
9.3313 9.1588 -1.8526 0.9485
8.4753 9.9545 -1.8524 0.9486
6.5677 11.3009 -1.8520 0.9486
5.5315 11.8408 -1.8518 0.9486
3.3359 12.6323 -1.8512 0.9486
1.0351 13.0202 -1.8506 0.9486
-0.1318 13.0584 -1.8503 0.9486
-1.2973 12.9923 -1.8500 0.9486
-3.5866 12.5500 -1.8494 0.9486
-4.6923 12.1775 -1.8491 0.9486
-5.7601 11.7078 -1.8488 0.9487
-6.7815 11.1447 -1.8485 0.9487
-9.4887 8.9444 -1.8476 0.9487
-11.0767 8.7118 -1.9967 0.9447
-11.8247 7.6970 -1.9991 0.9446
-12.4633 6.6095 -1.9989 0.9446
-13.0024 5.4695 -1.9987 0.9446
-13.7656 3.0686 -1.9983 0.9446
-13.9837 1.8269 -1.9982 0.9446
-14.0902 0.5707 -1.9981 0.9446
-14.0843 -0.6899 -1.9980 0.9446
-13.7365 -3.1844 -1.9979 0.9446
-13.3974 -4.3984 -1.9979 0.9446
-12.9513 -5.5774 -1.9980 0.9446
-12.4019 -6.7120 -1.9981 0.9446
-11.7536 -7.7931 -1.9982 0.9446
-11.0114 -8.8122 -1.9983 0.9446
-10.1812 -9.7612 -1.9985 0.9446
-9.1934 -10.5450 -1.9822 0.9450
-7.8408 -10.8081 -1.8919 0.9475
-6.6820 -11.1935 -1.8471 0.9487
-3.4774 -12.5694 -1.8479 0.9487
-2.3414 -12.8317 -1.8481 0.9487
-1.1862 -12.9916 -1.8484 0.9487
-0.0213 -13.0478 -1.8487 0.9487
2.3010 -12.8478 -1.8494 0.9486
3.5169 -12.8757 -1.8912 0.9475
6.0902 -12.7541 -2.0026 0.9445
10.1765 -9.8207 -2.0038 0.9445
12.4205 -6.7746 -2.0046 0.9444
12.9773 -5.6389 -2.0048 0.9444
13.7759 -3.2409 -2.0052 0.9444
13.8258 3.0347 -2.0056 0.9444
12.0717 5.0316 -1.8531 0.9485
11.5737 6.0894 -1.8530 0.9485
10.3046 8.0502 -1.8528 0.9485
7.8000 10.4908 -1.8523 0.9486
3.6313 12.5511 -1.8513 0.9486
2.4955 12.8233 -1.8510 0.9486
0.1744 13.0585 -1.8504 0.9486
-0.9923 13.0197 -1.8501 0.9486
-2.1507 12.8769 -1.8498 0.9486
-3.2915 12.6312 -1.8495 0.9486
-4.4057 12.2847 -1.8492 0.9486
-5.4842 11.8401 -1.8488 0.9486
-6.5186 11.3012 -1.8485 0.9487
-8.4224 9.9581 -1.8480 0.9487
-10.8445 8.9486 -1.9921 0.9448
-11.6413 7.9725 -1.9992 0.9446
-12.8709 5.7730 -1.9987 0.9446
-14.0968 -0.3595 -1.9980 0.9446
-13.4968 -4.0831 -1.9979 0.9446
-13.0784 -5.2722 -1.9980 0.9446
-5.9301 -11.6107 -1.8473 0.9487
-4.8702 -12.0956 -1.8475 0.9487
-3.7710 -12.4840 -1.8478 0.9487
1.9990 -12.8977 -1.8493 0.9486
3.1802 -12.8181 -1.8713 0.9480
4.5060 -13.0436 -1.9553 0.9458
6.9186 -12.3263 -2.0028 0.9445
9.0039 -10.9024 -2.0035 0.9445
9.9431 -10.0562 -2.0038 0.9445
10.8030 -9.1294 -2.0040 0.9445
11.5767 -8.1292 -2.0043 0.9445
12.2579 -7.0637 -2.0046 0.9444
12.8412 -5.9415 -2.0048 0.9444
13.3218 -4.7714 -2.0050 0.9444
13.6959 -3.5630 -2.0051 0.9444
13.9604 -2.3258 -2.0053 0.9444
14.1131 -1.0698 -2.0054 0.9444
14.1529 0.1949 -2.0055 0.9444
13.8931 2.7097 -2.0056 0.9444
12.2481 4.7713 -1.8625 0.9483
9.7509 8.7116 -1.8527 0.9485
8.0440 10.3054 -1.8523 0.9486
7.0908 10.9813 -1.8521 0.9486
6.0810 11.5692 -1.8519 0.9486
3.1179 7.4891 -1.1494 0.9678
3.9248 12.4630 -1.8514 0.9486
-1.8483 12.9244 -1.8499 0.9486
-5.2053 11.9660 -1.8489 0.9486
-7.2486 10.8455 -1.8483 0.9487
-8.1870 10.1533 -1.8480 0.9487
-9.0596 9.3801 -1.8477 0.9487
-10.2527 8.8724 -1.9211 0.9467
-12.7324 6.0734 -1.9988 0.9446
-13.6072 3.7107 -1.9984 0.9446
-14.0484 1.2307 -1.9981 0.9446
-14.0421 -1.2880 -1.9980 0.9446
-13.8708 -2.5369 -1.9979 0.9446
-13.1984 -4.9641 -1.9980 0.9446
-12.7027 -6.1231 -1.9980 0.9446
-12.1056 -7.2334 -1.9981 0.9446
-11.4120 -8.2860 -1.9982 0.9446
-9.7425 -10.1701 -1.9955 0.9447
-8.5346 -10.6735 -1.9363 0.9463
-7.2371 -10.9247 -1.8567 0.9484
-6.2005 -11.4681 -1.8472 0.9487
-4.0626 -12.3916 -1.8477 0.9487
-0.6329 -13.0313 -1.8486 0.9487
0.5335 -13.0380 -1.8489 0.9486
1.6960 -12.9404 -1.8492 0.9486
4.1468 -12.9828 -1.9311 0.9464
5.4740 -12.9983 -1.9984 0.9446
7.7171 -11.8448 -2.0031 0.9445
-11.9528 2.0817 -1.9987 0.9520
-12.0756 -1.1609 -1.9985 0.9520
-10.3872 -6.2684 -1.9986 0.9520
-9.1074 -8.0171 -1.9989 0.9520
-8.3557 -8.7991 -1.9990 0.9520
-6.6583 -10.1471 -1.9994 0.9520
-5.7261 -10.7023 -1.9996 0.9520
2.7005 -11.8470 -2.0017 0.9519
4.7664 -11.1809 -2.0023 0.9519
5.7467 -10.7121 -2.0026 0.9519
6.6813 -10.1576 -2.0029 0.9519
7.5627 -9.5216 -2.0032 0.9519
8.3839 -8.8093 -2.0034 0.9519
9.1383 -8.0263 -2.0037 0.9519
10.4227 -6.2740 -2.0041 0.9519
10.9425 -5.3187 -2.0043 0.9519
11.7160 -3.2877 -2.0046 0.9519
12.1278 1.0226 -2.0050 0.9519
11.9883 2.1016 -2.0051 0.9519
9.1472 6.5394 -1.8524 0.9554
8.5261 7.3297 -1.8523 0.9554
7.8368 8.0613 -1.8521 0.9554
4.5166 10.2908 -1.8514 0.9555
3.5791 10.6517 -1.8512 0.9555
0.6274 11.2149 -1.8504 0.9555
-0.3766 11.2245 -1.8502 0.9555
-1.3773 11.1444 -1.8499 0.9555
-2.3668 10.9752 -1.8496 0.9555
-3.3370 10.7184 -1.8493 0.9555
-4.2802 10.3761 -1.8491 0.9555
-6.8746 8.8666 -1.8483 0.9555
-9.0265 8.1175 -1.9999 0.9520
-10.3242 6.3808 -1.9994 0.9520
-11.9008 2.3614 -1.9988 0.9520
-12.0635 1.2891 -1.9987 0.9520
-11.9727 -1.9545 -1.9985 0.9520
-11.7502 -3.0159 -1.9985 0.9520
-11.4340 -4.0532 -1.9985 0.9520
-10.5312 -6.0230 -1.9986 0.9520
-9.2928 -7.8013 -1.9988 0.9520
-8.5595 -8.6006 -1.9990 0.9520
-7.7579 -9.3314 -1.9991 0.9520
-3.9884 -11.4246 -1.9935 0.9521
-2.9391 -11.6829 -1.9846 0.9523
-1.8804 -11.8763 -1.9809 0.9524
-0.8171 -12.0677 -1.9926 0.9521
2.4219 -11.9066 -2.0017 0.9519
3.4760 -11.6445 -2.0019 0.9519
5.4937 -10.8435 -2.0025 0.9519
8.1748 -9.0031 -2.0034 0.9519
10.2725 -6.5165 -2.0041 0.9519
11.2700 -4.5860 -2.0044 0.9519
11.6355 -3.5615 -2.0046 0.9519
11.9079 -2.5083 -2.0047 0.9519
12.0850 -1.4349 -2.0049 0.9519
12.0342 1.8199 -2.0050 0.9519
11.0824 4.9274 -1.9980 0.9520
9.2981 6.3233 -1.8524 0.9554
8.6957 7.1279 -1.8523 0.9554
6.4937 9.1757 -1.8518 0.9555
4.7568 10.1824 -1.8514 0.9555
3.8280 10.5652 -1.8512 0.9555
2.8688 10.8635 -1.8510 0.9555
1.8869 11.0748 -1.8507 0.9555
0.8902 11.1975 -1.8505 0.9555
-1.1157 11.1741 -1.8500 0.9555
-5.8331 9.5862 -1.8486 0.9555
-6.6650 9.0257 -1.8484 0.9555
-7.4435 8.3933 -1.8481 0.9555
-8.8212 8.3152 -1.9970 0.9520
-10.1721 6.6213 -1.9995 0.9520
-11.1856 4.7052 -1.9991 0.9520
-11.5601 3.6872 -1.9989 0.9520
-11.8424 2.6399 -1.9988 0.9520
-12.0301 1.5716 -1.9987 0.9520
-12.1169 -0.5935 -1.9985 0.9520
-12.0152 -1.6732 -1.9985 0.9520
-11.8177 -2.7395 -1.9985 0.9520
-9.4730 -7.5811 -1.9988 0.9520
-8.7587 -8.3974 -1.9989 0.9520
-6.2212 -10.4215 -1.9995 0.9520
-5.2608 -10.9254 -1.9976 0.9520
-4.2566 -11.3317 -1.9941 0.9521
-3.2179 -11.6315 -1.9881 0.9523
-2.1578 -11.8259 -1.9804 0.9524
3.2019 -11.7223 -2.0019 0.9519
4.2366 -11.3912 -2.0022 0.9519
6.1973 -10.4588 -2.0027 0.9519
7.1075 -9.8650 -2.0030 0.9519
9.4718 -7.6310 -2.0038 0.9519
11.5486 -3.8332 -2.0046 0.9519
11.8456 -2.7868 -2.0047 0.9519
12.0479 -1.7179 -2.0048 0.9519
12.1537 -0.6351 -2.0049 0.9519
11.6075 3.6606 -2.0050 0.9519
9.4439 6.1036 -1.8524 0.9554
8.8606 6.9222 -1.8523 0.9554
8.2065 7.6853 -1.8522 0.9554
7.4868 8.3868 -1.8521 0.9554
5.8742 9.5831 -1.8517 0.9555
2.9746 7.6453 -1.3514 0.9673
3.1228 10.7936 -1.8511 0.9555
1.1525 11.1740 -1.8506 0.9555
0.1500 11.2307 -1.8503 0.9555
-0.8534 11.1976 -1.8500 0.9555
-3.7894 10.5661 -1.8492 0.9555
-5.6070 9.7207 -1.8487 0.9555
-6.4518 9.1798 -1.8484 0.9555
-7.2449 8.5658 -1.8482 0.9555
-9.3629 7.7260 -1.9998 0.9520
-10.0143 6.8582 -1.9995 0.9520
-10.5857 5.9358 -1.9993 0.9520
-11.0724 4.9663 -1.9991 0.9520
-11.4708 3.9573 -1.9990 0.9520
-11.7775 2.9169 -1.9988 0.9520
-11.9902 1.8533 -1.9987 0.9520
-12.1072 0.7751 -1.9986 0.9520
-12.0512 -1.3911 -1.9985 0.9520
-11.8787 -2.4617 -1.9985 0.9520
-11.6114 -3.5127 -1.9985 0.9520
-11.2515 -4.5357 -1.9985 0.9520
-10.8018 -5.5226 -1.9986 0.9520
-9.6480 -7.3568 -1.9987 0.9520
-8.9530 -8.1895 -1.9989 0.9520
-7.3545 -9.6532 -1.9992 0.9520
-6.4637 -10.2725 -1.9994 0.9520
-3.4974 -11.5783 -1.9925 0.9522
-2.4352 -11.7754 -1.9809 0.9524
0.7798 -12.1023 -1.9979 0.9520
2.9261 -11.7937 -2.0018 0.9519
3.9682 -11.4870 -2.0021 0.9519
4.9789 -11.0883 -2.0024 0.9519
7.7432 -9.3758 -2.0032 0.9519
9.2900 -7.8508 -2.0037 0.9519
11.7768 -3.0637 -2.0047 0.9519
12.0041 -1.9999 -2.0048 0.9519
12.1354 -0.9199 -2.0049 0.9519
12.1695 0.1676 -2.0050 0.9519
11.9460 2.3299 -2.0051 0.9519
11.6902 3.3874 -2.0051 0.9519
11.3408 4.4178 -2.0050 0.9519
10.3234 5.1262 -1.8988 0.9543
9.0206 6.7126 -1.8524 0.9554
8.3846 7.4909 -1.8522 0.9554
6.9171 8.8616 -1.8519 0.9555
6.0975 9.4430 -1.8518 0.9555
5.2292 9.9487 -1.8516 0.9555
3.0953 7.4346 -1.3267 0.9679
3.3751 10.7178 -1.8511 0.9555
2.4042 10.9749 -1.8509 0.9555
1.4143 11.1443 -1.8506 0.9555
0.4133 11.2245 -1.8504 0.9555
-0.5907 11.2149 -1.8501 0.9555
-1.5896 11.1157 -1.8498 0.9555
-3.5407 10.6525 -1.8493 0.9555
-6.2350 9.3289 -1.8485 0.9555
-9.8510 7.0913 -1.9996 0.9520
-10.9532 5.2247 -1.9992 0.9520
-11.7060 3.1923 -1.9989 0.9520
-11.9436 2.1340 -1.9987 0.9520
-12.0858 1.0588 -1.9986 0.9520
-12.0806 -1.1081 -1.9985 0.9520
-11.9332 -2.1825 -1.9985 0.9520
-8.3941 -8.7625 -1.9990 0.9520
0.4955 -12.1107 -1.9968 0.9521
1.5788 -12.0460 -2.0014 0.9519
5.6997 -10.7371 -2.0026 0.9519
6.6368 -10.1866 -2.0029 0.9519
-10.4780 1.8249 -1.9991 0.9576
-10.5986 0.8818 -1.9990 0.9576
-9.9374 -3.7873 -1.9989 0.9576
-9.1057 -5.4950 -1.9990 0.9576
-8.5790 -6.2865 -1.9991 0.9576
-7.3246 -7.7133 -1.9993 0.9576
-6.6070 -8.3373 -1.9995 0.9576
-5.0194 -9.3813 -1.9998 0.9576
-4.1619 -9.7931 -2.0000 0.9576
-3.2710 -10.1267 -2.0003 0.9576
-2.3539 -10.3795 -2.0005 0.9576
-0.4699 -10.6353 -2.0010 0.9576
1.4299 -10.5519 -2.0015 0.9576
5.0364 -9.3882 -2.0025 0.9576
5.8554 -8.9020 -2.0027 0.9576
6.6278 -8.3445 -2.0030 0.9576
8.0084 -7.0339 -2.0034 0.9575
8.6054 -6.2912 -2.0036 0.9575
9.1337 -5.4981 -2.0038 0.9575
9.5891 -4.6608 -2.0040 0.9575
10.2667 -2.8811 -2.0043 0.9575
10.6647 -0.0566 -2.0046 0.9575
10.2986 2.7724 -2.0046 0.9575
9.6408 4.5601 -2.0046 0.9575
8.0156 5.7304 -1.8520 0.9607
5.5004 8.1719 -1.8515 0.9607
4.7481 8.6296 -1.8513 0.9607
2.2901 9.5765 -1.8508 0.9607
1.4256 9.7416 -1.8505 0.9607
0.5498 9.8288 -1.8503 0.9607
-1.2072 9.7673 -1.8498 0.9607
-4.5482 8.7220 -1.8489 0.9608
-5.3083 8.2799 -1.8487 0.9608
-7.2459 7.7945 -2.0003 0.9576
-7.9122 7.1155 -2.0001 0.9576
-9.0500 5.5933 -1.9997 0.9576
-9.5125 4.7623 -1.9995 0.9576
-10.2065 2.9937 -1.9992 0.9576
-10.4325 2.0701 -1.9991 0.9576
-10.5752 1.1301 -1.9990 0.9576
-10.6069 -0.7692 -1.9989 0.9576
-10.4956 -1.7134 -1.9989 0.9576
-10.0235 -3.5532 -1.9989 0.9576
-9.6663 -4.4342 -1.9989 0.9576
-9.2319 -5.2799 -1.9990 0.9576
-8.1462 -6.8387 -1.9992 0.9576
-7.5033 -7.5393 -1.9993 0.9576
-6.8006 -8.1799 -1.9995 0.9576
-6.0434 -8.7553 -1.9996 0.9576
-4.3903 -9.6925 -2.0000 0.9576
-1.6646 -10.5131 -2.0007 0.9576
1.1821 -10.5822 -2.0014 0.9576
2.1227 -10.4357 -2.0017 0.9576
4.8147 -9.5034 -2.0024 0.9576
7.8410 -7.2195 -2.0034 0.9575
8.4553 -6.4911 -2.0036 0.9575
9.4769 -4.8843 -2.0040 0.9575
10.4348 -2.1980 -2.0044 0.9575
10.5899 -1.2574 -2.0045 0.9575
10.6603 -0.3067 -2.0046 0.9575
10.6454 0.6466 -2.0046 0.9575
10.3608 2.5301 -2.0046 0.9575
8.1507 5.5430 -1.8527 0.9607
7.6200 6.2462 -1.8520 0.9607
6.3864 7.5011 -1.8517 0.9607
4.9493 8.5161 -1.8514 0.9607
4.1686 8.9232 -1.8512 0.9607
3.3547 9.2589 -1.8510 0.9607
1.6536 9.7058 -1.8506 0.9607
-0.0994 9.8427 -1.8501 0.9607
-0.9778 9.7933 -1.8499 0.9607
-2.7037 9.4607 -1.8494 0.9607
-4.3425 8.8265 -1.8490 0.9608
-5.9820 8.1008 -1.8928 0.9598
-7.0535 7.9536 -1.9982 0.9577
-8.3635 6.5778 -2.0000 0.9576
-9.3985 4.9842 -1.9996 0.9576
-9.8053 4.1246 -1.9994 0.9576
-10.1337 3.2322 -1.9993 0.9576
-10.3812 2.3141 -1.9992 0.9576
-10.6264 0.4304 -1.9990 0.9576
-10.5329 -1.4668 -1.9989 0.9576
-10.1040 -3.3172 -1.9989 0.9576
-9.7675 -4.2063 -1.9989 0.9576
-9.3531 -5.0620 -1.9990 0.9576
-8.3041 -6.6457 -1.9991 0.9576
-7.6779 -7.3612 -1.9993 0.9576
-6.9904 -8.0180 -1.9994 0.9576
-6.2469 -8.6110 -1.9996 0.9576
-0.9680 -10.6009 -2.0008 0.9576
-0.0174 -10.6463 -2.0011 0.9576
1.8773 -10.4822 -2.0016 0.9576
3.7131 -9.9836 -2.0021 0.9576
4.5904 -9.6134 -2.0024 0.9576
6.9770 -8.0556 -2.0031 0.9576
8.3006 -6.6874 -2.0035 0.9575
9.7789 -4.2491 -2.0041 0.9575
10.3802 -2.4420 -2.0043 0.9575
10.5574 -1.5053 -2.0044 0.9575
10.6501 -0.5565 -2.0045 0.9575
10.5798 1.3471 -2.0046 0.9575
10.4173 2.2865 -2.0046 0.9575
7.7645 6.0659 -1.8520 0.9607
6.5607 7.3494 -1.8517 0.9607
5.8777 7.9054 -1.8516 0.9607
4.3768 8.8233 -1.8513 0.9607
2.9122 7.4849 -1.5096 0.9678
2.7367 9.4591 -1.8509 0.9607
-0.7480 9.8138 -1.8500 0.9607
-1.6212 9.7066 -1.8497 0.9607
-3.3213 9.2610 -1.8493 0.9607
-5.6614 8.0551 -1.8506 0.9607
-6.8546 8.1044 -1.9951 0.9577
-7.5703 7.4790 -2.0002 0.9576
-8.2071 6.7723 -2.0000 0.9576
-8.7783 6.0117 -1.9998 0.9576
-10.3243 2.5569 -1.9992 0.9576
-10.5108 1.6246 -1.9991 0.9576
-10.5645 -1.2194 -1.9989 0.9576
-8.4576 -6.4491 -1.9991 0.9576
-7.8483 -7.1790 -1.9992 0.9576
-7.1763 -7.8518 -1.9994 0.9576
-6.4469 -8.4620 -1.9995 0.9576
-4.8396 -9.4756 -1.9999 0.9576
-3.9744 -9.8709 -2.0001 0.9576
-3.0773 -10.1875 -2.0003 0.9576
-2.1555 -10.4228 -2.0005 0.9576
-1.2162 -10.5749 -2.0008 0.9576
0.6846 -10.6253 -2.0013 0.9576
2.5646 -10.3366 -2.0018 0.9576
3.4779 -10.0676 -2.0020 0.9576
5.2147 -9.2907 -2.0026 0.9576
8.7240 -6.1261 -2.0037 0.9575
9.2371 -5.3230 -2.0039 0.9575
10.5191 -1.7525 -2.0044 0.9575
10.6340 -0.8061 -2.0045 0.9575
10.6639 0.1468 -2.0046 0.9575
10.2438 2.9683 -2.0046 0.9575
8.8018 5.4003 -1.9410 0.9588
7.3474 6.5643 -1.8519 0.9607
5.3434 8.2751 -1.8515 0.9607
-4.7136 8.6334 -1.8488 0.9608
-5.4651 8.1770 -1.8486 0.9608
-6.6111 8.1989 -1.9797 0.9580
-7.3931 7.6547 -2.0003 0.9576
-8.0463 6.9631 -2.0001 0.9576
-10.2617 2.7984 -1.9992 0.9576
-10.5947 0.9281 -1.9990 0.9576
-10.6349 -0.0217 -1.9989 0.9576
-10.5902 -0.9714 -1.9989 0.9576
-10.4610 -1.9132 -1.9989 0.9576
-10.2483 -2.8398 -1.9989 0.9576
-9.9539 -3.7438 -1.9989 0.9576
-9.5800 -4.6179 -1.9989 0.9576
-9.1296 -5.4551 -1.9990 0.9576
-8.6063 -6.2489 -1.9991 0.9576
-7.3583 -7.6812 -1.9993 0.9576
-5.8754 -8.8691 -1.9997 0.9576
-5.0603 -9.3592 -1.9998 0.9576
-4.2047 -9.7747 -2.0000 0.9576
-2.3992 -10.3691 -2.0005 0.9576
-1.4638 -10.5432 -2.0007 0.9576
-0.5164 -10.6331 -2.0010 0.9576
1.3837 -10.5580 -2.0015 0.9576
3.2407 -10.1461 -2.0020 0.9576
4.9953 -9.4101 -2.0025 0.9576
5.8164 -8.9275 -2.0027 0.9576
-9.3185 1.6229 -1.9994 0.9621
-9.4258 0.7842 -1.9993 0.9621
-9.4579 -0.0607 -1.9993 0.9621
-9.4145 -0.9051 -1.9992 0.9621
-6.5140 -6.8597 -1.9996 0.9621
-4.4637 -8.3428 -2.0001 0.9621
-3.7012 -8.7089 -2.0002 0.9621
-2.9089 -9.0055 -2.0004 0.9620
-2.0932 -9.2302 -2.0006 0.9620
0.4284 -9.4580 -2.0013 0.9620
1.2715 -9.3830 -2.0015 0.9620
2.1046 -9.2330 -2.0017 0.9620
6.5328 -6.8643 -2.0031 0.9620
7.1204 -6.2540 -2.0032 0.9620
7.6512 -5.5936 -2.0034 0.9620
8.1209 -4.8884 -2.0036 0.9620
8.5256 -4.1440 -2.0037 0.9620
9.1280 -2.5615 -2.0040 0.9620
9.3208 -1.7362 -2.0041 0.9620
9.4389 -0.8969 -2.0042 0.9620
9.4816 -0.0503 -2.0043 0.9620
9.4484 0.7966 -2.0043 0.9620
8.5714 4.0543 -2.0043 0.9620
6.7351 5.7901 -1.8774 0.9643
4.8904 7.2656 -1.8513 0.9648
4.2216 7.6727 -1.8511 0.9648
3.2309 7.3613 -1.6993 0.9677
1.2675 8.6618 -1.8504 0.9648
-0.2935 8.7472 -1.8500 0.9649
-1.0734 8.6850 -1.8498 0.9649
-1.8445 8.5535 -1.8496 0.9649
-3.3360 8.0871 -1.8492 0.9649
-5.0763 7.9181 -1.9881 0.9623
-5.7995 7.4800 -2.0007 0.9620
-7.0362 6.3277 -2.0003 0.9621
-9.0770 2.6624 -1.9995 0.9621
-9.4050 1.0050 -1.9993 0.9621
-9.4332 -0.6841 -1.9992 0.9621
-8.5967 -3.9436 -1.9992 0.9621
-8.2104 -4.6957 -1.9993 0.9621
-6.0479 -7.2746 -1.9997 0.9621
-1.4803 -9.3489 -2.0008 0.9620
0.2065 -9.4652 -2.0012 0.9620
1.0511 -9.4100 -2.0014 0.9620
1.8875 -9.2796 -2.0017 0.9620
3.5090 -8.7978 -2.0021 0.9620
5.0193 -8.0350 -2.0026 0.9620
8.0038 -5.0774 -2.0036 0.9620
8.7807 -3.5730 -2.0039 0.9620
9.2774 -1.9542 -2.0041 0.9620
9.4778 -0.2726 -2.0042 0.9620
9.3755 1.4178 -2.0043 0.9620
9.2114 2.2495 -2.0043 0.9620
8.9737 3.0631 -2.0043 0.9620
8.6641 3.8522 -2.0043 0.9620
8.2853 4.6104 -2.0042 0.9620
5.0595 7.1491 -1.8513 0.9648
4.4005 7.5718 -1.8512 0.9648
2.9827 8.2324 -1.8509 0.9648
0.6937 8.7258 -1.8503 0.9648
-0.0883 8.7519 -1.8501 0.9648
-1.6435 8.5947 -1.8497 0.9649
-2.4042 8.4126 -1.8494 0.9649
-3.1455 8.1633 -1.8492 0.9649
-5.6202 7.6109 -1.9999 0.9621
-6.8861 6.4911 -2.0003 0.9620
-7.4376 5.8497 -2.0002 0.9621
-9.2324 2.0581 -1.9994 0.9621
-9.3789 1.2253 -1.9994 0.9621
-8.9860 -2.9501 -1.9992 0.9621
-8.6867 -3.7409 -1.9992 0.9621
-4.8497 -8.1241 -2.0000 0.9621
-4.1052 -8.5254 -2.0001 0.9621
-3.3277 -8.8588 -2.0003 0.9620
-2.5235 -9.1215 -2.0005 0.9620
-0.8608 -9.4269 -2.0009 0.9620
-0.0154 -9.4671 -2.0012 0.9620
3.3017 -8.8774 -2.0021 0.9620
4.0817 -8.5480 -2.0023 0.9620
6.2035 -7.1626 -2.0029 0.9620
7.8824 -5.2635 -2.0035 0.9620
8.6944 -3.7779 -2.0038 0.9620
8.9976 -2.9865 -2.0039 0.9620
9.2289 -2.1712 -2.0041 0.9620
9.4753 0.3528 -2.0043 0.9620
7.9593 5.1441 -2.0032 0.9620
5.8331 6.5343 -1.8515 0.9648
5.2258 7.0287 -1.8514 0.9648
4.5769 7.4667 -1.8512 0.9648
3.8915 7.8449 -1.8511 0.9648
2.4333 8.4105 -1.8507 0.9648
1.6723 8.5933 -1.8505 0.9648
-2.9534 8.2351 -1.8493 0.9649
-6.7322 6.6510 -2.0004 0.9620
-7.8066 5.3463 -2.0000 0.9621
-8.2522 4.6273 -1.9999 0.9621
-8.6318 3.8716 -1.9997 0.9621
-8.9425 3.0851 -1.9996 0.9621
-9.1817 2.2740 -1.9995 0.9621
-9.3477 1.4449 -1.9994 0.9621
-9.2610 -1.9192 -1.9992 0.9621
-8.7720 -3.5362 -1.9992 0.9621
-7.5216 -5.7354 -1.9994 0.9621
-6.9797 -6.3846 -1.9995 0.9621
-6.3821 -6.9828 -1.9996 0.9621
-4.3038 -8.4266 -2.0001 0.9621
-1.0815 -9.4038 -2.0009 0.9620
-0.2374 -9.4639 -2.0011 0.9620
0.6088 -9.4483 -2.0013 0.9620
1.4503 -9.3573 -2.0016 0.9620
2.2804 -9.1914 -2.0018 0.9620
3.0925 -8.9521 -2.0020 0.9620
3.8801 -8.6411 -2.0022 0.9620
4.6368 -8.2610 -2.0025 0.9620
5.3566 -7.8147 -2.0027 0.9620
7.7566 -5.4468 -2.0035 0.9620
8.9250 -3.1966 -2.0039 0.9620
9.1753 -2.3869 -2.0040 0.9620
9.4316 0.9767 -2.0043 0.9620
9.1074 2.6390 -2.0043 0.9620
8.8353 3.4418 -2.0043 0.9620
8.0816 4.9584 -2.0042 0.9620
7.5525 5.6202 -1.9900 0.9622
5.9848 6.3959 -1.8515 0.9648
2.6299 8.3513 -1.8508 0.9648
-2.0073 8.5166 -1.8496 0.9649
-3.4896 8.0218 -1.8491 0.9649
-5.9410 7.3678 -2.0006 0.9620
-6.5746 6.8072 -2.0004 0.9620
-7.1555 6.1922 -2.0003 0.9621
-7.6792 5.5279 -2.0001 0.9621
-8.1416 4.8197 -1.9999 0.9621
-8.5388 4.0730 -1.9998 0.9621
-8.8678 3.2940 -1.9996 0.9621
-9.1260 2.4887 -1.9995 0.9621
-9.1144 -2.5256 -1.9992 0.9621
-8.1194 -4.8515 -1.9993 0.9621
-7.1274 -6.2191 -1.9995 0.9621
-6.5439 -6.8311 -1.9996 0.9621
-5.2250 -7.8874 -1.9999 0.9621
-4.5001 -8.3232 -2.0000 0.9621
-2.1336 -9.2209 -2.0006 0.9620
-1.3017 -9.3756 -2.0008 0.9620
-0.4592 -9.4554 -2.0010 0.9620
1.2305 -9.3884 -2.0015 0.9620
2.8817 -9.0218 -2.0020 0.9620
3.6763 -8.7295 -2.0022 0.9620
4.4417 -8.3672 -2.0024 0.9620
-8.4786 0.7054 -1.9996 0.9656
-8.4685 -0.8141 -1.9995 0.9656
-8.3619 -1.5672 -1.9994 0.9656
-7.9498 -3.0297 -1.9995 0.9656
-7.6476 -3.7277 -1.9995 0.9656
-7.2843 -4.3959 -1.9996 0.9656
-6.8629 -5.0290 -1.9996 0.9656
-5.8593 -6.1703 -1.9998 0.9656
-5.2852 -6.6693 -1.9999 0.9656
-4.6688 -7.1151 -2.0001 0.9656
-4.0150 -7.5042 -2.0002 0.9656
-3.3291 -7.8334 -2.0004 0.9656
2.6272 -8.1028 -2.0019 0.9656
4.0276 -7.5077 -2.0024 0.9656
4.6825 -7.1187 -2.0025 0.9656
5.3000 -6.6727 -2.0027 0.9656
6.4036 -5.6245 -2.0031 0.9656
6.8809 -5.0305 -2.0033 0.9656
7.6672 -3.7267 -2.0035 0.9656
7.9698 -3.0273 -2.0037 0.9656
8.4884 -0.8066 -2.0039 0.9656
8.4969 0.7164 -2.0040 0.9656
8.2340 2.2166 -2.0041 0.9656
8.0031 2.9430 -2.0041 0.9656
7.7081 3.6459 -2.0040 0.9656
7.3515 4.3196 -2.0040 0.9656
6.9361 4.9587 -2.0039 0.9656
6.4552 5.5494 -2.0007 0.9656
5.7838 5.9495 -1.9501 0.9665
4.9687 6.1210 -1.8529 0.9681
3.7966 6.9003 -1.8510 0.9682
3.1650 7.2112 -1.8508 0.9682
2.5081 7.4644 -1.8507 0.9682
0.4397 7.8600 -1.8502 0.9682
-0.2640 7.8670 -1.8500 0.9682
-1.6590 7.6930 -1.8496 0.9682
-2.3391 7.5133 -1.8494 0.9682
-3.1246 7.5748 -1.9258 0.9669
-5.2163 6.7279 -2.0008 0.9656
-5.7958 6.2346 -2.0006 0.9656
-6.3289 5.6916 -2.0004 0.9656
-6.8113 5.1032 -2.0003 0.9656
-8.1648 2.3948 -1.9997 0.9656
-8.3456 1.6560 -1.9997 0.9656
-8.5065 0.1449 -1.9995 0.9656
-8.2404 -2.1150 -1.9994 0.9656
-8.0186 -2.8425 -1.9995 0.9656
-7.7328 -3.5473 -1.9995 0.9656
-6.0023 -6.0311 -1.9998 0.9656
-5.4400 -6.5434 -1.9999 0.9656
-4.1898 -7.4079 -2.0002 0.9656
-2.8056 -8.0363 -2.0005 0.9656
-1.3314 -8.4088 -2.0009 0.9656
-0.5752 -8.4949 -2.0011 0.9656
0.9454 -8.4635 -2.0015 0.9656
1.6976 -8.3461 -2.0017 0.9656
4.5141 -7.2264 -2.0025 0.9656
6.7609 -5.1903 -2.0032 0.9656
7.1980 -4.5662 -2.0034 0.9656
8.3431 -1.7574 -2.0038 0.9656
8.4670 -1.0053 -2.0039 0.9656
8.5113 0.5170 -2.0040 0.9656
8.4312 1.2750 -2.0041 0.9656
7.7915 3.4642 -2.0040 0.9656
7.4508 4.1461 -2.0040 0.9656
7.0506 4.7948 -2.0039 0.9656
6.5903 5.4021 -2.0027 0.9656
6.0132 5.9020 -1.9802 0.9660
5.1721 6.0749 -1.8751 0.9677
4.5501 6.4293 -1.8512 0.9682
2.6825 7.4037 -1.8507 0.9682
-0.0794 7.8713 -1.8500 0.9682
-0.7820 7.8319 -1.8498 0.9682
-1.4782 7.7300 -1.8496 0.9682
-2.9053 7.5399 -1.8991 0.9673
-4.4259 7.2735 -2.0010 0.9656
-6.1938 5.8385 -2.0005 0.9656
-6.6899 5.2616 -2.0003 0.9656
-8.3046 1.8512 -1.9997 0.9656
-8.5008 0.3443 -1.9995 0.9656
-8.4974 -0.4162 -1.9995 0.9656
-8.4262 -1.1734 -1.9995 0.9656
-8.0830 -2.6537 -1.9995 0.9656
-7.8139 -3.3650 -1.9995 0.9656
-7.4823 -4.0495 -1.9995 0.9656
-7.0910 -4.7016 -1.9996 0.9656
-6.1420 -5.8886 -1.9998 0.9656
-2.9932 -7.9682 -2.0005 0.9656
-2.2698 -8.2044 -2.0006 0.9656
-1.5282 -8.3751 -2.0008 0.9656
-0.7742 -8.4789 -2.0010 0.9656
1.5014 -8.3833 -2.0016 0.9656
2.2443 -8.2166 -2.0018 0.9656
6.1326 -5.9182 -2.0030 0.9656
6.6372 -5.3473 -2.0032 0.9656
7.0888 -4.7336 -2.0033 0.9656
7.4838 -4.0819 -2.0035 0.9656
7.8189 -3.3975 -2.0036 0.9656
8.5210 0.3173 -2.0040 0.9656
8.4588 1.0770 -2.0041 0.9656
7.8706 3.2806 -2.0040 0.9656
7.5461 3.9703 -2.0040 0.9656
7.1611 4.6282 -2.0039 0.9656
6.7189 5.2490 -2.0039 0.9656
6.2022 5.8084 -1.9971 0.9657
5.3843 6.0316 -1.9002 0.9673
4.6997 6.3210 -1.8512 0.9682
2.8554 7.3389 -1.8508 0.9682
2.1884 7.5639 -1.8506 0.9682
1.5040 7.7284 -1.8504 0.9682
0.8077 7.8311 -1.8503 0.9682
0.1051 7.8712 -1.8501 0.9682
-0.5982 7.8483 -1.8499 0.9682
-1.9844 7.6152 -1.8495 0.9682
-4.8954 6.9654 -2.0009 0.9656
-6.0553 5.9823 -2.0005 0.9656
-6.5649 5.4172 -2.0004 0.9656
-7.0218 4.8088 -2.0002 0.9656
-7.4227 4.1622 -2.0001 0.9656
-7.7642 3.4825 -1.9999 0.9656
-8.2590 2.0454 -1.9997 0.9656
-8.4083 1.2997 -1.9996 0.9656
-8.4905 0.5435 -1.9995 0.9656
-8.5049 -0.2169 -1.9995 0.9656
-8.4514 -0.9755 -1.9995 0.9656
-7.8906 -3.1808 -1.9995 0.9656
-7.5751 -3.8729 -1.9995 0.9656
-6.7658 -5.1590 -1.9996 0.9656
-6.2783 -5.7429 -1.9997 0.9656
-5.7406 -6.2810 -1.9998 0.9656
-3.8712 -7.5795 -2.0003 0.9656
-2.4615 -8.1487 -2.0006 0.9656
-1.7241 -8.3367 -2.0008 0.9656
-0.9728 -8.4582 -2.0010 0.9656
2.0510 -8.2668 -2.0018 0.9656
2.7814 -8.0514 -2.0020 0.9656
3.4897 -7.7716 -2.0022 0.9656
4.1702 -7.4297 -2.0024 0.9656
5.4264 -6.5706 -2.0028 0.9656
6.5099 -5.5014 -2.0031 0.9656
8.2513 -2.1466 -2.0038 0.9656
8.4104 -1.4012 -2.0039 0.9656
8.5023 -0.6445 -2.0040 0.9656
