ply
format ascii 1.0
element vertex 1589
property float32 x
property float32 y
property float32 z
property float32 I
end_header
-10.3609 -6.4490 -2.0105 0.9517
-9.7439 -7.3488 -2.0105 0.9517
-9.0487 -8.1896 -2.0106 0.9517
-8.2809 -8.9647 -2.0105 0.9517
-7.4468 -9.6677 -2.0104 0.9517
-6.5530 -10.2931 -2.0102 0.9517
-5.6069 -10.8357 -2.0099 0.9517
-2.5328 -11.9274 -2.0087 0.9518
-0.3680 -12.1018 -1.9946 0.9521
0.6641 -11.2376 -1.8545 0.9554
1.6644 -11.1299 -1.8539 0.9554
3.6153 -10.6490 -1.8527 0.9554
7.1043 -8.6964 -1.8499 0.9555
10.4818 -6.1151 -1.9991 0.9520
10.9821 -5.1529 -1.9984 0.9520
11.3946 -4.1501 -1.9978 0.9520
11.7160 -3.1150 -1.9971 0.9520
12.0762 -0.9806 -1.9960 0.9521
12.1125 0.1017 -1.9955 0.9521
11.6454 3.3067 -1.9943 0.9521
11.3020 4.3328 -1.9940 0.9521
10.8687 5.3243 -1.9938 0.9521
9.7471 7.1720 -1.9936 0.9521
5.6898 10.6845 -1.9942 0.9521
4.7137 11.1517 -1.9945 0.9521
3.6997 11.5303 -1.9949 0.9521
2.6558 11.8171 -1.9953 0.9521
1.5902 12.0100 -1.9958 0.9521
-0.5719 12.1081 -1.9969 0.9520
-5.7607 10.6889 -2.0003 0.9520
-7.5759 9.5008 -2.0018 0.9519
-9.8343 7.1610 -2.0041 0.9519
-10.9592 5.3011 -2.0055 0.9518
-11.3927 4.3027 -2.0062 0.9518
-11.7352 3.2692 -2.0069 0.9518
-12.1501 -1.0475 -2.0090 0.9518
-12.0104 -2.1288 -2.0094 0.9518
-11.7744 -3.1934 -2.0098 0.9517
-6.7948 -10.1355 -2.0102 0.9517
-4.8820 -11.1795 -2.0097 0.9517
0.3982 -11.2511 -1.8547 0.9554
2.3918 -10.9938 -1.8535 0.9554
3.3628 -10.7325 -1.8528 0.9554
4.3063 -10.3856 -1.8522 0.9554
6.0806 -9.4469 -1.8508 0.9555
6.8974 -8.8628 -1.8501 0.9555
7.6584 -8.2083 -1.8494 0.9555
7.8976 -7.0765 -1.7469 0.9579
8.9897 -6.7100 -1.8480 0.9555
10.3352 -6.3619 -1.9993 0.9520
10.8582 -5.4116 -1.9986 0.9520
11.2943 -4.4188 -1.9979 0.9520
11.6400 -3.3914 -1.9973 0.9520
11.8927 -2.3377 -1.9967 0.9521
12.0505 -1.2659 -1.9961 0.9521
11.9467 1.9721 -1.9947 0.9521
11.7208 3.0305 -1.9944 0.9521
10.4947 6.0268 -1.9937 0.9521
9.2546 7.7971 -1.9936 0.9521
8.5215 8.5925 -1.9936 0.9521
5.9407 10.5466 -1.9941 0.9521
4.9758 11.0366 -1.9944 0.9521
2.9343 11.7503 -1.9952 0.9521
-0.2854 12.1173 -1.9967 0.9521
-3.4904 11.6195 -1.9987 0.9520
-4.5158 11.2654 -1.9994 0.9520
-5.5057 10.8211 -2.0001 0.9520
-7.3484 9.6763 -2.0016 0.9519
-8.1863 8.9848 -2.0024 0.9519
-8.9593 8.2210 -2.0032 0.9519
-10.8298 5.5582 -2.0053 0.9519
-11.2868 4.5705 -2.0060 0.9518
-11.6537 3.5454 -2.0067 0.9518
-11.9274 2.4913 -2.0073 0.9518
-12.1057 1.4167 -2.0079 0.9518
-10.0803 -6.8798 -2.0105 0.9517
-8.6957 -8.5633 -2.0105 0.9517
-7.8959 -9.3052 -2.0104 0.9517
-7.0328 -9.9723 -2.0103 0.9517
-6.1134 -10.5593 -2.0100 0.9517
-3.0942 -11.7958 -2.0090 0.9518
-0.9458 -12.1485 -2.0074 0.9518
1.1366 -11.1980 -1.8542 0.9554
3.1084 -10.8101 -1.8530 0.9554
6.6865 -9.0243 -1.8503 0.9555
7.4629 -8.3879 -1.8496 0.9555
11.1876 -4.6850 -1.9981 0.9520
11.8350 -2.6185 -1.9968 0.9520
12.1054 -0.4711 -1.9957 0.9521
11.7897 2.7527 -1.9945 0.9521
11.4950 3.7939 -1.9942 0.9521
11.1089 4.8047 -1.9939 0.9521
9.4364 7.5761 -1.9936 0.9521
8.7222 8.3886 -1.9936 0.9521
7.9386 9.1344 -1.9937 0.9521
7.0917 9.8076 -1.9938 0.9521
5.2352 10.9154 -1.9943 0.9521
4.2402 11.3413 -1.9947 0.9521
3.2111 11.6770 -1.9951 0.9521
1.0832 12.0678 -1.9960 0.9521
-1.0815 12.0751 -1.9972 0.9520
-4.2477 11.3679 -1.9992 0.9520
-5.2478 10.9472 -1.9999 0.9520
-6.2068 10.4386 -2.0007 0.9520
-7.9707 9.1750 -2.0022 0.9519
-8.7616 8.4297 -2.0030 0.9519
-10.1289 6.7416 -2.0044 0.9519
-11.1746 4.8356 -2.0059 0.9518
-11.5656 3.8197 -2.0065 0.9518
-11.8642 2.7725 -2.0072 0.9518
-12.1750 0.6180 -2.0083 0.9518
-12.1846 -0.4718 -2.0088 0.9518
-11.6303 -3.6867 -2.0099 0.9517
-11.2560 -4.7112 -2.0102 0.9517
-10.7914 -5.6981 -2.0104 0.9517
-8.1138 -9.1160 -2.0105 0.9517
-7.2668 -9.8035 -2.0103 0.9517
-6.3616 -10.4122 -2.0101 0.9517
-5.4056 -10.9371 -2.0098 0.9517
-2.3119 -11.9716 -2.0086 0.9518
-1.2332 -12.1272 -2.0081 0.9518
-0.1411 -11.8394 -1.9505 0.9531
0.8709 -11.2222 -1.8544 0.9554
1.8697 -11.0965 -1.8538 0.9554
7.2632 -8.5629 -1.8498 0.9555
7.9958 -7.8771 -1.8491 0.9555
11.4685 -3.9386 -1.9976 0.9520
11.7707 -2.8978 -1.9970 0.9520
11.9790 -1.8345 -1.9964 0.9521
12.0917 -0.7572 -1.9959 0.9521
12.1080 0.3255 -1.9954 0.9521
12.0279 1.4052 -1.9949 0.9521
11.5819 3.5212 -1.9942 0.9521
11.2197 4.5408 -1.9940 0.9521
10.7683 5.5241 -1.9938 0.9521
9.6129 7.3508 -1.9936 0.9521
8.9181 8.1799 -1.9936 0.9521
3.4862 11.5971 -1.9950 0.9521
2.4371 11.8648 -1.9954 0.9521
1.3681 12.0380 -1.9959 0.9521
-1.8732 11.9807 -1.9977 0.9520
-2.9366 11.7694 -1.9983 0.9520
-3.9773 11.4641 -1.9990 0.9520
-4.9870 11.0671 -1.9997 0.9520
-6.8814 10.0109 -2.0012 0.9519
-7.7508 9.3600 -2.0020 0.9519
-10.4077 2.3754 -2.0065 0.9575
-10.5810 1.4368 -2.0071 0.9575
-10.6695 0.4863 -2.0075 0.9575
-10.5901 -1.4200 -2.0083 0.9574
-10.4227 -2.3605 -2.0087 0.9574
-9.8390 -4.1780 -2.0092 0.9574
-7.0663 -8.0223 -2.0094 0.9574
-4.6858 -9.6056 -2.0088 0.9574
-3.8087 -9.9842 -2.0085 0.9574
-2.9014 -10.2826 -2.0082 0.9574
-1.9711 -10.4985 -2.0078 0.9575
-0.0721 -10.6767 -2.0068 0.9575
1.6885 -9.7142 -1.8533 0.9607
2.5485 -9.5218 -1.8527 0.9607
3.3876 -9.2533 -1.8522 0.9607
4.1991 -8.9110 -1.8516 0.9607
6.4045 -7.4719 -1.8497 0.9607
7.0438 -6.8678 -1.8491 0.9608
8.8183 -5.9543 -2.0000 0.9576
9.3118 -5.1414 -1.9993 0.9576
10.6050 -0.6091 -1.9966 0.9577
10.5399 1.2866 -1.9958 0.9577
10.3811 2.2224 -1.9955 0.9577
9.8177 4.0326 -1.9949 0.9577
9.4175 4.8928 -1.9948 0.9577
8.9425 5.7140 -1.9947 0.9577
8.3962 6.4895 -1.9946 0.9577
5.5938 9.0201 -1.9950 0.9577
4.7665 9.4847 -1.9952 0.9577
3.9010 9.8739 -1.9955 0.9577
2.0831 10.4142 -1.9962 0.9577
0.1974 10.6236 -1.9972 0.9577
-0.7524 10.6015 -1.9977 0.9577
-5.2701 9.2481 -2.0007 0.9576
-6.0769 8.7434 -2.0014 0.9576
-8.1852 6.8267 -2.0034 0.9575
-9.2750 5.2651 -2.0046 0.9575
-10.0697 3.5333 -2.0058 0.9575
-10.3479 2.6207 -2.0064 0.9575
-10.6544 0.7384 -2.0074 0.9575
-9.9348 -3.9441 -2.0091 0.9574
-5.7406 -9.0169 -2.0091 0.9574
-3.1439 -10.2116 -2.0083 0.9574
-2.2189 -10.4495 -2.0079 0.9575
-0.3245 -10.6727 -2.0070 0.9575
1.4795 -9.8935 -1.8803 0.9601
3.1681 -9.3316 -1.8523 0.9607
5.5228 -8.1502 -1.8505 0.9607
6.2265 -7.6219 -1.8499 0.9607
6.8800 -7.0331 -1.8493 0.9607
7.7491 -6.6199 -1.9156 0.9594
9.9895 -3.6384 -1.9983 0.9577
10.5882 -0.8597 -1.9967 0.9577
10.6203 0.0892 -1.9963 0.9577
10.5679 1.0371 -1.9959 0.9577
10.4312 1.9763 -1.9955 0.9577
10.2115 2.8996 -1.9952 0.9577
9.9106 3.7994 -1.9950 0.9577
9.5308 4.6689 -1.9948 0.9577
9.0752 5.5010 -1.9947 0.9577
8.5474 6.2892 -1.9946 0.9577
6.5751 8.3304 -1.9948 0.9577
5.8054 8.8851 -1.9949 0.9577
4.1332 9.7785 -1.9954 0.9577
-2.3832 10.3629 -1.9987 0.9576
-4.1912 9.7797 -1.9999 0.9576
-5.0495 9.3693 -2.0005 0.9576
-5.8679 8.8839 -2.0012 0.9576
-6.6400 8.3271 -2.0019 0.9576
-8.0208 7.0177 -2.0032 0.9576
-9.1472 5.4825 -2.0045 0.9575
-9.6032 4.6452 -2.0051 0.9575
-10.4998 1.9353 -2.0068 0.9575
-10.6817 0.0366 -2.0077 0.9575
-10.5218 -1.8649 -2.0085 0.9574
-10.3148 -2.7975 -2.0088 0.9574
-9.2070 -5.4331 -2.0094 0.9574
-8.6854 -6.2338 -2.0095 0.9574
-8.0941 -6.9846 -2.0095 0.9574
-7.4378 -7.6794 -2.0095 0.9574
-5.9523 -8.8789 -2.0092 0.9574
-4.2769 -9.7937 -2.0087 0.9574
-2.4656 -10.3947 -2.0080 0.9575
-1.5271 -10.5711 -2.0076 0.9575
2.0958 -9.6332 -1.8530 0.9607
3.7737 -9.1011 -1.8519 0.9607
9.0598 -5.5768 -1.9997 0.9576
9.9014 -3.8739 -1.9984 0.9576
10.2049 -2.9733 -1.9979 0.9577
10.4269 -2.0496 -1.9973 0.9577
10.6201 -0.1619 -1.9964 0.9577
10.2776 2.6574 -1.9953 0.9577
8.6938 6.0854 -1.9946 0.9577
8.1155 6.8374 -1.9946 0.9577
7.4726 7.5349 -1.9946 0.9577
6.0137 8.7451 -1.9949 0.9577
3.4820 10.0302 -1.9957 0.9577
-0.2503 10.6237 -1.9974 0.9577
-2.1373 10.4155 -1.9985 0.9576
-3.9585 9.8752 -1.9997 0.9576
-6.4407 8.4811 -2.0017 0.9576
-7.8519 7.2048 -2.0030 0.9576
-8.4667 6.4770 -2.0037 0.9575
-9.0142 5.6968 -2.0043 0.9575
-9.4899 4.8705 -2.0049 0.9575
-9.8899 4.0048 -2.0055 0.9575
-10.6062 1.2412 -2.0072 0.9575
-10.6772 0.2891 -2.0076 0.9575
-10.6626 -0.6657 -2.0080 0.9575
-10.3777 -2.5527 -2.0087 0.9574
-9.7603 -4.3592 -2.0092 0.9574
-8.8303 -6.0267 -2.0095 0.9574
-7.6174 -7.5014 -2.0095 0.9574
-6.1608 -8.7358 -2.0092 0.9574
-5.3555 -9.2502 -2.0090 0.9574
-2.7108 -10.3340 -2.0081 0.9574
1.0541 -10.3858 -1.9622 0.9584
1.8675 -9.6808 -1.8532 0.9607
2.7238 -9.4725 -1.8526 0.9607
3.5577 -9.1886 -1.8520 0.9607
4.3627 -8.8313 -1.8514 0.9607
5.1322 -8.4037 -1.8508 0.9607
5.8603 -7.9092 -1.8502 0.9607
7.1690 -6.7360 -1.8490 0.9608
8.3491 -6.5449 -1.9940 0.9577
8.9262 -5.7900 -1.9998 0.9576
9.8078 -4.1072 -1.9986 0.9576
10.1325 -3.2140 -1.9980 0.9577
10.3762 -2.2957 -1.9975 0.9577
10.5371 -1.3595 -1.9970 0.9577
10.6139 -0.4130 -1.9965 0.9577
10.6062 0.5364 -1.9961 0.9577
10.5139 1.4811 -1.9957 0.9577
10.0797 3.3268 -1.9951 0.9577
9.3254 5.0659 -1.9947 0.9577
8.2749 6.6436 -1.9946 0.9577
6.9614 8.0100 -1.9947 0.9577
6.2187 8.6002 -1.9948 0.9577
3.7181 9.9447 -1.9956 0.9577
0.9497 10.5808 -1.9968 0.9577
0.0010 10.6260 -1.9973 0.9577
-1.8903 10.4624 -1.9984 0.9577
-2.8179 10.2548 -1.9989 0.9576
-5.4404 9.1498 -2.0008 0.9576
-6.2378 8.6302 -2.0015 0.9576
-8.3105 6.6748 -2.0035 0.9575
-8.8762 5.9079 -2.0041 0.9575
-10.5732 1.4915 -2.0070 0.9575
-10.6748 -0.4133 -2.0079 0.9575
-10.5972 -1.3653 -2.0083 0.9574
-10.4347 -2.3066 -2.0087 0.9574
-10.1885 -3.2296 -2.0089 0.9574
-9.8604 -4.1270 -2.0092 0.9574
-8.4152 -6.5941 -2.0095 0.9574
-7.7927 -7.3192 -2.0095 0.9574
-7.1077 -7.9856 -2.0094 0.9574
-6.3658 -8.5879 -2.0093 0.9574
-5.5729 -9.1212 -2.0091 0.9574
-4.7355 -9.5813 -2.0089 0.9574
-2.0254 -10.4883 -2.0078 0.9575
-1.0804 -10.6249 -2.0074 0.9575
-0.1273 -10.6763 -2.0069 0.9575
0.8235 -10.6046 -1.9993 0.9576
3.3397 -9.2709 -1.8522 0.9607
4.1530 -8.9328 -1.8516 0.9607
5.6721 -8.0462 -1.8504 0.9607
6.3659 -7.5050 -1.8498 0.9607
8.0380 -6.6137 -1.9565 0.9585
9.7087 -4.3383 -1.9988 0.9576
10.3197 -2.5406 -1.9976 0.9577
10.5027 -1.6084 -1.9971 0.9577
10.6164 0.2854 -1.9962 0.9577
10.5465 1.2321 -1.9958 0.9577
10.3926 2.1687 -1.9955 0.9577
10.1559 3.0876 -1.9952 0.9577
9.8385 3.9818 -1.9950 0.9577
9.4428 4.8441 -1.9948 0.9577
8.9719 5.6677 -1.9947 0.9577
7.1488 7.8431 -1.9947 0.9577
6.4202 8.4506 -1.9948 0.9577
5.6404 8.9910 -1.9950 0.9577
4.8155 9.4599 -1.9952 0.9577
3.9520 9.8535 -1.9955 0.9577
2.1369 10.4032 -1.9962 0.9577
0.2523 10.6223 -1.9971 0.9577
-0.6975 10.6051 -1.9976 0.9577
-1.6422 10.5033 -1.9982 0.9577
-2.5744 10.3177 -1.9988 0.9576
-6.0315 8.7745 -2.0013 0.9576
-9.6880 4.4672 -2.0052 0.9575
-9.2523 2.1117 -2.0060 0.9619
-9.4061 1.2773 -2.0065 0.9619
-9.4135 -1.2623 -2.0076 0.9619
-8.7455 -3.7136 -2.0084 0.9619
-8.3795 -4.4801 -2.0085 0.9619
-7.9463 -5.2108 -2.0086 0.9619
-7.4494 -5.8997 -2.0087 0.9619
-6.8927 -6.5414 -2.0087 0.9619
-6.2808 -7.1305 -2.0086 0.9619
-3.3855 -8.8748 -2.0078 0.9619
-2.5791 -9.1402 -2.0075 0.9619
-1.7522 -9.3324 -2.0071 0.9619
-0.9116 -9.4497 -2.0067 0.9619
1.6216 -9.3293 -2.0016 0.9620
3.7334 -7.9229 -1.8514 0.9648
4.4248 -7.5557 -1.8508 0.9648
5.9018 -6.8854 -1.9169 0.9636
7.8422 -5.2952 -2.0002 0.9621
8.2814 -4.5725 -1.9996 0.9621
8.9580 -3.0247 -1.9986 0.9621
9.1901 -2.2121 -1.9981 0.9621
9.4417 0.3027 -1.9968 0.9621
9.2343 1.9769 -1.9962 0.9621
9.0198 2.7933 -1.9959 0.9621
8.7334 3.5872 -1.9957 0.9621
7.9550 5.0830 -1.9955 0.9621
7.4691 5.7729 -1.9954 0.9621
6.9237 6.4169 -1.9954 0.9621
4.2400 8.4371 -1.9960 0.9621
3.4701 8.7831 -1.9962 0.9621
2.6723 9.0593 -1.9965 0.9621
1.0184 9.3937 -1.9973 0.9621
0.1755 9.4491 -1.9977 0.9621
-3.1470 8.9215 -1.9997 0.9621
-3.9322 8.6073 -2.0003 0.9621
-4.6865 8.2241 -2.0009 0.9620
-5.4038 7.7750 -2.0014 0.9620
-6.0783 7.2635 -2.0020 0.9620
-7.7930 5.3973 -2.0038 0.9620
-8.2462 4.6811 -2.0044 0.9620
-8.9522 3.1412 -2.0054 0.9620
-9.4712 0.6564 -2.0068 0.9619
-9.4938 -0.1920 -2.0072 0.9619
-9.3113 -1.8785 -2.0079 0.9619
-9.1075 -2.7028 -2.0081 0.9619
-8.8306 -3.5057 -2.0083 0.9619
-8.0672 -5.0214 -2.0086 0.9619
-7.5868 -5.7219 -2.0087 0.9619
-5.7984 -7.5276 -2.0085 0.9619
-3.5946 -8.7926 -2.0079 0.9619
-2.7946 -9.0771 -2.0076 0.9619
-1.9725 -9.2888 -2.0072 0.9619
-0.2885 -9.4877 -2.0064 0.9619
1.4022 -9.3766 -2.0041 0.9620
2.1931 -9.0452 -1.9674 0.9627
2.8664 -8.4429 -1.8847 0.9642
5.6743 -6.9459 -1.8959 0.9640
8.1716 -4.7674 -1.9998 0.9621
8.8846 -3.2359 -1.9987 0.9621
9.3140 -1.6031 -1.9977 0.9621
9.4467 0.0794 -1.9969 0.9621
9.4002 0.9225 -1.9966 0.9621
9.2788 1.7580 -1.9963 0.9621
9.0836 2.5793 -1.9960 0.9621
8.8160 3.3798 -1.9958 0.9621
8.4782 4.1532 -1.9956 0.9621
8.0730 4.8935 -1.9955 0.9621
7.6035 5.5947 -1.9954 0.9621
7.0735 6.2513 -1.9954 0.9621
6.4871 6.8582 -1.9955 0.9621
2.8856 8.9932 -1.9964 0.9621
2.0713 9.2165 -1.9968 0.9621
-0.4460 9.4418 -1.9980 0.9621
-1.2877 9.3665 -1.9985 0.9621
-2.9349 8.9928 -1.9996 0.9621
-3.7273 8.6972 -2.0001 0.9621
-5.2181 7.9000 -2.0013 0.9620
-5.9044 7.4046 -2.0019 0.9620
-6.5440 6.8498 -2.0025 0.9620
-8.1326 4.8744 -2.0042 0.9620
-8.5378 4.1298 -2.0048 0.9620
-8.8748 3.3518 -2.0053 0.9620
-9.3341 1.7204 -2.0063 0.9619
-9.4525 0.8801 -2.0067 0.9619
-9.4952 0.0325 -2.0071 0.9619
-9.4619 -0.8157 -2.0075 0.9619
-9.1686 -2.4866 -2.0081 0.9619
-8.5817 -4.0788 -2.0085 0.9619
-7.1943 -6.2082 -2.0087 0.9619
-3.8016 -8.7055 -2.0080 0.9619
-3.0086 -9.0089 -2.0077 0.9619
-2.1917 -9.2400 -2.0073 0.9619
-1.3575 -9.3970 -2.0070 0.9619
0.3357 -9.4845 -2.0061 0.9619
2.0086 -9.2326 -1.9972 0.9621
4.0632 -7.7576 -1.8511 0.9648
4.7384 -7.3616 -1.8506 0.9648
5.4639 -7.0208 -1.8805 0.9643
7.0438 -6.3115 -1.9992 0.9621
7.5842 -5.6609 -2.0005 0.9620
8.0571 -4.9596 -1.9999 0.9621
8.4655 -4.2191 -1.9994 0.9621
8.8062 -3.4453 -1.9988 0.9621
9.0764 -2.6445 -1.9983 0.9621
9.4464 -0.1440 -1.9970 0.9621
9.4198 0.7000 -1.9967 0.9621
9.3182 1.5382 -1.9963 0.9621
9.1423 2.3638 -1.9961 0.9621
8.8937 3.1705 -1.9958 0.9621
8.1866 4.7013 -1.9955 0.9621
7.7337 5.4134 -1.9954 0.9621
6.0225 7.2700 -1.9955 0.9621
5.3496 7.7793 -1.9957 0.9621
3.0973 8.9221 -1.9964 0.9621
2.2886 9.1645 -1.9967 0.9621
0.6220 9.4292 -1.9975 0.9621
-0.2226 9.4491 -1.9979 0.9621
-1.0658 9.3938 -1.9984 0.9621
-5.0294 8.0205 -2.0011 0.9620
-7.5280 5.7588 -2.0035 0.9620
-8.0145 5.0650 -2.0041 0.9620
-8.4371 4.3302 -2.0046 0.9620
-8.7925 3.5604 -2.0051 0.9620
-9.2902 1.9405 -2.0061 0.9619
-9.4285 1.1033 -2.0066 0.9619
-9.4781 -0.5918 -2.0074 0.9619
-9.3889 -1.4360 -2.0077 0.9619
-9.2245 -2.2691 -2.0080 0.9619
-8.9861 -3.0841 -2.0082 0.9619
-8.2954 -4.6342 -2.0086 0.9619
-7.8487 -5.3568 -2.0086 0.9619
-7.3391 -6.0364 -2.0087 0.9619
-5.4760 -7.7649 -2.0084 0.9619
-2.4097 -9.1860 -2.0074 0.9619
-0.7368 -9.4645 -2.0067 0.9619
0.1113 -9.4904 -2.0062 0.9619
0.9582 -9.4403 -2.0057 0.9619
1.7920 -9.2892 -1.9997 0.9621
2.5138 -8.7422 -1.9228 0.9635
3.1770 -8.2053 -1.8599 0.9647
3.8790 -7.8521 -1.8513 0.9648
4.5633 -7.4722 -1.8507 0.9648
5.2566 -7.0944 -1.8664 0.9645
6.0830 -6.8370 -1.9344 0.9633
6.8852 -6.4694 -1.9971 0.9621
7.4488 -5.8391 -2.0006 0.9620
9.2289 -2.0419 -1.9980 0.9621
9.3723 -1.2093 -1.9975 0.9621
9.4409 -0.3674 -1.9971 0.9621
9.4342 0.4771 -1.9967 0.9621
8.9664 2.9594 -1.9959 0.9621
5.5319 7.6505 -1.9956 0.9621
4.8270 8.1146 -1.9958 0.9621
4.0835 8.5142 -1.9960 0.9621
2.5045 9.1075 -1.9966 0.9621
0.8447 9.4113 -1.9974 0.9621
-1.6812 9.3051 -1.9988 0.9621
-3.3115 8.8624 -1.9998 0.9621
-4.8380 8.1366 -2.0010 0.9620
-6.2119 7.1504 -2.0022 0.9620
-6.8277 6.5690 -2.0027 0.9620
-7.8919 5.2527 -2.0039 0.9620
-9.0092 2.9754 -2.0055 0.9620
-9.2412 2.1595 -2.0060 0.9619
-9.3992 1.3259 -2.0065 0.9619
-9.4821 0.4813 -2.0069 0.9619
-9.4199 -1.2136 -2.0076 0.9619
-8.7645 -3.6684 -2.0084 0.9619
-8.4025 -4.4367 -2.0085 0.9619
-7.9732 -5.1696 -2.0086 0.9619
-6.9265 -6.5056 -2.0087 0.9619
-4.9535 -8.1075 -2.0083 0.9619
-4.2092 -8.5166 -2.0081 0.9619
-2.6263 -9.1269 -2.0075 0.9619
1.5737 -9.3400 -2.0021 0.9620
2.3341 -8.9051 -1.9460 0.9631
4.3857 -7.5786 -1.8509 0.9648
5.8516 -6.8987 -1.9122 0.9637
6.7236 -6.6237 -1.9951 0.9621
7.8148 -5.3358 -2.0002 0.9621
8.6346 -3.8584 -1.9991 0.9621
8.9424 -3.0711 -1.9986 0.9621
9.3416 -1.4306 -1.9977 0.9621
9.4300 -0.5905 -1.9972 0.9621
9.4433 0.2539 -1.9968 0.9621
9.0342 2.7466 -1.9959 0.9621
8.3999 4.3091 -1.9956 0.9621
7.4988 5.7342 -1.9954 0.9621
6.9568 6.3810 -1.9954 0.9621
6.3593 6.9770 -1.9955 0.9621
4.2836 8.4150 -1.9960 0.9621
1.0670 9.3882 -1.9972 0.9621
-1.4606 9.3416 -1.9986 0.9621
-3.1008 8.9376 -1.9997 0.9621
-3.8876 8.6273 -2.0002 0.9621
-4.6439 8.2481 -2.0008 0.9620
-5.3635 7.8027 -2.0014 0.9620
-7.2462 6.1074 -2.0032 0.9620
-8.6131 3.9716 -2.0049 0.9620
-8.3199 1.8989 -2.0056 0.9655
-8.3301 -1.8866 -2.0073 0.9655
-7.8632 -3.3390 -2.0077 0.9655
-7.5341 -4.0281 -2.0079 0.9655
-6.6978 -5.3044 -2.0080 0.9655
-6.1973 -5.8813 -2.0080 0.9655
-5.6471 -6.4111 -2.0079 0.9655
1.4609 -8.4051 -2.0050 0.9656
5.5435 -6.4674 -2.0019 0.9656
6.0973 -5.9449 -2.0014 0.9656
7.0539 -4.7630 -2.0004 0.9656
7.4492 -4.1130 -1.9999 0.9656
8.0582 -2.7209 -1.9989 0.9657
8.2672 -1.9900 -1.9985 0.9657
8.4101 -1.2435 -1.9981 0.9657
8.4860 -0.4874 -1.9977 0.9657
8.3078 1.7785 -1.9968 0.9657
8.1149 2.5130 -1.9965 0.9657
7.8573 3.2274 -1.9964 0.9657
7.1570 4.5731 -1.9961 0.9657
6.2293 5.7733 -1.9961 0.9657
4.4769 7.2189 -1.9964 0.9657
3.8146 7.5906 -1.9966 0.9657
3.1219 7.9019 -1.9968 0.9657
2.4041 8.1502 -1.9971 0.9657
1.6669 8.3337 -1.9974 0.9657
-4.2153 7.3972 -2.0010 0.9656
-4.8603 6.9930 -2.0015 0.9656
-5.4669 6.5328 -2.0020 0.9656
-6.0300 6.0201 -2.0026 0.9656
-7.0084 4.8539 -2.0036 0.9656
-7.4158 4.2097 -2.0041 0.9656
-7.7640 3.5315 -2.0046 0.9656
-8.2722 2.0950 -2.0055 0.9655
-8.5163 0.5902 -2.0063 0.9655
-8.5365 -0.1727 -2.0067 0.9655
-8.4883 -0.9345 -2.0070 0.9655
-8.1888 -2.4302 -2.0075 0.9655
-7.9398 -3.1520 -2.0077 0.9655
-7.6271 -3.8488 -2.0078 0.9655
-7.2533 -4.5147 -2.0079 0.9655
-6.8213 -5.1446 -2.0080 0.9655
-6.3346 -5.7332 -2.0080 0.9655
-5.7972 -6.2758 -2.0079 0.9655
-4.5878 -7.2062 -2.0077 0.9655
-3.9255 -7.5864 -2.0075 0.9655
-1.7736 -8.3522 -2.0067 0.9655
-1.0204 -8.4757 -2.0064 0.9655
-0.2594 -8.5313 -2.0060 0.9655
2.0098 -8.2895 -2.0047 0.9656
2.7391 -8.0680 -2.0025 0.9656
4.1206 -7.4339 -1.9976 0.9657
4.7700 -7.0392 -1.9984 0.9657
5.9554 -6.0879 -2.0016 0.9656
6.9398 -4.9288 -2.0005 0.9656
8.3788 -1.4421 -1.9982 0.9657
8.4725 -0.6879 -1.9978 0.9657
8.4986 0.0714 -1.9974 0.9657
8.4569 0.8299 -1.9971 0.9657
8.3478 1.5816 -1.9968 0.9657
8.1723 2.3205 -1.9966 0.9657
7.9316 3.0407 -1.9964 0.9657
5.2623 6.6671 -1.9962 0.9657
4.6462 7.1109 -1.9963 0.9657
3.9930 7.4981 -1.9965 0.9657
2.5961 8.0908 -1.9970 0.9657
1.8634 8.2915 -1.9973 0.9657
1.1157 8.4263 -1.9977 0.9657
0.3588 8.4938 -1.9980 0.9657
-1.1584 8.4258 -1.9989 0.9657
-2.6400 8.0891 -1.9998 0.9656
-4.0389 7.4943 -2.0008 0.9656
-5.8856 6.1606 -2.0024 0.9656
-6.4139 5.6118 -2.0030 0.9656
-6.8912 5.0179 -2.0035 0.9656
-7.9807 3.0141 -2.0050 0.9656
-8.2198 2.2899 -2.0054 0.9655
-8.3933 1.5470 -2.0058 0.9655
-8.5378 0.0292 -2.0066 0.9655
-8.5077 -0.7335 -2.0069 0.9655
-8.2437 -2.2358 -2.0075 0.9655
-8.0119 -2.9633 -2.0077 0.9655
-6.4684 -5.5818 -2.0080 0.9655
-5.3720 -6.6431 -2.0079 0.9655
-3.4182 -7.8274 -2.0074 0.9655
-1.9707 -8.3082 -2.0068 0.9655
1.0620 -8.4658 -2.0052 0.9655
2.5492 -8.1358 -2.0038 0.9656
3.9439 -7.5297 -1.9977 0.9657
6.8218 -5.0918 -2.0006 0.9656
7.6149 -3.7952 -1.9996 0.9656
7.9215 -3.0992 -1.9992 0.9657
8.1648 -2.3789 -1.9987 0.9657
8.3428 -1.6399 -1.9983 0.9657
8.4983 -0.1296 -1.9975 0.9657
8.4745 0.6297 -1.9972 0.9657
8.3832 1.3838 -1.9969 0.9657
8.0015 2.8524 -1.9965 0.9657
7.3654 4.2297 -1.9962 0.9657
6.4952 5.4723 -1.9961 0.9657
5.9807 6.0305 -1.9961 0.9657
5.4184 6.5408 -1.9962 0.9657
4.8129 6.9989 -1.9963 0.9657
4.1690 7.4014 -1.9965 0.9657
2.7865 8.0268 -1.9969 0.9657
2.0589 8.2448 -1.9972 0.9657
1.3146 8.3971 -1.9976 0.9657
-0.9587 8.4503 -1.9988 0.9657
-1.7099 8.3328 -1.9992 0.9657
-4.5237 7.2140 -2.0012 0.9656
-6.7702 5.1791 -2.0033 0.9656
-7.9067 3.2017 -2.0048 0.9656
-8.1629 2.4834 -2.0053 0.9655
-8.3539 1.7449 -2.0057 0.9655
-8.4780 0.9921 -2.0061 0.9655
-8.2940 -2.0402 -2.0074 0.9655
-8.0795 -2.7730 -2.0076 0.9655
-7.4585 -4.1667 -2.0079 0.9655
-6.5986 -5.4273 -2.0080 0.9655
-6.0875 -5.9948 -2.0080 0.9655
-4.9235 -6.9815 -2.0078 0.9655
-4.2800 -7.3927 -2.0076 0.9655
-3.6024 -7.7446 -2.0074 0.9655
-2.8960 -8.0343 -2.0072 0.9655
-1.4201 -8.4188 -2.0066 0.9655
-0.6625 -8.5104 -2.0062 0.9655
0.8616 -8.4890 -2.0054 0.9655
2.3569 -8.1965 -2.0044 0.9656
3.0735 -7.9379 -2.0006 0.9656
4.4302 -7.2542 -1.9977 0.9657
7.5235 -3.9744 -1.9998 0.9656
7.8465 -3.2859 -1.9993 0.9656
8.1067 -2.5715 -1.9988 0.9657
8.4874 0.4292 -1.9973 0.9657
8.0669 2.6625 -1.9965 0.9657
7.4635 4.0544 -1.9962 0.9657
5.5715 6.4107 -1.9962 0.9657
3.6738 7.6600 -1.9966 0.9657
2.9755 7.9584 -1.9969 0.9657
2.2532 8.1935 -1.9971 0.9657
0.0008 8.5022 -1.9982 0.9657
-1.5123 8.3704 -1.9991 0.9657
-2.9787 7.9717 -2.0001 0.9656
-6.1406 5.9080 -2.0027 0.9656
-6.6454 5.3374 -2.0032 0.9656
-7.4927 4.0722 -2.0042 0.9656
-7.8283 3.3876 -2.0047 0.9656
-8.4518 1.1922 -2.0060 0.9655
-8.5261 0.4328 -2.0064 0.9655
-8.5321 -0.3304 -2.0068 0.9655
-8.3397 -1.8435 -2.0073 0.9655
-7.5548 -3.9891 -2.0079 0.9655
-7.1687 -4.6480 -2.0080 0.9655
-6.2276 -5.8492 -2.0080 0.9655
-5.6802 -6.3818 -2.0079 0.9655
-5.0873 -6.8632 -2.0078 0.9655
-4.4538 -7.2896 -2.0077 0.9655
-3.7846 -7.6575 -2.0075 0.9655
-2.3615 -8.2064 -2.0070 0.9655
-0.8636 -8.4928 -2.0063 0.9655
0.6607 -8.5075 -2.0055 0.9655
2.8864 -8.0125 -2.0016 0.9656
3.5848 -7.7107 -1.9985 0.9657
5.5101 -6.4961 -2.0020 0.9656
7.0293 -4.7995 -2.0004 0.9656
7.7671 -3.4707 -1.9994 0.9656
8.4834 -0.5313 -1.9977 0.9657
8.4955 0.2284 -1.9974 0.9657
8.4399 0.9860 -1.9971 0.9657
7.8739 3.1867 -1.9964 0.9657
7.5574 3.8769 -1.9962 0.9657
6.2590 5.7410 -1.9961 0.9657
5.1383 6.7633 -1.9962 0.9657
3.1627 7.8856 -1.9968 0.9657
1.7100 8.3248 -1.9974 0.9657
0.9599 8.4458 -1.9977 0.9657
0.2018 8.4994 -1.9981 0.9657
-1.3139 8.4033 -1.9990 0.9657
-2.7891 8.0394 -1.9999 0.9656
-3.4968 7.7601 -2.0004 0.9656
-7.7397 0.3528 -2.0060 0.9685
-7.7415 -0.3399 -2.0063 0.9685
-7.5595 -1.7120 -2.0069 0.9685
-7.1356 -3.0300 -2.0072 0.9685
-6.0780 -4.8136 -2.0074 0.9685
-5.1246 -5.8179 -2.0074 0.9685
-4.5843 -6.2519 -2.0073 0.9685
-4.0074 -6.6359 -2.0071 0.9685
-3.3985 -6.9666 -2.0070 0.9685
-2.1045 -7.4583 -2.0065 0.9685
-0.7439 -7.7114 -2.0059 0.9685
0.6395 -7.7179 -2.0051 0.9685
2.0014 -7.4779 -2.0043 0.9685
3.9092 -6.6753 -2.0029 0.9685
5.0319 -5.8706 -2.0020 0.9686
6.4034 -4.3237 -2.0005 0.9686
6.7624 -3.7338 -2.0001 0.9686
7.3156 -2.4702 -1.9992 0.9686
7.5055 -1.8066 -1.9988 0.9686
7.7044 -0.4425 -1.9981 0.9686
7.1340 2.9303 -1.9969 0.9686
6.8434 3.5555 -1.9968 0.9686
5.1653 5.7262 -1.9967 0.9686
4.6335 6.1648 -1.9968 0.9686
4.0647 6.5544 -1.9969 0.9686
3.4635 6.8918 -1.9971 0.9686
1.5134 7.5662 -1.9978 0.9686
0.1434 7.7173 -1.9985 0.9686
-1.2323 7.6227 -1.9993 0.9686
-2.5697 7.2851 -2.0001 0.9686
-3.2108 7.0281 -2.0006 0.9686
-3.8265 6.7149 -2.0011 0.9686
-4.4119 6.3478 -2.0015 0.9686
-5.9409 4.9549 -2.0030 0.9685
-6.3612 4.4056 -2.0035 0.9685
-6.7308 3.8208 -2.0039 0.9685
-7.0466 3.2052 -2.0044 0.9685
-7.3063 2.5637 -2.0048 0.9685
-7.6488 1.2235 -2.0056 0.9685
-7.7288 0.5357 -2.0059 0.9685
-7.5976 -1.5328 -2.0068 0.9685
-7.2051 -2.8604 -2.0072 0.9685
-6.1901 -4.6685 -2.0074 0.9685
-5.7484 -5.2027 -2.0074 0.9685
-5.2607 -5.6951 -2.0074 0.9685
-4.7309 -6.1419 -2.0073 0.9685
-4.1633 -6.5394 -2.0072 0.9685
-3.5624 -6.8845 -2.0070 0.9685
-1.6096 -7.5797 -2.0063 0.9685
-0.9261 -7.6920 -2.0060 0.9685
3.1320 -7.0758 -2.0035 0.9685
4.8920 -5.9883 -2.0021 0.9686
5.4059 -5.5262 -2.0016 0.9686
5.8764 -5.0201 -2.0011 0.9686
6.2998 -4.4742 -2.0006 0.9686
6.6726 -3.8929 -2.0002 0.9686
6.9921 -3.2807 -1.9997 0.9686
7.2555 -2.6426 -1.9993 0.9686
7.4610 -1.9837 -1.9989 0.9686
7.6069 -1.3092 -1.9985 0.9686
7.6921 -0.6246 -1.9982 0.9686
7.5792 1.4360 -1.9973 0.9686
7.2015 2.7608 -1.9969 0.9686
6.9257 3.3927 -1.9968 0.9686
5.7783 5.1067 -1.9966 0.9686
5.2992 5.6024 -1.9967 0.9686
4.2185 6.4564 -1.9969 0.9686
3.6254 6.8078 -1.9970 0.9686
3.0032 7.1051 -1.9972 0.9686
1.0130 7.6502 -1.9981 0.9686
-0.3642 7.7111 -1.9988 0.9686
-1.0516 7.6493 -1.9992 0.9686
-2.3966 7.3434 -2.0000 0.9686
-5.8217 5.0937 -2.0029 0.9685
-6.2549 4.5545 -2.0033 0.9685
-6.6381 3.9787 -2.0038 0.9685
-7.2432 2.7355 -2.0047 0.9685
-7.0019 -3.3280 -2.0073 0.9685
-6.6771 -3.9401 -2.0074 0.9685
-6.2987 -4.5208 -2.0074 0.9685
-5.3940 -5.5692 -2.0074 0.9685
-4.8749 -6.0284 -2.0073 0.9685
-4.3168 -6.4393 -2.0072 0.9685
-3.7243 -6.7985 -2.0071 0.9685
-2.4549 -7.3510 -2.0066 0.9685
-1.7884 -7.5398 -2.0064 0.9685
-0.4185 -7.7352 -2.0057 0.9685
1.6458 -7.5650 -2.0045 0.9685
2.3143 -7.3862 -2.0041 0.9685
3.5897 -6.8535 -2.0032 0.9685
4.1864 -6.5040 -2.0027 0.9685
4.7493 -6.1027 -2.0022 0.9686
5.7564 -5.1580 -2.0012 0.9686
6.5791 -4.0498 -2.0003 0.9686
6.9129 -3.4453 -1.9999 0.9686
7.4124 -2.1597 -1.9990 0.9686
7.5742 -1.4888 -1.9986 0.9686
7.6755 -0.8063 -1.9983 0.9686
7.4679 1.9309 -1.9972 0.9686
7.0041 3.2280 -1.9968 0.9686
6.6875 3.8404 -1.9967 0.9686
6.3176 4.4222 -1.9967 0.9686
5.8974 4.9686 -1.9966 0.9686
5.4302 5.4755 -1.9967 0.9686
4.3699 6.3547 -1.9968 0.9686
2.5300 7.2878 -1.9974 0.9686
1.8693 7.4856 -1.9977 0.9686
0.5080 7.7012 -1.9983 0.9686
-1.5523 7.5648 -1.9995 0.9686
-2.2222 7.3975 -1.9999 0.9686
-2.8746 7.1711 -2.0004 0.9686
-4.1063 6.5485 -2.0013 0.9686
-6.1450 4.7009 -2.0032 0.9685
-6.5418 4.1343 -2.0037 0.9685
-6.8864 3.5343 -2.0041 0.9685
-7.1761 2.9059 -2.0046 0.9685
-7.4085 2.2539 -2.0050 0.9685
-7.5816 1.5836 -2.0054 0.9685
-7.6942 0.9004 -2.0058 0.9685
-7.7451 0.2097 -2.0061 0.9685
-7.7341 -0.4829 -2.0064 0.9685
-7.6611 -1.1718 -2.0067 0.9685
-7.5267 -1.8514 -2.0069 0.9685
-7.0785 -3.1614 -2.0072 0.9685
-5.9880 -4.9251 -2.0074 0.9685
-5.5242 -5.4401 -2.0074 0.9685
-5.0162 -5.9115 -2.0074 0.9685
-4.4680 -6.3355 -2.0073 0.9685
-3.2691 -7.0281 -2.0069 0.9685
-1.9663 -7.4957 -2.0064 0.9685
-0.6013 -7.7235 -2.0058 0.9685
0.0908 -7.7450 -2.0054 0.9685
0.7820 -7.7044 -2.0051 0.9685
2.1391 -7.4393 -2.0042 0.9685
2.7943 -7.2169 -2.0038 0.9685
5.1393 -5.7763 -2.0019 0.9686
5.6332 -5.2930 -2.0014 0.9686
6.0819 -4.7677 -2.0009 0.9686
6.8299 -3.6080 -2.0000 0.9686
7.1233 -2.9830 -1.9995 0.9686
7.3597 -2.3345 -1.9991 0.9686
7.5373 -1.6676 -1.9987 0.9686
7.6547 -0.9876 -1.9984 0.9686
7.7110 -0.3001 -1.9980 0.9686
7.7058 0.3897 -1.9977 0.9686
7.5116 1.7538 -1.9972 0.9686
7.3243 2.4174 -1.9970 0.9686
6.7765 3.6813 -1.9967 0.9686
5.5581 5.3455 -1.9966 0.9686
5.0587 5.8207 -1.9967 0.9686
4.5189 6.2495 -1.9968 0.9686
3.9430 6.6285 -1.9969 0.9686
3.3356 6.9548 -1.9971 0.9686
1.3734 7.5931 -1.9979 0.9686
-0.6887 7.6896 -1.9989 0.9686
-2.0465 7.4476 -1.9998 0.9686
-3.3403 6.9679 -2.0007 0.9686
-3.9501 6.6433 -2.0012 0.9686
-4.5287 6.2655 -2.0016 0.9686
-5.5737 5.3626 -2.0026 0.9685
-6.0318 4.8446 -2.0031 0.9685
-7.1050 3.0746 -2.0045 0.9685
-7.3527 2.4283 -2.0049 0.9685
-7.6704 1.0820 -2.0057 0.9685
-7.7431 -0.2998 -2.0063 0.9685
-7.6864 -0.9902 -2.0066 0.9685
-7.5682 -1.6729 -2.0068 0.9685
-7.3893 -2.3423 -2.0070 0.9685
-7.1512 -2.9931 -2.0072 0.9685
-6.5053 -4.2179 -2.0074 0.9685
-6.1028 -4.7821 -2.0074 0.9685
-5.6513 -5.3080 -2.0074 0.9685
-5.1546 -5.7913 -2.0074 0.9685
-4.6166 -6.2282 -2.0073 0.9685
-3.4345 -6.9490 -2.0070 0.9685
-2.1430 -7.4474 -2.0065 0.9685
-0.0923 -7.7453 -2.0055 0.9685
1.2865 -7.6352 -2.0048 0.9685
1.9627 -7.4882 -2.0043 0.9685
2.6230 -7.2814 -2.0039 0.9685
3.2621 -7.0164 -2.0034 0.9685
3.8747 -6.6955 -2.0029 0.9685
7.0512 -3.1508 -1.9997 0.9686
7.6295 -1.1684 -1.9985 0.9686
7.7131 0.2074 -1.9978 0.9686
7.1491 2.8934 -1.9969 0.9686
6.8617 3.5200 -1.9968 0.9686
6.5197 4.1186 -1.9967 0.9686
6.1257 4.6842 -1.9966 0.9686
5.6829 5.2126 -1.9966 0.9686
5.1948 5.6994 -1.9967 0.9686
2.2209 7.3883 -1.9975 0.9686
0.8714 7.6679 -1.9981 0.9686
0.1832 7.7164 -1.9985 0.9686
-1.1928 7.6289 -1.9992 0.9686
-3.1744 7.0445 -2.0006 0.9686
-4.3790 6.3705 -2.0015 0.9686
-5.9152 4.9855 -2.0030 0.9685
-6.7108 3.8555 -2.0039 0.9685
-7.0299 3.2416 -2.0043 0.9685
-6.9050 1.5760 -2.0050 0.9710
-7.0194 0.9532 -2.0054 0.9710
-7.0775 0.3226 -2.0057 0.9710
-7.0239 -0.9418 -2.0062 0.9710
-6.7457 -2.1768 -2.0066 0.9710
-6.5248 -2.7707 -2.0068 0.9710
-6.2517 -3.3425 -2.0069 0.9710
-4.6859 -5.3198 -2.0069 0.9710
-4.1919 -5.7168 -2.0068 0.9710
-3.1076 -6.3704 -2.0065 0.9710
-1.9244 -6.8201 -2.0061 0.9710
-0.6803 -7.0517 -2.0055 0.9710
-0.0478 -7.0831 -2.0052 0.9710
1.2125 -6.9761 -2.0045 0.9710
1.8303 -6.8386 -2.0041 0.9710
3.0164 -6.4013 -2.0033 0.9710
3.5752 -6.1050 -2.0028 0.9710
4.1052 -5.7601 -2.0024 0.9710
4.6022 -5.3693 -2.0020 0.9710
5.4816 -4.4630 -2.0011 0.9710
5.8570 -3.9548 -2.0007 0.9710
6.1854 -3.4152 -2.0002 0.9711
7.0053 0.8552 -1.9979 0.9711
6.2604 3.2526 -1.9972 0.9711
5.9447 3.7985 -1.9971 0.9711
4.7253 5.2384 -1.9971 0.9711
3.7184 5.9960 -1.9973 0.9711
3.1684 6.3046 -1.9975 0.9711
2.5929 6.5630 -1.9977 0.9711
1.3844 6.9213 -1.9982 0.9711
0.7609 7.0183 -1.9985 0.9711
0.1311 7.0593 -1.9988 0.9711
-1.1272 6.9726 -1.9995 0.9711
-1.7457 6.8454 -1.9999 0.9711
-2.9368 6.4283 -2.0007 0.9710
-3.4999 6.1417 -2.0012 0.9710
-4.0352 5.8059 -2.0016 0.9710
-5.4334 4.5316 -2.0029 0.9710
-5.8176 4.0292 -2.0033 0.9710
-6.1555 3.4943 -2.0038 0.9710
-6.6816 2.3445 -2.0046 0.9710
-6.8655 1.7387 -2.0049 0.9710
-6.9945 1.1189 -2.0053 0.9710
-7.0676 0.4898 -2.0056 0.9710
-7.0842 -0.1433 -2.0059 0.9710
-6.5884 -2.6156 -2.0067 0.9710
-6.0186 -3.7462 -2.0069 0.9710
-5.2563 -4.7573 -2.0070 0.9710
-4.8104 -5.2076 -2.0069 0.9710
-4.3260 -5.6161 -2.0069 0.9710
-3.2575 -6.2953 -2.0066 0.9710
-2.6820 -6.5604 -2.0064 0.9710
-1.4718 -6.9312 -2.0059 0.9710
-0.2153 -7.0803 -2.0053 0.9710
1.0473 -7.0032 -2.0046 0.9710
2.2755 -6.7025 -2.0038 0.9710
3.4301 -6.1882 -2.0030 0.9710
3.9681 -5.8559 -2.0025 0.9710
4.4742 -5.4769 -2.0021 0.9710
4.9444 -5.0543 -2.0016 0.9710
5.3748 -4.5916 -2.0012 0.9710
5.7621 -4.0924 -2.0008 0.9710
6.1033 -3.5607 -2.0003 0.9711
6.3956 -3.0008 -1.9999 0.9711
6.6367 -2.4172 -1.9995 0.9711
6.9584 -1.1976 -1.9988 0.9711
6.5879 2.5256 -1.9974 0.9711
6.0329 3.6569 -1.9971 0.9711
4.8478 5.1251 -1.9971 0.9711
4.3709 5.5378 -1.9972 0.9711
3.8591 5.9063 -1.9973 0.9711
3.3165 6.2278 -1.9975 0.9711
2.1562 6.7198 -1.9979 0.9711
1.5476 6.8864 -1.9981 0.9711
-0.3332 7.0536 -1.9990 0.9711
-0.9619 6.9969 -1.9994 0.9711
-1.5832 6.8844 -1.9998 0.9711
-2.1921 6.7168 -2.0002 0.9711
-2.7838 6.4956 -2.0006 0.9710
-3.3535 6.2224 -2.0010 0.9710
-3.8966 5.8993 -2.0015 0.9710
-4.8860 5.1143 -2.0024 0.9710
-6.0708 3.6386 -2.0037 0.9710
-6.6239 2.5017 -2.0045 0.9710
-6.8221 1.9005 -2.0048 0.9710
-7.0538 0.6568 -2.0055 0.9710
-7.0853 0.0243 -2.0058 0.9710
-6.8408 -1.8553 -2.0065 0.9710
-5.3674 -4.6317 -2.0070 0.9710
-4.9322 -5.0924 -2.0070 0.9710
-3.9473 -5.8881 -2.0068 0.9710
-1.0130 -7.0122 -2.0057 0.9710
-0.3827 -7.0735 -2.0054 0.9710
0.2505 -7.0783 -2.0051 0.9710
0.8815 -7.0263 -2.0047 0.9710
2.7107 -6.5375 -2.0035 0.9710
3.8288 -5.9484 -2.0026 0.9710
6.0177 -3.7042 -2.0005 0.9711
6.5780 -2.5736 -1.9996 0.9711
7.0212 -0.7376 -1.9986 0.9711
6.8316 1.7664 -1.9976 0.9711
5.7794 4.0454 -1.9971 0.9711
5.3950 4.5453 -1.9971 0.9711
4.9676 5.0090 -1.9971 0.9711
3.4628 6.1475 -1.9974 0.9711
2.9002 6.4327 -1.9976 0.9711
2.3144 6.6667 -1.9978 0.9711
-0.7962 7.0174 -1.9993 0.9711
-3.7558 5.9895 -2.0014 0.9710
-5.2124 4.7829 -2.0027 0.9710
-6.2978 3.2322 -2.0040 0.9710
-6.5626 2.6575 -2.0044 0.9710
-6.7750 2.0612 -2.0047 0.9710
-5.8556 -3.9964 -2.0070 0.9710
-5.0513 -4.9744 -2.0070 0.9710
-3.5516 -6.1345 -2.0067 0.9710
-2.9893 -6.4266 -2.0065 0.9710
-2.4032 -6.6672 -2.0063 0.9710
-0.5498 -7.0628 -2.0055 0.9710
0.0831 -7.0825 -2.0052 0.9710
0.7151 -7.0456 -2.0048 0.9710
1.9563 -6.8033 -2.0040 0.9710
3.1340 -6.3442 -2.0032 0.9710
4.2108 -5.6830 -2.0023 0.9710
5.1523 -4.8411 -2.0014 0.9710
5.5628 -4.3607 -2.0010 0.9710
6.5157 -2.7286 -1.9997 0.9711
6.7320 -2.1354 -1.9994 0.9711
7.0537 -0.2745 -1.9984 0.9711
6.8716 1.6044 -1.9976 0.9711
6.7002 2.2114 -1.9974 0.9711
6.1992 3.3677 -1.9972 0.9711
5.8735 3.9077 -1.9971 0.9711
5.5010 4.4165 -1.9971 0.9711
5.0846 4.8902 -1.9971 0.9711
4.6277 5.3248 -1.9972 0.9711
3.6071 6.0638 -1.9974 0.9711
1.8714 6.8050 -1.9980 0.9711
0.6311 7.0314 -1.9985 0.9711
-0.6300 7.0339 -1.9992 0.9711
-1.2558 6.9508 -1.9996 0.9711
-1.8719 6.8122 -2.0000 0.9711
-2.4733 6.6192 -2.0004 0.9711
-3.0552 6.3732 -2.0008 0.9710
-4.1420 5.7306 -2.0017 0.9710
-4.6382 5.3390 -2.0021 0.9710
-5.0976 4.9045 -2.0026 0.9710
-5.5164 4.4307 -2.0030 0.9710
-5.8913 3.9212 -2.0034 0.9710
-6.2192 3.3801 -2.0038 0.9710
-6.4976 2.8117 -2.0043 0.9710
-7.0757 0.3592 -2.0057 0.9710
-7.0286 -0.9055 -2.0062 0.9710
-6.7568 -2.1418 -2.0066 0.9710
-6.5390 -2.7369 -2.0068 0.9710
-6.2689 -3.3101 -2.0069 0.9710
-5.1675 -4.8536 -2.0070 0.9710
-4.7133 -5.2955 -2.0069 0.9710
-4.2214 -5.6950 -2.0068 0.9710
-2.5603 -6.6087 -2.0064 0.9710
-1.3435 -6.9570 -2.0059 0.9710
-0.7167 -7.0481 -2.0056 0.9710
-0.0844 -7.0828 -2.0052 0.9710
2.3989 -6.6590 -2.0037 0.9710
2.9833 -6.4169 -2.0033 0.9710
3.5437 -6.1235 -2.0029 0.9710
4.5745 -5.3931 -2.0020 0.9710
5.0367 -4.9619 -2.0015 0.9710
5.4585 -4.4913 -2.0011 0.9710
6.1678 -3.4472 -2.0003 0.9711
6.6800 -2.2941 -1.9995 0.9711
6.8569 -1.6881 -1.9991 0.9711
7.0455 -0.4412 -1.9984 0.9711
6.9078 1.4415 -1.9977 0.9711
6.2772 3.2202 -1.9972 0.9711
5.9643 3.7677 -1.9971 0.9711
4.2679 5.6176 -1.9972 0.9711
3.7494 5.9767 -1.9973 0.9711
3.2009 6.2881 -1.9975 0.9711
2.6268 6.5495 -1.9977 0.9711
2.0317 6.7587 -1.9979 0.9711
1.4202 6.9140 -1.9982 0.9711
0.7972 7.0142 -1.9985 0.9711
-0.4635 7.0465 -1.9991 0.9711
-1.7102 6.8542 -1.9999 0.9711
-2.3160 6.6755 -2.0003 0.9711
-3.4680 6.1596 -2.0011 0.9710
-5.4098 4.5596 -2.0029 0.9710
-6.1372 3.5260 -2.0037 0.9710
-6.4597 0.8772 -2.0051 0.9731
-6.5132 0.2969 -2.0054 0.9731
-6.5145 -0.2860 -2.0057 0.9731
-6.2076 -2.0031 -2.0063 0.9731
-6.0043 -2.5496 -2.0064 0.9731
-5.4554 -3.5774 -2.0066 0.9731
-4.7321 -4.4908 -2.0066 0.9731
-4.3120 -4.8954 -2.0065 0.9731
-3.3721 -5.5838 -2.0063 0.9731
-2.3246 -6.0936 -2.0060 0.9731
-1.7709 -6.2762 -2.0058 0.9731
-0.6260 -6.4894 -2.0053 0.9731
-0.0440 -6.5184 -2.0050 0.9731
0.5382 -6.4953 -2.0046 0.9731
1.1159 -6.4201 -2.0043 0.9731
1.6845 -6.2937 -2.0039 0.9731
2.2394 -6.1170 -2.0036 0.9731
3.7784 -5.3015 -2.0024 0.9731
4.2359 -4.9418 -2.0020 0.9731
4.6593 -4.5429 -2.0016 0.9731
5.0454 -4.1078 -2.0012 0.9731
5.3910 -3.6401 -2.0008 0.9731
5.9503 -2.6221 -2.0000 0.9732
6.1596 -2.0798 -1.9996 0.9732
6.4292 -0.9506 -1.9990 0.9732
6.4875 -0.3726 -1.9987 0.9732
6.4487 0.7872 -1.9982 0.9732
6.3520 1.3598 -1.9980 0.9732
5.7632 2.9942 -1.9976 0.9732
5.4726 3.4968 -1.9975 0.9732
4.7631 4.4145 -1.9975 0.9732
4.3500 4.8223 -1.9975 0.9732
3.9021 5.1917 -1.9976 0.9732
3.4231 5.5197 -1.9977 0.9732
2.9167 5.8038 -1.9979 0.9732
2.3869 6.0416 -1.9980 0.9732
1.8381 6.2313 -1.9982 0.9732
0.1207 6.4982 -1.9990 0.9732
-1.0375 6.4181 -1.9997 0.9732
-1.6068 6.3010 -2.0001 0.9732
-2.7031 5.9169 -2.0008 0.9731
-3.2213 5.6530 -2.0012 0.9731
-3.7140 5.3438 -2.0016 0.9731
-4.1773 4.9918 -2.0020 0.9731
-4.6073 4.5997 -2.0024 0.9731
-5.0007 4.1707 -2.0028 0.9731
-5.3542 3.7082 -2.0032 0.9731
-6.1490 2.1576 -2.0044 0.9731
-6.3182 1.6001 -2.0047 0.9731
-6.5192 -0.1319 -2.0056 0.9731
-6.2531 -1.8557 -2.0062 0.9731
-6.0628 -2.4069 -2.0064 0.9731
-5.5384 -3.4473 -2.0065 0.9731
-5.2085 -3.9282 -2.0066 0.9731
-3.9808 -5.1680 -2.0065 0.9731
-3.5032 -5.5026 -2.0064 0.9731
-1.9189 -6.2327 -2.0058 0.9731
-1.3545 -6.3784 -2.0056 0.9731
-0.1981 -6.5158 -2.0051 0.9731
0.3845 -6.5064 -2.0047 0.9731
0.9638 -6.4450 -2.0044 0.9731
2.0942 -6.1685 -2.0037 0.9731
2.6362 -5.9557 -2.0033 0.9731
3.1569 -5.6954 -2.0029 0.9731
5.6178 -3.2775 -2.0005 0.9731
6.1090 -2.2250 -1.9997 0.9732
6.4052 -1.1024 -1.9991 0.9732
6.4771 -0.5259 -1.9988 0.9732
6.4973 0.0546 -1.9985 0.9732
6.4657 0.6345 -1.9983 0.9732
6.2485 1.7743 -1.9979 0.9732
6.0646 2.3250 -1.9977 0.9732
5.5538 3.3664 -1.9975 0.9732
3.5526 5.4371 -1.9977 0.9732
2.5291 5.9833 -1.9980 0.9732
1.4247 6.3392 -1.9984 0.9732
0.8530 6.4419 -1.9987 0.9732
0.2743 6.4933 -1.9990 0.9732
-0.8854 6.4406 -1.9996 0.9732
-2.0178 6.1826 -2.0003 0.9732
-3.0866 5.7272 -2.0011 0.9731
-3.5865 5.4298 -2.0015 0.9731
-5.2647 3.8336 -2.0031 0.9731
-6.1179 -2.2628 -2.0063 0.9731
-5.6183 -3.3154 -2.0065 0.9731
-5.3000 -3.8040 -2.0066 0.9731
-4.5387 -4.6861 -2.0066 0.9731
-2.6102 -5.9772 -2.0061 0.9731
-0.9322 -6.4530 -2.0054 0.9731
0.8112 -6.4663 -2.0045 0.9731
1.3852 -6.3669 -2.0041 0.9731
1.9479 -6.2166 -2.0038 0.9731
3.0215 -5.7687 -2.0030 0.9731
4.4398 -4.7586 -2.0018 0.9731
5.2134 -3.8913 -2.0010 0.9731
5.5390 -3.4096 -2.0006 0.9731
6.0549 -2.3690 -1.9998 0.9732
6.2412 -1.8184 -1.9995 0.9732
6.3776 -1.2536 -1.9992 0.9732
6.4970 -0.0991 -1.9986 0.9732
6.4791 0.4815 -1.9983 0.9732
6.2888 1.6260 -1.9979 0.9732
5.8984 2.7185 -1.9976 0.9732
5.6319 3.2342 -1.9976 0.9732
4.5730 4.6112 -1.9975 0.9732
4.1431 5.0013 -1.9976 0.9732
3.6801 5.3515 -1.9977 0.9732
2.1305 6.1371 -1.9981 0.9732
0.4278 6.4847 -1.9989 0.9732
-0.1531 6.4980 -1.9992 0.9732
-0.7329 6.4594 -1.9995 0.9732
-1.3070 6.3693 -1.9999 0.9732
-1.8709 6.2282 -2.0002 0.9732
-2.4201 6.0374 -2.0006 0.9731
-3.9362 5.1831 -2.0018 0.9731
-4.3842 4.8119 -2.0022 0.9731
-4.7974 4.4020 -2.0026 0.9731
-5.7960 2.9747 -2.0038 0.9731
-6.0396 2.4457 -2.0042 0.9731
-6.2349 1.8969 -2.0045 0.9731
-6.3805 1.3327 -2.0049 0.9731
-6.4750 0.7577 -2.0052 0.9731
-6.5083 -0.4063 -2.0057 0.9731
-6.3335 -1.5579 -2.0061 0.9731
-5.6951 -3.1816 -2.0065 0.9731
-5.3884 -3.6776 -2.0066 0.9731
-5.0385 -4.1441 -2.0066 0.9731
-4.2208 -4.9742 -2.0065 0.9731
-2.7509 -5.9139 -2.0062 0.9731
-2.2115 -6.1354 -2.0060 0.9731
-1.6546 -6.3077 -2.0057 0.9731
-1.0846 -6.4294 -2.0055 0.9731
0.0764 -6.5179 -2.0049 0.9731
0.6581 -6.4840 -2.0046 0.9731
2.3519 -6.0743 -2.0035 0.9731
2.8844 -5.8389 -2.0031 0.9731
3.8755 -5.2305 -2.0023 0.9731
4.3263 -4.8625 -2.0019 0.9731
5.1202 -4.0138 -2.0011 0.9731
5.9975 -2.5116 -1.9999 0.9732
6.1968 -1.9656 -1.9996 0.9732
6.4931 -0.2527 -1.9987 0.9732
6.4889 0.3281 -1.9984 0.9732
6.3257 1.4769 -1.9980 0.9732
5.7068 3.1002 -1.9976 0.9732
5.4070 3.5973 -1.9975 0.9732
5.0641 4.0657 -1.9975 0.9732
4.6808 4.5018 -1.9975 0.9732
2.8090 5.8568 -1.9979 0.9732
2.2750 6.0848 -1.9981 0.9732
0.5810 6.4725 -1.9988 0.9732
-1.1560 6.3981 -1.9998 0.9732
-2.8121 5.8661 -2.0009 0.9731
-3.3254 5.5927 -2.0013 0.9731
-3.8123 5.2745 -2.0017 0.9731
-4.2690 4.9139 -2.0021 0.9731
-4.6917 4.5140 -2.0025 0.9731
-5.0771 4.0778 -2.0029 0.9731
-5.4220 3.6088 -2.0033 0.9731
-6.3469 1.4832 -2.0048 0.9731
-6.5115 0.3306 -2.0054 0.9731
-6.5159 -0.2523 -2.0056 0.9731
-6.4680 -0.8333 -2.0059 0.9731
-6.2178 -1.9710 -2.0062 0.9731
-5.4738 -3.5491 -2.0066 0.9731
-5.1351 -4.0238 -2.0066 0.9731
-4.7552 -4.4663 -2.0066 0.9731
-4.3373 -4.8730 -2.0065 0.9731
-3.4009 -5.5663 -2.0063 0.9731
-1.2363 -6.4022 -2.0056 0.9731
-0.0777 -6.5182 -2.0050 0.9731
0.5046 -6.4980 -2.0047 0.9731
1.0827 -6.4259 -2.0043 0.9731
1.6519 -6.3024 -2.0040 0.9731
2.2077 -6.1285 -2.0036 0.9731
3.2615 -5.6358 -2.0028 0.9731
5.0241 -4.1339 -2.0012 0.9731
6.1488 -2.1117 -1.9997 0.9732
6.3118 -1.5539 -1.9993 0.9732
6.4243 -0.9839 -1.9990 0.9732
6.4527 0.7539 -1.9982 0.9732
6.0205 2.4366 -1.9977 0.9732
5.1588 3.9448 -1.9975 0.9732
4.7859 4.3898 -1.9975 0.9732
4.3748 4.7997 -1.9975 0.9732
3.9289 5.1714 -1.9976 0.9732
2.9466 5.7886 -1.9978 0.9732
1.8702 6.2216 -1.9982 0.9732
0.7338 6.4567 -1.9987 0.9732
0.1543 6.4974 -1.9990 0.9732
-0.4266 6.4863 -1.9993 0.9732
-2.1317 6.1445 -2.0004 0.9731
-3.1920 5.6695 -2.0012 0.9731
-3.6863 5.3628 -2.0016 0.9731
-4.1513 5.0132 -2.0020 0.9731
-4.5834 4.6234 -2.0024 0.9731
-4.9790 4.1965 -2.0028 0.9731
-6.0259 0.2747 -2.0051 0.9749
-5.9801 -0.8019 -2.0056 0.9749
-5.7430 -1.8532 -2.0059 0.9749
-5.5549 -2.3588 -2.0061 0.9749
-5.3223 -2.8456 -2.0062 0.9749
-5.0471 -3.3096 -2.0062 0.9749
-4.7314 -3.7472 -2.0062 0.9749
-3.5688 -4.8669 -2.0061 0.9749
-3.1197 -5.1659 -2.0060 0.9749
-2.6457 -5.4235 -2.0059 0.9749
-0.5792 -6.0040 -2.0050 0.9749
0.4980 -6.0095 -2.0044 0.9749
3.0447 -5.1990 -2.0027 0.9749
3.4961 -4.9054 -2.0023 0.9749
3.9195 -4.5728 -2.0020 0.9749
4.3114 -4.2037 -2.0016 0.9749
4.6687 -3.8011 -2.0012 0.9749
4.9886 -3.3684 -2.0009 0.9749
5.7001 -1.9247 -1.9998 0.9750
5.9497 -0.8797 -1.9992 0.9750
6.0037 -0.3448 -1.9990 0.9750
5.9679 0.7285 -1.9985 0.9750
5.8784 1.2584 -1.9983 0.9750
5.7421 1.7782 -1.9981 0.9750
5.0647 3.2362 -1.9979 0.9750
4.7554 3.6755 -1.9978 0.9750
4.4081 4.0855 -1.9978 0.9750
3.1679 5.1083 -1.9980 0.9750
1.7010 5.7667 -1.9985 0.9750
1.1794 5.8962 -1.9987 0.9750
0.1117 6.0135 -1.9993 0.9750
-0.9601 5.9393 -1.9999 0.9750
-2.0020 5.6757 -2.0006 0.9750
-2.5013 5.4752 -2.0009 0.9749
-3.4367 4.9447 -2.0017 0.9749
-3.8653 4.6189 -2.0020 0.9749
-4.2631 4.2561 -2.0024 0.9749
-4.6270 3.8591 -2.0028 0.9749
-5.4874 2.4959 -2.0039 0.9749
-5.9555 0.9527 -2.0048 0.9749
-5.9148 -1.1933 -2.0057 0.9749
-5.3881 -2.7189 -2.0061 0.9749
-4.8187 -3.6342 -2.0062 0.9749
-4.4749 -4.0500 -2.0062 0.9749
-4.0953 -4.4334 -2.0062 0.9749
-3.2410 -5.0908 -2.0060 0.9749
-2.7733 -5.3595 -2.0059 0.9749
-2.2834 -5.5853 -2.0058 0.9749
-1.7753 -5.7664 -2.0056 0.9749
1.4205 -5.8587 -2.0039 0.9749
1.9377 -5.7075 -2.0035 0.9749
2.9210 -5.2698 -2.0028 0.9749
3.3793 -4.9870 -2.0024 0.9749
3.8105 -4.6644 -2.0021 0.9749
4.2110 -4.3047 -2.0017 0.9749
4.5777 -3.9107 -2.0013 0.9749
5.4476 -2.5560 -2.0002 0.9750
5.9836 0.5872 -1.9985 0.9750
5.9067 1.1191 -1.9984 0.9750
5.7827 1.6420 -1.9982 0.9750
4.5035 3.9801 -1.9978 0.9750
3.7238 4.7179 -1.9979 0.9750
2.8254 5.3057 -1.9981 0.9750
2.3405 5.5373 -1.9983 0.9750
1.8369 5.7247 -1.9985 0.9750
0.7894 5.9615 -1.9989 0.9750
0.2539 6.0090 -1.9992 0.9750
-1.8672 5.7212 -2.0005 0.9750
-2.3711 5.5325 -2.0008 0.9749
-4.5343 3.9672 -2.0027 0.9749
-4.8713 3.5471 -2.0031 0.9749
-5.4266 2.6249 -2.0038 0.9749
-5.8089 1.6182 -2.0044 0.9749
-5.9310 1.0932 -2.0047 0.9749
-6.0058 0.5592 -2.0050 0.9749
-6.0110 -0.5182 -2.0055 0.9749
-5.9413 -1.0530 -2.0057 0.9749
-5.8240 -1.5795 -2.0059 0.9749
-5.6601 -2.0935 -2.0060 0.9749
-5.4508 -2.5907 -2.0061 0.9749
-4.5694 -3.9431 -2.0062 0.9749
-4.1990 -4.3354 -2.0062 0.9749
-3.7949 -4.6929 -2.0062 0.9749
-2.8993 -5.2926 -2.0060 0.9749
-1.9112 -5.7229 -2.0056 0.9749
-0.8625 -5.9703 -2.0052 0.9749
-0.3258 -6.0227 -2.0049 0.9749
0.2133 -6.0268 -2.0046 0.9749
0.7505 -5.9828 -2.0043 0.9749
1.2816 -5.8909 -2.0040 0.9749
3.2606 -5.0657 -2.0025 0.9749
3.6993 -4.7534 -2.0022 0.9749
4.1082 -4.4032 -2.0018 0.9749
5.3859 -2.6843 -2.0003 0.9750
5.6032 -2.1922 -2.0000 0.9750
5.7756 -1.6828 -1.9997 0.9750
5.9811 -0.6283 -1.9991 0.9750
5.9960 0.4456 -1.9986 0.9750
5.9317 0.9792 -1.9984 0.9750
5.8200 1.5048 -1.9982 0.9750
5.6620 2.0184 -1.9981 0.9750
5.4588 2.5158 -1.9980 0.9750
5.2121 2.9931 -1.9979 0.9750
3.4058 4.9526 -1.9980 0.9750
1.9716 5.6795 -1.9984 0.9750
0.9301 5.9410 -1.9989 0.9750
-0.6782 5.9775 -1.9997 0.9750
-1.2095 5.8940 -2.0000 0.9750
-1.7313 5.7634 -2.0004 0.9750
-3.1988 5.1012 -2.0015 0.9749
-3.6422 4.7960 -2.0018 0.9749
-4.0567 4.4524 -2.0022 0.9749
-4.4390 4.0731 -2.0026 0.9749
-4.7859 3.6611 -2.0030 0.9749
-5.0946 3.2197 -2.0033 0.9749
-5.5880 2.2628 -2.0040 0.9749
-5.7687 1.7550 -2.0043 0.9749
-5.9033 1.2331 -2.0046 0.9749
-5.9907 0.7010 -2.0049 0.9749
-6.0301 0.1633 -2.0052 0.9749
-5.5104 -2.4611 -2.0061 0.9749
-5.2689 -2.9435 -2.0062 0.9749
-4.9851 -3.4023 -2.0062 0.9749
-4.3003 -4.2349 -2.0062 0.9749
-3.9049 -4.6019 -2.0062 0.9749
-3.4782 -4.9320 -2.0061 0.9749
-3.0237 -5.2226 -2.0060 0.9749
-2.5450 -5.4714 -2.0058 0.9749
-2.0461 -5.6763 -2.0057 0.9749
-1.0034 -5.9484 -2.0052 0.9749
-0.4682 -6.0135 -2.0050 0.9749
0.0707 -6.0304 -2.0047 0.9749
0.6089 -5.9991 -2.0044 0.9749
1.1420 -5.9198 -2.0041 0.9749
4.0032 -4.4994 -2.0019 0.9749
4.3881 -4.1231 -2.0015 0.9749
4.7380 -3.7141 -2.0011 0.9749
5.7345 -1.8190 -1.9998 0.9750
6.0089 -0.2338 -1.9989 0.9750
6.0051 0.3037 -1.9987 0.9750
5.2814 2.8691 -1.9979 0.9750
5.0040 3.3292 -1.9978 0.9750
4.3319 4.1662 -1.9978 0.9750
3.9426 4.5365 -1.9979 0.9750
3.5219 4.8707 -1.9980 0.9750
1.5942 5.7972 -1.9986 0.9750
1.0703 5.9171 -1.9988 0.9750
-1.0697 5.9207 -1.9999 0.9750
-1.5945 5.8025 -2.0003 0.9750
-2.1066 5.6379 -2.0006 0.9749
-2.6022 5.4282 -2.0010 0.9749
-3.0771 5.1751 -2.0014 0.9749
-3.5276 4.8806 -2.0017 0.9749
-3.9501 4.5469 -2.0021 0.9749
-4.6977 3.7731 -2.0029 0.9749
-5.2959 2.8782 -2.0036 0.9749
-5.5327 2.3942 -2.0039 0.9749
-6.0244 0.3058 -2.0051 0.9749
-5.9841 -0.7709 -2.0056 0.9749
-5.8919 -1.3024 -2.0058 0.9749
-5.7525 -1.8235 -2.0059 0.9749
-5.5670 -2.3301 -2.0061 0.9749
-5.0641 -3.2835 -2.0062 0.9749
-4.7507 -3.7226 -2.0062 0.9749
-4.3993 -4.1320 -2.0062 0.9749
-4.0126 -4.5083 -2.0062 0.9749
-3.5939 -4.8484 -2.0061 0.9749
-3.1464 -5.1497 -2.0060 0.9749
-1.6684 -5.7981 -2.0055 0.9749
-0.6102 -6.0010 -2.0050 0.9749
-0.0719 -6.0306 -2.0048 0.9749
1.5284 -5.8312 -2.0038 0.9749
2.5405 -5.4644 -2.0031 0.9749
3.4708 -4.9235 -2.0024 0.9749
3.8958 -4.5930 -2.0020 0.9749
4.2896 -4.2260 -2.0016 0.9749
4.6490 -3.8253 -2.0012 0.9749
5.2535 -2.9362 -2.0005 0.9750
5.9452 -0.9105 -1.9992 0.9750
6.0019 -0.3759 -1.9990 0.9750
6.0107 0.1616 -1.9987 0.9750
5.9716 0.6977 -1.9985 0.9750
5.7513 1.7485 -1.9982 0.9750
4.7743 3.6508 -1.9978 0.9750
4.0488 4.4420 -1.9979 0.9750
3.6360 4.7860 -1.9979 0.9750
3.1943 5.0918 -1.9980 0.9750
2.7270 5.3571 -1.9982 0.9750
2.2379 5.5797 -1.9983 0.9750
1.2098 5.8900 -1.9987 0.9750
0.1428 6.0128 -1.9993 0.9750
-0.3948 6.0024 -1.9995 0.9750
-3.4111 4.9624 -2.0016 0.9749
-3.8413 4.6388 -2.0020 0.9749
-4.6070 3.8829 -2.0028 0.9749
-4.9362 3.4566 -2.0031 0.9749
-5.2261 3.0025 -2.0035 0.9749
-5.6007 0.2553 -2.0049 0.9765
-5.5579 -0.7453 -2.0053 0.9765
-5.3376 -1.7224 -2.0057 0.9765
-4.6907 -3.0759 -2.0059 0.9765
-4.3973 -3.4826 -2.0059 0.9765
-4.0687 -3.8613 -2.0059 0.9765
-3.7076 -4.2092 -2.0059 0.9765
-2.8994 -4.8012 -2.0057 0.9765
-2.4589 -5.0406 -2.0056 0.9765
-1.0346 -5.5106 -2.0050 0.9765
0.4628 -5.5855 -2.0043 0.9765
1.9259 -5.2606 -2.0033 0.9765
2.3876 -5.0668 -2.0030 0.9765
3.6433 -4.2505 -2.0020 0.9765
4.0076 -3.9075 -2.0016 0.9765
4.3398 -3.5334 -2.0013 0.9765
4.6372 -3.1312 -2.0009 0.9765
5.1186 -2.2556 -2.0003 0.9765
5.4366 -1.3086 -1.9997 0.9765
5.5310 -0.8178 -1.9994 0.9765
5.5812 -0.3206 -1.9992 0.9765
5.1689 2.1231 -1.9983 0.9765
4.9584 2.5761 -1.9982 0.9765
3.7426 4.1490 -1.9982 0.9765
3.3572 4.4668 -1.9982 0.9765
2.9451 4.7489 -1.9983 0.9765
1.5813 5.3609 -1.9988 0.9765
0.6026 5.5580 -1.9992 0.9765
0.1039 5.5903 -1.9995 0.9765
-1.3822 5.4202 -2.0003 0.9765
-1.8610 5.2760 -2.0007 0.9765
-3.5929 4.2934 -2.0020 0.9765
-3.9626 3.9561 -2.0024 0.9765
-4.3008 3.5870 -2.0027 0.9765
-4.8720 2.7657 -2.0034 0.9765
-5.4333 1.3760 -2.0043 0.9765
-5.5929 0.3876 -2.0049 0.9765
-4.7621 -2.9641 -2.0059 0.9765
-4.4785 -3.3776 -2.0059 0.9765
-3.8061 -4.1204 -2.0059 0.9765
-3.4228 -4.4437 -2.0059 0.9765
-2.5775 -4.9811 -2.0056 0.9765
-1.6500 -5.3593 -2.0053 0.9765
-1.1647 -5.4847 -2.0051 0.9765
-0.1704 -5.6031 -2.0046 0.9765
0.3306 -5.5951 -2.0044 0.9765
1.3203 -5.4455 -2.0038 0.9765
1.8010 -5.3049 -2.0034 0.9765
2.7151 -4.8983 -2.0028 0.9765
3.5419 -4.3357 -2.0021 0.9765
4.8324 -2.8193 -2.0007 0.9765
5.5103 -0.9484 -1.9995 0.9765
5.5723 -0.4525 -1.9992 0.9765
5.4911 1.0404 -1.9986 0.9765
5.3759 1.5265 -1.9985 0.9765
5.2178 2.0003 -1.9983 0.9765
5.0180 2.4582 -1.9982 0.9765
4.1867 3.7001 -1.9981 0.9765
3.4619 4.3861 -1.9982 0.9765
2.6267 4.9325 -1.9984 0.9765
1.2257 5.4537 -1.9989 0.9765
0.2360 5.5861 -1.9994 0.9765
-0.7617 5.5405 -2.0000 0.9765
-1.2536 5.4511 -2.0003 0.9765
-1.7357 5.3183 -2.0006 0.9765
-2.2041 5.1429 -2.0009 0.9765
-2.6550 4.9263 -2.0012 0.9765
-4.5279 3.2970 -2.0030 0.9765
-4.8050 2.8800 -2.0033 0.9765
-5.0438 2.4398 -2.0036 0.9765
-5.2424 1.9799 -2.0040 0.9765
-5.3990 1.5041 -2.0042 0.9765
-5.5820 0.5198 -2.0048 0.9765
-5.5218 -0.9787 -2.0054 0.9765
-5.4128 -1.4680 -2.0056 0.9765
-4.8308 -2.8507 -2.0059 0.9765
-4.5570 -3.2708 -2.0059 0.9765
-4.2468 -3.6647 -2.0059 0.9765
-3.5270 -4.3615 -2.0059 0.9765
-3.1233 -4.6589 -2.0058 0.9765
-2.6946 -4.9189 -2.0057 0.9765
-1.2941 -5.4558 -2.0052 0.9765
-0.3028 -5.5977 -2.0047 0.9765
2.1455 -5.1745 -2.0032 0.9765
2.5986 -4.9614 -2.0029 0.9765
3.4386 -4.4184 -2.0022 0.9765
4.4844 -3.3472 -2.0011 0.9765
4.7646 -2.9329 -2.0008 0.9765
5.0067 -2.4952 -2.0005 0.9765
5.2087 -2.0378 -2.0001 0.9765
5.4865 -1.0785 -1.9996 0.9765
