ply
format ascii 1.0
element vertex 1597
property float32 x
property float32 y
property float32 z
property float32 I
end_header
6.9258 3.4001 -1.9977 0.9686
6.5933 4.0030 -1.9971 0.9686
5.7748 5.1081 -1.9962 0.9686
3.6225 6.8001 -1.9949 0.9687
2.1776 6.7766 -1.8430 0.9710
0.3065 7.1111 -1.8429 0.9710
-0.3288 7.1105 -1.8430 0.9710
-0.9615 7.0534 -1.8431 0.9710
-1.5867 6.9403 -1.8433 0.9710
-2.1995 6.7721 -1.8436 0.9710
-2.4494 5.7400 -1.6159 0.9745
-3.3685 6.2760 -1.8442 0.9710
-4.4316 5.5804 -1.8450 0.9710
-5.3551 4.7070 -1.8460 0.9710
-5.7551 4.2120 -1.8465 0.9710
-6.9368 3.3786 -1.9978 0.9686
-7.2197 2.7502 -2.0003 0.9686
-7.5983 1.4251 -2.0016 0.9686
-7.6977 0.7422 -2.0023 0.9686
-7.6270 -1.3227 -2.0043 0.9685
-7.4810 -1.9981 -2.0049 0.9685
-6.6912 -3.9100 -2.0066 0.9685
-5.4215 -5.5452 -2.0079 0.9685
-4.9064 -6.0076 -2.0083 0.9685
-3.7625 -6.7854 -2.0089 0.9685
0.2281 -7.7567 -2.0092 0.9684
2.2720 -7.4175 -2.0086 0.9685
2.9239 -7.1843 -2.0083 0.9685
3.5521 -6.8937 -2.0079 0.9685
4.1518 -6.5482 -2.0075 0.9685
4.7180 -6.1505 -2.0070 0.9685
6.1725 -4.6789 -2.0054 0.9685
6.5632 -4.1087 -2.0048 0.9685
6.9012 -3.5060 -2.0042 0.9685
7.1840 -2.8758 -2.0036 0.9685
7.4094 -2.2231 -2.0029 0.9685
7.5756 -1.5531 -2.0023 0.9686
7.6814 -0.8712 -2.0016 0.9686
7.7259 -0.1828 -2.0009 0.9686
7.4917 1.8666 -1.9990 0.9686
5.4811 5.4207 -1.9960 0.9686
4.9750 5.8867 -1.9956 0.9687
4.4296 6.3058 -1.9953 0.9687
3.8492 6.6748 -1.9950 0.9687
2.4333 6.7808 -1.8653 0.9707
1.1760 7.0197 -1.8429 0.9710
0.5454 7.0967 -1.8429 0.9710
-0.0895 7.1174 -1.8430 0.9710
-1.9705 6.8419 -1.8435 0.9710
-2.5731 6.6399 -1.8438 0.9710
-3.1554 6.3852 -1.8441 0.9710
-3.7129 6.0797 -1.8445 0.9710
-4.2411 5.7257 -1.8449 0.9710
-5.1933 4.8839 -1.8458 0.9710
-6.0764 3.9477 -1.8761 0.9705
-6.8075 3.6037 -1.9943 0.9687
-7.3630 2.3448 -2.0007 0.9686
-7.5452 1.6796 -2.0014 0.9686
-7.5431 -1.7452 -2.0046 0.9685
-7.1174 -3.0591 -2.0058 0.9685
-6.8182 -3.6825 -2.0064 0.9685
-2.0854 -7.4749 -2.0093 0.9684
-0.7247 -7.7266 -2.0093 0.9684
-0.0329 -7.7601 -2.0093 0.9684
0.6591 -7.7317 -2.0091 0.9684
1.3457 -7.6414 -2.0089 0.9684
2.6808 -7.2789 -2.0084 0.9685
3.3186 -7.0097 -2.0081 0.9685
3.9296 -6.6846 -2.0077 0.9685
5.5545 -5.4024 -2.0062 0.9685
6.0124 -4.8843 -2.0057 0.9685
6.4220 -4.3275 -2.0051 0.9685
6.7802 -3.7365 -2.0045 0.9685
7.3314 -2.4713 -2.0032 0.9685
7.5201 -1.8072 -2.0025 0.9685
7.6487 -1.1291 -2.0019 0.9686
7.7226 0.2472 -2.0005 0.9686
7.6673 0.9344 -1.9999 0.9686
7.5511 1.6138 -1.9993 0.9686
7.3749 2.2800 -1.9987 0.9686
7.1402 2.9276 -1.9981 0.9686
6.1061 4.7092 -1.9965 0.9686
5.1705 5.7165 -1.9957 0.9687
4.6394 6.1537 -1.9954 0.9687
4.0717 6.5419 -1.9951 0.9687
3.4718 6.8781 -1.9949 0.9687
2.0278 6.8229 -1.8429 0.9710
0.7837 7.0743 -1.8429 0.9710
-1.1166 7.0307 -1.8432 0.9710
-1.7393 6.9039 -1.8434 0.9710
-4.0458 5.8645 -1.8447 0.9710
-4.5537 5.4818 -1.8452 0.9710
-5.0256 5.0552 -1.8456 0.9710
-5.8469 4.0845 -1.8467 0.9710
-6.6271 3.7988 -1.9778 0.9689
-7.2791 2.5907 -2.0005 0.9686
-7.4835 1.9321 -2.0011 0.9686
-7.6285 1.2575 -2.0018 0.9686
-7.6969 -0.8070 -2.0038 0.9685
-7.2155 -2.8177 -2.0056 0.9685
-5.7810 -5.1675 -2.0076 0.9685
-3.6122 -6.8668 -2.0089 0.9684
-2.9859 -7.1622 -2.0091 0.9684
0.3988 -7.7497 -2.0092 0.9684
4.2947 -6.4548 -2.0074 0.9685
4.8520 -6.0448 -2.0069 0.9685
5.3702 -5.5867 -2.0064 0.9685
6.2736 -4.5415 -2.0053 0.9685
7.6074 -1.3858 -2.0021 0.9686
7.2353 2.6862 -1.9983 0.9686
6.2615 4.5016 -1.9967 0.9686
5.8339 5.0409 -1.9963 0.9686
5.3601 5.5398 -1.9959 0.9687
4.8440 5.9946 -1.9955 0.9687
4.2896 6.4016 -1.9952 0.9687
3.7012 6.7577 -1.9949 0.9687
3.0764 7.0436 -1.9901 0.9687
1.6451 6.9249 -1.8429 0.9710
-0.2462 7.1137 -1.8430 0.9710
-0.8796 7.0640 -1.8431 0.9710
-1.8273 -6.8561 -2.0087 0.9709
-0.5805 -7.0717 -2.0087 0.9709
0.6846 -7.0617 -2.0085 0.9709
1.3114 -6.9719 -2.0083 0.9709
1.9276 -6.8264 -2.0081 0.9709
3.6637 -6.0700 -2.0071 0.9710
4.6816 -5.3205 -2.0063 0.9710
6.5110 -2.7743 -2.0036 0.9710
6.7305 -2.1821 -2.0030 0.9710
7.0068 -0.9514 -2.0018 0.9710
7.0601 0.3080 -2.0006 0.9710
6.8892 1.5562 -1.9994 0.9711
6.7093 2.1598 -1.9953 0.9711
5.9045 3.8623 -1.9974 0.9711
3.1030 6.3290 -1.9954 0.9711
2.5209 6.5662 -1.9911 0.9712
1.8077 6.3513 -1.8694 0.9729
1.2170 6.3971 -1.8434 0.9733
-2.6545 5.6833 -1.7758 0.9743
-3.2732 5.6350 -1.8448 0.9733
-3.7633 5.3218 -1.8452 0.9733
-4.2238 4.9661 -1.8456 0.9733
-5.0925 4.1812 -1.8653 0.9730
-6.1681 3.4412 -1.9995 0.9711
-6.6852 2.2923 -2.0007 0.9710
-6.8650 1.6876 -2.0013 0.9710
-7.0598 0.4418 -2.0025 0.9710
-7.0732 -0.1895 -2.0031 0.9710
-7.0302 -0.8197 -2.0037 0.9710
-6.3070 -3.2291 -2.0059 0.9710
-5.2310 -4.7862 -2.0072 0.9710
-4.7843 -5.2345 -2.0076 0.9709
-4.2992 -5.6411 -2.0079 0.9709
-2.0567 -6.7907 -2.0086 0.9709
-0.8180 -7.0482 -2.0087 0.9709
-0.1863 -7.0929 -2.0086 0.9709
2.8926 -6.4750 -2.0076 0.9709
3.4578 -6.1902 -2.0073 0.9710
3.9952 -5.8561 -2.0069 0.9710
5.3987 -4.5867 -2.0055 0.9710
5.7846 -4.0861 -2.0049 0.9710
6.4148 -2.9920 -2.0038 0.9710
6.6541 -2.4074 -2.0032 0.9710
6.8402 -1.8040 -2.0026 0.9710
6.9717 -1.1866 -2.0020 0.9710
7.0308 0.7001 -2.0002 0.9711
6.9383 1.3238 -1.9996 0.9711
6.5893 2.5337 -1.9985 0.9711
6.3355 3.1103 -1.9980 0.9711
5.6797 4.1842 -1.9971 0.9711
4.3675 5.5351 -1.9960 0.9711
2.7448 6.4885 -1.9944 0.9711
2.0974 6.5271 -1.9408 0.9719
1.4315 6.3526 -1.8435 0.9733
0.8593 6.4549 -1.8434 0.9733
0.2804 6.5059 -1.8435 0.9733
-2.4403 5.7189 -1.7602 0.9745
-3.0817 5.7415 -1.8447 0.9733
-4.0540 5.1049 -1.8454 0.9733
-4.8986 4.3058 -1.8463 0.9733
-5.5464 4.0592 -1.9457 0.9718
-6.0399 3.6412 -1.9965 0.9711
-6.3511 3.0933 -1.9999 0.9711
-6.6036 2.5155 -2.0005 0.9711
-6.8036 1.9173 -2.0011 0.9710
-6.9495 1.3034 -2.0017 0.9710
-7.0402 0.6788 -2.0023 0.9710
-7.0748 0.0484 -2.0029 0.9710
-6.9750 -1.2097 -2.0041 0.9710
-6.8413 -1.8273 -2.0046 0.9710
-6.6530 -2.4306 -2.0052 0.9710
-6.1186 -3.5754 -2.0062 0.9710
-5.7767 -4.1076 -2.0066 0.9710
-5.3886 -4.6073 -2.0070 0.9710
-4.4862 -5.4930 -2.0078 0.9709
-2.8735 -6.4867 -2.0085 0.9709
-2.2839 -6.7176 -2.0086 0.9709
-1.6759 -6.8947 -2.0087 0.9709
-1.0545 -7.0168 -2.0087 0.9709
-0.4247 -7.0827 -2.0087 0.9709
1.4646 -6.9412 -2.0083 0.9709
2.6734 -6.5690 -2.0077 0.9709
3.2479 -6.3034 -2.0074 0.9710
3.7963 -5.9875 -2.0070 0.9710
5.2420 -4.7661 -2.0057 0.9710
5.6446 -4.2787 -2.0051 0.9710
6.0019 -3.7573 -2.0046 0.9710
6.3113 -3.2063 -2.0040 0.9710
6.7764 -2.0332 -2.0028 0.9710
7.0255 -0.7968 -2.0016 0.9710
7.0665 -0.1672 -2.0010 0.9710
7.0511 0.4634 -2.0004 0.9711
6.8528 1.7074 -1.9993 0.9711
6.6714 2.3110 -1.9987 0.9711
6.4371 2.8958 -1.9982 0.9711
5.8177 3.9912 -1.9973 0.9711
4.5514 5.3855 -1.9961 0.9711
4.0525 5.7690 -1.9958 0.9711
3.5216 6.1066 -1.9956 0.9711
2.9628 6.3956 -1.9954 0.9711
2.3731 6.6131 -1.9890 0.9712
1.6443 6.3009 -1.8435 0.9733
1.0759 6.4223 -1.8434 0.9733
-0.0819 6.5116 -1.8435 0.9733
-1.2373 6.3945 -1.8438 0.9733
-1.8027 6.2594 -1.8440 0.9733
-2.3540 6.0746 -1.8443 0.9733
-2.8867 5.8414 -1.8446 0.9733
-3.8798 5.2379 -1.8453 0.9733
-4.7506 4.4676 -1.8461 0.9733
-6.7345 2.1447 -2.0008 0.9710
-7.0684 0.2862 -2.0026 0.9710
-6.8982 -1.5960 -2.0044 0.9710
-6.7302 -2.2053 -2.0050 0.9710
-6.5085 -2.7974 -2.0055 0.9710
-5.5400 -4.4232 -2.0069 0.9710
-5.1246 -4.9005 -2.0073 0.9710
-4.6681 -5.3388 -2.0076 0.9709
-4.1741 -5.7346 -2.0079 0.9709
-3.0899 -6.3863 -2.0084 0.9709
-1.2898 -6.9773 -2.0087 0.9709
-0.6626 -7.0645 -2.0087 0.9709
0.6026 -7.0692 -2.0085 0.9709
1.2304 -6.9868 -2.0083 0.9709
2.4512 -6.6555 -2.0078 0.9709
3.5931 -6.1123 -2.0072 0.9710
4.1229 -5.7664 -2.0068 0.9710
4.6196 -5.3746 -2.0063 0.9710
5.4981 -4.4665 -2.0053 0.9710
5.8728 -3.9574 -2.0048 0.9710
6.2005 -3.4171 -2.0042 0.9710
6.4786 -2.8498 -2.0037 0.9710
6.8777 -1.6528 -2.0025 0.9710
6.9956 -1.0327 -2.0019 0.9710
7.0635 0.2261 -2.0007 0.9710
6.7460 2.0856 -1.9989 0.9711
6.5315 2.6780 -1.9984 0.9711
6.2651 3.2489 -1.9979 0.9711
5.5859 4.3080 -1.9970 0.9711
4.7302 5.2297 -1.9962 0.9711
4.2444 5.6298 -1.9959 0.9711
3.7251 5.9850 -1.9957 0.9711
2.5984 6.5402 -1.9923 0.9712
1.2912 6.3825 -1.8435 0.9733
-2.1483 6.1500 -1.8442 0.9733
-2.5825 5.7009 -1.7718 0.9743
-3.2075 5.6725 -1.8448 0.9733
-3.7012 5.3650 -1.8451 0.9733
-4.5973 4.6244 -1.8460 0.9733
-5.7369 4.0077 -1.9811 0.9713
-6.1246 3.5108 -1.9985 0.9711
-6.4182 2.9530 -2.0000 0.9711
-6.6579 2.3696 -2.0006 0.9710
-7.0540 0.5236 -2.0024 0.9710
-7.0747 -0.1074 -2.0030 0.9710
-6.7999 -1.9776 -2.0048 0.9710
-6.3438 -3.1555 -2.0058 0.9710
-6.0387 -3.7095 -2.0063 0.9710
-5.2861 -4.7251 -2.0071 0.9710
-4.8446 -5.1785 -2.0075 0.9710
-4.3643 -5.5907 -2.0078 0.9709
-2.7300 -6.5486 -2.0085 0.9709
-2.1354 -6.7663 -2.0086 0.9709
-1.5237 -6.9300 -2.0087 0.9709
-0.8997 -7.0383 -2.0087 0.9709
-0.2686 -7.0903 -2.0087 0.9709
0.3646 -7.0857 -2.0086 0.9709
0.9949 -7.0244 -2.0084 0.9709
1.6170 -6.9071 -2.0082 0.9709
2.2262 -6.7345 -2.0080 0.9709
3.3858 -6.2300 -2.0073 0.9710
4.4367 -5.5274 -2.0065 0.9710
4.9107 -5.1086 -2.0060 0.9710
6.0828 -3.6240 -2.0044 0.9710
6.6259 -2.4846 -2.0033 0.9710
6.8190 -1.8833 -2.0027 0.9710
7.0408 -0.6419 -2.0015 0.9710
6.8130 1.8577 -1.9991 0.9711
6.3714 3.0367 -1.9981 0.9711
5.3370 4.6115 -1.9967 0.9711
4.9037 5.0680 -1.9964 0.9711
4.4315 5.4842 -1.9960 0.9711
3.3862 6.1825 -1.9955 0.9711
2.8212 6.4592 -1.9954 0.9711
1.5051 6.3356 -1.8435 0.9733
0.9342 6.4444 -1.8434 0.9733
-0.2253 6.5083 -1.8436 0.9733
-0.8047 6.4627 -1.8437 0.9733
-1.6814 -6.3086 -2.0081 0.9730
0.0481 -6.5285 -2.0081 0.9730
1.2067 -6.4153 -2.0078 0.9731
2.3264 -6.0975 -2.0073 0.9731
3.3714 -5.5856 -2.0067 0.9731
4.3081 -4.8961 -2.0059 0.9731
5.1069 -4.0512 -2.0050 0.9731
5.9923 -2.5533 -2.0034 0.9731
6.4490 -0.8757 -2.0018 0.9731
6.3414 1.4324 -1.9996 0.9732
5.7320 3.0574 -1.9982 0.9732
4.7157 4.4627 -1.9970 0.9732
4.2983 4.8646 -1.9967 0.9732
2.8567 5.8266 -1.9960 0.9732
1.1346 5.9638 -1.8672 0.9749
0.0566 5.9950 -1.8440 0.9752
-0.4781 5.9764 -1.8441 0.9752
-2.0433 5.6385 -1.8446 0.9752
-2.5383 5.4346 -1.8449 0.9752
-3.0133 5.1875 -1.8452 0.9752
-3.8882 4.5716 -1.8459 0.9752
-5.3700 3.6594 -1.9987 0.9732
-5.6777 3.1676 -1.9997 0.9732
-5.9390 2.6494 -2.0002 0.9732
-6.1533 2.1099 -2.0008 0.9731
-6.3788 -1.3286 -2.0041 0.9731
-6.2365 -1.8925 -2.0046 0.9731
-5.8040 -2.9715 -2.0056 0.9731
-5.5171 -3.4780 -2.0060 0.9731
-5.1861 -3.9568 -2.0064 0.9731
-4.4024 -4.8167 -2.0071 0.9731
-3.9560 -5.1908 -2.0074 0.9731
-2.4420 -6.0545 -2.0080 0.9730
-1.8925 -6.2484 -2.0081 0.9730
-0.1714 -6.5265 -2.0081 0.9730
0.4112 -6.5155 -2.0080 0.9730
0.9904 -6.4524 -2.0079 0.9731
1.5616 -6.3378 -2.0077 0.9731
2.1202 -6.1726 -2.0074 0.9731
2.6617 -5.9582 -2.0072 0.9731
3.1819 -5.6962 -2.0068 0.9731
3.6764 -5.3888 -2.0065 0.9731
6.1240 -2.2156 -2.0031 0.9731
6.4166 -1.0921 -2.0020 0.9731
6.5050 0.0649 -2.0009 0.9731
6.4715 0.6444 -2.0003 0.9732
6.3866 1.2185 -1.9998 0.9732
6.2509 1.7827 -1.9993 0.9732
6.0655 2.3323 -1.9988 0.9732
5.5523 3.3710 -1.9979 0.9732
4.8634 4.3019 -1.9971 0.9732
3.0511 5.7275 -1.9960 0.9732
1.9813 6.1658 -1.9920 0.9733
0.2582 5.9896 -1.8440 0.9752
-0.2769 5.9890 -1.8441 0.9752
-0.8099 5.9408 -1.8442 0.9752
-1.3364 5.8455 -1.8443 0.9752
-1.8525 5.7037 -1.8446 0.9752
-2.3540 5.5166 -1.8448 0.9752
-2.8369 5.2855 -1.8451 0.9752
-3.2975 5.0124 -1.8454 0.9752
-5.2372 3.8330 -1.9962 0.9732
-5.8460 2.8473 -2.0000 0.9732
-6.0782 2.3154 -2.0006 0.9731
-6.2622 1.7647 -2.0011 0.9731
-6.4796 0.6248 -2.0022 0.9731
-6.5113 0.0445 -2.0028 0.9731
-6.4912 -0.5363 -2.0033 0.9731
-6.4192 -1.1133 -2.0039 0.9731
-6.2960 -1.6816 -2.0044 0.9731
-6.1225 -2.2368 -2.0049 0.9731
-5.9001 -2.7745 -2.0054 0.9731
-5.6305 -3.2902 -2.0058 0.9731
-4.9586 -4.2396 -2.0066 0.9731
-4.5616 -4.6657 -2.0070 0.9731
-3.6615 -5.4032 -2.0075 0.9731
-3.1655 -5.7088 -2.0078 0.9731
-1.5421 -6.3441 -2.0081 0.9730
0.1919 -6.5258 -2.0081 0.9730
1.9116 -6.2407 -2.0075 0.9731
2.4600 -6.0446 -2.0073 0.9731
3.9700 -5.1754 -2.0062 0.9731
4.8239 -4.3861 -2.0054 0.9731
5.1945 -3.9375 -2.0049 0.9731
5.5236 -3.4579 -2.0044 0.9731
6.0467 -2.4205 -2.0033 0.9731
6.3769 -1.3074 -2.0022 0.9731
6.5041 -0.1539 -2.0011 0.9731
6.4246 1.0032 -2.0000 0.9732
6.3079 1.5716 -1.9995 0.9732
5.9256 2.6657 -1.9985 0.9732
5.6630 3.1827 -1.9981 0.9732
5.3555 3.6741 -1.9976 0.9732
4.6161 4.5653 -1.9969 0.9732
4.1900 4.9579 -1.9966 0.9732
3.2420 5.6219 -1.9961 0.9732
2.7276 5.8880 -1.9959 0.9732
0.9905 5.9126 -1.8439 0.9752
-0.0754 5.9948 -1.8440 0.9752
-1.1391 5.8869 -1.8443 0.9752
-2.1671 5.5923 -1.8447 0.9752
-6.3517 1.4139 -2.0015 0.9731
-6.5055 0.2634 -2.0026 0.9731
-6.5049 -0.3177 -2.0031 0.9731
-6.4524 -0.8967 -2.0037 0.9731
-6.1937 -2.0295 -2.0047 0.9731
-5.0980 -4.0702 -2.0065 0.9731
-4.2955 -4.9127 -2.0072 0.9731
-2.8432 -5.8763 -2.0079 0.9731
-1.7545 -6.2886 -2.0081 0.9730
-1.1868 -6.4201 -2.0082 0.9730
-0.0277 -6.5286 -2.0081 0.9730
1.1322 -6.4289 -2.0078 0.9731
1.7007 -6.3017 -2.0076 0.9731
2.2555 -6.1242 -2.0074 0.9731
2.7922 -5.8979 -2.0071 0.9731
4.6742 -4.5462 -2.0055 0.9731
5.0597 -4.1104 -2.0051 0.9731
5.7064 -3.1448 -2.0040 0.9731
6.4387 -0.9505 -2.0019 0.9731
6.5015 0.2081 -2.0008 0.9731
6.4553 0.7867 -2.0002 0.9732
6.0124 2.4652 -1.9987 0.9732
5.4765 3.4923 -1.9978 0.9732
5.1423 3.9658 -1.9974 0.9732
3.9074 5.1828 -1.9964 0.9732
3.4294 5.5099 -1.9962 0.9732
2.3958 6.0303 -1.9958 0.9732
1.2142 6.0016 -1.8834 0.9747
-0.9405 5.9217 -1.8442 0.9752
-1.4649 5.8148 -1.8444 0.9752
-1.9777 5.6617 -1.8446 0.9752
-3.4072 4.9388 -1.8455 0.9752
-3.8348 4.6163 -1.8459 0.9752
-4.9559 4.1663 -1.9914 0.9733
-5.3248 3.7198 -1.9978 0.9732
-5.6403 3.2331 -1.9996 0.9732
-5.9077 2.7181 -2.0002 0.9732
-6.1282 2.1811 -2.0007 0.9731
-6.3000 1.6265 -2.0013 0.9731
-6.4217 1.0586 -2.0018 0.9731
-6.4923 0.4819 -2.0024 0.9731
-6.3935 -1.2544 -2.0040 0.9731
-5.2316 -3.8962 -2.0063 0.9731
-4.8642 -4.3480 -2.0067 0.9731
-4.4580 -4.7652 -2.0071 0.9731
-4.0159 -5.1444 -2.0074 0.9731
-3.5417 -5.4827 -2.0076 0.9731
-2.5120 -6.0257 -2.0080 0.9730
-1.9649 -6.2260 -2.0081 0.9730
-1.4020 -6.3766 -2.0081 0.9730
-0.8279 -6.4762 -2.0082 0.9730
-0.2472 -6.5241 -2.0081 0.9730
0.3355 -6.5199 -2.0080 0.9730
0.9154 -6.4636 -2.0079 0.9731
1.4879 -6.3556 -2.0077 0.9731
4.0828 -5.0864 -2.0061 0.9731
4.9191 -4.2785 -2.0052 0.9731
5.2797 -3.8220 -2.0048 0.9731
5.5980 -3.3352 -2.0042 0.9731
6.4037 -1.1666 -2.0021 0.9731
6.5055 -0.0106 -2.0010 0.9731
6.4788 0.5693 -2.0004 0.9731
6.4005 1.1444 -1.9999 0.9732
5.5912 3.3064 -1.9979 0.9732
5.2731 3.7910 -1.9975 0.9732
4.9131 4.2452 -1.9972 0.9732
4.5143 4.6656 -1.9968 0.9732
4.0797 5.0488 -1.9965 0.9732
3.6128 5.3917 -1.9963 0.9732
2.0537 6.1452 -1.9929 0.9732
0.3277 5.9862 -1.8440 0.9752
-0.7408 5.9498 -1.8442 0.9752
-0.4942 -6.0196 -2.0077 0.9749
0.0445 -6.0395 -2.0076 0.9749
0.5828 -6.0112 -2.0075 0.9749
2.6462 -5.4259 -2.0067 0.9749
3.5667 -4.8680 -2.0060 0.9749
3.9858 -4.5297 -2.0056 0.9749
5.5444 -2.3624 -2.0033 0.9749
5.7315 -1.8582 -2.0028 0.9749
5.9674 -0.8103 -2.0018 0.9749
6.0143 -0.2749 -2.0013 0.9749
5.9645 0.7973 -2.0003 0.9750
5.5370 2.3457 -1.9989 0.9750
5.3046 2.8294 -1.9984 0.9750
3.9781 4.5021 -1.9970 0.9750
3.1145 5.1359 -1.9966 0.9750
1.6431 5.7732 -1.9952 0.9750
1.1185 5.8792 -1.9893 0.9751
0.0525 5.5534 -1.8461 0.9769
-1.4181 5.3656 -1.8448 0.9769
-1.8911 5.2184 -1.8450 0.9769
-3.2602 4.6103 -1.8770 0.9765
-5.8468 1.4373 -2.0014 0.9749
-5.9532 0.9105 -2.0019 0.9749
-5.9865 -0.6980 -2.0034 0.9749
-5.5923 -2.2590 -2.0048 0.9749
-5.3698 -2.7492 -2.0053 0.9749
-4.7980 -3.6607 -2.0061 0.9749
-4.4532 -4.0746 -2.0064 0.9749
-3.6598 -4.8021 -2.0070 0.9749
-2.7493 -5.3769 -2.0074 0.9749
-2.2591 -5.6010 -2.0075 0.9749
-1.7508 -5.7804 -2.0076 0.9749
-1.2284 -5.9136 -2.0077 0.9749
-0.1586 -6.0377 -2.0076 0.9749
0.3804 -6.0275 -2.0076 0.9749
1.4446 -5.8632 -2.0072 0.9749
1.9614 -5.7104 -2.0070 0.9749
2.4625 -5.5121 -2.0068 0.9749
2.9437 -5.2698 -2.0065 0.9749
3.8315 -4.6615 -2.0058 0.9749
4.5966 -3.9053 -2.0049 0.9749
4.9254 -3.4791 -2.0045 0.9749
5.2147 -3.0254 -2.0040 0.9749
5.4624 -2.5478 -2.0035 0.9749
5.8251 -1.5363 -2.0025 0.9749
6.0023 -0.4770 -2.0015 0.9749
6.0193 0.0600 -2.0010 0.9749
4.8389 3.5647 -1.9978 0.9750
4.1274 4.3661 -1.9972 0.9750
3.7212 4.7160 -1.9969 0.9750
3.2855 5.0285 -1.9966 0.9750
2.8238 5.3009 -1.9965 0.9750
1.3169 5.8443 -1.9914 0.9751
0.7689 5.7758 -1.9368 0.9757
0.2398 5.5642 -1.8513 0.9768
-0.2563 5.5442 -1.8449 0.9769
-1.2369 5.4101 -1.8447 0.9769
-2.1786 5.1056 -1.8452 0.9769
-3.0658 4.6603 -1.8543 0.9768
-3.5926 4.5239 -1.9203 0.9759
-5.4587 -2.5669 -2.0051 0.9749
-5.2092 -3.0440 -2.0055 0.9749
-4.9180 -3.4970 -2.0059 0.9749
-4.5874 -3.9223 -2.0063 0.9749
-4.2201 -4.3164 -2.0066 0.9749
-2.4460 -5.5217 -2.0075 0.9749
-1.4266 -5.8689 -2.0077 0.9749
-0.8976 -5.9728 -2.0077 0.9749
0.1775 -6.0370 -2.0076 0.9749
2.7650 -5.3661 -2.0066 0.9749
3.2319 -5.0974 -2.0063 0.9749
4.0843 -4.4406 -2.0055 0.9749
4.4631 -4.0579 -2.0051 0.9749
5.3741 -2.7302 -2.0037 0.9749
5.7707 -1.7314 -2.0027 0.9749
5.9006 -1.2097 -2.0022 0.9749
5.9834 -0.6786 -2.0017 0.9749
6.0057 0.3947 -2.0006 0.9749
5.9451 0.9284 -2.0001 0.9750
5.6830 1.9686 -1.9992 0.9750
5.4837 2.4669 -1.9988 0.9750
4.9563 3.4003 -1.9979 0.9750
4.2721 4.2251 -1.9973 0.9750
3.4529 4.9154 -1.9967 0.9750
2.0284 5.6525 -1.9962 0.9750
0.9832 5.8692 -1.9781 0.9752
0.4325 5.6282 -1.8764 0.9765
-0.0698 5.5483 -1.8444 0.9769
-0.5642 5.5203 -1.8445 0.9769
-1.0543 5.4484 -1.8447 0.9769
-1.5360 5.3332 -1.8449 0.9769
-2.8939 4.7385 -1.8456 0.9769
-4.3712 4.1107 -1.9946 0.9750
-5.3176 2.8150 -2.0000 0.9750
-5.5488 2.3302 -2.0005 0.9750
-5.8774 1.3083 -2.0015 0.9749
-5.9722 0.7793 -2.0020 0.9749
-6.0187 -0.2940 -2.0030 0.9749
-5.8737 -1.3590 -2.0040 0.9749
-5.7305 -1.8777 -2.0045 0.9749
-5.0324 -3.3295 -2.0058 0.9749
-4.7164 -3.7656 -2.0062 0.9749
-4.3626 -4.1718 -2.0065 0.9749
-3.9739 -4.5448 -2.0068 0.9749
-3.5533 -4.8817 -2.0070 0.9749
-3.1042 -5.1796 -2.0073 0.9749
-2.6302 -5.4362 -2.0074 0.9749
-2.1352 -5.6495 -2.0076 0.9749
-1.6231 -5.8176 -2.0076 0.9749
-0.5640 -6.0135 -2.0077 0.9749
-0.0256 -6.0396 -2.0076 0.9749
1.5734 -5.8298 -2.0072 0.9749
2.0867 -5.6657 -2.0070 0.9749
2.5831 -5.4563 -2.0067 0.9749
3.0589 -5.2035 -2.0064 0.9749
3.5100 -4.9092 -2.0060 0.9749
5.0005 -3.3696 -2.0044 0.9749
5.5168 -2.4267 -2.0034 0.9749
5.7098 -1.9247 -2.0029 0.9749
5.8571 -1.4076 -2.0024 0.9749
6.0162 0.1925 -2.0008 0.9749
5.8834 1.2574 -1.9998 0.9750
5.7465 1.7765 -1.9994 0.9750
5.5640 2.2813 -1.9989 0.9750
5.3373 2.7677 -1.9985 0.9750
5.0682 3.2319 -1.9981 0.9750
4.4120 4.0793 -1.9974 0.9750
4.0301 4.4557 -1.9971 0.9750
3.6163 4.7967 -1.9968 0.9750
3.1739 5.0994 -1.9966 0.9750
2.7064 5.3617 -1.9964 0.9750
2.2174 5.5812 -1.9963 0.9750
1.1871 5.8678 -1.9900 0.9751
0.6333 5.7164 -1.9118 0.9760
0.1170 5.5559 -1.8472 0.9768
-1.8304 5.2399 -1.8450 0.9769
-2.7327 4.8329 -1.8455 0.9769
-3.1926 4.6277 -1.8688 0.9766
-4.6008 3.8678 -1.9980 0.9750
-5.6707 2.0183 -2.0008 0.9749
-5.9420 0.9795 -2.0018 0.9749
-6.0073 0.4459 -2.0023 0.9749
-6.0246 -0.0915 -2.0029 0.9749
-5.9155 -1.1606 -2.0039 0.9749
-5.7899 -1.6839 -2.0043 0.9749
-5.6180 -2.1939 -2.0048 0.9749
-5.4012 -2.6866 -2.0052 0.9749
-4.8400 -3.6046 -2.0060 0.9749
-3.7152 -4.7592 -2.0069 0.9749
-3.2765 -5.0721 -2.0072 0.9749
-2.3239 -5.5744 -2.0075 0.9749
-1.8177 -5.7596 -2.0076 0.9749
-0.2286 -6.0354 -2.0076 0.9749
0.3104 -6.0315 -2.0076 0.9749
1.8951 -5.7329 -2.0071 0.9749
3.3432 -5.0247 -2.0062 0.9749
4.1809 -4.3494 -2.0054 0.9749
4.8848 -3.5361 -2.0045 0.9749
5.1794 -3.0858 -2.0041 0.9749
5.9254 -1.0794 -2.0021 0.9749
6.0198 -0.0098 -2.0010 0.9749
5.9952 0.5268 -2.0005 0.9750
5.1744 3.0599 -1.9982 0.9750
4.1779 4.3180 -1.9972 0.9750
3.7758 4.6726 -1.9969 0.9750
3.3437 4.9901 -1.9967 0.9750
1.3852 5.8309 -1.9922 0.9751
0.8419 5.8077 -1.9507 0.9756
-0.6857 5.5066 -1.8446 0.9769
-1.4455 -5.4237 -2.0072 0.9764
-0.9562 -5.5310 -2.0073 0.9764
-0.4592 -5.5942 -2.0073 0.9764
0.0414 -5.6127 -2.0072 0.9764
0.5416 -5.5864 -2.0071 0.9764
1.0375 -5.5155 -2.0070 0.9764
2.0002 -5.2425 -2.0066 0.9764
3.3149 -4.5243 -2.0057 0.9765
4.6836 -3.0776 -2.0041 0.9765
5.1534 -2.1958 -2.0032 0.9765
5.4589 -1.2450 -2.0023 0.9765
5.5469 -0.7532 -2.0018 0.9765
5.5906 -0.2556 -2.0013 0.9765
5.5898 0.2439 -2.0008 0.9765
5.3223 1.7133 -1.9995 0.9765
4.3843 3.4632 -1.9980 0.9765
3.6984 4.1856 -1.9974 0.9766
3.3101 4.4981 -1.9971 0.9766
2.4581 5.0136 -1.9968 0.9766
2.0011 5.2124 -1.9967 0.9766
1.5284 5.3699 -1.9966 0.9766
0.5487 5.5399 -1.9908 0.9766
-0.4245 5.3065 -1.9037 0.9776
-1.3383 5.0634 -1.8729 0.9780
-1.7952 4.9537 -1.8842 0.9779
-2.2603 4.8394 -1.9101 0.9776
-3.2151 4.5465 -1.9913 0.9766
-3.6143 4.2496 -1.9950 0.9766
-3.9863 3.9178 -1.9988 0.9765
-4.3206 3.5475 -1.9992 0.9765
-4.8841 2.7248 -2.0000 0.9765
-5.1088 2.2790 -2.0005 0.9765
-4.7439 -2.9905 -2.0054 0.9765
-4.4592 -3.4022 -2.0058 0.9765
-2.5550 -4.9970 -2.0070 0.9764
-2.0994 -5.2052 -2.0071 0.9764
-1.6270 -5.3719 -2.0072 0.9764
-0.1474 -5.6110 -2.0072 0.9764
0.8515 -5.5474 -2.0070 0.9764
1.3426 -5.4490 -2.0069 0.9764
2.2885 -5.1227 -2.0064 0.9764
3.5610 -4.3324 -2.0055 0.9765
3.9324 -3.9969 -2.0051 0.9765
4.2722 -3.6297 -2.0047 0.9765
4.8469 -2.8120 -2.0039 0.9765
5.5953 0.0558 -2.0010 0.9765
5.4939 1.0482 -2.0001 0.9765
5.2181 2.0065 -1.9992 0.9765
5.0174 2.4632 -1.9988 0.9765
4.4985 3.3140 -1.9981 0.9765
0.7352 5.5227 -1.9924 0.9766
-0.2480 5.3635 -1.9201 0.9774
-0.7128 5.2287 -1.8871 0.9778
-1.6225 4.9955 -1.8783 0.9779
-3.4668 4.3655 -1.9935 0.9766
-4.1986 3.6904 -1.9990 0.9765
-4.5118 3.3021 -1.9994 0.9765
-5.5730 0.5373 -2.0022 0.9765
-5.5204 -0.9574 -2.0036 0.9765
-5.4143 -1.4461 -2.0041 0.9765
-5.2649 -1.9235 -2.0045 0.9765
-5.0735 -2.3857 -2.0049 0.9765
-4.8415 -2.8291 -2.0053 0.9765
-4.5708 -3.2501 -2.0056 0.9765
-4.2635 -3.6453 -2.0060 0.9765
-2.7215 -4.9081 -2.0069 0.9764
-2.2732 -5.1316 -2.0071 0.9764
-0.8342 -5.5508 -2.0073 0.9764
-0.3359 -5.6030 -2.0073 0.9764
0.1650 -5.6104 -2.0072 0.9764
0.6645 -5.5731 -2.0071 0.9764
1.6435 -5.3655 -2.0067 0.9764
2.5697 -4.9871 -2.0062 0.9764
3.7960 -4.1272 -2.0053 0.9765
4.1481 -3.7715 -2.0049 0.9765
4.9951 -2.5377 -2.0036 0.9765
5.2002 -2.0817 -2.0031 0.9765
5.3639 -1.6094 -2.0026 0.9765
5.4847 -1.1245 -2.0022 0.9765
5.5618 -0.6308 -2.0017 0.9765
4.8721 2.7382 -1.9986 0.9765
4.3068 3.5587 -1.9979 0.9765
2.3470 5.0664 -1.9967 0.9766
1.4097 5.4022 -1.9966 0.9766
0.9213 5.4996 -1.9941 0.9766
0.4264 5.5479 -1.9898 0.9766
-0.0683 5.4267 -1.9408 0.9772
-0.9967 5.1511 -1.8762 0.9780
-1.4506 5.0367 -1.8744 0.9780
-1.9089 4.9260 -1.8892 0.9778
-2.3771 4.8102 -1.9188 0.9775
-2.8626 4.6874 -1.9641 0.9769
-3.7089 4.1711 -1.9960 0.9766
-4.9432 2.6168 -2.0001 0.9765
-5.1580 2.1661 -2.0006 0.9765
-5.3318 1.6980 -2.0011 0.9765
-5.5513 0.7243 -2.0020 0.9765
-5.5490 -0.7712 -2.0034 0.9765
-5.4594 -1.2631 -2.0039 0.9765
-5.3262 -1.7452 -2.0043 0.9765
-5.1504 -2.2136 -2.0047 0.9765
-4.6771 -3.0944 -2.0055 0.9765
-4.0545 -3.8772 -2.0062 0.9765
-3.3023 -4.5368 -2.0067 0.9764
-2.8849 -4.8137 -2.0069 0.9764
-1.9843 -5.2503 -2.0072 0.9764
-1.0203 -5.5196 -2.0073 0.9764
-0.5241 -5.5885 -2.0073 0.9764
0.4767 -5.5924 -2.0071 0.9764
0.9734 -5.5272 -2.0070 0.9764
1.4622 -5.4180 -2.0068 0.9764
3.6554 -4.2528 -2.0054 0.9765
4.0192 -3.9092 -2.0050 0.9765
4.3509 -3.5345 -2.0046 0.9765
4.6477 -3.1319 -2.0042 0.9765
4.9074 -2.7044 -2.0037 0.9765
5.4443 -1.3083 -2.0023 0.9765
5.5379 -0.8175 -2.0019 0.9765
5.5874 -0.3204 -2.0014 0.9765
5.5529 0.6767 -2.0004 0.9765
5.1724 2.1208 -1.9991 0.9765
4.7117 3.0046 -1.9984 0.9765
4.4243 3.4121 -1.9980 0.9765
3.7468 4.1424 -1.9974 0.9766
-0.3637 5.3228 -1.9079 0.9776
-4.8520 2.7813 -2.0000 0.9765
-5.0818 2.3381 -2.0004 0.9765
-5.4188 1.3990 -2.0014 0.9765
-5.5233 0.9105 -2.0018 0.9765
-5.5838 0.4145 -2.0023 0.9765
-5.5999 -0.0850 -2.0028 0.9765
-5.4983 -1.0788 -2.0037 0.9765
-5.3814 -1.5651 -2.0042 0.9765
-5.2215 -2.0391 -2.0046 0.9765
-4.7782 -2.9352 -2.0054 0.9765
-4.4983 -3.3501 -2.0057 0.9765
-3.4528 -4.4230 -2.0066 0.9764
-3.0450 -4.7138 -2.0068 0.9764
-2.6128 -4.9670 -2.0070 0.9764
-2.1597 -5.1805 -2.0071 0.9764
-1.6893 -5.3527 -2.0072 0.9764
-0.7117 -5.5678 -2.0073 0.9764
-0.2125 -5.6090 -2.0072 0.9764
0.2884 -5.6054 -2.0072 0.9764
0.7870 -5.5570 -2.0070 0.9764
1.7612 -5.3279 -2.0067 0.9764
2.2289 -5.1490 -2.0065 0.9764
2.6788 -4.9291 -2.0062 0.9764
3.1071 -4.6699 -2.0059 0.9765
3.5105 -4.3736 -2.0055 0.9765
4.2299 -3.6791 -2.0048 0.9765
4.5401 -3.2866 -2.0043 0.9765
5.0495 -2.4269 -2.0035 0.9765
5.2445 -1.9666 -2.0030 0.9765
5.3977 -1.4908 -2.0025 0.9765
5.5740 -0.5081 -2.0016 0.9765
5.5958 -0.0091 -2.0011 0.9765
5.5730 0.4897 -2.0006 0.9765
5.2412 1.9458 -1.9993 0.9765
5.0458 2.4049 -1.9989 0.9765
4.8104 2.8446 -1.9985 0.9765
4.5368 3.2616 -1.9981 0.9765
3.5103 4.3441 -1.9973 0.9766
2.6824 4.8975 -1.9969 0.9766
1.7696 5.2954 -1.9966 0.9766
0.7995 5.5154 -1.9930 0.9766
-1.3487 -5.0603 -2.0069 0.9778
-0.4285 -5.2194 -2.0069 0.9778
0.0386 -5.2367 -2.0069 0.9778
0.5053 -5.2122 -2.0068 0.9778
0.9680 -5.1460 -2.0066 0.9778
1.4228 -5.0388 -2.0065 0.9778
2.2946 -4.7049 -2.0060 0.9778
2.7046 -4.4810 -2.0057 0.9778
3.0929 -4.2214 -2.0054 0.9778
4.0976 -3.2506 -2.0044 0.9778
4.6080 -2.4701 -2.0036 0.9779
4.9713 -1.6117 -2.0027 0.9779
5.0940 -1.1618 -2.0023 0.9779
5.2164 0.2276 -2.0009 0.9779
5.0909 1.1500 -2.0001 0.9779
4.9670 1.5990 -1.9997 0.9779
4.8038 2.0351 -1.9993 0.9779
4.0918 3.2321 -1.9982 0.9779
3.7868 3.5836 -1.9979 0.9779
2.2942 4.6793 -1.9971 0.9779
-0.8741 5.1195 -1.9903 0.9780
-2.2000 4.7103 -1.9922 0.9780
-2.6140 4.5001 -1.9944 0.9780
-3.0090 4.2551 -1.9972 0.9779
-3.7203 3.6563 -1.9990 0.9779
-4.0322 3.3107 -1.9993 0.9779
-4.3122 2.9386 -1.9997 0.9779
-4.5580 2.5429 -2.0001 0.9779
-4.7676 2.1268 -2.0006 0.9779
-4.9393 1.6936 -2.0010 0.9779
-5.0717 1.2468 -2.0014 0.9779
-5.1638 0.7898 -2.0019 0.9779
-5.2149 0.3263 -2.0023 0.9779
-5.2244 -0.1400 -2.0028 0.9779
-5.1186 -1.0661 -2.0036 0.9779
-5.0042 -1.5186 -2.0041 0.9778
-4.6567 -2.3842 -2.0048 0.9778
-4.4264 -2.7903 -2.0052 0.9778
-4.1606 -3.1744 -2.0055 0.9778
-3.8616 -3.5332 -2.0058 0.9778
-3.5317 -3.8640 -2.0061 0.9778
-3.1735 -4.1640 -2.0063 0.9778
-2.7898 -4.4308 -2.0065 0.9778
-1.0651 -5.1275 -2.0069 0.9778
-0.6037 -5.2021 -2.0069 0.9778
-0.1375 -5.2351 -2.0069 0.9778
2.5526 -4.5696 -2.0059 0.9778
2.9494 -4.3232 -2.0056 0.9778
4.2716 -3.0173 -2.0041 0.9778
4.7376 -2.2097 -2.0033 0.9779
4.9147 -1.7781 -2.0029 0.9779
5.2215 0.0521 -2.0011 0.9779
5.1950 0.5173 -2.0006 0.9779
5.1271 0.9782 -2.0002 0.9779
5.0184 1.4312 -1.9998 0.9779
4.8698 1.8725 -1.9994 0.9779
4.4582 2.7067 -1.9987 0.9779
4.1984 3.0929 -1.9983 0.9779
3.5813 3.7883 -1.9978 0.9779
2.8509 4.3632 -1.9973 0.9779
2.4503 4.5996 -1.9972 0.9779
2.0303 4.7995 -1.9970 0.9779
1.1455 5.0834 -1.9969 0.9779
0.2241 5.1998 -1.9945 0.9780
-2.8626 4.3514 -1.9960 0.9779
-3.5950 3.7791 -1.9988 0.9779
-4.2107 3.0816 -1.9996 0.9779
-4.6930 2.2857 -2.0004 0.9779
-4.8791 1.8586 -2.0008 0.9779
-5.0265 1.4165 -2.0013 0.9779
-5.1339 0.9629 -2.0017 0.9779
-5.0521 -1.3494 -2.0039 0.9778
-4.9126 -1.7948 -2.0043 0.9778
-4.7339 -2.2261 -2.0047 0.9778
-4.5174 -2.6398 -2.0051 0.9778
-3.9780 -3.4012 -2.0057 0.9778
-2.9371 -4.3343 -2.0064 0.9778
-2.5392 -4.5793 -2.0066 0.9778
-2.1209 -4.7878 -2.0067 0.9778
0.6200 -5.1997 -2.0067 0.9778
1.9734 -4.8490 -2.0062 0.9778
2.3976 -4.6531 -2.0060 0.9778
3.8705 -3.5191 -2.0047 0.9778
4.1680 -3.1594 -2.0043 0.9778
4.6610 -2.3679 -2.0035 0.9779
4.8525 -1.9425 -2.0030 0.9779
5.1901 -0.5887 -2.0017 0.9779
5.2208 -0.1235 -2.0013 0.9779
5.2098 0.3424 -2.0008 0.9779
5.1575 0.8054 -2.0004 0.9779
5.0640 1.2617 -2.0000 0.9779
4.9304 1.7079 -1.9996 0.9779
4.0195 3.3213 -1.9982 0.9779
3.7068 3.6660 -1.9979 0.9779
1.3158 5.0421 -1.9969 0.9779
-0.5283 5.1684 -1.9910 0.9780
-0.9866 5.0986 -1.9901 0.9780
-1.4373 4.9905 -1.9902 0.9780
-3.8001 3.5737 -1.9991 0.9779
-4.1044 3.2212 -1.9994 0.9779
-4.3761 2.8430 -1.9998 0.9779
-4.8135 2.0214 -2.0007 0.9779
-4.9756 1.5846 -2.0011 0.9779
-5.2211 0.2114 -2.0025 0.9779
-5.2203 -0.2550 -2.0029 0.9779
-5.0942 -1.1786 -2.0038 0.9779
-4.9698 -1.6285 -2.0042 0.9778
-4.8058 -2.0655 -2.0046 0.9778
-4.3640 -2.8873 -2.0053 0.9778
-4.0899 -3.2654 -2.0056 0.9778
-3.7830 -3.6176 -2.0059 0.9778
-3.4458 -3.9409 -2.0061 0.9778
-2.2806 -4.7137 -2.0067 0.9778
-1.8514 -4.8985 -2.0068 0.9778
-0.9520 -5.1498 -2.0069 0.9778
-0.4890 -5.2141 -2.0069 0.9778
0.4448 -5.2177 -2.0068 0.9778
1.3643 -5.0550 -2.0065 0.9778
1.8094 -4.9128 -2.0063 0.9778
2.2399 -4.7313 -2.0061 0.9778
2.6525 -4.5122 -2.0058 0.9778
3.4107 -3.9681 -2.0052 0.9778
3.7502 -3.6475 -2.0048 0.9778
4.0597 -3.2980 -2.0044 0.9778
4.3368 -2.9223 -2.0040 0.9778
4.5791 -2.5235 -2.0036 0.9779
4.7848 -2.1047 -2.0032 0.9779
4.9524 -1.6694 -2.0028 0.9779
5.0804 -1.2209 -2.0023 0.9779
5.1678 -0.7629 -2.0019 0.9779
5.2188 0.1670 -2.0010 0.9779
5.1040 1.0908 -2.0001 0.9779
4.9854 1.5412 -1.9997 0.9779
4.8272 1.9792 -1.9993 0.9779
4.3973 2.8041 -1.9986 0.9779
3.4969 3.8662 -1.9977 0.9779
3.1379 4.1621 -1.9975 0.9779
2.3484 4.6524 -1.9971 0.9779
1.9241 4.8430 -1.9970 0.9779
1.4846 4.9950 -1.9969 0.9779
0.5737 5.1792 -1.9969 0.9779
0.1095 5.2017 -1.9938 0.9780
-1.2686 5.0356 -1.9900 0.9780
-2.1449 4.7350 -1.9920 0.9780
-2.5612 4.5295 -1.9940 0.9780
-3.6775 3.6992 -1.9989 0.9779
-3.9934 3.3572 -1.9993 0.9779
-5.1542 0.8497 -2.0018 0.9779
-5.2106 0.3868 -2.0023 0.9779
-5.2255 -0.0793 -2.0027 0.9779
-4.6840 -2.3299 -2.0048 0.9778
-4.4584 -2.7387 -2.0051 0.9778
-3.2215 -4.1268 -2.0063 0.9778
-2.8410 -4.3981 -2.0065 0.9778
-2.4378 -4.6342 -2.0066 0.9778
-2.0150 -4.8334 -2.0068 0.9778
-0.6641 -5.1947 -2.0069 0.9778
1.6432 -4.9710 -2.0064 0.9778
2.4994 -4.5990 -2.0059 0.9778
2.8991 -4.3573 -2.0056 0.9778
3.6257 -3.7718 -2.0049 0.9778
3.9468 -3.4329 -2.0046 0.9778
4.8938 -1.8351 -2.0029 0.9779
5.0369 -1.3911 -2.0025 0.9779
5.2015 -0.4742 -2.0016 0.9779
5.2219 -0.0085 -2.0011 0.9779
5.2008 0.4570 -2.0007 0.9779
5.1382 0.9187 -2.0003 0.9779
4.7091 2.2444 -1.9991 0.9779
4.4894 2.6548 -1.9987 0.9779
4.2341 3.0440 -1.9984 0.9779
3.9452 3.4089 -1.9981 0.9779
3.2762 4.0544 -1.9976 0.9779
1.6517 4.9424 -1.9970 0.9779
1.2044 5.0698 -1.9969 0.9779
0.7476 5.1569 -1.9969 0.9779
-0.1798 5.1956 -1.9922 0.9780
-0.6419 5.1549 -1.9907 0.9780
-1.2626 -4.7374 -2.0066 0.9790
-0.8352 -4.8311 -2.0066 0.9790
-0.4011 -4.8863 -2.0066 0.9790
0.0361 -4.9025 -2.0065 0.9790
0.9062 -4.8177 -2.0063 0.9790
2.1483 -4.4048 -2.0058 0.9790
2.8957 -3.9522 -2.0052 0.9790
3.8365 -3.0434 -2.0042 0.9791
4.0918 -2.6887 -2.0038 0.9791
4.3144 -2.3127 -2.0035 0.9791
4.5025 -1.9185 -2.0031 0.9791
4.6546 -1.5091 -2.0026 0.9791
4.7697 -1.0878 -2.0022 0.9791
4.8467 -0.6581 -2.0018 0.9791
4.8850 -0.2233 -2.0014 0.9791
4.8844 0.2131 -2.0010 0.9791
4.8450 0.6476 -2.0006 0.9791
4.6511 1.4973 -1.9998 0.9791
4.4983 1.9057 -1.9994 0.9791
4.3097 2.2987 -1.9991 0.9791
3.2324 3.6582 -1.9980 0.9791
2.1484 4.3821 -1.9974 0.9791
1.7491 4.5559 -1.9973 0.9791
0.9120 4.7939 -1.9972 0.9791
-0.8208 4.8071 -1.9959 0.9791
-1.2460 4.7144 -1.9957 0.9791
-1.6620 4.5861 -1.9964 0.9791
-2.4523 4.2218 -1.9982 0.9791
-3.7758 3.1002 -1.9995 0.9791
-4.0379 2.7517 -1.9999 0.9791
-4.4642 1.9915 -2.0007 0.9791
-4.6249 1.5859 -2.0011 0.9791
-4.7489 1.1674 -2.0015 0.9791
-1.9817 0.3031 -0.8205 0.9914
-1.9236 -0.0515 -0.7876 0.9917
-4.6853 -1.4218 -2.0039 0.9791
-4.3598 -2.2322 -2.0046 0.9791
-4.1441 -2.6124 -2.0050 0.9790
-3.8953 -2.9720 -2.0053 0.9790
-2.9710 -3.8983 -2.0060 0.9790
-2.6118 -4.1481 -2.0062 0.9790
-2.2317 -4.3648 -2.0064 0.9790
-0.1287 -4.9010 -2.0066 0.9790
0.7437 -4.8455 -2.0064 0.9790
1.1727 -4.7596 -2.0062 0.9790
1.9990 -4.4748 -2.0058 0.9790
2.7613 -4.0475 -2.0053 0.9790
3.1107 -3.7846 -2.0050 0.9790
4.4358 -2.0689 -2.0032 0.9791
4.7308 -1.2477 -2.0024 0.9791
4.8222 -0.8207 -2.0020 0.9791
4.8751 -0.3874 -2.0016 0.9791
4.8892 0.0488 -2.0011 0.9791
4.8644 0.4844 -2.0007 0.9791
4.8009 0.9160 -2.0003 0.9791
4.6992 1.3401 -1.9999 0.9791
4.5601 1.7535 -1.9996 0.9791
4.1748 2.5346 -1.9989 0.9791
3.3537 3.5476 -1.9980 0.9791
2.6697 4.0860 -1.9976 0.9791
1.4929 4.6460 -1.9973 0.9791
-0.6588 4.8327 -1.9962 0.9791
-2.3089 4.3017 -1.9981 0.9791
-3.9429 2.8857 -1.9997 0.9791
-1.9567 -0.1617 -0.8035 0.9916
-4.7301 -1.2634 -2.0038 0.9791
-4.4321 -2.0842 -2.0045 0.9791
-4.2294 -2.4715 -2.0049 0.9791
-3.7243 -3.1843 -2.0055 0.9790
-3.4260 -3.5041 -2.0057 0.9790
-3.1003 -3.7961 -2.0059 0.9790
-2.7497 -4.0578 -2.0061 0.9790
-1.5781 -4.6417 -2.0065 0.9790
-1.1580 -4.7640 -2.0066 0.9790
-0.7286 -4.8484 -2.0066 0.9790
-0.2934 -4.8940 -2.0066 0.9790
0.1441 -4.9005 -2.0065 0.9790
1.0121 -4.7965 -2.0063 0.9790
1.8475 -4.5396 -2.0059 0.9790
2.2447 -4.3563 -2.0057 0.9790
2.6238 -4.1383 -2.0054 0.9790
2.9819 -3.8873 -2.0051 0.9790
3.3161 -3.6054 -2.0048 0.9791
3.6237 -3.2948 -2.0045 0.9791
4.1498 -2.5978 -2.0038 0.9791
4.8597 -0.5512 -2.0017 0.9791
4.8885 -0.1157 -2.0013 0.9791
4.8293 0.7541 -2.0005 0.9791
4.4550 2.0042 -1.9993 0.9791
4.2579 2.3930 -1.9990 0.9791
3.4713 3.4330 -1.9981 0.9791
3.1510 3.7284 -1.9979 0.9791
2.8057 3.9941 -1.9977 0.9791
2.4382 4.2280 -1.9975 0.9791
2.0514 4.4282 -1.9974 0.9791
0.8063 4.8128 -1.9972 0.9791
0.3739 4.8656 -1.9972 0.9791
-0.0614 4.8796 -1.9973 0.9791
-2.1628 4.3767 -1.9981 0.9791
-2.9066 3.9240 -1.9986 0.9791
-3.8433 3.0164 -1.9996 0.9791
-4.0977 2.6622 -2.0000 0.9791
-4.5072 1.8928 -2.0008 0.9791
-4.7737 1.0626 -2.0016 0.9791
-4.7696 -1.1035 -2.0036 0.9791
-4.3098 -2.3277 -2.0047 0.9791
-4.0858 -2.7031 -2.0051 0.9790
-3.2260 -3.6895 -2.0059 0.9790
-2.1351 -4.4129 -2.0064 0.9790
-1.7333 -4.5859 -2.0065 0.9790
-1.3175 -4.7224 -2.0066 0.9790
-0.8912 -4.8211 -2.0066 0.9790
-0.4578 -4.8814 -2.0066 0.9790
0.8502 -4.8279 -2.0063 0.9790
1.6939 -4.5994 -2.0060 0.9790
2.0970 -4.4295 -2.0058 0.9790
2.8497 -3.9856 -2.0053 0.9790
3.1932 -3.7151 -2.0050 0.9790
3.5111 -3.4150 -2.0046 0.9791
3.8010 -3.0878 -2.0043 0.9791
4.8388 -0.7143 -2.0019 0.9791
4.8822 -0.2800 -2.0014 0.9791
4.8867 0.1564 -2.0010 0.9791
4.8523 0.5914 -2.0006 0.9791
4.7793 1.0214 -2.0002 0.9791
4.3362 2.2486 -1.9991 0.9791
3.8667 2.9821 -1.9985 0.9791
3.2747 3.6205 -1.9980 0.9791
2.1992 4.3569 -1.9974 0.9791
0.5373 4.8502 -1.9972 0.9791
0.1027 4.8789 -1.9973 0.9791
-0.7650 4.8165 -1.9960 0.9791
-1.1912 4.7284 -1.9957 0.9791
-2.4031 4.2499 -1.9982 0.9791
-2.7729 4.0193 -1.9985 0.9791
-3.4437 3.4640 -1.9991 0.9791
-4.0056 2.7983 -1.9998 0.9791
-4.4407 2.0431 -2.0006 0.9791
-4.7349 1.2224 -2.0014 0.9791
-2.0769 0.3424 -0.8615 0.9909
-1.9536 0.1450 -0.8018 0.9916
-1.9573 -0.2052 -0.8055 0.9915
-4.8036 -0.9425 -2.0035 0.9791
-4.7014 -1.3673 -2.0039 0.9791
-4.5616 -1.7813 -2.0042 0.9791
-4.3854 -2.1813 -2.0046 0.9791
-4.1741 -2.5641 -2.0049 0.9790
-3.9295 -2.9265 -2.0052 0.9790
-3.3481 -3.5788 -2.0058 0.9790
-3.0160 -3.8635 -2.0060 0.9790
-2.2822 -4.3385 -2.0063 0.9790
-1.4755 -4.6754 -2.0065 0.9790
-0.6217 -4.8632 -2.0066 0.9790
-0.1856 -4.8992 -2.0066 0.9790
0.6875 -4.8539 -2.0064 0.9790
1.9470 -4.4977 -2.0059 0.9790
3.0667 -3.8206 -2.0051 0.9790
3.9664 -2.8713 -2.0040 0.9791
4.2058 -2.5057 -2.0037 0.9791
4.4116 -2.1203 -2.0033 0.9791
4.5821 -1.7182 -2.0029 0.9791
4.8124 -0.8767 -2.0020 0.9791
4.8704 -0.4440 -2.0016 0.9791
4.8698 0.4279 -2.0008 0.9791
4.7145 1.2855 -2.0000 0.9791
4.4096 2.1017 -1.9993 0.9791
3.6945 3.1923 -1.9983 0.9791
3.3947 3.5085 -1.9981 0.9791
2.7170 4.0548 -1.9977 0.9791
1.5468 4.6284 -1.9973 0.9791
1.1279 4.7478 -1.9972 0.9791
0.7001 4.8294 -1.9972 0.9791
-0.7842 -4.5363 -2.0063 0.9801
0.0339 -4.6033 -2.0063 0.9801
1.6406 -4.2999 -2.0057 0.9801
2.3777 -3.9393 -2.0053 0.9801
2.7191 -3.7111 -2.0050 0.9801
3.0387 -3.4534 -2.0047 0.9801
3.8423 -2.5248 -2.0037 0.9801
4.0514 -2.1718 -2.0034 0.9801
4.2281 -1.8016 -2.0030 0.9801
4.5515 -0.6180 -2.0018 0.9802
4.5871 0.2001 -2.0010 0.9802
4.5501 0.6082 -2.0007 0.9802
4.3682 1.4062 -1.9999 0.9802
4.2247 1.7897 -1.9996 0.9802
3.8384 2.5108 -1.9990 0.9802
3.0359 3.4358 -1.9982 0.9802
1.2547 4.4083 -1.9975 0.9802
0.8566 4.5026 -1.9975 0.9802
0.0433 4.5832 -1.9975 0.9802
-1.1714 4.4320 -1.9979 0.9802
-1.9403 4.1542 -1.9982 0.9802
-2.6479 3.7445 -1.9987 0.9802
-2.9717 3.4940 -1.9990 0.9802
-3.2719 3.2156 -1.9993 0.9802
-1.5422 0.3791 -0.6921 0.9931
-1.5118 0.2312 -0.6666 0.9933
-1.5296 0.0957 -0.6679 0.9933
-1.5273 -0.0409 -0.6659 0.9934
-1.5229 -0.1776 -0.6682 0.9933
-1.5139 -0.3153 -0.6740 0.9933
-1.5755 -0.4781 -0.7175 0.9928
-4.2639 -1.7224 -2.0041 0.9801
-3.8914 -2.4531 -2.0048 0.9801
-3.6577 -2.7907 -2.0051 0.9801
-3.3947 -3.1061 -2.0053 0.9801
-3.1046 -3.3968 -2.0056 0.9801
-2.7897 -3.6604 -2.0058 0.9801
-2.0955 -4.0984 -2.0061 0.9801
-1.7219 -4.2691 -2.0062 0.9801
0.6983 -4.5498 -2.0061 0.9801
1.8771 -4.2017 -2.0056 0.9801
2.2440 -4.0172 -2.0054 0.9801
2.9210 -3.5538 -2.0048 0.9801
3.7555 -2.6528 -2.0039 0.9801
3.9764 -2.3069 -2.0035 0.9801
4.5285 -0.7708 -2.0020 0.9802
4.5916 0.0458 -2.0012 0.9802
4.5087 0.8603 -2.0004 0.9802
4.4133 1.2586 -2.0001 0.9802
4.2827 1.6468 -1.9997 0.9802
3.9209 2.3805 -1.9991 0.9802
3.4348 3.0382 -1.9985 0.9802
2.1552 4.0457 -1.9977 0.9802
1.0075 4.4712 -1.9975 0.9802
0.6048 4.5432 -1.9975 0.9802
0.1974 4.5791 -1.9975 0.9802
-2.5204 3.8312 -1.9986 0.9802
-2.8524 3.5917 -1.9989 0.9802
-3.1617 3.3236 -1.9992 0.9802
-3.7030 2.7101 -1.9999 0.9802
-3.9306 2.3696 -2.0002 0.9802
-4.1269 2.0100 -2.0006 0.9802
-1.5268 0.1472 -0.6685 0.9933
-1.5238 0.0104 -0.6641 0.9934
-1.5559 -0.4156 -0.7018 0.9930
-1.5968 -0.5834 -0.7409 0.9926
-4.1619 -1.9571 -2.0044 0.9801
-3.4971 -2.9901 -2.0052 0.9801
-3.2170 -3.2904 -2.0055 0.9801
-2.2321 -4.0255 -2.0060 0.9801
-1.8644 -4.2087 -2.0062 0.9801
-1.0873 -4.4733 -2.0063 0.9801
-0.6842 -4.5524 -2.0063 0.9801
-0.2755 -4.5953 -2.0063 0.9801
0.1353 -4.6014 -2.0062 0.9801
0.9503 -4.5037 -2.0060 0.9801
1.7348 -4.2626 -2.0057 0.9801
2.4637 -3.8858 -2.0052 0.9801
2.8000 -3.6502 -2.0049 0.9801
3.1139 -3.3855 -2.0047 0.9801
3.4028 -3.0939 -2.0043 0.9801
3.8968 -2.4395 -2.0036 0.9801
4.0981 -2.0820 -2.0033 0.9801
4.2666 -1.7079 -2.0029 0.9801
4.5908 -0.1086 -2.0013 0.9802
4.5814 0.3011 -2.0009 0.9802
4.5354 0.7082 -2.0006 0.9802
4.4534 1.1096 -2.0002 0.9802
4.3359 1.5020 -1.9998 0.9802
3.9989 2.2475 -1.9992 0.9802
0.7573 4.5203 -1.9975 0.9802
-0.0576 4.5831 -1.9976 0.9802
-0.8708 4.5004 -1.9978 0.9802
-1.2687 4.4052 -1.9979 0.9802
-1.6566 4.2749 -1.9981 0.9802
-2.3901 3.9136 -1.9985 0.9802
-3.6095 2.8329 -1.9997 0.9802
-3.8484 2.5002 -2.0001 0.9802
-1.5820 0.5038 -0.7236 0.9928
-1.5254 0.3395 -0.6810 0.9932
-1.5193 0.1982 -0.6678 0.9933
-1.5167 -0.2108 -0.6674 0.9933
-1.5856 -0.5196 -0.7272 0.9927
-4.2251 -1.8159 -2.0042 0.9801
-3.5955 -2.8706 -2.0051 0.9801
-3.3256 -3.1802 -2.0054 0.9801
-2.3661 -3.9481 -2.0060 0.9801
-0.4299 -4.5834 -2.0063 0.9801
0.3910 -4.5866 -2.0062 0.9801
1.1993 -4.4437 -2.0059 0.9801
1.5906 -4.3187 -2.0058 0.9801
1.9691 -4.1593 -2.0056 0.9801
2.6758 -3.7425 -2.0051 0.9801
2.9984 -3.4885 -2.0048 0.9801
3.5692 -2.8995 -2.0041 0.9801
3.8129 -2.5693 -2.0038 0.9801
4.0260 -2.2187 -2.0034 0.9801
4.3544 -1.4678 -2.0027 0.9801
4.5441 -0.6708 -2.0019 0.9802
4.5849 -0.2629 -2.0015 0.9802
4.5892 0.1469 -2.0011 0.9802
4.5570 0.5554 -2.0007 0.9802
4.3843 1.3554 -2.0000 0.9802
4.2452 1.7406 -1.9996 0.9802
3.8674 2.4662 -1.9990 0.9802
3.3669 3.1130 -1.9985 0.9802
3.0756 3.4004 -1.9982 0.9802
2.7599 3.6607 -1.9980 0.9802
1.3058 4.3935 -1.9975 0.9802
0.9088 4.4923 -1.9975 0.9802
0.5047 4.5555 -1.9975 0.9802
-1.8919 4.1764 -1.9982 0.9802
-2.2570 3.9916 -1.9984 0.9802
-3.9820 2.2825 -2.0003 0.9802
-4.1704 1.9188 -2.0007 0.9802
-1.5946 0.5675 -0.7376 0.9926
-1.5503 0.4002 -0.6978 0.9930
-1.5071 0.2484 -0.6657 0.9934
-1.5292 0.1135 -0.6683 0.9933
-1.5254 -0.1599 -0.6684 0.9933
-4.1179 -2.0483 -2.0044 0.9801
-3.9195 -2.4077 -2.0047 0.9801
-3.6898 -2.7480 -2.0050 0.9801
-3.4305 -3.0664 -2.0053 0.9801
-3.1438 -3.3605 -2.0055 0.9801
-2.8320 -3.6278 -2.0057 0.9801
-2.1430 -4.0737 -2.0061 0.9801
-0.9886 -4.4961 -2.0063 0.9801
-0.1743 -4.6002 -2.0063 0.9801
0.6455 -4.5577 -2.0061 0.9801
1.0492 -4.4817 -2.0060 0.9801
1.4445 -4.3699 -2.0058 0.9801
2.1972 -4.0430 -2.0054 0.9801
2.5486 -3.8305 -2.0052 0.9801
4.4288 -1.2232 -2.0024 0.9802
4.5739 -0.4170 -2.0016 0.9802
4.5919 -0.0075 -2.0012 0.9802
4.5734 0.4019 -2.0008 0.9802
4.4277 1.2073 -2.0001 0.9802
4.3016 1.5970 -1.9998 0.9802
4.1414 1.9739 -1.9994 0.9802
3.9483 2.3349 -1.9991 0.9802
3.1883 3.2952 -1.9983 0.9802
2.5519 3.8084 -1.9979 0.9802
2.2020 4.0204 -1.9978 0.9802
0.2505 4.5765 -1.9975 0.9802
-0.5664 4.5486 -1.9977 0.9802
-0.3546 -4.3192 -2.0060 0.9811
0.0320 -4.3336 -2.0060 0.9811
0.4182 -4.3133 -2.0059 0.9811
1.1775 -4.1699 -2.0057 0.9811
2.8607 -3.2512 -2.0046 0.9811
3.1388 -2.9827 -2.0043 0.9811
3.3917 -2.6906 -2.0040 0.9811
3.6175 -2.3771 -2.0036 0.9811
4.1154 -1.3342 -2.0026 0.9811
4.2172 -0.9618 -2.0022 0.9811
4.2853 -0.5819 -2.0018 0.9811
4.3194 -0.1974 -2.0015 0.9811
4.3190 0.1884 -2.0011 0.9811
4.2153 0.9522 -2.0004 0.9811
4.1130 1.3240 -2.0000 0.9811
3.9779 1.6852 -1.9997 0.9811
3.6143 2.3642 -1.9991 0.9811
3.1361 2.9678 -1.9986 0.9811
2.8587 3.2353 -1.9984 0.9812
2.5586 3.4769 -1.9982 0.9812
1.9001 3.8755 -1.9979 0.9812
1.1815 4.1511 -1.9978 0.9812
0.8066 4.2398 -1.9978 0.9812
-2.1688 3.7337 -1.9987 0.9811
-2.7981 3.2900 -1.9992 0.9811
-3.5707 2.4333 -2.0001 0.9811
-3.7741 2.1056 -2.0004 0.9811
-1.3183 0.5881 -0.6682 0.9937
-1.3248 0.2026 -0.6203 0.9941
-1.3334 -0.1555 -0.6214 0.9941
-1.3052 -0.2719 -0.6171 0.9941
-1.3266 -0.4026 -0.6417 0.9939
-1.3283 -0.5366 -0.6631 0.9937
-3.1959 -2.9242 -2.0051 0.9811
-2.6263 -3.4460 -2.0055 0.9811
-2.3088 -3.6667 -2.0057 0.9811
-1.9728 -3.8583 -2.0058 0.9811
-1.6210 -4.0190 -2.0059 0.9811
-1.2562 -4.1476 -2.0060 0.9811
-0.4996 -4.3049 -2.0060 0.9811
-0.1138 -4.3322 -2.0060 0.9811
0.2729 -4.3250 -2.0060 0.9811
0.6574 -4.2832 -2.0059 0.9811
2.1125 -3.7819 -2.0052 0.9811
2.4410 -3.5780 -2.0049 0.9811
3.2995 -2.8032 -2.0041 0.9811
3.9217 -1.8292 -2.0031 0.9811
4.1827 -1.1031 -2.0023 0.9811
4.2637 -0.7257 -2.0020 0.9811
4.3106 -0.3426 -2.0016 0.9811
4.3013 0.4283 -2.0009 0.9811
4.2453 0.8100 -2.0005 0.9811
4.1554 1.1851 -2.0002 0.9811
4.0325 1.5506 -1.9998 0.9811
3.8776 1.9037 -1.9995 0.9811
3.6919 2.2415 -1.9992 0.9811
3.4769 2.5614 -1.9990 0.9811
3.2342 2.8608 -1.9987 0.9811
2.9660 3.1374 -1.9985 0.9811
2.6742 3.3891 -1.9983 0.9812
2.0294 3.8096 -1.9980 0.9812
1.6815 3.9751 -1.9979 0.9812
1.3204 4.1090 -1.9978 0.9812
0.5696 4.2781 -1.9978 0.9812
-0.1993 4.3114 -1.9978 0.9812
-0.5830 4.2767 -1.9979 0.9812
-0.9620 4.2079 -1.9980 0.9812
-1.3335 4.1057 -1.9982 0.9812
-2.0419 3.8043 -1.9986 0.9811
-2.6858 3.3820 -1.9991 0.9811
-3.2447 2.8520 -1.9997 0.9811
-3.4867 2.5518 -2.0000 0.9811
-1.3316 0.5072 -0.6596 0.9937
-1.3207 0.3722 -0.6351 0.9940
-1.3344 0.0091 -0.6177 0.9941
-1.3380 -0.1106 -0.6214 0.9941
-1.3184 -0.2286 -0.6194 0.9941
-1.3330 -0.4870 -0.6569 0.9938
-3.9182 -1.8425 -2.0042 0.9811
-3.7389 -2.1848 -2.0045 0.9811
-3.5297 -2.5099 -2.0048 0.9811
-3.2923 -2.8149 -2.0050 0.9811
-3.0285 -3.0976 -2.0053 0.9811
-2.7406 -3.3556 -2.0055 0.9811
-2.1013 -3.7897 -2.0058 0.9811
-1.7552 -3.9621 -2.0059 0.9811
-1.0236 -4.2112 -2.0060 0.9811
-0.6441 -4.2857 -2.0061 0.9811
1.2690 -4.1429 -2.0056 0.9811
2.3195 -3.6583 -2.0050 0.9811
2.6360 -3.4364 -2.0048 0.9811
3.4500 -2.6151 -2.0039 0.9811
4.0170 -1.6080 -2.0028 0.9811
4.1436 -1.2432 -2.0025 0.9811
4.1932 1.0448 -2.0003 0.9811
4.0826 1.4142 -2.0000 0.9811
3.9397 1.7723 -1.9996 0.9811
3.3288 2.7506 -1.9988 0.9811
3.0699 3.0361 -1.9986 0.9811
1.4578 4.0624 -1.9978 0.9812
0.7131 4.2566 -1.9978 0.9812
-0.4389 4.2938 -1.9979 0.9812
-1.5599 4.0254 -1.9983 0.9812
-2.8700 3.2276 -1.9992 0.9811
-3.1468 2.9593 -1.9995 0.9811
-3.3987 2.6674 -1.9999 0.9811
-3.8197 2.0220 -2.0005 0.9811
-1.2990 0.2892 -0.6160 0.9942
-1.3379 0.0542 -0.6198 0.9941
-1.3285 -0.1846 -0.6209 0.9941
-1.3019 -0.3012 -0.6185 0.9941
-1.3316 -0.4363 -0.6486 0.9938
-1.3227 -0.5685 -0.6664 0.9937
-3.8100 -2.0578 -2.0044 0.9811
-3.6119 -2.3896 -2.0047 0.9811
-3.1308 -2.9939 -2.0052 0.9811
-2.8517 -3.2615 -2.0054 0.9811
-2.2275 -3.7168 -2.0057 0.9811
-1.1646 -4.1743 -2.0060 0.9811
-0.7878 -4.2616 -2.0060 0.9811
-0.0183 -4.3337 -2.0060 0.9811
0.3681 -4.3179 -2.0059 0.9811
1.1290 -4.1834 -2.0057 0.9811
1.8538 -3.9156 -2.0053 0.9811
2.1952 -3.7343 -2.0051 0.9811
3.1040 -3.0190 -2.0043 0.9811
3.3603 -2.7298 -2.0040 0.9811
3.5897 -2.4189 -2.0037 0.9811
3.7904 -2.0889 -2.0033 0.9811
3.9609 -1.7423 -2.0030 0.9811
4.0997 -1.3819 -2.0026 0.9811
4.2058 -1.0107 -2.0022 0.9811
4.2784 -0.6316 -2.0019 0.9811
4.3169 -0.2476 -2.0015 0.9811
4.3210 0.1383 -2.0011 0.9811
3.9973 1.6389 -1.9998 0.9811
3.6415 2.3221 -1.9992 0.9811
1.9450 3.8533 -1.9980 0.9812
1.5936 4.0111 -1.9979 0.9812
0.8558 4.2302 -1.9978 0.9812
-0.2942 4.3060 -1.9979 0.9812
-0.6770 4.2629 -1.9979 0.9812
-1.0545 4.1858 -1.9981 0.9812
-2.4522 3.5545 -1.9989 0.9811
-2.7597 3.3221 -1.9991 0.9811
-3.0454 3.0633 -1.9994 0.9811
-3.3069 2.7800 -1.9997 0.9811
-3.5421 2.4745 -2.0001 0.9811
-3.7493 2.1492 -2.0004 0.9811
-1.3140 0.6045 -0.6695 0.9936
-1.3334 0.4746 -0.6552 0.9938
-1.3355 -0.0203 -0.6183 0.9941
-1.3101 -0.2571 -0.6180 0.9941
-1.3233 -0.3848 -0.6379 0.9939
-3.6900 -2.2667 -2.0046 0.9811
-2.3511 -3.6397 -2.0057 0.9811
-2.0174 -3.8351 -2.0058 0.9811
-1.6675 -3.9999 -2.0059 0.9811
-0.5495 -4.2988 -2.0060 0.9811
0.2227 -4.3279 -2.0060 0.9811
0.9877 -4.2191 -2.0058 0.9811
1.3599 -4.1139 -2.0056 0.9811
1.7211 -3.9759 -2.0054 0.9811
2.0685 -3.8062 -2.0052 0.9811
2.3994 -3.6062 -2.0050 0.9811
2.7110 -3.3774 -2.0047 0.9811
3.0009 -3.1219 -2.0044 0.9811
3.2668 -2.8414 -2.0041 0.9811
3.9003 -1.8746 -2.0031 0.9811
4.0512 -1.5191 -2.0027 0.9811
4.2550 -0.7751 -2.0020 0.9811
4.3061 0.3784 -2.0009 0.9811
4.2545 0.7607 -2.0006 0.9811
4.0503 1.5037 -1.9999 0.9811
3.8995 1.8586 -1.9996 0.9811
3.5064 2.5209 -1.9990 0.9811
3.2673 2.8231 -1.9987 0.9811
3.0022 3.1029 -1.9985 0.9811
2.7133 3.3578 -1.9983 0.9812
2.4029 3.5861 -1.9981 0.9812
2.0735 3.7858 -1.9980 0.9812
0.6192 4.2712 -1.9978 0.9812
0.2359 4.3095 -1.9978 0.9812
-0.1493 4.3134 -1.9978 0.9812
-1.0531 -3.9512 -2.0058 0.9819
-0.6966 -4.0294 -2.0058 0.9819
0.3946 -4.0698 -2.0057 0.9819
1.1110 -3.9346 -2.0055 0.9819
1.7919 -3.6740 -2.0051 0.9820
2.1121 -3.4993 -2.0049 0.9820
2.4154 -3.2966 -2.0047 0.9820
3.2004 -2.5388 -2.0038 0.9820
3.4135 -2.2430 -2.0035 0.9820
3.5993 -1.9294 -2.0032 0.9820
3.9795 -0.9076 -2.0022 0.9820
4.0439 -0.5491 -2.0018 0.9820
4.0429 0.5404 -2.0008 0.9820
3.9780 0.8986 -2.0005 0.9820
3.8814 1.2495 -2.0001 0.9820
3.7540 1.5903 -1.9998 0.9820
3.1980 2.5261 -1.9990 0.9820
2.1123 3.4833 -1.9983 0.9820
1.7932 3.6576 -1.9982 0.9820
1.4599 3.8027 -1.9981 0.9820
1.1150 3.9176 -1.9980 0.9820
0.7613 4.0014 -1.9980 0.9820
0.4015 4.0533 -1.9980 0.9820
0.0385 4.0731 -1.9980 0.9820
-0.6856 4.0155 -1.9982 0.9820
-1.0410 3.9386 -1.9983 0.9820
-1.7242 3.6917 -1.9986 0.9820
-2.0467 3.5236 -1.9988 0.9820
-2.9074 2.8574 -1.9996 0.9820
-3.1510 2.5872 -1.9999 0.9820
-3.3697 2.2963 -2.0002 0.9820
-1.1964 -0.0321 -0.5871 0.9947
-1.1909 -0.1389 -0.5881 0.9947
-1.1721 -0.2441 -0.5873 0.9947
-1.1589 -0.3517 -0.5941 0.9946
-1.1501 -0.4646 -0.6084 0.9945
-3.4568 -2.1792 -2.0045 0.9820
-1.8614 -3.6405 -2.0056 0.9819
-0.8317 -4.0037 -2.0058 0.9819
-0.4714 -4.0619 -2.0058 0.9819
-0.1074 -4.0877 -2.0058 0.9819
0.2575 -4.0808 -2.0057 0.9819
0.6203 -4.0414 -2.0056 0.9819
1.3281 -3.8665 -2.0054 0.9820
1.6674 -3.7324 -2.0052 0.9820
1.9933 -3.5685 -2.0050 0.9820
2.5948 -3.1569 -2.0045 0.9820
2.8656 -2.9126 -2.0042 0.9820
3.3363 -2.3567 -2.0036 0.9820
3.5326 -2.0495 -2.0033 0.9820
3.9470 -1.0410 -2.0023 0.9820
4.0591 0.4042 -2.0009 0.9820
4.0062 0.7644 -2.0006 0.9820
3.6594 1.7965 -1.9997 0.9820
3.4841 2.1153 -1.9994 0.9820
3.2812 2.4173 -1.9991 0.9820
2.7991 2.9609 -1.9987 0.9820
2.2283 3.4104 -1.9983 0.9820
1.5870 3.7516 -1.9981 0.9820
1.2461 3.8780 -1.9980 0.9820
0.8954 3.9736 -1.9980 0.9820
0.1754 4.0694 -1.9980 0.9820
-1.9270 3.5903 -1.9988 0.9820
-2.2397 3.4046 -1.9990 0.9820
-2.5347 3.1917 -1.9992 0.9820
-2.8095 2.9534 -1.9995 0.9820
-1.1327 0.5517 -0.6180 0.9944
-1.1534 0.4394 -0.6054 0.9945
-1.1589 0.3266 -0.5906 0.9947
-1.1774 0.2208 -0.5876 0.9947
-1.1958 0.0082 -0.5866 0.9947
-1.1369 -0.5346 -0.6163 0.9944
-3.5280 -2.0616 -2.0044 0.9820
-3.3305 -2.3682 -2.0046 0.9820
-2.2935 -3.3845 -2.0054 0.9819
-1.3162 -3.8714 -2.0058 0.9819
-0.9658 -3.9734 -2.0058 0.9819
-0.6077 -4.0437 -2.0058 0.9819
-0.2447 -4.0818 -2.0058 0.9819
0.1202 -4.0872 -2.0058 0.9819
