ply
format ascii 1.0
element vertex 1579
property float32 x
property float32 y
property float32 z
property float32 I
end_header
-10.2348 -11.7235 -1.8486 0.9392
-9.1401 -12.5807 -1.8472 0.9393
-7.9817 -13.3486 -1.8475 0.9393
-4.1613 -14.9944 -1.8484 0.9392
1.3513 -15.5144 -1.8499 0.9392
5.4173 -14.6100 -1.8509 0.9392
7.0326 -14.7664 -1.9428 0.9362
8.5848 -14.5226 -2.0039 0.9343
9.8487 -13.7004 -2.0043 0.9343
11.0342 -12.7684 -2.0046 0.9343
14.8127 -8.1025 -2.0056 0.9343
15.4783 -6.7482 -2.0057 0.9342
16.0201 -5.3398 -2.0059 0.9342
16.7159 -2.4058 -2.0061 0.9342
16.8643 -0.9038 -2.0061 0.9342
16.8777 0.6055 -2.0061 0.9342
16.7560 2.1098 -2.0061 0.9342
15.2456 3.3237 -1.8535 0.9391
14.8873 4.6714 -1.8534 0.9391
12.3061 9.5833 -1.8528 0.9391
10.8176 10.0987 -1.7579 0.9421
9.3017 10.3864 -1.6562 0.9454
7.9412 10.6447 -1.5775 0.9479
6.6947 10.8812 -1.5176 0.9498
5.5305 11.1022 -1.4734 0.9513
4.4236 11.3123 -1.4428 0.9523
2.3013 11.7151 -1.4182 0.9530
1.2499 11.9096 -1.4225 0.9529
-0.9163 12.3207 -1.4676 0.9515
-2.0704 12.5397 -1.5097 0.9501
-4.6442 13.0282 -1.6430 0.9458
-7.7449 13.4885 -1.8476 0.9393
-11.9691 9.9185 -1.8465 0.9393
-12.8053 8.8092 -1.8463 0.9393
-15.8858 5.5193 -1.9977 0.9345
-16.3142 4.0788 -1.9975 0.9345
-16.6126 2.6058 -1.9975 0.9345
-16.7785 1.1122 -1.9974 0.9345
-16.7089 -1.8895 -1.9974 0.9345
-15.6130 -6.2505 -1.9977 0.9345
-13.4023 -10.1672 -1.9983 0.9345
-10.5660 -11.5021 -1.8553 0.9390
-9.4551 -12.3448 -1.8471 0.9393
-8.3165 -13.1418 -1.8474 0.9393
-7.1112 -13.8341 -1.8477 0.9393
-5.8487 -14.4163 -1.8480 0.9393
-3.1928 -15.2323 -1.8487 0.9392
-1.8205 -15.4594 -1.8491 0.9392
2.3426 -15.3981 -1.8501 0.9392
3.7087 -15.1304 -1.8505 0.9392
5.0457 -14.7416 -1.8508 0.9392
6.5397 -14.6767 -1.9086 0.9373
9.4985 -13.9446 -2.0042 0.9343
10.7072 -13.0429 -2.0045 0.9343
13.7862 -9.7432 -2.0053 0.9343
14.6026 -8.4744 -2.0055 0.9343
15.3022 -7.1375 -2.0057 0.9342
15.8795 -5.7433 -2.0058 0.9342
16.8359 -1.3302 -2.0061 0.9342
16.8876 0.1783 -2.0061 0.9342
16.8041 1.6853 -2.0061 0.9342
15.3250 2.9370 -1.8535 0.9391
15.0009 4.2933 -1.8534 0.9391
14.5569 5.6151 -1.8533 0.9391
13.9963 6.8917 -1.8532 0.9391
13.3239 8.1131 -1.8530 0.9391
9.7128 10.3084 -1.6824 0.9445
3.6536 11.4584 -1.4286 0.9527
1.5480 11.8530 -1.4199 0.9530
-0.6004 12.2607 -1.4581 0.9518
-5.6945 13.2276 -1.7107 0.9436
-7.3236 13.5368 -1.8282 0.9399
-8.5919 12.9632 -1.8474 0.9393
-9.7135 12.1424 -1.8471 0.9393
-10.7571 11.2251 -1.8468 0.9393
-11.7148 10.2185 -1.8466 0.9393
-15.7414 5.9196 -1.9977 0.9345
-16.2061 4.4902 -1.9976 0.9345
-16.5415 3.0253 -1.9975 0.9345
-16.7451 1.5364 -1.9974 0.9345
-16.7513 -1.4662 -1.9974 0.9345
-16.2246 -4.4222 -1.9976 0.9345
-15.7659 -5.8534 -1.9977 0.9345
-15.1814 -7.2381 -1.9978 0.9345
-13.6548 -9.8246 -1.9982 0.9345
-9.7639 -12.1012 -1.8470 0.9393
-6.2112 -14.2630 -1.8479 0.9393
-4.9139 -14.7632 -1.8483 0.9392
-2.2109 -15.4076 -1.8490 0.9392
0.5648 -15.5612 -1.8497 0.9392
1.9522 -15.4516 -1.8500 0.9392
3.3245 -15.2186 -1.8504 0.9392
4.6708 -14.8638 -1.8507 0.9392
6.0632 -14.5895 -1.8767 0.9383
7.8102 -14.8830 -1.9965 0.9345
11.5218 -12.3316 -2.0047 0.9343
12.5785 -11.2552 -2.0050 0.9343
14.3831 -8.8409 -2.0055 0.9343
15.1164 -7.5222 -2.0056 0.9342
16.2155 -4.7145 -2.0059 0.9342
15.1050 3.9124 -1.8535 0.9391
14.6945 5.2451 -1.8534 0.9391
14.1665 6.5356 -1.8532 0.9391
13.5253 7.7736 -1.8531 0.9391
12.7759 8.9492 -1.8529 0.9391
6.1809 10.9788 -1.4966 0.9505
3.9558 11.4011 -1.4335 0.9526
0.7902 11.9968 -1.4281 0.9527
-1.4215 12.5227 -1.4971 0.9505
-5.2697 13.1469 -1.6825 0.9445
-6.8401 13.4450 -1.7919 0.9410
-11.4529 10.5120 -1.8466 0.9393
-12.3442 9.4463 -1.8464 0.9393
-13.1367 8.3056 -1.8462 0.9393
-14.9620 7.6830 -1.9979 0.9345
-16.4598 3.4429 -1.9975 0.9345
-16.7829 -1.0419 -1.9974 0.9345
-16.6232 -2.5362 -1.9975 0.9345
-15.9086 -5.4526 -1.9976 0.9345
-13.8985 -9.4757 -1.9981 0.9345
-11.5067 -11.3192 -1.9173 0.9371
-7.8011 -13.4554 -1.8475 0.9393
-5.2856 -14.6334 -1.8482 0.9393
-1.2196 -15.5197 -1.8492 0.9392
4.2931 -14.9764 -1.8506 0.9392
5.6141 -14.5360 -1.8510 0.9392
8.7801 -14.4058 -2.0040 0.9343
11.2057 -12.6186 -2.0046 0.9343
12.2893 -11.5694 -2.0049 0.9343
13.2748 -10.4274 -2.0052 0.9343
14.1544 -9.2016 -2.0054 0.9343
14.9208 -7.9020 -2.0056 0.9342
16.0908 -5.1232 -2.0059 0.9342
16.8749 -0.6762 -2.0061 0.9342
16.8679 0.8331 -2.0061 0.9342
16.7030 2.3325 -2.0033 0.9343
15.1993 3.5291 -1.8535 0.9391
14.8228 4.8718 -1.8534 0.9391
13.7180 7.4291 -1.8531 0.9391
12.1755 9.7483 -1.8527 0.9391
10.5768 10.1444 -1.7408 0.9427
7.7467 10.6816 -1.5674 0.9482
6.5144 10.9155 -1.5100 0.9501
5.3603 11.1345 -1.4679 0.9514
3.1938 11.5457 -1.4230 0.9529
2.1421 11.7402 -1.4176 0.9531
1.0904 11.9398 -1.4242 0.9529
0.0203 12.1429 -1.4424 0.9523
-1.0959 12.4610 -1.4859 0.9509
-2.2507 12.5740 -1.5173 0.9498
-3.4975 12.8106 -1.5774 0.9479
-4.8584 13.0689 -1.6562 0.9454
-6.3751 13.3567 -1.7580 0.9421
-9.0876 12.6193 -1.8472 0.9393
-10.1764 11.7558 -1.8470 0.9393
-6.7779 11.1418 -1.8478 0.9487
-9.4844 8.9440 -1.8471 0.9487
-10.2440 8.0606 -1.8469 0.9487
-12.4595 6.6119 -1.9986 0.9446
-12.9991 5.4727 -1.9984 0.9446
-13.9828 1.8322 -1.9981 0.9446
-14.0903 0.5765 -1.9981 0.9446
-14.0855 -0.6838 -1.9981 0.9446
-13.9684 -1.9386 -1.9981 0.9446
-13.7399 -3.1781 -1.9982 0.9446
-11.7613 -7.7882 -1.9987 0.9446
-8.2950 -11.4174 -1.9996 0.9446
-3.5456 -12.7757 -1.8786 0.9478
-0.0338 -13.4163 -1.9009 0.9472
4.9148 -13.2547 -2.0030 0.9445
6.0794 -12.7649 -2.0033 0.9445
7.1958 -12.1729 -2.0036 0.9445
8.2550 -11.4835 -2.0039 0.9445
10.1682 -9.8347 -2.0044 0.9445
11.0069 -8.8886 -2.0046 0.9444
11.7576 -7.8712 -2.0048 0.9444
12.9721 -5.6556 -2.0051 0.9444
14.1333 -0.7574 -2.0054 0.9444
14.1445 0.5074 -2.0054 0.9444
13.7961 3.0077 -2.0007 0.9446
10.9909 7.0797 -1.8524 0.9486
10.3140 8.0320 -1.8522 0.9486
9.5547 8.9198 -1.8520 0.9486
8.7192 9.7361 -1.8518 0.9486
7.7161 10.3429 -1.8284 0.9492
5.5305 11.1022 -1.7574 0.9511
4.4236 11.3123 -1.7210 0.9521
2.3013 11.7151 -1.6916 0.9529
0.1837 12.1119 -1.7163 0.9522
-4.3804 12.2884 -1.8485 0.9487
-6.4941 11.3101 -1.8479 0.9487
-7.4769 10.6837 -1.8476 0.9487
-8.3998 9.9722 -1.8474 0.9487
-10.0371 8.3174 -1.8470 0.9487
-12.2885 6.9251 -1.9986 0.9446
-12.8567 5.7999 -1.9984 0.9446
-13.3224 4.6287 -1.9983 0.9446
-13.6818 3.4206 -1.9982 0.9446
-14.0713 0.9328 -1.9981 0.9446
-14.0983 -0.3272 -1.9981 0.9446
-13.8158 -2.8294 -1.9982 0.9446
-13.5085 -4.0517 -1.9983 0.9446
-13.0936 -5.2419 -1.9984 0.9446
-12.5741 -6.3903 -1.9985 0.9446
-11.9543 -7.4880 -1.9987 0.9446
-11.2391 -8.5261 -1.9988 0.9446
-9.5456 -10.3913 -1.9993 0.9446
-7.5271 -11.8944 -1.9944 0.9447
-6.3020 -12.2599 -1.9532 0.9458
-5.0683 -12.4926 -1.9102 0.9470
-2.7100 -12.9291 -1.8717 0.9480
-0.3716 -13.3551 -1.8930 0.9475
2.0997 -13.8017 -1.9780 0.9452
3.3611 -13.7124 -2.0004 0.9446
4.5776 -13.3742 -2.0029 0.9445
7.9615 -11.6882 -2.0038 0.9445
8.9745 -10.9322 -2.0041 0.9445
10.7781 -9.1640 -2.0045 0.9444
12.2384 -7.1024 -2.0049 0.9444
12.8246 -5.9818 -2.0051 0.9444
13.3083 -4.8133 -2.0052 0.9444
14.1528 0.1494 -2.0054 0.9444
14.0829 1.4124 -2.0054 0.9444
12.1998 4.7059 -1.8527 0.9485
11.1668 6.7996 -1.8525 0.9486
9.7776 8.6755 -1.8521 0.9486
8.9630 9.5127 -1.8519 0.9486
7.0379 10.8161 -1.8284 0.9492
4.7323 11.2537 -1.7298 0.9519
3.6536 11.4584 -1.7041 0.9526
1.5480 11.8530 -1.6937 0.9529
-0.6004 12.2607 -1.7393 0.9516
-1.6881 12.1261 -1.7347 0.9517
-4.0683 12.3958 -1.8485 0.9487
-3.2694 7.5943 -1.1715 0.9671
-6.2061 11.4713 -1.8480 0.9487
-7.2045 10.8699 -1.8477 0.9487
-8.1451 10.1819 -1.8475 0.9487
-9.0205 9.4129 -1.8472 0.9487
-12.1096 7.2340 -1.9986 0.9446
-12.7062 6.1235 -1.9985 0.9446
-13.5910 3.7657 -1.9983 0.9446
-13.8724 2.5372 -1.9982 0.9446
-13.2218 -4.9088 -1.9983 0.9446
-12.1396 -7.1830 -1.9986 0.9446
-11.4509 -8.2389 -1.9988 0.9446
-9.8051 -10.1462 -1.9992 0.9446
-7.8336 -11.7121 -1.9965 0.9447
-6.6620 -12.1915 -1.9685 0.9454
-5.4122 -12.4280 -1.9206 0.9467
-3.0392 -12.8689 -1.8735 0.9480
1.7353 -13.7351 -1.9616 0.9456
3.0097 -13.7773 -1.9981 0.9446
4.2376 -13.4852 -2.0028 0.9445
6.5703 -12.5203 -2.0034 0.9445
8.6947 -11.1553 -2.0040 0.9445
9.6571 -10.3358 -2.0042 0.9445
11.3438 -8.4554 -2.0047 0.9444
12.0545 -7.4096 -2.0049 0.9444
12.6689 -6.3043 -2.0050 0.9444
13.5898 -3.9511 -2.0053 0.9444
12.9791 3.3618 -1.8997 0.9473
11.8728 5.4774 -1.8526 0.9485
11.3355 6.5150 -1.8525 0.9486
10.7077 7.5004 -1.8523 0.9486
9.9943 8.4256 -1.8522 0.9486
9.2011 9.2832 -1.8520 0.9486
8.3346 10.0664 -1.8517 0.9486
7.3883 10.7496 -1.8482 0.9487
5.0444 11.1945 -1.7397 0.9516
3.9558 11.4011 -1.7099 0.9524
2.8955 11.6023 -1.6943 0.9528
0.7902 11.9968 -1.7035 0.9526
-0.2883 12.2015 -1.7293 0.9519
-1.3695 12.0656 -1.7205 0.9521
-2.5940 12.6391 -1.8282 0.9492
-3.7536 12.4954 -1.8486 0.9487
-4.8534 12.1085 -1.8483 0.9487
-5.9142 11.6251 -1.8481 0.9487
-9.6041 8.8150 -1.8471 0.9487
-12.5474 6.4431 -1.9985 0.9446
-13.0717 5.2968 -1.9984 0.9446
-14.0062 1.6433 -1.9981 0.9446
-14.0750 -0.8738 -1.9981 0.9446
-13.3415 -4.5727 -1.9983 0.9446
-12.8807 -5.7459 -1.9984 0.9446
-12.3172 -6.8734 -1.9986 0.9446
-11.6553 -7.9463 -1.9987 0.9446
-10.9004 -8.9560 -1.9989 0.9446
-10.0584 -9.8945 -1.9991 0.9446
-9.1359 -10.7543 -1.9994 0.9446
-8.1362 -11.5226 -1.9986 0.9446
-3.3692 -12.8082 -1.8765 0.9479
-2.2059 -13.0210 -1.8712 0.9480
-1.0399 -13.2335 -1.8808 0.9478
1.3767 -13.6694 -1.9466 0.9460
2.6573 -13.8341 -1.9960 0.9447
6.2512 -12.6820 -2.0033 0.9445
7.3596 -12.0750 -2.0036 0.9445
8.4094 -11.3713 -2.0039 0.9445
10.3002 -9.6968 -2.0044 0.9445
11.8629 -7.7120 -2.0048 0.9444
12.5051 -6.6226 -2.0050 0.9444
13.4853 -4.2936 -2.0052 0.9444
14.0350 -1.8270 -2.0054 0.9444
14.1422 -0.5667 -2.0054 0.9444
14.1364 0.6982 -2.0054 0.9444
12.0078 5.1754 -1.8527 0.9485
11.4970 6.2263 -1.8525 0.9485
10.8943 7.2273 -1.8524 0.9486
10.2046 8.1703 -1.8522 0.9486
9.4334 9.0478 -1.8520 0.9486
7.6720 10.5786 -1.8516 0.9486
6.5144 10.9155 -1.8011 0.9499
4.2602 11.3433 -1.7168 0.9522
2.1421 11.7402 -1.6909 0.9529
0.0203 12.1429 -1.7205 0.9521
-3.4364 12.5869 -1.8487 0.9487
-5.6184 11.7715 -1.8481 0.9487
-7.6202 10.5816 -1.8476 0.9487
-8.5334 9.8578 -1.8474 0.9487
-4.9520 10.0676 -1.8483 0.9555
-6.6619 9.0242 -1.8479 0.9555
-8.1589 7.6940 -1.8475 0.9556
-10.7186 5.6881 -1.9990 0.9520
-11.1829 4.7081 -1.9989 0.9520
-11.5580 3.6907 -1.9988 0.9520
-11.8409 2.6440 -1.9987 0.9520
-12.0294 1.5762 -1.9987 0.9520
-12.1219 0.4960 -1.9986 0.9520
-11.5295 -3.7786 -1.9988 0.9520
-10.1179 -6.7000 -1.9991 0.9520
-9.4801 -7.5771 -1.9993 0.9520
-8.7665 -8.3940 -1.9995 0.9520
-7.1354 -9.8214 -1.9999 0.9520
-6.2308 -10.4204 -2.0001 0.9520
-3.2480 -11.7035 -2.0009 0.9520
-1.1151 -12.0979 -2.0014 0.9519
3.1917 -11.7294 -2.0026 0.9519
4.2267 -11.3991 -2.0028 0.9519
6.1882 -10.4684 -2.0033 0.9519
8.7439 -8.4571 -2.0040 0.9519
10.1104 -6.7685 -2.0044 0.9519
10.6751 -5.8392 -2.0045 0.9519
12.0747 1.5204 -2.0049 0.9519
11.5411 3.6214 -1.9927 0.9521
10.3844 4.3105 -1.8523 0.9554
9.9576 5.2201 -1.8521 0.9554
9.4511 6.0879 -1.8520 0.9554
6.7198 9.0074 -1.8513 0.9555
5.8881 9.5703 -1.8511 0.9555
3.1404 10.7843 -1.8504 0.9555
1.1720 11.1678 -1.8499 0.9555
0.1703 11.2263 -1.8496 0.9555
-1.8285 11.0745 -1.8491 0.9555
-2.8095 10.8656 -1.8489 0.9555
-3.7678 10.5699 -1.8486 0.9555
-5.5862 9.7288 -1.8481 0.9555
-7.2257 8.5783 -1.8477 0.9555
-7.9619 7.8981 -1.8475 0.9556
-10.5715 5.9575 -1.9990 0.9520
-11.4611 3.9820 -1.9988 0.9520
-11.7704 2.9427 -1.9987 0.9520
-11.8857 -2.4341 -1.9987 0.9520
-11.6213 -3.4857 -1.9987 0.9520
-11.2642 -4.5095 -1.9988 0.9520
-10.8172 -5.4975 -1.9989 0.9520
-10.2839 -6.4417 -1.9991 0.9520
-9.6685 -7.3347 -1.9992 0.9520
-8.9758 -8.1693 -1.9994 0.9520
-7.3814 -9.6374 -1.9998 0.9520
-5.5511 -10.7990 -2.0003 0.9520
-4.5653 -11.2529 -2.0006 0.9520
-3.5429 -11.6171 -2.0008 0.9520
-2.4919 -11.8886 -2.0011 0.9519
-0.3379 -12.1457 -2.0016 0.9519
2.8938 -11.8060 -2.0025 0.9519
3.9368 -11.5020 -2.0028 0.9519
4.9487 -11.1060 -2.0030 0.9519
5.9212 -10.6212 -2.0033 0.9519
6.8466 -10.0514 -2.0035 0.9519
7.7175 -9.4010 -2.0037 0.9519
8.5269 -8.6754 -2.0039 0.9519
9.9357 -7.0219 -2.0043 0.9519
11.0277 -5.1437 -2.0046 0.9519
11.4435 -4.1388 -2.0047 0.9519
11.7678 -3.1008 -2.0048 0.9519
12.1323 -0.9585 -2.0049 0.9519
12.1695 0.1285 -2.0049 0.9519
11.6796 3.3427 -2.0013 0.9519
10.4903 4.0465 -1.8523 0.9554
9.6023 5.8469 -1.8521 0.9554
9.0412 6.6803 -1.8519 0.9555
8.4080 7.4602 -1.8517 0.9555
7.7076 8.1803 -1.8516 0.9555
6.9458 8.8348 -1.8514 0.9555
4.3547 10.3558 -1.8507 0.9555
2.4429 10.9623 -1.8502 0.9555
1.4543 11.1350 -1.8500 0.9555
-0.5491 11.2130 -1.8494 0.9555
-8.4621 7.3813 -1.8499 0.9555
-10.4176 6.2232 -1.9991 0.9520
-11.9344 2.1827 -1.9987 0.9520
-12.0859 -1.0578 -1.9986 0.9520
-11.9434 -2.1326 -1.9987 0.9520
-11.7056 -3.1905 -1.9987 0.9520
-11.3745 -4.2230 -1.9988 0.9520
-9.8507 -7.0876 -1.9992 0.9520
-9.1794 -7.9394 -1.9994 0.9520
-8.4347 -8.7281 -1.9996 0.9520
-5.8223 -10.6548 -2.0002 0.9520
-4.8484 -11.1334 -2.0005 0.9520
-3.8355 -11.5233 -2.0007 0.9520
-2.7918 -11.8213 -2.0010 0.9520
-0.6451 -12.1328 -2.0016 0.9519
0.4407 -12.1436 -2.0018 0.9519
1.5234 -12.0574 -2.0021 0.9519
4.6659 -11.2273 -2.0029 0.9519
5.6504 -10.7673 -2.0032 0.9519
6.5899 -10.2210 -2.0034 0.9519
7.4770 -9.5930 -2.0037 0.9519
9.0657 -8.1120 -2.0041 0.9519
10.3656 -6.3715 -2.0044 0.9519
12.1041 -1.2652 -2.0049 0.9519
12.1688 -0.1795 -2.0049 0.9519
12.0065 1.9875 -2.0049 0.9519
11.7808 3.0515 -2.0048 0.9519
10.6795 3.8120 -1.8680 0.9551
10.2092 4.7099 -1.8522 0.9554
9.7473 5.6022 -1.8521 0.9554
8.5942 7.2453 -1.8518 0.9555
7.9123 7.9829 -1.8516 0.9555
7.1673 8.6565 -1.8514 0.9555
5.5122 9.7909 -1.8510 0.9555
4.6155 10.2427 -1.8508 0.9555
2.7196 10.8974 -1.8503 0.9555
0.7380 11.2042 -1.8498 0.9555
-0.2652 11.2238 -1.8495 0.9555
-2.2565 10.9946 -1.8490 0.9555
-3.2286 10.7478 -1.8487 0.9555
-4.1747 10.4153 -1.8485 0.9555
-5.0873 9.9996 -1.8483 0.9555
-7.5526 8.2912 -1.8476 0.9556
-8.2619 7.5831 -1.8474 0.9556
-10.2570 6.4849 -1.9991 0.9520
-11.2453 4.5567 -1.9989 0.9520
-11.6067 3.5344 -1.9988 0.9520
-11.8755 2.4840 -1.9987 0.9520
-12.0495 1.4138 -1.9986 0.9520
-11.9934 -1.8298 -1.9987 0.9520
-11.7825 -2.8933 -1.9987 0.9520
-11.0811 -4.9431 -1.9989 0.9520
-9.3771 -7.7045 -1.9993 0.9520
-8.6526 -8.5117 -1.9995 0.9520
-7.8589 -9.2511 -1.9997 0.9520
-5.1283 -11.0068 -2.0004 0.9520
-2.0291 -11.9771 -2.0012 0.9519
1.2178 -12.0917 -2.0020 0.9519
3.3497 -11.6855 -2.0026 0.9519
4.3802 -11.3413 -2.0029 0.9519
6.3290 -10.3841 -2.0034 0.9519
7.2317 -9.7788 -2.0036 0.9519
8.0767 -9.0951 -2.0038 0.9519
8.8574 -8.3385 -2.0040 0.9519
9.5673 -7.5151 -2.0042 0.9519
10.2009 -6.6315 -2.0044 0.9519
11.5957 -3.6920 -2.0047 0.9519
11.8794 -2.6421 -2.0048 0.9519
12.0682 -1.5710 -2.0049 0.9519
12.1604 -0.4873 -2.0049 0.9519
9.3680 6.2147 -1.8520 0.9554
8.7750 7.0257 -1.8518 0.9555
7.3842 8.4727 -1.8515 0.9555
5.7584 9.6487 -1.8511 0.9555
4.8733 10.1230 -1.8508 0.9555
2.9945 10.8255 -1.8504 0.9555
0.0188 11.2274 -1.8496 0.9555
-0.9835 11.1826 -1.8493 0.9555
-2.9558 10.8265 -1.8488 0.9555
-3.5605 7.4598 -1.3617 0.9670
-5.7168 9.6524 -1.8481 0.9555
-8.0676 7.7899 -1.8475 0.9556
-4.3406 8.8245 -1.8485 0.9608
-5.1105 8.4009 -1.8483 0.9608
-6.5218 7.3566 -1.8479 0.9608
-8.3605 6.5786 -1.9996 0.9576
-8.9138 5.8055 -1.9995 0.9576
-10.1319 3.2353 -1.9991 0.9576
-10.3800 2.3178 -1.9991 0.9576
-10.6264 0.4348 -1.9990 0.9576
-10.5344 -1.4620 -1.9990 0.9576
-9.3576 -5.0575 -1.9993 0.9576
-7.6846 -7.3580 -1.9998 0.9576
-6.9976 -8.0154 -1.9999 0.9576
-6.2546 -8.6090 -2.0001 0.9576
-5.4616 -9.1339 -2.0003 0.9576
-0.9774 -10.6034 -2.0015 0.9576
-0.0268 -10.6497 -2.0017 0.9576
0.9242 -10.6108 -2.0020 0.9576
1.8681 -10.4872 -2.0022 0.9576
5.4232 -9.1742 -2.0031 0.9576
8.8599 -5.9313 -2.0040 0.9575
9.7747 -4.2616 -2.0043 0.9575
10.5556 -1.5192 -2.0045 0.9575
10.6577 0.3823 -2.0045 0.9575
10.4195 2.2716 -2.0045 0.9575
9.6335 3.9988 -1.9605 0.9584
8.2821 5.3349 -1.8517 0.9607
7.2002 6.7217 -1.8514 0.9607
5.1601 8.3871 -1.8509 0.9607
3.5855 9.1691 -1.8505 0.9607
2.7522 9.4514 -1.8503 0.9607
1.8972 9.6583 -1.8501 0.9607
1.0272 9.7879 -1.8498 0.9607
-0.7297 9.8121 -1.8494 0.9607
-1.6026 9.7066 -1.8492 0.9607
-3.3025 9.2647 -1.8487 0.9608
-3.4171 7.4151 -1.5346 0.9673
-6.3338 7.5194 -1.8479 0.9608
-8.7643 6.0293 -1.9995 0.9576
-9.2669 5.2224 -1.9994 0.9576
-9.6956 4.3739 -1.9993 0.9576
-10.0470 3.4907 -1.9992 0.9576
-10.5070 1.6481 -1.9990 0.9576
-10.6120 0.7035 -1.9990 0.9576
-10.6324 -0.2468 -1.9990 0.9576
-10.1874 -3.0556 -1.9991 0.9576
-9.8743 -3.9531 -1.9992 0.9576
-9.4825 -4.8191 -1.9993 0.9576
-9.0149 -5.6468 -1.9994 0.9576
-8.4753 -6.4295 -1.9996 0.9576
-7.1979 -7.8356 -1.9999 0.9576
-6.4702 -8.4477 -2.0001 0.9576
-5.6907 -8.9926 -2.0003 0.9576
-4.0016 -9.8634 -2.0007 0.9576
-3.1054 -10.1825 -2.0009 0.9576
-2.1842 -10.4203 -2.0012 0.9576
1.6021 -10.5308 -2.0021 0.9576
2.5362 -10.3469 -2.0024 0.9576
3.4502 -10.0804 -2.0026 0.9576
5.1892 -9.3082 -2.0031 0.9576
6.7632 -8.2386 -2.0035 0.9575
7.4724 -7.6026 -2.0037 0.9575
8.1221 -6.9057 -2.0038 0.9575
10.5137 -1.7857 -2.0045 0.9575
10.6313 -0.8400 -2.0045 0.9575
10.4737 2.0073 -2.0045 0.9575
7.3681 6.5376 -1.8515 0.9607
6.0869 7.7424 -1.8511 0.9607
5.3708 8.2541 -1.8510 0.9607
4.6120 8.6997 -1.8508 0.9607
2.9906 9.3791 -1.8504 0.9607
2.1410 9.6075 -1.8501 0.9607
-0.4812 9.8278 -1.8495 0.9607
-2.2209 9.5832 -1.8490 0.9608
-3.0672 9.3456 -1.8488 0.9608
-3.2442 7.5358 -1.5421 0.9672
-4.6793 8.6491 -1.8484 0.9608
-5.4322 8.1960 -1.8482 0.9608
-6.1417 7.6775 -1.8480 0.9608
-6.8019 7.0978 -1.8478 0.9608
-8.0059 6.9833 -1.9968 0.9577
-8.6091 6.2492 -1.9995 0.9576
-9.5820 4.6179 -1.9993 0.9576
-9.9556 3.7438 -1.9992 0.9576
-10.2496 2.8399 -1.9991 0.9576
-10.5908 0.9717 -1.9990 0.9576
-10.2614 -2.7969 -1.9991 0.9576
-8.6351 -6.2129 -1.9995 0.9576
-7.3937 -7.6508 -1.9998 0.9576
-5.1034 -9.3393 -2.0004 0.9576
-4.2497 -9.7587 -2.0006 0.9576
-1.5124 -10.5397 -2.0013 0.9576
-0.5654 -10.6339 -2.0016 0.9576
1.3351 -10.5676 -2.0021 0.9576
2.2735 -10.4074 -2.0023 0.9576
3.1940 -10.1641 -2.0026 0.9576
4.9518 -9.4362 -2.0030 0.9576
5.7752 -8.9574 -2.0032 0.9575
7.2775 -7.7890 -2.0036 0.9575
9.0835 -5.5834 -2.0041 0.9575
9.5463 -4.7504 -2.0042 0.9575
10.2399 -2.9772 -2.0044 0.9575
10.4651 -2.0511 -2.0045 0.9575
10.6067 -1.1086 -2.0045 0.9575
10.6634 -0.1573 -2.0045 0.9575
10.6348 0.7954 -2.0045 0.9575
10.5212 1.7416 -2.0045 0.9575
10.3234 2.6740 -2.0044 0.9575
10.0326 3.5811 -2.0023 0.9576
8.9843 4.1448 -1.8597 0.9605
6.2810 7.5861 -1.8512 0.9607
4.8307 8.5805 -1.8508 0.9607
4.0450 8.9765 -1.8506 0.9607
1.5211 9.7241 -1.8500 0.9607
0.6468 9.8199 -1.8497 0.9607
-1.1097 9.7759 -1.8493 0.9607
-1.9778 9.6367 -1.8491 0.9608
-2.8299 9.4205 -1.8488 0.9608
-3.6592 9.1291 -1.8486 0.9608
-4.4592 8.7650 -1.8484 0.9608
-5.2233 8.3310 -1.8482 0.9608
-6.6204 7.2678 -1.8479 0.9608
-8.4484 6.4651 -1.9996 0.9576
-8.9913 5.6846 -1.9994 0.9576
-9.4623 4.8589 -1.9993 0.9576
-9.8578 3.9945 -1.9992 0.9576
-10.1746 3.0983 -1.9991 0.9576
-10.4103 2.1775 -1.9991 0.9576
-10.6313 0.2914 -1.9990 0.9576
-10.0614 -3.4485 -1.9991 0.9576
-9.2886 -5.1834 -1.9993 0.9576
-8.7893 -5.9924 -1.9995 0.9576
-8.2198 -6.7536 -1.9996 0.9576
-6.1380 -8.6927 -2.0002 0.9576
-5.3379 -9.2069 -2.0004 0.9576
-2.7083 -10.2958 -2.0010 0.9576
-1.7785 -10.4977 -2.0013 0.9576
-0.8342 -10.6159 -2.0015 0.9576
0.1169 -10.6492 -2.0018 0.9576
2.0094 -10.4613 -2.0023 0.9576
3.8388 -9.9395 -2.0027 0.9576
4.7114 -9.5581 -2.0030 0.9576
5.5465 -9.1003 -2.0032 0.9576
6.3375 -8.5697 -2.0034 0.9575
7.0780 -7.9704 -2.0036 0.9575
8.3841 -6.5857 -2.0039 0.9575
9.4229 -4.9903 -2.0042 0.9575
10.4098 -2.3152 -2.0044 0.9575
10.5752 -1.3766 -2.0045 0.9575
10.6515 0.5261 -2.0045 0.9575
10.5619 1.4749 -2.0045 0.9575
10.3878 2.4119 -2.0044 0.9575
10.1307 3.3296 -2.0044 0.9575
8.6632 4.6917 -1.8518 0.9607
7.1088 6.8182 -1.8514 0.9607
6.4711 7.4250 -1.8512 0.9607
5.7818 7.9723 -1.8511 0.9607
5.0464 8.4558 -1.8509 0.9607
4.2709 8.8716 -1.8507 0.9607
3.4614 9.2164 -1.8505 0.9607
2.6244 9.4876 -1.8503 0.9607
0.0165 9.8402 -1.8496 0.9607
-0.8620 9.8012 -1.8494 0.9607
-2.5907 9.4894 -1.8489 0.9608
-3.5404 7.4177 -1.5449 0.9671
-6.4346 7.4332 -1.8479 0.9608
-7.4273 7.1717 -1.9406 0.9588
-3.8599 7.8474 -1.8486 0.9649
-4.5447 7.4707 -1.8484 0.9649
-6.1485 6.9355 -1.9592 0.9628
-6.8836 6.4913 -2.0000 0.9621
-7.9273 5.1629 -1.9997 0.9621
-8.3561 4.4343 -1.9996 0.9621
-8.7182 3.6704 -1.9995 0.9621
-9.2314 2.0613 -1.9994 0.9621
-9.3783 1.2289 -1.9993 0.9621
-9.3687 -1.3002 -1.9993 0.9621
-8.3220 -4.4978 -1.9996 0.9621
-7.3903 -5.9069 -1.9998 0.9621
-6.8339 -6.5435 -2.0000 0.9621
-5.5621 -7.6559 -2.0003 0.9621
-4.8569 -8.1226 -2.0005 0.9620
-4.1127 -8.5246 -2.0007 0.9620
-3.3355 -8.8586 -2.0009 0.9620
-2.5316 -9.1220 -2.0011 0.9620
-0.0238 -9.4698 -2.0017 0.9620
1.6611 -9.3251 -2.0022 0.9620
2.4872 -9.1405 -2.0024 0.9620
6.1969 -7.1708 -2.0033 0.9620
7.8773 -5.2735 -2.0038 0.9620
8.3171 -4.5494 -2.0039 0.9620
8.6905 -3.7889 -2.0040 0.9620
8.9944 -2.9980 -2.0041 0.9620
9.2265 -2.1831 -2.0041 0.9620
9.3847 -1.3507 -2.0042 0.9620
9.4679 -0.5074 -2.0042 0.9620
9.4072 1.1845 -2.0042 0.9620
9.2637 2.0196 -2.0042 0.9620
9.0462 2.8385 -2.0041 0.9620
8.1752 4.2858 -1.9511 0.9630
6.9102 5.3813 -1.8514 0.9648
5.8422 6.5235 -1.8511 0.9648
5.2360 7.0185 -1.8509 0.9648
4.5881 7.4572 -1.8508 0.9648
1.6870 8.5879 -1.8500 0.9649
0.9134 8.7033 -1.8498 0.9649
0.1327 8.7492 -1.8496 0.9649
-0.6489 8.7251 -1.8494 0.9649
-2.9368 8.2386 -1.8488 0.9649
-3.4074 7.3941 -1.7209 0.9673
-4.3543 7.5835 -1.8484 0.9649
-5.7971 6.8823 -1.9021 0.9639
-6.7126 6.6589 -1.9986 0.9621
-7.2849 6.0368 -1.9999 0.9621
-7.7942 5.3619 -1.9998 0.9621
-8.2414 4.6444 -1.9996 0.9621
-8.9351 3.1044 -1.9995 0.9621
-9.3443 1.4657 -1.9993 0.9621
-9.4377 0.6256 -1.9993 0.9621
-9.4558 -0.2195 -1.9993 0.9621
-9.3985 -1.0628 -1.9993 0.9621
-8.0171 -5.0218 -1.9997 0.9621
-6.9971 -6.3684 -1.9999 0.9621
-5.0607 -7.9969 -2.0004 0.9620
-4.3269 -8.4176 -2.0006 0.9620
-1.1073 -9.4035 -2.0015 0.9620
-0.2634 -9.4659 -2.0017 0.9620
0.5828 -9.4526 -2.0019 0.9620
2.2551 -9.2003 -2.0023 0.9620
3.0678 -8.9631 -2.0025 0.9620
3.8562 -8.6543 -2.0027 0.9620
4.6139 -8.2763 -2.0029 0.9620
5.3349 -7.8320 -2.0031 0.9620
7.7412 -5.4710 -2.0037 0.9620
9.4810 0.1001 -2.0042 0.9620
9.3119 1.7846 -2.0042 0.9620
9.1152 2.6088 -2.0041 0.9620
7.0443 5.2049 -1.8514 0.9648
4.7754 7.3390 -1.8508 0.9648
4.1007 7.7353 -1.8506 0.9648
2.6591 8.3396 -1.8503 0.9648
1.9038 8.5428 -1.8501 0.9648
-1.2063 8.6650 -1.8493 0.9649
-1.9749 8.5217 -1.8491 0.9649
-2.7275 8.3105 -1.8489 0.9649
-3.2306 7.5042 -1.7270 0.9671
-6.5318 6.8160 -1.9955 0.9621
-8.1213 4.8515 -1.9997 0.9621
-8.5216 4.1068 -1.9996 0.9621
-8.8538 3.3295 -1.9995 0.9621
-9.1154 2.5256 -1.9994 0.9621
-9.4189 0.8642 -1.9993 0.9621
-9.4224 -0.8247 -1.9993 0.9621
-9.3113 -1.6626 -1.9993 0.9621
-8.8676 -3.2923 -1.9995 0.9621
-8.1415 -4.8173 -1.9996 0.9621
-7.6794 -5.5253 -1.9998 0.9621
-4.5384 -8.3052 -2.0006 0.9620
-2.1760 -9.2137 -2.0012 0.9620
-1.3448 -9.3722 -2.0014 0.9620
0.3435 -9.4640 -2.0018 0.9620
1.1872 -9.3966 -2.0020 0.9620
2.0216 -9.2541 -2.0023 0.9620
2.8400 -9.0376 -2.0025 0.9620
3.6359 -8.7489 -2.0027 0.9620
4.4029 -8.3902 -2.0029 0.9620
5.8260 -7.4747 -2.0032 0.9620
6.4706 -6.9253 -2.0034 0.9620
7.0636 -6.3205 -2.0036 0.9620
8.0761 -4.9641 -2.0038 0.9620
8.4875 -4.2235 -2.0039 0.9620
9.4301 -0.9857 -2.0042 0.9620
9.4551 0.7072 -2.0042 0.9620
9.3541 1.5485 -2.0042 0.9620
9.1783 2.3773 -2.0041 0.9620
8.5924 3.9640 -2.0002 0.9621
7.1739 5.0251 -1.8514 0.9648
6.1650 6.2199 -1.8512 0.9648
5.5846 6.7449 -1.8510 0.9648
4.2952 7.6293 -1.8507 0.9648
2.8693 8.2699 -1.8503 0.9648
2.1193 8.4921 -1.8501 0.9648
1.3525 8.6465 -1.8499 0.9649
0.5751 8.7318 -1.8497 0.9649
-0.2067 8.7473 -1.8495 0.9649
-2.5165 8.3771 -1.8489 0.9649
-3.2540 8.1182 -1.8487 0.9649
-4.6450 7.4086 -1.8484 0.9649
-6.9705 6.3978 -2.0000 0.9621
-8.4151 4.3212 -1.9996 0.9621
-8.7669 3.5524 -1.9995 0.9621
-9.0487 2.7555 -1.9994 0.9621
-9.4548 0.2591 -1.9993 0.9621
-9.3503 -1.4265 -1.9993 0.9621
-8.2606 -4.6097 -1.9996 0.9621
-6.7451 -6.6352 -2.0000 0.9621
-5.4584 -7.7303 -2.0003 0.9620
-4.7469 -8.1875 -2.0005 0.9620
-3.2158 -8.9030 -2.0009 0.9620
0.9490 -9.4233 -2.0020 0.9620
1.7868 -9.3020 -2.0022 0.9620
2.6104 -9.1063 -2.0024 0.9620
4.1891 -8.4986 -2.0028 0.9620
4.9316 -8.0914 -2.0030 0.9620
5.6349 -7.6195 -2.0032 0.9620
7.4543 -5.8553 -2.0037 0.9620
7.9478 -5.1668 -2.0038 0.9620
8.7409 -3.6713 -2.0040 0.9620
9.2551 -2.0584 -2.0041 0.9620
9.4021 -1.2239 -2.0042 0.9620
7.9908 4.3275 -1.9209 0.9635
7.2988 4.8421 -1.8515 0.9648
6.8369 5.4740 -1.8513 0.9648
6.3205 6.0621 -1.8512 0.9648
5.1408 7.0884 -1.8509 0.9648
4.4870 7.5183 -1.8507 0.9648
3.0777 8.1949 -1.8504 0.9648
2.3336 8.4361 -1.8502 0.9648
1.5709 8.6098 -1.8500 0.9649
0.7959 8.7147 -1.8498 0.9649
0.0146 8.7500 -1.8496 0.9649
-3.0477 8.1981 -1.8488 0.9649
-4.4562 7.5239 -1.8484 0.9649
-5.1096 7.0954 -1.8483 0.9649
-6.8065 6.5723 -2.0000 0.9621
-3.4718 7.0583 -1.8487 0.9682
-4.0877 6.7196 -1.8485 0.9682
-4.9598 6.7186 -1.9627 0.9663
-6.6878 5.2624 -2.0000 0.9656
-7.1305 4.6440 -1.9999 0.9656
-7.5163 3.9887 -1.9998 0.9656
-7.8420 3.3016 -1.9997 0.9656
-8.1052 2.5882 -1.9997 0.9656
-8.3037 1.8541 -1.9996 0.9656
-8.5008 0.3478 -1.9996 0.9656
-8.4979 -0.4125 -1.9996 0.9656
-8.4272 -1.1696 -1.9996 0.9656
-8.2893 -1.9173 -1.9996 0.9656
-8.0852 -2.6498 -1.9997 0.9656
-6.6475 -5.3131 -2.0000 0.9656
-3.0001 -7.9678 -2.0010 0.9656
-2.2770 -8.2046 -2.0012 0.9656
-1.5355 -8.3759 -2.0013 0.9656
-0.7817 -8.4804 -2.0015 0.9656
-0.0214 -8.5171 -2.0017 0.9656
1.4939 -8.3868 -2.0021 0.9656
2.2370 -8.2207 -2.0023 0.9656
2.9622 -7.9890 -2.0025 0.9656
5.5730 -6.4489 -2.0032 0.9656
7.0841 -4.7425 -2.0036 0.9656
8.2973 -1.9632 -2.0039 0.9656
8.5144 -0.4563 -2.0040 0.9656
8.5212 0.3057 -2.0040 0.9656
8.4598 1.0652 -2.0039 0.9656
7.0049 4.5122 -1.9583 0.9663
6.2189 4.8429 -1.8525 0.9681
5.7572 5.3746 -1.8511 0.9682
5.2540 5.8668 -1.8509 0.9682
4.7089 6.3119 -1.8508 0.9682
4.1262 6.7066 -1.8506 0.9682
3.5107 7.0476 -1.8505 0.9682
2.8672 7.3322 -1.8503 0.9682
1.5172 7.7238 -1.8500 0.9682
0.8215 7.8277 -1.8498 0.9682
-0.5836 7.8475 -1.8494 0.9682
-1.2818 7.7633 -1.8492 0.9682
-3.2922 7.1440 -1.8487 0.9682
-4.6715 6.6751 -1.9148 0.9671
-5.4763 6.5015 -1.9978 0.9657
-6.0421 5.9937 -2.0002 0.9656
-6.5527 5.4300 -2.0001 0.9656
-7.0109 4.8230 -2.0000 0.9656
-8.4053 1.3184 -1.9996 0.9656
-8.4893 0.5628 -1.9996 0.9656
-8.1496 -2.4444 -1.9996 0.9656
-7.8991 -3.1623 -1.9997 0.9656
-5.1755 -6.7573 -2.0004 0.9656
-3.8919 -7.5712 -2.0007 0.9656
-3.2006 -7.8892 -2.0009 0.9656
-0.2369 -8.5136 -2.0017 0.9656
0.5242 -8.5016 -2.0019 0.9656
5.4080 -6.5877 -2.0031 0.9656
6.4943 -5.5217 -2.0034 0.9656
8.0178 -2.8998 -2.0038 0.9656
8.4061 -1.4277 -2.0039 0.9656
8.5001 -0.6716 -2.0040 0.9656
8.4841 0.8509 -2.0040 0.9656
7.9548 3.0684 -2.0038 0.9656
7.6488 3.7662 -2.0037 0.9656
7.2562 4.4184 -1.9967 0.9657
6.3350 4.6808 -1.8512 0.9682
5.8915 5.2274 -1.8511 0.9682
4.8672 6.1909 -1.8508 0.9682
4.2947 6.6002 -1.8507 0.9682
3.6880 6.9567 -1.8505 0.9682
3.0519 7.2575 -1.8504 0.9682
2.3915 7.5003 -1.8502 0.9682
1.7122 7.6832 -1.8500 0.9682
0.3184 7.8637 -1.8497 0.9682
-1.0850 7.7934 -1.8493 0.9682
-1.7763 7.6647 -1.8491 0.9682
-3.1105 7.2252 -1.8488 0.9682
-4.3966 6.6335 -1.8704 0.9678
-5.3032 6.6293 -1.9952 0.9657
-6.4133 5.5942 -2.0001 0.9656
-6.8867 4.9989 -2.0000 0.9656
-7.6652 3.6941 -1.9998 0.9656
-7.9641 2.9949 -1.9997 0.9656
-8.4724 0.7774 -1.9996 0.9656
-8.3756 -1.4956 -1.9996 0.9656
-7.6805 -3.6619 -1.9998 0.9656
-7.3232 -4.3332 -1.9999 0.9656
-6.4366 -5.5671 -2.0001 0.9656
-5.9143 -6.1200 -2.0002 0.9656
-4.7323 -7.0753 -2.0005 0.9656
-3.3991 -7.8054 -2.0009 0.9656
-2.6889 -8.0785 -2.0010 0.9656
-1.2096 -8.4295 -2.0014 0.9656
1.8182 -8.3229 -2.0022 0.9656
3.2700 -7.8684 -2.0026 0.9656
4.6180 -7.1626 -2.0029 0.9656
6.8349 -5.0946 -2.0035 0.9656
7.2629 -4.4643 -2.0036 0.9656
8.1872 -2.3804 -2.0039 0.9656
8.3673 -1.6399 -2.0039 0.9656
8.4804 -0.8864 -2.0039 0.9656
8.5029 0.6359 -2.0040 0.9656
8.4121 1.3925 -2.0039 0.9656
8.2540 2.1379 -2.0039 0.9656
8.0299 2.8662 -2.0038 0.9656
7.7417 3.5716 -2.0038 0.9656
7.3754 4.2390 -1.9993 0.9656
6.5776 4.6074 -1.8874 0.9675
6.0219 5.0767 -1.8511 0.9682
5.0224 6.0659 -1.8509 0.9682
4.4604 6.4896 -1.8507 0.9682
3.2346 7.1782 -1.8504 0.9682
2.5806 7.4376 -1.8502 0.9682
1.9061 7.6376 -1.8501 0.9682
1.2165 7.7765 -1.8499 0.9682
0.5173 7.8533 -1.8497 0.9682
-1.5818 7.7074 -1.8492 0.9682
-5.7314 6.2919 -2.0003 0.9656
-6.7581 5.1716 -2.0000 0.9656
-7.8858 3.1954 -1.9997 0.9656
-8.1393 2.4786 -1.9997 0.9656
-8.3279 1.7419 -1.9996 0.9656
-8.4916 -0.5271 -1.9996 0.9656
-8.4107 -1.2832 -1.9996 0.9656
-8.0488 -2.7587 -1.9997 0.9656
-7.7706 -3.4663 -1.9997 0.9656
-7.4304 -4.1464 -1.9998 0.9656
-7.0309 -4.7935 -1.9999 0.9656
-6.0671 -5.9683 -2.0002 0.9656
-4.9097 -6.9531 -2.0005 0.9656
-4.2696 -7.3643 -2.0006 0.9656
-3.5954 -7.7168 -2.0008 0.9656
-2.8924 -8.0077 -2.0010 0.9656
-2.1661 -8.2347 -2.0012 0.9656
-1.4224 -8.3960 -2.0014 0.9656
-0.6672 -8.4903 -2.0016 0.9656
0.0935 -8.5168 -2.0018 0.9656
0.8536 -8.4753 -2.0020 0.9656
3.0698 -7.9484 -2.0025 0.9656
3.7675 -7.6432 -2.0027 0.9656
5.0676 -6.8525 -2.0031 0.9656
5.6596 -6.3732 -2.0032 0.9656
6.2064 -5.8429 -2.0033 0.9656
7.1475 -4.6465 -2.0036 0.9656
7.5342 -3.9901 -2.0037 0.9656
7.8607 -3.3016 -2.0038 0.9656
8.3231 -1.8511 -2.0039 0.9656
8.4552 -1.1006 -2.0039 0.9656
8.5163 0.4206 -2.0040 0.9656
8.0999 2.6622 -2.0039 0.9656
7.8297 3.3746 -2.0038 0.9656
6.8530 4.5463 -1.9328 0.9668
6.1486 4.9228 -1.8512 0.9682
5.6841 5.4518 -1.8510 0.9682
4.0353 6.7616 -1.8506 0.9682
3.4153 7.0942 -1.8505 0.9682
0.7158 7.8379 -1.8498 0.9682
-1.3864 7.7451 -1.8492 0.9682
-2.7412 7.3737 -1.8489 0.9682
-3.3882 7.0989 -1.8487 0.9682
-4.8235 6.6980 -1.9399 0.9667
-6.1223 5.9116 -2.0002 0.9656
-3.9762 6.5362 -1.9809 0.9689
-4.5880 6.2150 -2.0001 0.9686
-7.1190 2.9971 -1.9999 0.9686
-7.6581 1.0035 -1.9998 0.9686
-7.5250 -1.7406 -1.9998 0.9686
-7.3398 -2.4055 -1.9999 0.9686
-7.0959 -3.0513 -1.9999 0.9686
-6.0345 -4.8232 -2.0002 0.9686
-5.0811 -5.8202 -2.0004 0.9686
-3.9656 -6.6321 -2.0007 0.9686
-3.3579 -6.9602 -2.0009 0.9686
-2.7233 -7.2327 -2.0010 0.9686
-0.0195 -7.7311 -2.0017 0.9686
0.6709 -7.7027 -2.0019 0.9686
1.3560 -7.6127 -2.0021 0.9686
2.0305 -7.4619 -2.0023 0.9686
5.5611 -5.3787 -2.0032 0.9685
6.0195 -4.8611 -2.0033 0.9685
6.7887 -3.7134 -2.0035 0.9685
7.0934 -3.0926 -2.0036 0.9685
7.3415 -2.4470 -2.0036 0.9685
7.7340 0.2774 -2.0038 0.9685
7.6783 0.9668 -2.0037 0.9685
7.5612 1.6484 -2.0037 0.9685
7.3837 2.3169 -2.0037 0.9685
6.5026 4.1886 -2.0027 0.9685
6.0290 4.6951 -1.9785 0.9689
5.2260 4.8787 -1.8511 0.9709
4.7688 5.3250 -1.8508 0.9709
4.2741 5.7291 -1.8507 0.9709
3.7452 6.0873 -1.8505 0.9709
3.1866 6.3969 -1.8504 0.9709
1.9978 6.8605 -1.8501 0.9709
1.3772 7.0109 -1.8499 0.9709
-0.5297 7.1233 -1.8494 0.9709
-1.1635 7.0469 -1.8493 0.9709
-1.7878 6.9143 -1.8491 0.9709
-2.3978 6.7265 -1.8490 0.9709
-2.9885 6.4850 -1.8488 0.9709
-4.4244 6.3220 -1.9979 0.9686
-5.4849 5.4410 -2.0004 0.9686
-5.9484 4.9293 -2.0002 0.9686
-6.3644 4.3783 -2.0001 0.9686
-6.7295 3.7924 -2.0000 0.9686
-7.0409 3.1763 -1.9999 0.9686
-7.2962 2.5349 -1.9999 0.9686
-7.4931 1.8734 -1.9998 0.9686
-7.6303 1.1969 -1.9998 0.9686
-7.7066 0.5109 -1.9998 0.9686
-7.6747 -0.8679 -1.9998 0.9686
-7.3982 -2.2190 -1.9998 0.9686
-7.1708 -2.8707 -1.9999 0.9686
-6.5464 -4.1006 -2.0001 0.9686
-4.6981 -6.1340 -2.0005 0.9686
-4.1320 -6.5295 -2.0007 0.9686
-2.9054 -7.1614 -2.0010 0.9686
-2.2546 -7.3928 -2.0012 0.9686
-1.5857 -7.5652 -2.0013 0.9686
1.1630 -7.6444 -2.0020 0.9686
3.1479 -7.0647 -2.0026 0.9685
4.3548 -6.3933 -2.0029 0.9685
5.8945 -5.0117 -2.0033 0.9685
6.6925 -3.8839 -2.0035 0.9685
7.2771 -2.6320 -2.0036 0.9685
7.4833 -1.9718 -2.0037 0.9685
7.6005 1.4566 -2.0037 0.9685
7.4400 2.1293 -2.0037 0.9685
6.9423 3.4183 -2.0036 0.9685
6.2033 4.5834 -1.9970 0.9686
5.4389 4.8258 -1.8826 0.9704
4.9021 5.2027 -1.8508 0.9709
3.3474 6.3144 -1.8504 0.9709
1.5542 6.9740 -1.8500 0.9709
0.9252 7.0842 -1.8498 0.9709
-0.9849 7.0743 -1.8493 0.9709
-1.6124 6.9575 -1.8492 0.9709
-3.4969 6.4637 -1.9028 0.9701
-5.3456 5.5781 -2.0004 0.9686
-5.8219 5.0783 -2.0003 0.9686
-6.2517 4.5380 -2.0002 0.9686
-6.9584 3.3535 -2.0000 0.9686
-7.2298 2.7188 -1.9999 0.9686
-7.4434 2.0624 -1.9998 0.9686
-7.7235 0.0162 -1.9998 0.9686
-7.6941 -0.6734 -1.9998 0.9686
-7.6034 -1.3577 -1.9998 0.9686
-7.4519 -2.0311 -1.9998 0.9686
-6.2706 -4.5116 -2.0001 0.9686
-5.3688 -5.5556 -2.0004 0.9686
-4.2958 -6.4227 -2.0006 0.9686
-3.7055 -6.7811 -2.0008 0.9686
-2.4409 -7.3332 -2.0011 0.9686
-1.0980 -7.6517 -2.0015 0.9686
-0.4105 -7.7199 -2.0016 0.9686
0.9692 -7.6712 -2.0020 0.9686
1.6503 -7.5547 -2.0022 0.9686
2.9681 -7.1419 -2.0025 0.9685
5.2818 -5.6530 -2.0031 0.9685
5.7657 -5.1592 -2.0032 0.9685
6.2037 -4.6241 -2.0034 0.9685
7.2082 -2.8152 -2.0036 0.9685
7.6970 -0.8045 -2.0037 0.9685
7.7381 -0.1141 -2.0038 0.9685
7.7174 0.5772 -2.0038 0.9685
7.6350 1.2639 -2.0037 0.9685
7.4915 1.9404 -2.0037 0.9685
7.2882 2.6015 -2.0036 0.9685
6.7088 3.8559 -2.0035 0.9685
6.3242 4.4299 -1.9992 0.9686
2.3423 6.7510 -1.8502 0.9709
1.7301 6.9326 -1.8500 0.9709
1.1042 7.0587 -1.8499 0.9709
0.4695 7.1285 -1.8497 0.9709
-0.1688 7.1413 -1.8495 0.9709
-0.8056 7.0971 -1.8494 0.9709
-4.0901 6.5236 -1.9936 0.9687
-5.6916 5.2240 -2.0003 0.9686
-6.5293 4.1281 -2.0001 0.9686
-6.8714 3.5285 -2.0000 0.9686
-7.5601 1.5813 -1.9998 0.9686
-7.6710 0.9000 -1.9998 0.9686
-7.7206 0.2116 -1.9998 0.9686
-7.7087 -0.4786 -1.9998 0.9686
-7.3067 -2.5043 -1.9999 0.9686
-6.3826 -4.3515 -2.0001 0.9686
-5.9689 -4.9042 -2.0002 0.9686
-5.5076 -5.4179 -2.0003 0.9686
-5.0022 -5.8883 -2.0005 0.9686
-4.4568 -6.3118 -2.0006 0.9686
-3.2638 -7.0049 -2.0009 0.9686
-2.6255 -7.2689 -2.0011 0.9686
0.0849 -7.7308 -2.0018 0.9686
0.7748 -7.6930 -2.0019 0.9686
1.4587 -7.5938 -2.0021 0.9686
2.1310 -7.4339 -2.0023 0.9686
2.7864 -7.2146 -2.0025 0.9685
3.4197 -6.9376 -2.0026 0.9685
4.0257 -6.6051 -2.0028 0.9685
4.5997 -6.2198 -2.0029 0.9685
5.1370 -5.7847 -2.0031 0.9685
5.6333 -5.3033 -2.0032 0.9685
6.0846 -4.7794 -2.0033 0.9685
6.4873 -4.2174 -2.0034 0.9685
6.8383 -3.6215 -2.0035 0.9685
7.1346 -2.9966 -2.0036 0.9685
7.3738 -2.3478 -2.0037 0.9685
7.7328 -0.3098 -2.0038 0.9685
7.3517 2.4163 -2.0037 0.9685
5.8999 4.7238 -1.9569 0.9693
5.1592 4.9483 -1.8509 0.9709
2.5125 6.6897 -1.8502 0.9709
1.2824 7.0287 -1.8499 0.9709
0.6497 7.1145 -1.8497 0.9709
-1.2584 7.0305 -1.8492 0.9709
-4.1974 5.6858 -2.0007 0.9710
-4.6879 5.2880 -2.0006 0.9710
-5.1410 4.8480 -2.0004 0.9711
-5.5530 4.3695 -2.0003 0.9711
-5.9207 3.8561 -2.0002 0.9711
-6.2410 3.3119 -2.0002 0.9711
-6.5116 2.7414 -2.0001 0.9711
-7.0048 0.9178 -1.9999 0.9711
-6.8830 -1.5920 -2.0000 0.9711
-6.7135 -2.2002 -2.0000 0.9711
-6.2156 -3.3593 -2.0001 0.9711
-5.5195 -4.4116 -2.0003 0.9711
-5.1039 -4.8870 -2.0004 0.9711
-4.6475 -5.3235 -2.0005 0.9710
-4.1539 -5.7175 -2.0007 0.9710
-3.6271 -6.0660 -2.0008 0.9710
-3.0713 -6.3660 -2.0009 0.9710
-1.8904 -6.8118 -2.0013 0.9710
-1.2748 -6.9539 -2.0014 0.9710
-0.6490 -7.0405 -2.0016 0.9710
0.6136 -7.0449 -2.0019 0.9710
1.8570 -6.8245 -2.0022 0.9710
2.4591 -6.6320 -2.0024 0.9710
3.0416 -6.3864 -2.0025 0.9710
3.5999 -6.0898 -2.0027 0.9710
4.1295 -5.7445 -2.0028 0.9710
4.6262 -5.3532 -2.0029 0.9710
5.0859 -4.9191 -2.0031 0.9710
5.5051 -4.4457 -2.0032 0.9710
6.2085 -3.3960 -2.0034 0.9710
6.7140 -2.2379 -2.0035 0.9710
7.0729 0.2537 -2.0036 0.9710
7.0220 0.8842 -2.0036 0.9710
6.7526 2.1188 -2.0035 0.9710
6.2677 3.2858 -2.0034 0.9710
5.9491 3.8321 -2.0033 0.9710
5.5817 4.3467 -2.0028 0.9710
4.4807 5.0032 -1.9013 0.9725
3.4253 5.5673 -1.8505 0.9732
2.9143 5.8504 -1.8503 0.9732
1.8271 6.2745 -1.8500 0.9732
1.2596 6.4121 -1.8499 0.9732
0.6820 6.4984 -1.8497 0.9732
0.0991 6.5328 -1.8496 0.9732
-0.4845 6.5150 -1.8494 0.9732
-1.0641 6.4452 -1.8493 0.9732
-1.6352 6.3240 -1.8491 0.9732
-2.2234 6.2373 -1.8746 0.9728
-2.9241 6.3453 -1.9779 0.9714
-3.5156 6.1227 -1.9987 0.9711
-4.5527 5.4050 -2.0006 0.9710
-5.0168 4.9767 -2.0005 0.9711
-6.4402 2.9053 -2.0001 0.9711
-6.6736 2.3187 -2.0000 0.9711
-7.0627 -0.1639 -1.9999 0.9711
-6.7670 -2.0297 -2.0000 0.9711
-5.6293 -4.2705 -2.0003 0.9711
-5.2258 -4.7563 -2.0004 0.9711
-4.7806 -5.2041 -2.0005 0.9711
-4.2972 -5.6105 -2.0006 0.9710
-2.6574 -6.5500 -2.0011 0.9710
-0.1967 -7.0680 -2.0017 0.9710
0.4352 -7.0580 -2.0019 0.9710
1.0637 -6.9915 -2.0020 0.9710
1.6837 -6.8692 -2.0022 0.9710
2.2905 -6.6919 -2.0023 0.9710
2.8790 -6.4612 -2.0025 0.9710
3.4446 -6.1788 -2.0026 0.9710
3.9828 -5.8470 -2.0028 0.9710
4.4892 -5.4685 -2.0029 0.9710
4.9598 -5.0461 -2.0030 0.9710
5.3908 -4.5834 -2.0031 0.9710
5.7788 -4.0841 -2.0032 0.9710
6.6552 -2.4070 -2.0035 0.9710
7.0555 -0.5574 -2.0036 0.9710
6.9509 1.3321 -2.0036 0.9710
6.6029 2.5470 -2.0035 0.9710
2.5335 6.0247 -1.8502 0.9732
1.9853 6.2264 -1.8501 0.9732
0.8462 6.4792 -1.8498 0.9732
-0.3195 6.5253 -1.8495 0.9732
-0.9008 6.4702 -1.8493 0.9732
-1.4747 6.3634 -1.8492 0.9732
-5.7182 4.1507 -2.0003 0.9711
-6.0656 3.6235 -2.0002 0.9711
-6.3647 3.0673 -2.0001 0.9711
-6.8083 1.8864 -2.0000 0.9711
-6.9494 1.2710 -2.0000 0.9711
-7.0351 0.6455 -1.9999 0.9711
-7.0646 0.0148 -1.9999 0.9711
-7.0377 -0.6160 -1.9999 0.9711
-6.9547 -1.2418 -2.0000 0.9711
-6.8161 -1.8578 -2.0000 0.9711
-6.6232 -2.4590 -2.0000 0.9711
-6.0807 -3.5980 -2.0002 0.9711
-5.3444 -4.6225 -2.0004 0.9711
-4.9106 -5.0814 -2.0005 0.9711
-3.9291 -5.8745 -2.0007 0.9710
-2.8222 -6.4806 -2.0010 0.9710
-2.2325 -6.7071 -2.0012 0.9710
-1.0042 -6.9984 -2.0015 0.9710
-0.3754 -7.0607 -2.0016 0.9710
0.8864 -7.0160 -2.0020 0.9710
1.5094 -6.9094 -2.0021 0.9710
2.7146 -6.5318 -2.0024 0.9710
3.2871 -6.2639 -2.0026 0.9710
3.8335 -5.9458 -2.0027 0.9710
4.3493 -5.5802 -2.0029 0.9710
4.8304 -5.1699 -2.0030 0.9710
5.2730 -4.7183 -2.0031 0.9710
5.6735 -4.2289 -2.0032 0.9710
6.5921 -2.5746 -2.0035 0.9710
6.7958 -1.9758 -2.0035 0.9710
7.0391 -0.7358 -2.0036 0.9710
7.0767 -0.1044 -2.0036 0.9710
7.0578 0.5279 -2.0036 0.9710
6.4260 2.9646 -2.0034 0.9710
5.4010 4.5533 -1.9998 0.9711
4.8753 4.9188 -1.9606 0.9716
4.1929 5.0641 -1.8612 0.9730
3.7026 5.3871 -1.8505 0.9732
3.2067 5.6957 -1.8504 0.9732
2.6851 5.9588 -1.8503 0.9732
0.4294 6.5197 -1.8497 0.9732
-0.7368 6.4911 -1.8494 0.9732
-1.8792 6.2556 -1.8491 0.9732
-3.1957 6.2816 -1.9952 0.9711
-3.7543 5.9880 -2.0008 0.9710
-4.2737 5.6286 -2.0007 0.9710
-5.2059 4.7782 -2.0004 0.9711
-5.6114 4.2941 -2.0003 0.9711
-5.9721 3.7758 -2.0002 0.9711
-6.2851 3.2274 -2.0001 0.9711
-6.7585 2.0581 -2.0000 0.9711
-7.0165 0.8232 -1.9999 0.9711
-6.9838 -1.0655 -1.9999 0.9711
-6.6832 -2.2906 -2.0000 0.9711
-6.4522 -2.8782 -2.0001 0.9711
-5.8379 -3.9802 -2.0002 0.9711
-5.4596 -4.4857 -2.0003 0.9711
-4.0764 -5.7731 -2.0007 0.9710
-3.5450 -6.1144 -2.0008 0.9710
-2.4014 -6.6484 -2.0011 0.9710
-1.7984 -6.8368 -2.0013 0.9710
-1.1809 -6.9706 -2.0014 0.9710
-0.5539 -7.0487 -2.0016 0.9710
0.0776 -7.0706 -2.0018 0.9710
0.7086 -7.0360 -2.0019 0.9710
1.9490 -6.7989 -2.0022 0.9710
3.1275 -6.3449 -2.0026 0.9710
4.6980 -5.2904 -2.0030 0.9710
5.1519 -4.8501 -2.0031 0.9710
6.2538 -3.3120 -2.0034 0.9710
6.5248 -2.7405 -2.0034 0.9710
6.7159 -2.1383 -1.9953 0.9711
6.9085 -1.5365 -2.0035 0.9710
7.0718 -0.2834 -2.0036 0.9710
7.0689 0.3491 -2.0036 0.9710
7.0094 0.9788 -2.0036 0.9710
6.7234 2.2098 -2.0035 0.9710
5.8968 3.9120 -2.0033 0.9710
4.3792 5.0248 -1.8869 0.9727
2.8351 5.8891 -1.8503 0.9732
-0.5724 6.5078 -1.8494 0.9732
-1.7227 6.3097 -1.8516 0.9732
-2.8714 5.8378 -2.0010 0.9731
-3.3810 5.5577 -2.0009 0.9731
-4.3149 4.8673 -2.0007 0.9731
-4.7320 4.4623 -2.0005 0.9731
-5.1112 4.0219 -2.0004 0.9731
-5.9936 2.5233 -2.0002 0.9732
-6.4950 -0.3153 -2.0001 0.9732
-6.4410 -0.8939 -2.0001 0.9732
-6.3355 -1.4654 -2.0001 0.9732
-6.1795 -2.0252 -2.0002 0.9732
-5.9742 -2.5689 -2.0002 0.9732
-5.4224 -3.5907 -2.0003 0.9732
-4.2777 -4.9000 -2.0006 0.9731
-3.3385 -5.5833 -2.0009 0.9731
-2.8269 -5.8594 -2.0010 0.9731
-1.7400 -6.2696 -2.0013 0.9731
-1.1734 -6.4004 -2.0014 0.9731
-0.0164 -6.5080 -2.0017 0.9731
0.5648 -6.4840 -2.0019 0.9731
1.1415 -6.4082 -2.0020 0.9731
1.7092 -6.2811 -2.0022 0.9731
2.7994 -5.8778 -2.0025 0.9731
3.3132 -5.6048 -2.0026 0.9731
4.2577 -4.9268 -2.0028 0.9731
4.6808 -4.5273 -2.0030 0.9731
5.0666 -4.0915 -2.0031 0.9731
5.7139 -3.1255 -2.0032 0.9731
5.9704 -2.6030 -2.0033 0.9731
6.4471 -0.9279 -2.0034 0.9731
6.5043 -0.3486 -2.0034 0.9731
6.5094 0.2335 -2.0034 0.9731
6.4625 0.8137 -2.0034 0.9731
6.3640 1.3874 -2.0034 0.9731
5.1382 4.0014 -2.0031 0.9731
4.3340 4.8394 -1.9982 0.9732
3.8158 5.1149 -1.9628 0.9736
2.1906 5.6021 -1.8501 0.9751
1.6816 5.7749 -1.8500 0.9751
1.1593 5.9015 -1.8499 0.9751
0.6277 5.9810 -1.8497 0.9751
-0.4459 5.9964 -1.8495 0.9752
-2.1781 6.1102 -1.9952 0.9732
-2.7216 5.9058 -2.0001 0.9732
-3.7298 5.3295 -2.0008 0.9731
-4.1905 4.9749 -2.0007 0.9731
-4.6177 4.5807 -2.0006 0.9731
-5.0079 4.1499 -2.0005 0.9731
-5.6656 3.1929 -2.0003 0.9732
-6.4242 1.0077 -2.0001 0.9732
-6.5009 -0.1509 -2.0001 0.9732
-6.3705 -1.3046 -2.0001 0.9732
-6.0372 -2.4169 -2.0002 0.9732
-5.7975 -2.9464 -2.0003 0.9732
-5.1815 -3.9308 -2.0004 0.9731
-2.9742 -5.7859 -2.0010 0.9731
-2.4459 -6.0288 -2.0011 0.9731
-1.3349 -6.3685 -2.0014 0.9731
-0.7610 -6.4628 -2.0015 0.9731
2.1081 -6.1591 -2.0023 0.9731
2.6497 -5.9467 -2.0024 0.9731
3.6656 -5.3813 -2.0027 0.9731
4.1316 -5.0329 -2.0028 0.9731
4.5647 -4.6442 -2.0029 0.9731
5.6330 -3.2690 -2.0032 0.9731
5.9025 -2.7532 -2.0033 0.9731
6.1250 -2.2153 -2.0033 0.9731
6.2984 -1.6596 -2.0034 0.9731
6.4933 -0.5130 -2.0034 0.9731
6.4811 0.6500 -2.0034 0.9731
5.8431 2.8771 -2.0033 0.9731
4.8712 4.3221 -2.0030 0.9731
2.3317 5.5450 -1.8502 0.9751
1.8272 5.7306 -1.8500 0.9751
-4.5004 4.6961 -2.0006 0.9731
-6.4755 0.5941 -2.0001 0.9732
-6.5026 0.0136 -2.0001 0.9732
-6.0964 -2.2634 -2.0002 0.9732
-5.8701 -2.7987 -2.0002 0.9732
-4.0846 -5.0623 -2.0007 0.9731
-3.6165 -5.4071 -2.0008 0.9731
-1.4956 -6.3326 -2.0014 0.9731
-0.9243 -6.4413 -2.0015 0.9731
-0.3455 -6.4986 -2.0017 0.9731
0.2361 -6.5040 -2.0018 0.9731
0.8158 -6.4574 -2.0020 0.9731
1.3892 -6.3593 -2.0021 0.9731
3.0253 -5.7650 -2.0025 0.9731
3.5282 -5.4723 -2.0027 0.9731
4.0029 -5.1357 -2.0028 0.9731
4.4457 -4.7581 -2.0029 0.9731
4.8530 -4.3424 -2.0030 0.9731
5.2216 -3.8920 -2.0031 0.9731
5.5484 -3.4104 -2.0032 0.9731
5.8309 -2.9016 -2.0033 0.9731
6.3919 -1.2528 -2.0034 0.9731
6.4783 -0.6771 -2.0034 0.9731
6.5129 -0.0960 -2.0034 0.9731
6.4954 0.4858 -2.0034 0.9731
6.4261 1.0638 -2.0034 0.9731
5.9141 2.7284 -2.0033 0.9731
5.6467 3.2454 -2.0032 0.9731
5.3342 3.7364 -2.0031 0.9731
4.9791 4.1976 -2.0031 0.9731
2.9773 5.2884 -1.8667 0.9749
2.4713 5.4843 -1.8502 0.9751
1.9717 5.6827 -1.8501 0.9751
1.4563 5.8356 -1.8499 0.9751
-0.1423 6.0215 -1.8526 0.9751
-0.6781 5.9744 -1.8494 0.9752
-2.4159 6.0273 -1.9972 0.9732
-4.3802 4.8086 -2.0006 0.9731
-4.7917 4.3981 -2.0005 0.9731
-5.4970 3.4754 -2.0003 0.9732
-5.7851 2.9707 -2.0003 0.9732
-6.2209 1.8944 -2.0002 0.9732
-6.4584 0.7578 -2.0001 0.9732
-6.5002 0.1781 -2.0001 0.9732
-6.4283 -0.9807 -2.0001 0.9732
-6.1516 -2.1084 -2.0002 0.9732
-5.6789 -3.1690 -2.0003 0.9732
-5.3735 -3.6636 -2.0004 0.9732
-4.6368 -4.5612 -2.0005 0.9731
-4.2112 -4.9573 -2.0007 0.9731
-3.2629 -5.6279 -2.0009 0.9731
-2.2103 -6.1193 -2.0012 0.9731
-1.6552 -6.2926 -2.0013 0.9731
-1.0869 -6.4157 -2.0015 0.9731
0.0714 -6.5077 -2.0018 0.9731
2.3455 -6.0729 -2.0024 0.9731
3.3885 -5.5597 -2.0026 0.9731
4.3238 -4.8690 -2.0029 0.9731
4.7415 -4.4638 -2.0030 0.9731
5.1213 -4.0228 -2.0031 0.9731
5.7556 -3.0481 -2.0032 0.9731
6.0050 -2.5222 -2.0033 0.9731
6.2063 -1.9761 -2.0034 0.9731
6.3581 -1.4141 -2.0034 0.9731
6.5057 0.3213 -2.0034 0.9731
5.9813 2.5779 -2.0033 0.9731
5.7270 3.1015 -2.0032 0.9731
5.4271 3.6003 -2.0032 0.9731
5.0837 4.0703 -2.0031 0.9731
4.2667 4.8956 -1.9974 0.9732
3.7235 5.1342 -1.9508 0.9738
3.1367 5.2558 -1.8826 0.9747
1.0795 5.9166 -1.8498 0.9751
0.0101 6.0133 -1.8496 0.9751
-0.5268 5.9898 -1.8494 0.9752
-1.6715 6.1223 -1.9520 0.9738
-3.3151 5.5973 -2.0009 0.9731
-4.2572 4.9179 -2.0007 0.9731
-4.6790 4.5179 -2.0006 0.9731
-3.1285 5.1428 -2.0010 0.9749
-3.9928 4.5039 -2.0007 0.9749
-4.7297 3.7216 -2.0005 0.9750
-5.0429 3.2844 -2.0005 0.9750
-5.5462 2.3350 -2.0003 0.9750
-5.7324 1.8305 -2.0003 0.9750
-5.9664 0.7818 -2.0002 0.9750
-6.0103 -0.2918 -2.0002 0.9750
-5.8627 -1.3560 -2.0002 0.9750
-5.7183 -1.8741 -2.0003 0.9750
-5.5283 -2.3772 -2.0003 0.9750
-5.2941 -2.8613 -2.0004 0.9750
-4.3472 -4.1624 -2.0006 0.9749
-3.5380 -4.8697 -2.0008 0.9749
-3.0892 -5.1664 -2.0009 0.9749
-2.6158 -5.4219 -2.0011 0.9749
-2.1214 -5.6342 -2.0012 0.9749
-1.6100 -5.8015 -2.0013 0.9749
-1.0857 -5.9225 -2.0015 0.9749
-0.0152 -6.0220 -2.0017 0.9749
0.5226 -5.9997 -2.0019 0.9749
3.5166 -4.8919 -2.0027 0.9749
5.0074 -3.3522 -2.0030 0.9749
5.2869 -2.8919 -2.0031 0.9749
5.5241 -2.4084 -2.0032 0.9749
5.8647 -1.3876 -2.0033 0.9749
5.9652 -0.8585 -2.0033 0.9749
5.9795 0.7529 -2.0033 0.9749
5.3373 2.7980 -2.0031 0.9749
4.0196 4.4884 -2.0028 0.9749
3.1480 5.1166 -1.9969 0.9750
1.6109 5.5320 -1.9152 0.9760
1.1051 5.6258 -1.9058 0.9761
0.0881 5.8062 -1.9302 0.9758
-0.9777 5.9216 -1.9950 0.9750
-2.9975 5.2204 -2.0010 0.9749
-4.2730 4.2388 -2.0007 0.9749
-4.6341 3.8402 -2.0006 0.9750
-4.9582 3.4109 -2.0005 0.9750
-5.4854 2.4746 -2.0003 0.9750
-5.8378 1.4595 -2.0003 0.9750
-6.0042 0.3980 -2.0002 0.9750
-6.0157 -0.1396 -2.0002 0.9750
-5.8951 -1.2073 -2.0002 0.9750
-5.7639 -1.7288 -2.0003 0.9750
-5.3648 -2.7264 -2.0004 0.9750
-5.1001 -3.1946 -2.0004 0.9750
-4.7947 -3.6373 -2.0005 0.9750
-4.4510 -4.0511 -2.0006 0.9749
-3.6600 -4.7786 -2.0008 0.9749
-3.2189 -5.0865 -2.0009 0.9749
-2.2633 -5.5786 -2.0012 0.9749
-1.7563 -5.7588 -2.0013 0.9749
-0.7042 -5.9801 -2.0016 0.9749
1.4339 -5.8499 -2.0021 0.9749
2.4518 -5.5024 -2.0024 0.9749
3.8229 -4.6568 -2.0027 0.9749
4.2236 -4.2971 -2.0028 0.9749
4.5906 -3.9031 -2.0029 0.9749
4.9209 -3.4778 -2.0030 0.9749
5.2120 -3.0247 -2.0031 0.9749
5.4614 -2.5474 -2.0032 0.9749
5.6672 -2.0497 -2.0032 0.9749
5.8276 -1.5356 -2.0033 0.9749
6.0264 0.0636 -2.0033 0.9749
5.9966 0.6014 -2.0033 0.9749
5.9189 1.1343 -2.0033 0.9749
5.7939 1.6582 -2.0033 0.9749
5.6226 2.1688 -2.0032 0.9749
5.1470 3.1340 -2.0031 0.9749
4.5072 3.9991 -2.0029 0.9749
4.1319 4.3853 -2.0028 0.9749
3.7217 4.7339 -2.0016 0.9749
1.2479 5.5996 -1.9070 0.9761
0.7433 5.6912 -1.9079 0.9761
-1.3565 5.8532 -1.9972 0.9750
-2.8645 5.2946 -2.0010 0.9749
-3.3255 5.0175 -2.0009 0.9749
-4.1644 4.3456 -2.0007 0.9749
-4.5355 3.9562 -2.0006 0.9749
-5.4211 2.6126 -2.0004 0.9750
-5.6326 2.1181 -2.0003 0.9750
-5.7991 1.6068 -2.0003 0.9750
-5.9193 1.0826 -2.0002 0.9750
-5.9922 0.5498 -2.0002 0.9750
-5.9944 -0.5247 -2.0002 0.9750
-5.9237 -1.0577 -2.0002 0.9750
-5.6414 -2.0945 -2.0003 0.9750
-5.4320 -2.5898 -2.0003 0.9750
-5.1793 -3.0646 -2.0004 0.9750
-4.8852 -3.5148 -2.0005 0.9750
-4.5520 -3.9371 -2.0006 0.9750
-2.4036 -5.5195 -2.0011 0.9749
-0.8553 -5.9603 -2.0015 0.9749
-0.3197 -6.0133 -2.0017 0.9749
0.7549 -5.9751 -2.0019 0.9749
3.2646 -5.0634 -2.0026 0.9749
3.7038 -4.7520 -2.0027 0.9749
4.8313 -3.6011 -2.0030 0.9749
5.1337 -3.1556 -2.0031 0.9749
5.3951 -2.6847 -2.0031 0.9749
5.9141 -1.1591 -2.0033 0.9749
5.9458 0.9842 -2.0033 0.9749
5.6757 2.0259 -2.0032 0.9749
5.4721 2.5245 -2.0032 0.9749
4.2416 4.2795 -2.0029 0.9749
3.8424 4.6408 -2.0028 0.9749
3.4061 4.9556 -1.9988 0.9750
2.9452 5.2313 -1.9956 0.9750
0.8863 5.6656 -1.9062 0.9761
0.3791 5.7557 -1.9174 0.9760
-1.2074 5.8830 -1.9963 0.9750
-1.7308 5.7617 -1.9998 0.9750
-2.7297 5.3655 -2.0011 0.9749
-3.1976 5.1001 -2.0009 0.9749
-4.0532 4.4496 -2.0007 0.9749
-5.5772 2.2600 -2.0003 0.9750
-5.7566 1.7530 -2.0003 0.9750
-5.8900 1.2320 -2.0002 0.9750
-6.0058 -0.3728 -2.0002 0.9750
-5.6925 -1.9511 -2.0003 0.9750
-5.4957 -2.4516 -2.0003 0.9750
-5.2551 -2.9325 -2.0004 0.9750
-4.2906 -4.2208 -2.0006 0.9749
-3.4720 -4.9171 -2.0008 0.9749
-3.0193 -5.2077 -2.0010 0.9749
-2.0452 -5.6623 -2.0012 0.9749
-1.5316 -5.8227 -2.0013 0.9749
-1.0057 -5.9366 -2.0015 0.9749
1.1361 -5.9147 -2.0020 0.9749
3.5823 -4.8441 -2.0027 0.9749
4.0007 -4.5051 -2.0028 0.9749
4.3872 -4.1302 -2.0029 0.9749
5.0522 -3.2844 -2.0031 0.9749
5.5561 -2.3337 -2.0032 0.9749
5.7424 -1.8283 -2.0032 0.9749
5.8829 -1.3084 -2.0033 0.9749
5.9763 -0.7780 -2.0033 0.9749
6.0219 -0.2413 -2.0033 0.9749
6.0194 0.2973 -2.0033 0.9749
