ply
format ascii 1.0
element vertex 1596
property float32 x
property float32 y
property float32 z
property float32 I
end_header
6.4186 -1.0879 -2.0024 0.9731
6.4868 -0.5111 -2.0014 0.9731
6.3816 1.2220 -1.9985 0.9732
6.2443 1.7853 -1.9976 0.9732
6.0576 2.3339 -1.9967 0.9732
5.8230 2.8635 -1.9959 0.9732
4.4483 4.7117 -1.9930 0.9732
3.5390 5.4241 -1.9920 0.9733
3.0407 5.7169 -1.9917 0.9733
2.5185 5.9643 -1.9913 0.9733
1.9765 6.1644 -1.9911 0.9733
1.4190 6.3157 -1.9910 0.9733
0.2747 6.4673 -1.9910 0.9733
-0.3030 6.4664 -1.9911 0.9733
-0.8784 6.4143 -1.9913 0.9733
-2.0044 6.1584 -1.9920 0.9733
-4.0352 5.0749 -1.9942 0.9732
-4.8761 4.2808 -1.9958 0.9732
-5.2406 3.8307 -1.9966 0.9732
-6.2606 1.7603 -2.0003 0.9732
-6.3957 1.1957 -2.0013 0.9731
-6.4937 -0.5403 -2.0042 0.9731
-6.3004 -1.6866 -2.0061 0.9731
-5.6366 -3.2980 -2.0087 0.9730
-4.9649 -4.2497 -2.0101 0.9730
-4.5677 -4.6769 -2.0108 0.9730
-3.6663 -5.4166 -2.0118 0.9730
-3.1694 -5.7231 -2.0122 0.9730
-2.6470 -5.9839 -2.0125 0.9730
-2.1032 -6.1968 -2.0128 0.9730
-1.5424 -6.3601 -2.0129 0.9730
-0.9693 -6.4725 -2.0130 0.9730
0.1957 -6.5413 -2.0129 0.9730
0.7780 -6.4972 -2.0127 0.9730
1.9190 -6.2537 -2.0120 0.9730
2.4684 -6.0563 -2.0116 0.9730
3.9796 -5.1826 -2.0098 0.9730
5.2031 -3.9400 -2.0074 0.9731
5.5312 -3.4589 -2.0066 0.9731
6.2406 -1.8692 -2.0037 0.9731
6.3793 -1.3047 -2.0027 0.9731
6.4670 -0.7304 -2.0018 0.9731
6.4876 0.4294 -1.9998 0.9732
6.4204 1.0056 -1.9989 0.9732
6.3022 1.5733 -1.9979 0.9732
6.1341 2.1280 -1.9970 0.9732
5.9174 2.6652 -1.9962 0.9732
5.6539 3.1809 -1.9954 0.9732
4.1797 4.9501 -1.9927 0.9733
3.2326 5.6111 -1.9918 0.9733
2.7190 5.8760 -1.9915 0.9733
2.1840 6.0943 -1.9912 0.9733
1.6319 6.2642 -1.9910 0.9733
-0.6609 6.4401 -1.9912 0.9733
-1.2326 6.3563 -1.9915 0.9733
-2.3428 6.0387 -1.9923 0.9733
-2.8726 5.8072 -1.9928 0.9733
-3.3799 5.5296 -1.9933 0.9732
-3.8607 5.2079 -1.9940 0.9732
-4.3112 4.8447 -1.9947 0.9732
-4.7278 4.4427 -1.9955 0.9732
-5.1071 4.0051 -1.9963 0.9732
-5.4462 3.5353 -1.9971 0.9732
-6.5070 -0.3202 -2.0038 0.9731
-6.3527 -1.4722 -2.0057 0.9731
-6.1990 -2.0336 -2.0067 0.9731
-5.9956 -2.5794 -2.0075 0.9731
-5.7441 -3.1049 -2.0084 0.9730
-5.1052 -4.0788 -2.0099 0.9730
-0.0257 -6.5444 -2.0129 0.9730
0.5578 -6.5201 -2.0128 0.9730
2.7997 -5.9093 -2.0113 0.9730
3.3145 -5.6346 -2.0107 0.9730
4.6825 -4.5518 -2.0086 0.9730
5.4120 -3.6447 -2.0069 0.9731
5.9678 -2.6232 -2.0051 0.9731
6.1749 -2.0796 -2.0041 0.9731
6.4398 -0.9490 -2.0021 0.9731
6.4956 -0.3708 -2.0012 0.9731
6.4996 0.2097 -2.0002 0.9732
6.4519 0.7879 -1.9992 0.9732
6.0052 2.4639 -1.9965 0.9732
5.7592 2.9883 -1.9957 0.9732
5.4677 3.4885 -1.9949 0.9732
5.1330 3.9606 -1.9942 0.9732
3.8984 5.1732 -1.9924 0.9733
3.4209 5.4990 -1.9919 0.9733
2.9165 5.7810 -1.9916 0.9733
2.3891 6.0171 -1.9913 0.9733
1.2822 6.3448 -1.9910 0.9733
0.7114 6.4337 -1.9909 0.9733
-1.0168 6.3940 -1.9914 0.9733
-3.6818 5.3349 -1.9937 0.9732
-4.1442 4.9870 -1.9944 0.9732
-5.3226 3.7170 -1.9968 0.9732
-5.9035 2.7150 -1.9986 0.9732
-6.1250 2.1789 -1.9996 0.9732
-6.2979 1.6249 -2.0005 0.9731
-6.4205 1.0571 -2.0015 0.9731
-6.4927 0.4810 -2.0025 0.9731
-6.2632 -1.8224 -2.0063 0.9731
-5.8450 -2.9084 -2.0081 0.9730
-5.5646 -3.4193 -2.0089 0.9730
-4.4659 -4.7748 -2.0109 0.9730
-4.0235 -5.1554 -2.0114 0.9730
-3.5487 -5.4948 -2.0119 0.9730
-3.0452 -5.7905 -2.0123 0.9730
-2.5172 -6.0398 -2.0126 0.9730
-1.9689 -6.2409 -2.0128 0.9730
-0.2471 -6.5399 -2.0130 0.9730
0.3369 -6.5355 -2.0128 0.9730
0.9182 -6.4787 -2.0126 0.9730
1.4919 -6.3700 -2.0123 0.9730
3.6209 -5.4412 -2.0103 0.9730
4.0902 -5.0950 -2.0096 0.9730
5.6040 -3.3383 -2.0063 0.9731
5.8766 -2.8241 -2.0054 0.9731
6.1021 -2.2878 -2.0045 0.9731
6.2788 -1.7338 -2.0035 0.9731
6.4052 -1.1665 -2.0025 0.9731
6.4805 -0.5905 -2.0015 0.9731
6.4760 0.5693 -1.9996 0.9732
6.2661 1.7088 -1.9977 0.9732
6.0861 2.2597 -1.9968 0.9732
5.8579 2.7921 -1.9960 0.9732
5.5834 3.3020 -1.9952 0.9732
4.9047 4.2381 -1.9937 0.9732
4.5059 4.6570 -1.9931 0.9732
4.0716 5.0388 -1.9926 0.9733
3.6053 5.3805 -1.9921 0.9733
3.1106 5.6794 -1.9917 0.9733
1.4962 6.2979 -1.9910 0.9733
0.9287 6.4060 -1.9909 0.9733
0.3538 6.4634 -1.9910 0.9733
-2.4728 5.9870 -1.9924 0.9733
-3.4988 5.4557 -1.9935 0.9732
-4.4152 4.7508 -1.9949 0.9732
-4.8231 4.3400 -1.9956 0.9732
-5.1930 3.8943 -1.9965 0.9732
-5.5219 3.4173 -1.9973 0.9732
-6.0466 2.3844 -1.9992 0.9732
-6.2381 1.8367 -2.0002 0.9732
-6.5114 0.1206 -2.0031 0.9731
-5.9391 -2.7085 -2.0077 0.9731
-5.6763 -3.2285 -2.0086 0.9730
-5.0163 -4.1884 -2.0100 0.9730
-4.6244 -4.6205 -2.0107 0.9730
-2.7200 -5.9509 -2.0125 0.9730
-1.0484 -6.4602 -2.0130 0.9730
-0.4683 -6.5279 -2.0130 0.9730
0.1156 -6.5433 -2.0129 0.9730
0.6985 -6.5063 -2.0127 0.9730
1.8423 -6.2769 -2.0121 0.9730
2.3941 -6.0863 -2.0116 0.9730
3.9160 -5.2311 -2.0099 0.9730
4.3652 -4.8594 -2.0092 0.9730
4.7793 -4.4491 -2.0084 0.9730
5.1548 -4.0037 -2.0075 0.9731
5.4888 -3.5266 -2.0067 0.9731
5.7788 -3.0218 -2.0058 0.9731
6.0223 -2.4934 -2.0048 0.9731
6.2177 -1.9456 -2.0039 0.9731
6.3633 -1.3828 -2.0029 0.9731
6.4928 0.3499 -1.9999 0.9732
6.3214 1.4961 -1.9980 0.9732
5.9500 2.5928 -1.9963 0.9732
5.6928 3.1116 -1.9955 0.9732
5.3906 3.6054 -1.9947 0.9732
5.0459 4.0702 -1.9940 0.9732
4.6614 4.5024 -1.9933 0.9732
4.2402 4.8987 -1.9928 0.9733
3.3012 5.5713 -1.9918 0.9733
2.7908 5.8424 -1.9915 0.9733
2.2585 6.0672 -1.9912 0.9733
1.7084 6.2438 -1.9911 0.9733
0.5723 6.4476 -1.9910 0.9733
-0.4829 5.9731 -1.9920 0.9751
-3.4682 4.8960 -1.9944 0.9750
-3.8922 4.5688 -1.9951 0.9750
-4.2855 4.2050 -1.9958 0.9750
-5.4939 2.4456 -1.9990 0.9750
-5.6926 1.9469 -1.9999 0.9750
-5.8461 1.4322 -2.0008 0.9749
-5.9532 0.9057 -2.0017 0.9749
-6.0130 0.3715 -2.0026 0.9749
-5.7737 -1.7570 -2.0061 0.9749
-5.5963 -2.2656 -2.0069 0.9749
-5.3741 -2.7566 -2.0077 0.9749
-5.1088 -3.2260 -2.0084 0.9749
-4.8025 -3.6699 -2.0091 0.9748
-3.2200 -5.1225 -2.0112 0.9748
-2.7510 -5.3901 -2.0116 0.9748
-2.2597 -5.6147 -2.0118 0.9748
-1.7503 -5.7943 -2.0120 0.9748
-0.6934 -6.0135 -2.0122 0.9748
-0.1545 -6.0512 -2.0121 0.9748
0.3856 -6.0405 -2.0120 0.9748
0.9225 -5.9815 -2.0118 0.9748
1.4519 -5.8745 -2.0115 0.9748
2.4712 -5.5210 -2.0107 0.9748
3.8409 -4.6662 -2.0089 0.9748
4.2401 -4.3037 -2.0082 0.9749
4.9333 -3.4795 -2.0067 0.9749
5.2217 -3.0246 -2.0059 0.9749
5.4683 -2.5459 -2.0050 0.9749
5.8283 -1.5329 -2.0032 0.9749
6.0024 -0.4729 -2.0014 0.9749
6.0180 0.0641 -2.0005 0.9750
5.9856 0.6001 -1.9996 0.9750
5.7789 1.6522 -1.9979 0.9750
5.6063 2.1600 -1.9971 0.9750
5.1296 3.1190 -1.9956 0.9750
3.7113 4.7098 -1.9932 0.9750
2.8147 5.2919 -1.9924 0.9751
2.3313 5.5210 -1.9921 0.9751
1.3135 5.8464 -1.9918 0.9751
0.7870 5.9400 -1.9918 0.9751
0.2543 5.9867 -1.9918 0.9751
-0.2805 5.9858 -1.9919 0.9751
-1.3395 5.8422 -1.9924 0.9751
-1.8554 5.7005 -1.9927 0.9750
-3.3002 5.0100 -1.9942 0.9750
-3.7349 4.6972 -1.9948 0.9750
-4.8501 3.5452 -1.9970 0.9750
-5.1490 3.0999 -1.9978 0.9750
-5.4071 2.6297 -1.9986 0.9750
-5.6225 2.1380 -1.9995 0.9750
-5.9960 0.5746 -2.0022 0.9749
-6.0081 -0.4999 -2.0040 0.9749
-5.2143 -3.0509 -2.0082 0.9749
-4.9233 -3.5049 -2.0089 0.9748
-4.5927 -3.9311 -2.0095 0.9748
-4.2251 -4.3262 -2.0101 0.9748
-3.8236 -4.6869 -2.0106 0.9748
-3.3912 -5.0102 -2.0111 0.9748
-2.4483 -5.5348 -2.0117 0.9748
-1.9453 -5.7316 -2.0120 0.9748
-1.4266 -5.8827 -2.0121 0.9748
-0.8965 -5.9866 -2.0122 0.9748
-0.3592 -6.0426 -2.0122 0.9748
0.1810 -6.0503 -2.0121 0.9748
1.2524 -5.9206 -2.0116 0.9748
1.7750 -5.7844 -2.0113 0.9748
2.2832 -5.6020 -2.0108 0.9748
2.7729 -5.3748 -2.0104 0.9748
4.0926 -4.4453 -2.0085 0.9749
4.4711 -4.0612 -2.0078 0.9749
4.8135 -3.6450 -2.0070 0.9749
5.7741 -1.7295 -2.0036 0.9749
5.9026 -1.2072 -2.0027 0.9749
6.0035 0.3973 -2.0000 0.9750
5.9416 0.9306 -1.9991 0.9750
5.6770 1.9694 -1.9974 0.9750
5.4766 2.4667 -1.9966 0.9750
3.8689 4.5819 -1.9934 0.9750
2.9923 5.1940 -1.9925 0.9750
2.5169 5.4393 -1.9922 0.9751
0.9875 5.9100 -1.9918 0.9751
-0.0778 5.9917 -1.9919 0.9751
-0.6118 5.9614 -1.9920 0.9751
-1.6613 5.7596 -1.9926 0.9750
-2.1686 5.5897 -1.9930 0.9750
-2.6590 5.3753 -1.9934 0.9750
-3.5734 4.8203 -1.9946 0.9750
-3.9903 4.4840 -1.9952 0.9750
-5.5460 2.3266 -1.9992 0.9750
-5.7339 1.8237 -2.0001 0.9750
-5.9721 0.7771 -2.0019 0.9749
-6.0203 0.2416 -2.0028 0.9749
-5.9728 -0.8322 -2.0046 0.9749
-5.5466 -2.3862 -2.0071 0.9749
-5.3138 -2.8723 -2.0079 0.9749
-5.0384 -3.3359 -2.0086 0.9749
-4.7225 -3.7730 -2.0093 0.9748
-4.3686 -4.1803 -2.0099 0.9748
0.5159 -6.0307 -2.0119 0.9748
1.0515 -5.9599 -2.0117 0.9748
1.5784 -5.8416 -2.0114 0.9748
2.0925 -5.6765 -2.0110 0.9748
3.0659 -5.2120 -2.0100 0.9748
4.3317 -4.2107 -2.0081 0.9749
4.6881 -3.8063 -2.0073 0.9749
5.0068 -3.3719 -2.0065 0.9749
5.2853 -2.9108 -2.0057 0.9749
5.5214 -2.4270 -2.0048 0.9749
5.8594 -1.4065 -2.0030 0.9749
5.9588 -0.8781 -2.0021 0.9749
6.0145 0.1940 -2.0003 0.9750
5.9706 0.7292 -1.9994 0.9750
5.5578 2.2803 -1.9969 0.9750
4.7510 3.6659 -1.9947 0.9750
4.4039 4.0736 -1.9941 0.9750
4.0221 4.4488 -1.9936 0.9750
3.1666 5.0901 -1.9927 0.9750
2.6997 5.3513 -1.9923 0.9751
1.1869 5.8733 -1.9918 0.9751
-0.4097 5.9785 -1.9919 0.9751
-0.9412 5.9188 -1.9922 0.9751
-1.4654 5.8122 -1.9925 0.9751
-2.4754 5.4617 -1.9933 0.9750
-3.4079 4.9379 -1.9943 0.9750
-3.8358 4.6159 -1.9950 0.9750
-4.2335 4.2570 -1.9957 0.9750
-4.9260 3.4400 -1.9972 0.9750
-5.2152 2.9883 -1.9980 0.9750
-5.6680 2.0163 -1.9997 0.9750
-5.8278 1.5036 -2.0006 0.9749
-5.9413 0.9785 -2.0015 0.9749
-5.9966 -0.6296 -2.0043 0.9749
-5.9192 -1.1622 -2.0051 0.9749
-5.6233 -2.1968 -2.0068 0.9749
-5.4072 -2.6905 -2.0076 0.9749
-4.8468 -3.6107 -2.0090 0.9748
-1.2993 -5.9122 -2.0121 0.9748
-0.2286 -6.0489 -2.0121 0.9748
0.8492 -5.9924 -2.0118 0.9748
1.8994 -5.7445 -2.0112 0.9748
2.8881 -5.3133 -2.0102 0.9748
3.3494 -5.0332 -2.0097 0.9748
3.7836 -4.7131 -2.0090 0.9748
4.1873 -4.3555 -2.0083 0.9749
4.5573 -3.9633 -2.0076 0.9749
5.1846 -3.0885 -2.0060 0.9749
5.8095 -1.6042 -2.0034 0.9749
5.9267 -1.0794 -2.0025 0.9749
6.0187 -0.0096 -2.0006 0.9749
5.9929 0.5268 -1.9997 0.9750
5.9194 1.0586 -1.9989 0.9750
5.6326 2.0913 -1.9972 0.9750
5.4216 2.5842 -1.9964 0.9750
5.1677 3.0561 -1.9957 0.9750
4.8729 3.5035 -1.9950 0.9750
3.7688 4.6641 -1.9933 0.9750
3.3372 4.9805 -1.9928 0.9750
2.8793 5.2572 -1.9925 0.9751
1.8994 5.6836 -1.9920 0.9751
0.8597 5.9300 -1.9918 0.9751
0.3275 5.9831 -1.9918 0.9751
-0.7404 5.9470 -1.9921 0.9751
-1.7854 5.7227 -1.9927 0.9750
-2.7746 5.3170 -1.9936 0.9750
-3.6770 4.7424 -1.9947 0.9750
-4.8061 3.6042 -1.9969 0.9750
-5.7726 1.6996 -2.0003 0.9750
-5.9881 0.6480 -2.0021 0.9749
-5.9541 -0.9611 -2.0048 0.9749
-4.9656 -3.4442 -2.0088 0.9748
-4.6402 -3.8744 -2.0094 0.9748
-4.2776 -4.2740 -2.0100 0.9748
-3.8805 -4.6396 -2.0105 0.9748
-2.0153 -5.7073 -2.0119 0.9748
-1.4985 -5.8647 -2.0121 0.9748
-0.9697 -5.9752 -2.0122 0.9748
-0.4331 -6.0378 -2.0122 0.9748
0.6460 -6.0180 -2.0119 0.9748
1.1799 -5.9356 -2.0116 0.9748
2.7070 -5.4085 -2.0104 0.9748
3.6225 -4.8390 -2.0093 0.9748
4.4212 -4.1159 -2.0079 0.9749
4.7688 -3.7039 -2.0071 0.9749
5.0780 -3.2626 -2.0063 0.9749
5.9757 -0.7491 -2.0019 0.9749
6.0159 -0.2133 -2.0010 0.9749
6.0083 0.3238 -2.0001 0.9750
5.7010 1.8999 -1.9975 0.9750
4.9893 3.3370 -1.9952 0.9750
4.3146 4.1675 -1.9940 0.9750
3.0558 5.1571 -1.9926 0.9750
2.0907 5.6162 -1.9920 0.9751
1.5815 5.7798 -1.9919 0.9751
0.5298 5.9685 -1.9918 0.9751
-0.5387 5.9684 -1.9920 0.9751
-0.4490 5.5541 -1.9927 0.9766
-0.9425 5.4925 -1.9929 0.9766
-1.9036 5.2395 -1.9935 0.9766
-2.8052 4.8203 -1.9944 0.9766
-3.9844 3.9095 -1.9962 0.9766
-4.3186 3.5399 -1.9969 0.9766
-4.8823 2.7187 -1.9984 0.9765
-5.4344 1.3314 -2.0008 0.9765
-5.5337 0.8419 -2.0017 0.9765
-5.5891 0.3453 -2.0025 0.9765
-5.6000 -0.1544 -2.0034 0.9765
-5.5663 -0.6534 -2.0042 0.9765
-5.3660 -1.6329 -2.0058 0.9765
-5.2010 -2.1056 -2.0066 0.9764
-4.7477 -2.9980 -2.0080 0.9764
-3.4039 -4.4733 -2.0102 0.9764
-2.9921 -4.7599 -2.0106 0.9764
-2.5562 -5.0086 -2.0109 0.9764
-1.1399 -5.5079 -2.0114 0.9764
-0.6443 -5.5877 -2.0114 0.9764
0.3583 -5.6128 -2.0113 0.9764
1.3492 -5.4587 -2.0108 0.9764
3.1694 -4.6386 -2.0090 0.9764
4.8531 -2.8110 -2.0056 0.9765
5.0823 -2.3662 -2.0048 0.9765
5.5795 -0.4396 -2.0015 0.9765
5.5642 0.5579 -1.9998 0.9765
5.3724 1.5360 -1.9982 0.9765
4.7692 2.8998 -1.9960 0.9766
4.4902 3.3124 -1.9954 0.9766
4.1758 3.6985 -1.9948 0.9766
3.8284 4.0550 -1.9943 0.9766
3.4508 4.3792 -1.9938 0.9766
3.0460 4.6685 -1.9934 0.9766
2.6172 4.9206 -1.9931 0.9766
1.7013 5.3060 -1.9926 0.9766
1.2214 5.4363 -1.9925 0.9766
0.2364 5.5667 -1.9925 0.9766
-0.2608 5.5660 -1.9926 0.9766
-1.2455 5.4323 -1.9930 0.9766
-3.4726 4.3673 -1.9953 0.9766
-3.8493 4.0416 -1.9959 0.9766
-4.1958 3.6835 -1.9966 0.9766
-4.7868 2.8819 -1.9981 0.9765
-5.0267 2.4446 -1.9989 0.9765
-5.5734 0.5341 -2.0022 0.9765
-5.6011 0.0351 -2.0031 0.9765
-5.4174 -1.4502 -2.0055 0.9765
-4.8458 -2.8353 -2.0077 0.9764
-4.5752 -3.2571 -2.0084 0.9764
-4.2679 -3.6531 -2.0090 0.9764
-3.9262 -4.0202 -2.0095 0.9764
-3.1512 -4.6556 -2.0104 0.9764
-2.7241 -4.9189 -2.0108 0.9764
-0.8330 -5.5627 -2.0114 0.9764
-0.3337 -5.6148 -2.0114 0.9764
0.1682 -5.6219 -2.0113 0.9764
0.6687 -5.5840 -2.0112 0.9764
1.1638 -5.5015 -2.0109 0.9764
1.6494 -5.3750 -2.0106 0.9764
2.1216 -5.2055 -2.0102 0.9764
2.5767 -4.9945 -2.0098 0.9764
3.0110 -4.7437 -2.0092 0.9764
3.4209 -4.4551 -2.0087 0.9764
4.1551 -3.7742 -2.0074 0.9764
5.2043 -2.0805 -2.0043 0.9765
5.3669 -1.6075 -2.0035 0.9765
5.4865 -1.1221 -2.0026 0.9765
5.5808 0.3694 -2.0001 0.9765
5.5234 0.8651 -1.9993 0.9765
5.4221 1.3536 -1.9985 0.9765
5.2778 1.8309 -1.9977 0.9765
4.8652 2.7372 -1.9963 0.9766
3.9638 3.9236 -1.9945 0.9766
3.2025 4.5631 -1.9936 0.9766
2.3404 5.0577 -1.9929 0.9766
0.4246 5.5555 -1.9925 0.9766
-1.5447 5.3555 -1.9932 0.9766
-2.0164 5.1974 -1.9936 0.9766
-2.4723 4.9980 -1.9940 0.9766
-2.9088 4.7588 -1.9945 0.9766
-4.3944 3.4462 -1.9971 0.9766
-4.9403 2.6129 -1.9986 0.9765
-5.3302 1.6953 -2.0002 0.9765
-5.5512 0.7223 -2.0019 0.9765
-5.5959 0.2246 -2.0027 0.9765
-5.5959 -0.2754 -2.0036 0.9765
-5.5514 -0.7735 -2.0044 0.9765
-5.4625 -1.2659 -2.0052 0.9765
-5.1548 -2.2176 -2.0067 0.9764
-4.3885 -3.5062 -2.0087 0.9764
-4.0596 -3.8846 -2.0093 0.9764
-3.6980 -4.2322 -2.0098 0.9764
-2.8888 -4.8236 -2.0106 0.9764
-2.4476 -5.0628 -2.0110 0.9764
-1.5098 -5.4180 -2.0113 0.9764
-0.0221 -5.6245 -2.0114 0.9764
0.4794 -5.6037 -2.0112 0.9764
4.3569 -3.5374 -2.0069 0.9764
4.6532 -3.1337 -2.0062 0.9764
4.9122 -2.7053 -2.0054 0.9765
5.4463 -1.3073 -2.0030 0.9765
5.5871 -0.3190 -2.0013 0.9765
5.3375 1.6515 -1.9980 0.9765
4.7051 3.0019 -1.9959 0.9766
3.7397 4.1365 -1.9942 0.9766
3.3553 4.4525 -1.9937 0.9766
2.9444 4.7330 -1.9933 0.9766
1.1037 5.4613 -1.9925 0.9766
0.1162 5.5706 -1.9925 0.9766
-0.3810 5.5591 -1.9926 0.9766
-2.3016 5.0783 -1.9939 0.9766
-3.5663 4.2916 -1.9955 0.9766
-3.9360 3.9578 -1.9961 0.9766
-4.2747 3.5924 -1.9968 0.9766
-4.5796 3.1981 -1.9975 0.9766
-4.8484 2.7781 -1.9983 0.9765
-5.0788 2.3357 -1.9991 0.9765
-5.4173 1.3977 -2.0007 0.9765
-5.5842 0.4137 -2.0024 0.9765
-5.5735 -0.5852 -2.0041 0.9765
-5.5014 -1.0802 -2.0049 0.9765
-5.2262 -2.0417 -2.0065 0.9764
-4.7838 -2.9395 -2.0079 0.9764
-3.8387 -4.1043 -2.0096 0.9764
-3.4583 -4.4312 -2.0101 0.9764
-2.6173 -4.9768 -2.0108 0.9764
-2.1634 -5.1910 -2.0111 0.9764
-1.2073 -5.4935 -2.0114 0.9764
-0.7127 -5.5794 -2.0114 0.9764
0.2896 -5.6169 -2.0113 0.9764
0.7891 -5.5682 -2.0111 0.9764
2.2334 -5.1582 -2.0101 0.9764
2.6838 -4.9374 -2.0096 0.9764
3.5161 -4.3798 -2.0085 0.9764
4.2353 -3.6833 -2.0072 0.9764
4.5452 -3.2898 -2.0065 0.9764
4.8185 -2.8704 -2.0057 0.9765
5.0533 -2.4284 -2.0049 0.9765
5.2475 -1.9674 -2.0041 0.9765
5.3998 -1.4911 -2.0033 0.9765
5.5710 0.4897 -1.9999 0.9765
5.5029 0.9841 -1.9991 0.9765
5.2365 1.9443 -1.9975 0.9766
5.0405 2.4025 -1.9968 0.9766
3.5043 4.3368 -1.9939 0.9766
2.6773 4.8883 -1.9931 0.9766
1.7661 5.2849 -1.9927 0.9766
1.2878 5.4209 -1.9925 0.9766
0.7994 5.5140 -1.9925 0.9766
-0.6885 5.5298 -1.9928 0.9766
-1.1789 5.4471 -1.9930 0.9766
-2.5798 4.9437 -1.9942 0.9766
-3.0111 4.6952 -1.9947 0.9766
-4.4682 3.3508 -1.9972 0.9766
-4.7509 2.9401 -1.9980 0.9765
-5.4879 1.0957 -2.0012 0.9765
-5.5661 0.6023 -2.0021 0.9765
-5.2915 -1.8634 -2.0062 0.9765
-5.1062 -2.3286 -2.0069 0.9764
-4.8799 -2.7756 -2.0076 0.9764
-4.3121 -3.6004 -2.0089 0.9764
-3.9750 -3.9717 -2.0094 0.9764
-3.6060 -4.3113 -2.0099 0.9764
-3.2079 -4.6166 -2.0104 0.9764
-2.7840 -4.8851 -2.0107 0.9764
-1.8726 -5.3032 -2.0112 0.9764
-0.9010 -5.5521 -2.0114 0.9764
-0.4024 -5.6103 -2.0114 0.9764
0.6003 -5.5919 -2.0112 0.9764
1.5835 -5.3949 -2.0106 0.9764
2.0578 -5.2313 -2.0103 0.9764
2.5154 -5.0259 -2.0098 0.9764
2.9528 -4.7804 -2.0093 0.9764
3.3663 -4.4968 -2.0088 0.9764
4.1088 -3.8250 -2.0075 0.9764
4.7194 -3.0322 -2.0060 0.9765
5.1788 -2.1441 -2.0044 0.9765
5.4727 -1.1893 -2.0027 0.9765
5.5922 -0.1982 -2.0011 0.9765
5.5852 0.3010 -2.0002 0.9765
5.4385 1.2872 -1.9986 0.9765
5.3001 1.7662 -1.9978 0.9765
5.1196 2.2309 -1.9971 0.9766
4.3424 3.5028 -1.9951 0.9766
4.0117 3.8749 -1.9945 0.9766
3.6493 4.2161 -1.9940 0.9766
3.2582 4.5237 -1.9936 0.9766
2.8413 4.7953 -1.9932 0.9766
1.9440 5.2223 -1.9927 0.9766
1.4705 5.3744 -1.9926 0.9766
0.9855 5.4839 -1.9925 0.9766
0.4926 5.5499 -1.9925 0.9766
-0.5010 5.5497 -1.9927 0.9766
-0.4191 5.1845 -1.9933 0.9780
-0.8798 5.1270 -1.9935 0.9780
-1.3336 5.0288 -1.9937 0.9780
-1.7769 4.8907 -1.9941 0.9780
-2.6184 4.4992 -1.9949 0.9779
-3.0098 4.2489 -1.9954 0.9779
-3.3776 3.9648 -1.9960 0.9779
-3.7188 3.6489 -1.9966 0.9779
-4.0306 3.3039 -1.9972 0.9779
-4.3106 2.9324 -1.9979 0.9779
-4.5565 2.5373 -1.9986 0.9779
-4.7664 2.1218 -1.9994 0.9779
-4.9385 1.6890 -2.0001 0.9779
-5.0714 1.2424 -2.0009 0.9779
-5.2155 0.3222 -2.0025 0.9779
-5.2255 -0.1441 -2.0033 0.9779
-5.1208 -1.0707 -2.0048 0.9778
-5.0067 -1.5236 -2.0055 0.9778
-4.6598 -2.3902 -2.0069 0.9778
-4.1637 -3.1818 -2.0082 0.9778
-3.8645 -3.5413 -2.0087 0.9778
-3.1756 -4.1732 -2.0096 0.9778
-2.7913 -4.4405 -2.0100 0.9778
-1.0634 -5.1382 -2.0108 0.9778
-0.6011 -5.2126 -2.0108 0.9778
0.7997 -5.1850 -2.0105 0.9778
1.7073 -4.9591 -2.0099 0.9778
2.1423 -4.7862 -2.0095 0.9778
2.5599 -4.5751 -2.0091 0.9778
2.9569 -4.3276 -2.0086 0.9778
3.6764 -3.7315 -2.0074 0.9778
4.2778 -3.0172 -2.0061 0.9778
4.5282 -2.6229 -2.0054 0.9778
5.1514 -0.8732 -2.0023 0.9779
5.2067 -0.4102 -2.0015 0.9779
5.2205 0.0556 -2.0007 0.9779
5.1927 0.5206 -1.9999 0.9779
5.1237 0.9812 -1.9992 0.9779
5.0140 1.4335 -1.9984 0.9779
4.4513 2.7066 -1.9964 0.9779
4.1911 3.0918 -1.9958 0.9779
3.8976 3.4522 -1.9953 0.9779
3.5735 3.7850 -1.9948 0.9779
3.2211 4.0876 -1.9944 0.9780
2.8433 4.3577 -1.9940 0.9780
2.4430 4.5931 -1.9937 0.9780
2.0235 4.7921 -1.9934 0.9780
1.5881 4.9530 -1.9932 0.9780
0.6831 5.1559 -1.9931 0.9780
0.2207 5.1963 -1.9931 0.9780
-0.7058 5.1536 -1.9934 0.9780
-1.1626 5.0708 -1.9936 0.9780
-1.6103 4.9477 -1.9939 0.9780
-2.0454 4.7853 -1.9943 0.9780
-2.4644 4.5848 -1.9947 0.9779
-2.8641 4.3479 -1.9952 0.9779
-3.2412 4.0763 -1.9958 0.9779
-3.5928 3.7722 -1.9963 0.9779
-3.9160 3.4380 -1.9970 0.9779
-4.2084 3.0762 -1.9976 0.9779
-4.6912 2.2815 -1.9991 0.9779
-5.0257 1.4131 -2.0006 0.9779
-5.1337 0.9598 -2.0014 0.9779
-5.2008 0.4984 -2.0022 0.9779
-5.2108 -0.4335 -2.0038 0.9779
-4.5211 -2.6453 -2.0073 0.9778
-2.5413 -4.5888 -2.0102 0.9778
-2.1223 -4.7978 -2.0104 0.9778
-1.6862 -4.9683 -2.0106 0.9778
-1.2366 -5.0992 -2.0108 0.9778
-0.7771 -5.1893 -2.0108 0.9778
1.0857 -5.1323 -2.0103 0.9778
1.5387 -5.0143 -2.0100 0.9778
2.4039 -4.6595 -2.0092 0.9778
4.1738 -3.1606 -2.0063 0.9778
4.4374 -2.7749 -2.0056 0.9778
4.6655 -2.3674 -2.0049 0.9778
5.1197 -1.0471 -2.0026 0.9779
5.2202 -0.1211 -2.0010 0.9779
5.1547 0.8074 -1.9995 0.9779
5.0603 1.2633 -1.9987 0.9779
4.9257 1.7088 -1.9980 0.9779
4.7521 2.1404 -1.9973 0.9779
4.2937 2.9485 -1.9960 0.9779
4.0126 3.3187 -1.9955 0.9779
2.9893 4.2593 -1.9941 0.9780
2.5972 4.5081 -1.9938 0.9780
1.7548 4.8966 -1.9933 0.9780
1.3112 5.0332 -1.9932 0.9780
0.3964 5.1859 -1.9931 0.9780
-0.0676 5.2007 -1.9932 0.9780
-0.9903 5.1070 -1.9935 0.9780
-1.4419 4.9990 -1.9938 0.9780
-2.3077 4.6652 -1.9946 0.9780
-2.7151 4.4419 -1.9950 0.9779
-3.4627 3.8912 -1.9961 0.9779
-3.7970 3.5680 -1.9967 0.9779
-4.1014 3.2164 -1.9974 0.9779
-4.6107 2.4385 -1.9988 0.9779
-4.9743 1.5821 -2.0003 0.9779
-5.0975 1.1327 -2.0011 0.9779
-5.1802 0.6740 -2.0019 0.9779
-5.2217 0.2096 -2.0027 0.9779
-5.2217 -0.2569 -2.0035 0.9779
-4.9731 -1.6315 -2.0057 0.9778
-4.8095 -2.0691 -2.0064 0.9778
-4.6074 -2.4905 -2.0071 0.9778
-4.3684 -2.8923 -2.0077 0.9778
-3.7873 -3.6241 -2.0088 0.9778
-3.0848 -4.2410 -2.0097 0.9778
-2.2833 -4.7230 -2.0103 0.9778
-1.8533 -4.9083 -2.0106 0.9778
-1.4084 -5.0544 -2.0107 0.9778
-0.4884 -5.2244 -2.0108 0.9778
0.9114 -5.1663 -2.0104 0.9778
1.3682 -5.0638 -2.0101 0.9778
1.8140 -4.9208 -2.0098 0.9778
2.6580 -4.5185 -2.0089 0.9778
3.0495 -4.2624 -2.0084 0.9778
4.0650 -3.3005 -2.0066 0.9778
4.7884 -2.1048 -2.0044 0.9778
4.9550 -1.6688 -2.0037 0.9779
5.0821 -1.2199 -2.0029 0.9779
5.2139 -0.2977 -2.0013 0.9779
5.1798 0.6326 -1.9997 0.9779
4.8225 1.9786 -1.9976 0.9779
4.3915 2.8019 -1.9963 0.9779
4.1230 3.1813 -1.9957 0.9779
3.4907 3.8611 -1.9947 0.9779
2.3432 4.6447 -1.9936 0.9780
1.9195 4.8345 -1.9934 0.9780
1.0302 5.0980 -1.9931 0.9780
0.5716 5.1695 -1.9931 0.9780
0.1084 5.1999 -1.9931 0.9780
-0.3556 5.1892 -1.9933 0.9780
-1.2719 5.0447 -1.9937 0.9780
-2.1484 4.7402 -1.9944 0.9780
-2.5630 4.5308 -1.9948 0.9779
-2.9575 4.2853 -1.9953 0.9779
-3.3287 4.0057 -1.9959 0.9779
-3.9897 3.3529 -1.9971 0.9779
-4.2742 2.9848 -1.9978 0.9779
-4.5249 2.5928 -1.9985 0.9779
-5.1537 0.8487 -2.0016 0.9779
-5.2266 -0.0801 -2.0032 0.9779
-5.2007 -0.5460 -2.0039 0.9778
-5.0248 -1.4621 -2.0054 0.9778
-4.8761 -1.9049 -2.0062 0.9778
-4.6885 -2.3329 -2.0068 0.9778
-3.9074 -3.4936 -2.0086 0.9778
-3.2263 -4.1339 -2.0096 0.9778
-2.8454 -4.4059 -2.0099 0.9778
-2.4417 -4.6428 -2.0102 0.9778
-1.1262 -5.1248 -2.0108 0.9778
-0.1981 -5.2433 -2.0108 0.9778
0.7362 -5.1944 -2.0105 0.9778
1.6466 -4.9797 -2.0099 0.9778
2.5038 -4.6063 -2.0091 0.9778
2.9038 -4.3636 -2.0086 0.9778
3.6306 -3.7764 -2.0075 0.9778
3.9515 -3.4365 -2.0068 0.9778
4.2408 -3.0695 -2.0062 0.9778
4.4959 -2.6782 -2.0055 0.9778
5.0387 -1.3914 -2.0032 0.9779
5.2016 -0.4740 -2.0016 0.9779
5.2211 -0.0083 -2.0008 0.9779
5.1990 0.4570 -2.0000 0.9779
5.0314 1.3721 -1.9985 0.9779
4.8873 1.8146 -1.9978 0.9779
4.7044 2.2423 -1.9971 0.9779
4.4843 2.6520 -1.9965 0.9779
4.2288 3.0403 -1.9959 0.9779
3.6196 3.7411 -1.9949 0.9779
3.2709 4.0480 -1.9944 0.9780
2.8965 4.3227 -1.9940 0.9780
2.0821 4.7670 -1.9935 0.9780
0.2843 5.1932 -1.9931 0.9780
-1.5496 4.9669 -1.9939 0.9780
-2.4080 4.6145 -1.9947 0.9780
-2.8106 4.3825 -1.9951 0.9779
-3.1909 4.1155 -1.9957 0.9779
-3.5462 3.8158 -1.9963 0.9779
-4.1702 3.1273 -1.9975 0.9779
-4.4340 2.7440 -1.9982 0.9779
-5.0077 1.4744 -2.0005 0.9779
-5.1212 1.0225 -2.0013 0.9779
-5.2255 0.0967 -2.0029 0.9779
-5.2154 -0.3697 -2.0037 0.9779
-4.7641 -2.1727 -2.0066 0.9778
-4.5529 -2.5896 -2.0072 0.9778
-3.7084 -3.7053 -2.0089 0.9778
-3.3641 -4.0221 -2.0094 0.9778
-2.5972 -4.5573 -2.0101 0.9778
-1.7469 -4.9473 -2.0106 0.9778
-1.2990 -5.0837 -2.0107 0.9778
-0.3754 -5.2337 -2.0108 0.9778
0.0927 -5.2461 -2.0107 0.9778
0.5600 -5.2166 -2.0106 0.9778
1.0228 -5.1453 -2.0103 0.9778
1.4772 -5.0329 -2.0101 0.9778
1.9197 -4.8803 -2.0097 0.9778
2.7548 -4.4598 -2.0088 0.9778
3.1406 -4.1953 -2.0083 0.9778
3.5011 -3.8975 -2.0077 0.9778
4.4034 -2.8292 -2.0057 0.9778
4.6364 -2.4244 -2.0050 0.9778
4.8323 -2.0007 -2.0042 0.9778
4.9895 -1.5613 -2.0035 0.9779
5.1068 -1.1098 -2.0027 0.9779
5.1834 -0.6498 -2.0019 0.9779
5.2123 0.2809 -2.0003 0.9779
5.1645 0.7442 -1.9996 0.9779
4.9465 1.6484 -1.9981 0.9779
4.7782 2.0822 -1.9974 0.9779
4.5720 2.4991 -1.9967 0.9779
4.3297 2.8958 -1.9961 0.9779
3.7445 3.6168 -1.9950 0.9779
2.2423 4.6941 -1.9935 0.9780
1.3727 5.0168 -1.9932 0.9780
0.9199 5.1190 -1.9931 0.9780
0.4598 5.1806 -1.9931 0.9780
-0.3926 4.8558 -1.9938 0.9792
-1.2490 4.7099 -1.9943 0.9792
-2.8188 3.9793 -1.9958 0.9791
-3.4826 3.4172 -1.9969 0.9791
-3.7746 3.0940 -1.9975 0.9791
-4.6243 1.5815 -2.0002 0.9791
-1.9754 0.3005 -0.8178 0.9914
-1.9477 0.1203 -0.7987 0.9916
-1.9243 -0.0531 -0.7879 0.9917
-4.7943 -1.0025 -2.0046 0.9791
-4.6874 -1.4264 -2.0053 0.9790
-4.5431 -1.8392 -2.0060 0.9790
-3.8979 -2.9786 -2.0078 0.9790
-3.6177 -3.3151 -2.0083 0.9790
-3.3084 -3.6253 -2.0087 0.9790
-2.6130 -4.1568 -2.0095 0.9790
-1.8336 -4.5559 -2.0100 0.9790
-1.4203 -4.7015 -2.0101 0.9790
-0.9954 -4.8097 -2.0102 0.9790
-0.1254 -4.9100 -2.0102 0.9790
1.1782 -4.7669 -2.0097 0.9790
2.0054 -4.4804 -2.0090 0.9790
2.3964 -4.2829 -2.0086 0.9790
3.1174 -3.7873 -2.0076 0.9790
4.0049 -2.8247 -2.0058 0.9790
4.4399 -2.0671 -2.0044 0.9791
4.8234 -0.8176 -2.0023 0.9791
4.8625 0.4875 -2.0001 0.9791
4.5554 1.7551 -1.9980 0.9791
4.3794 2.1536 -1.9974 0.9791
3.9250 2.8955 -1.9962 0.9791
3.6503 3.2331 -1.9957 0.9791
3.3467 3.5448 -1.9952 0.9792
3.0167 3.8283 -1.9948 0.9792
0.6398 4.8290 -1.9937 0.9792
0.2067 4.8669 -1.9937 0.9792
-1.9156 4.4817 -1.9948 0.9792
-3.6673 3.2196 -1.9973 0.9791
-4.1835 2.5187 -1.9986 0.9791
-4.5675 1.7368 -2.0000 0.9791
-2.1967 0.4107 -0.9146 0.9904
-1.9043 0.0119 -0.7794 0.9918
-1.9569 -0.1628 -0.8037 0.9915
-2.1446 -0.3732 -0.8909 0.9906
-4.6022 -1.6843 -2.0057 0.9790
-4.4351 -2.0886 -2.0064 0.9790
-4.2325 -2.4764 -2.0070 0.9790
-3.9960 -2.8447 -2.0076 0.9790
-3.7274 -3.1905 -2.0081 0.9790
-3.1029 -3.8035 -2.0090 0.9790
-1.1576 -4.7732 -2.0102 0.9790
-0.7274 -4.8575 -2.0102 0.9790
0.1469 -4.9093 -2.0101 0.9790
0.5839 -4.8763 -2.0100 0.9790
1.0163 -4.8043 -2.0098 0.9790
1.4404 -4.6939 -2.0095 0.9790
2.9878 -3.8910 -2.0078 0.9790
3.3219 -3.6081 -2.0073 0.9790
3.9076 -2.9590 -2.0061 0.9790
4.6889 -1.4044 -2.0033 0.9791
4.7937 -0.9804 -2.0025 0.9791
4.7386 1.1829 -1.9989 0.9791
4.6127 1.6002 -1.9982 0.9791
4.4502 2.0044 -1.9976 0.9791
4.0211 2.7613 -1.9964 0.9791
2.4325 4.2222 -1.9943 0.9792
2.0461 4.4217 -1.9940 0.9792
1.6435 4.5861 -1.9939 0.9792
0.3713 4.8571 -1.9937 0.9792
-0.0633 4.8710 -1.9937 0.9792
-1.3505 4.6820 -1.9943 0.9792
-3.2429 3.6441 -1.9965 0.9791
-4.0954 2.6585 -1.9983 0.9791
-1.9510 0.2539 -0.8052 0.9915
-1.9471 -0.2713 -0.8046 0.9915
-4.7719 -1.1059 -2.0048 0.9791
-4.0895 -2.7076 -2.0073 0.9790
-3.8329 -3.0623 -2.0079 0.9790
-3.5454 -3.3926 -2.0084 0.9790
-3.2296 -3.6960 -2.0088 0.9790
-2.8877 -3.9700 -2.0092 0.9790
-1.3184 -4.7312 -2.0102 0.9790
-0.4571 -4.8904 -2.0102 0.9790
-0.0193 -4.9115 -2.0102 0.9790
0.8532 -4.8361 -2.0099 0.9790
2.1016 -4.4358 -2.0089 0.9790
2.4882 -4.2299 -2.0085 0.9790
3.1983 -3.7189 -2.0075 0.9790
4.0647 -2.7374 -2.0056 0.9790
4.2911 -2.3633 -2.0050 0.9790
4.6393 -1.5625 -2.0036 0.9791
4.8395 -0.7131 -2.0021 0.9791
4.8856 0.1576 -2.0006 0.9791
4.8504 0.5923 -1.9999 0.9791
4.7766 1.0221 -1.9992 0.9791
4.6648 1.4434 -1.9985 0.9791
4.5160 1.8529 -1.9978 0.9791
4.3315 2.2475 -1.9972 0.9791
4.1127 2.6240 -1.9966 0.9791
3.8613 2.9794 -1.9961 0.9791
3.5794 3.3109 -1.9956 0.9791
3.2692 3.6161 -1.9951 0.9792
2.5741 4.1377 -1.9944 0.9792
2.1946 4.3501 -1.9941 0.9792
0.5354 4.8417 -1.9937 0.9792
-0.3331 4.8602 -1.9938 0.9792
-2.7698 4.0133 -1.9958 0.9791
-3.4404 3.4594 -1.9968 0.9791
-4.0026 2.7951 -1.9981 0.9791
-4.6044 1.6379 -2.0001 0.9791
-2.0755 0.3418 -0.8609 0.9909
-1.9535 0.1447 -0.8017 0.9916
-4.8060 -0.9436 -2.0045 0.9791
-4.5651 -1.7834 -2.0059 0.9790
-4.1783 -2.5674 -2.0071 0.9790
-3.9339 -2.9305 -2.0077 0.9790
-3.6579 -3.2704 -2.0082 0.9790
-3.3525 -3.5844 -2.0087 0.9790
-2.6636 -4.1244 -2.0094 0.9790
-1.4777 -4.6838 -2.0101 0.9790
-1.0542 -4.7972 -2.0102 0.9790
-0.1855 -4.9081 -2.0102 0.9790
0.6891 -4.8624 -2.0099 0.9790
1.1198 -4.7810 -2.0097 0.9790
1.5413 -4.6615 -2.0094 0.9790
2.7183 -4.0849 -2.0082 0.9790
3.0709 -3.8253 -2.0077 0.9790
3.3988 -3.5353 -2.0071 0.9790
4.2092 -2.5074 -2.0052 0.9790
4.4145 -2.1214 -2.0045 0.9791
4.8133 -0.8766 -2.0024 0.9791
4.8683 0.4280 -2.0002 0.9791
4.8090 0.8600 -1.9994 0.9791
4.7116 1.2849 -1.9987 0.9791
4.5767 1.6993 -1.9981 0.9791
3.9603 2.8473 -1.9963 0.9791
3.3900 3.5037 -1.9953 0.9791
3.0634 3.7912 -1.9949 0.9792
2.7127 4.0485 -1.9945 0.9792
2.3406 4.2736 -1.9942 0.9792
1.5441 4.6204 -1.9938 0.9792
1.1259 4.7394 -1.9937 0.9792
-1.0306 4.7621 -1.9941 0.9792
-1.8606 4.5047 -1.9947 0.9792
-2.6322 4.1044 -1.9956 0.9791
-3.6275 3.2641 -1.9972 0.9791
-4.1522 2.5696 -1.9985 0.9791
-4.3662 2.1899 -1.9992 0.9791
-4.6891 1.3806 -2.0006 0.9791
-4.7953 0.9574 -2.0013 0.9791
-1.9568 0.2117 -0.8056 0.9915
-1.9163 0.0355 -0.7844 0.9918
-1.9522 -0.1384 -0.8010 0.9916
-4.7473 -1.2087 -2.0050 0.9790
-4.6222 -1.6278 -2.0056 0.9790
-4.4601 -2.0340 -2.0063 0.9790
-4.2623 -2.4243 -2.0069 0.9790
-3.7661 -3.1445 -2.0080 0.9790
-3.4715 -3.4686 -2.0085 0.9790
-3.1491 -3.7651 -2.0089 0.9790
-2.0414 -4.4664 -2.0099 0.9790
-1.2159 -4.7587 -2.0102 0.9790
-0.7868 -4.8483 -2.0102 0.9790
0.0868 -4.9107 -2.0102 0.9790
0.5242 -4.8831 -2.0100 0.9790
1.3828 -4.7113 -2.0095 0.9790
2.1968 -4.3892 -2.0088 0.9790
2.5788 -4.1749 -2.0084 0.9790
2.9401 -3.9274 -2.0079 0.9790
3.5888 -3.3409 -2.0068 0.9790
3.8712 -3.0067 -2.0061 0.9790
4.1225 -2.6487 -2.0055 0.9790
4.6716 -1.4618 -2.0034 0.9791
4.8360 0.6969 -1.9997 0.9791
4.7530 1.1249 -1.9990 0.9791
4.6322 1.5437 -1.9983 0.9791
4.4746 1.9499 -1.9977 0.9791
4.2817 2.3403 -1.9971 0.9791
3.7958 3.0619 -1.9960 0.9791
3.1902 3.6856 -1.9950 0.9792
2.8483 3.9547 -1.9947 0.9792
2.4840 4.1922 -1.9943 0.9792
1.6996 4.5656 -1.9939 0.9792
1.2857 4.6987 -1.9937 0.9792
0.8616 4.7944 -1.9937 0.9792
0.4307 4.8521 -1.9937 0.9792
-0.7740 4.5105 -1.9945 0.9802
-2.3033 3.9579 -1.9958 0.9802
-2.9711 3.4875 -1.9967 0.9802
-3.2710 3.2096 -1.9972 0.9802
-3.7913 2.5791 -1.9984 0.9802
-1.5906 0.5440 -0.7326 0.9927
-1.5417 0.3777 -0.6918 0.9931
-1.5121 0.2301 -0.6666 0.9933
-1.5274 -0.0421 -0.6659 0.9934
-1.5227 -0.1787 -0.6682 0.9933
-1.5146 -0.3167 -0.6744 0.9933
-1.5759 -0.4795 -0.7179 0.9928
-4.2659 -1.7270 -2.0057 0.9801
-3.6598 -2.7967 -2.0074 0.9801
-3.3967 -3.1126 -2.0079 0.9801
-3.1063 -3.4038 -2.0083 0.9801
-2.0958 -4.1064 -2.0093 0.9801
-1.7215 -4.2774 -2.0095 0.9801
-1.3334 -4.4142 -2.0096 0.9801
-0.9346 -4.5157 -2.0097 0.9801
-0.1177 -4.6098 -2.0097 0.9801
0.2937 -4.6017 -2.0096 0.9801
0.7028 -4.5568 -2.0094 0.9801
1.1062 -4.4755 -2.0092 0.9801
1.5006 -4.3585 -2.0089 0.9801
1.8829 -4.2066 -2.0086 0.9801
2.2500 -4.0212 -2.0082 0.9801
2.9271 -3.5560 -2.0073 0.9801
4.5296 -0.7678 -2.0022 0.9802
4.5784 -0.3607 -2.0015 0.9802
4.5908 0.0489 -2.0009 0.9802
4.5061 0.8629 -1.9995 0.9802
4.1132 2.0227 -1.9976 0.9802
3.4286 3.0367 -1.9961 0.9802
2.1493 4.0408 -1.9947 0.9802
-0.6209 4.5340 -1.9944 0.9802
-1.0228 4.4610 -1.9946 0.9802
-1.4167 4.3526 -1.9949 0.9802
-1.7994 4.2097 -1.9952 0.9802
-3.1602 3.3181 -1.9970 0.9802
-3.9291 2.3655 -1.9988 0.9802
-4.2896 1.6312 -2.0001 0.9802
-1.5236 0.0096 -0.6640 0.9934
-1.5031 -0.2616 -0.6649 0.9934
-3.9741 -2.3252 -2.0067 0.9801
-2.9133 -3.5711 -2.0085 0.9801
-2.5838 -3.8173 -2.0089 0.9801
-2.2334 -4.0330 -2.0092 0.9801
-1.8652 -4.2165 -2.0094 0.9801
-0.6829 -4.5606 -2.0097 0.9801
-0.2736 -4.6033 -2.0097 0.9801
0.1379 -4.6091 -2.0096 0.9801
0.9542 -4.5106 -2.0093 0.9801
1.3523 -4.4070 -2.0090 0.9801
2.1128 -4.0954 -2.0084 0.9801
3.1191 -3.3878 -2.0069 0.9801
3.4078 -3.0954 -2.0064 0.9801
3.6691 -2.7784 -2.0058 0.9801
3.9010 -2.4395 -2.0052 0.9801
4.4031 -1.3188 -2.0032 0.9801
4.5642 -0.5155 -2.0018 0.9802
4.5904 -0.1065 -2.0011 0.9802
4.5800 0.3031 -2.0004 0.9802
4.4504 1.1110 -1.9991 0.9802
4.1798 1.8826 -1.9979 0.9802
3.9941 2.2471 -1.9973 0.9802
3.7769 2.5936 -1.9967 0.9802
3.2546 3.2216 -1.9958 0.9802
2.9539 3.4982 -1.9954 0.9802
2.6297 3.7470 -1.9951 0.9802
2.2848 3.9660 -1.9948 0.9802
1.9219 4.1534 -1.9945 0.9802
1.1535 4.4280 -1.9942 0.9802
0.7541 4.5131 -1.9942 0.9802
0.3487 4.5624 -1.9942 0.9802
-0.0594 4.5755 -1.9942 0.9802
-0.4672 4.5522 -1.9944 0.9802
-0.8712 4.4929 -1.9945 0.9802
-1.2685 4.3978 -1.9948 0.9802
-2.0301 4.1040 -1.9954 0.9802
-2.3884 3.9074 -1.9959 0.9802
-3.0459 3.4228 -1.9968 0.9802
-3.3398 3.1384 -1.9974 0.9802
-3.6074 2.8290 -1.9979 0.9802
-3.8464 2.4968 -1.9985 0.9802
-4.0550 2.1446 -1.9992 0.9802
-4.2314 1.7751 -1.9998 0.9802
-1.5251 0.3389 -0.6809 0.9932
-1.5288 0.0614 -0.6668 0.9933
-1.5294 -0.0753 -0.6673 0.9933
-1.5166 -0.2113 -0.6673 0.9933
-1.5858 -0.5202 -0.7274 0.9927
-3.8398 -2.5423 -2.0070 0.9801
-2.0067 -4.1509 -2.0093 0.9801
-1.2378 -4.4420 -2.0096 0.9801
-0.8368 -4.5348 -2.0097 0.9801
-0.4292 -4.5914 -2.0097 0.9801
0.8010 -4.5405 -2.0094 0.9801
1.2025 -4.4505 -2.0091 0.9801
1.9732 -4.1648 -2.0085 0.9801
3.0030 -3.4918 -2.0071 0.9801
3.5734 -2.9013 -2.0060 0.9801
3.8167 -2.5704 -2.0054 0.9801
4.0294 -2.2191 -2.0048 0.9801
4.2098 -1.8504 -2.0041 0.9801
4.4685 -1.0726 -2.0028 0.9801
4.5448 -0.6697 -2.0021 0.9802
4.5553 0.5563 -2.0000 0.9802
4.4860 0.9599 -1.9993 0.9802
4.3812 1.3556 -1.9987 0.9802
3.8628 2.4645 -1.9969 0.9802
3.3621 3.1099 -1.9960 0.9802
3.0707 3.3966 -1.9955 0.9802
2.7552 3.6561 -1.9952 0.9802
2.4178 3.8866 -1.9949 0.9802
2.0614 4.0862 -1.9946 0.9802
1.6887 4.2532 -1.9944 0.9802
1.3027 4.3866 -1.9943 0.9802
0.9064 4.4851 -1.9942 0.9802
-0.7187 4.5196 -1.9945 0.9802
-1.8899 4.1700 -1.9953 0.9802
-2.6016 3.7696 -1.9961 0.9802
-2.9280 3.5235 -1.9966 0.9802
-3.2314 3.2493 -1.9971 0.9802
-3.9796 2.2803 -1.9989 0.9802
-1.5945 0.5672 -0.7376 0.9926
-1.5292 0.1133 -0.6683 0.9933
-4.2865 -1.6746 -2.0056 0.9801
-3.9232 -2.4107 -2.0068 0.9801
-3.6937 -2.7516 -2.0073 0.9801
-2.8356 -3.6333 -2.0086 0.9801
-1.7737 -4.2559 -2.0095 0.9801
-1.3873 -4.3975 -2.0096 0.9801
-0.9898 -4.5039 -2.0097 0.9801
-0.5843 -4.5742 -2.0097 0.9801
-0.1741 -4.6081 -2.0097 0.9801
0.2374 -4.6050 -2.0096 0.9801
0.6470 -4.5652 -2.0095 0.9801
1.0513 -4.4888 -2.0092 0.9801
1.4471 -4.3766 -2.0090 0.9801
3.1913 -3.3195 -2.0068 0.9801
3.9525 -2.3545 -2.0050 0.9801
4.3050 -1.6140 -2.0037 0.9801
4.5721 0.4019 -2.0003 0.9802
4.5165 0.8077 -1.9996 0.9802
4.2985 1.5960 -1.9983 0.9802
4.1378 1.9723 -1.9977 0.9802
3.7197 2.6744 -1.9966 0.9802
3.1841 3.2910 -1.9957 0.9802
2.5481 3.8028 -1.9950 0.9802
2.1986 4.0143 -1.9947 0.9802
1.4504 4.3401 -1.9943 0.9802
0.6565 4.5283 -1.9942 0.9802
0.2501 4.5689 -1.9942 0.9802
-0.1582 4.5732 -1.9943 0.9802
-1.3632 4.3696 -1.9949 0.9802
-2.4724 3.8551 -1.9960 0.9802
-3.4070 3.0658 -1.9975 0.9802
-3.6679 2.7506 -1.9981 0.9802
-1.5711 0.4626 -0.7138 0.9929
-1.5067 0.3008 -0.6696 0.9933
-1.5247 0.1650 -0.6684 0.9933
-1.5260 0.0283 -0.6652 0.9934
-1.5293 -0.1084 -0.6682 0.9933
-1.5085 -0.2435 -0.6660 0.9934
-1.5936 -0.5612 -0.7363 0.9927
-4.0021 -2.2763 -2.0066 0.9801
-3.7843 -2.6248 -2.0071 0.9801
-3.5361 -2.9525 -2.0076 0.9801
-2.6302 -3.7853 -2.0088 0.9801
-1.5353 -4.3479 -2.0096 0.9801
0.8989 -4.5220 -2.0093 0.9801
1.2983 -4.4233 -2.0091 0.9801
1.6872 -4.2893 -2.0088 0.9801
2.4213 -3.9199 -2.0080 0.9801
3.0775 -3.4259 -2.0070 0.9801
3.3698 -3.1370 -2.0065 0.9801
3.6350 -2.8233 -2.0059 0.9801
4.3869 -1.3727 -2.0033 0.9801
4.5578 -0.5714 -2.0019 0.9802
4.5890 -0.1627 -2.0012 0.9802
4.3505 1.4498 -1.9985 0.9802
3.5653 2.8759 -1.9963 0.9802
3.2939 3.1816 -1.9959 0.9802
2.6755 3.7146 -1.9951 0.9802
1.9727 4.1296 -1.9945 0.9802
1.5965 4.2886 -1.9944 0.9802
0.8093 4.5036 -1.9942 0.9802
-0.0034 4.5758 -1.9942 0.9802
-0.4114 4.5576 -1.9943 0.9802
-1.8277 3.9049 -1.9957 0.9812
-2.4932 3.5196 -1.9965 0.9812
-3.0802 3.0223 -1.9975 0.9812
-3.7734 2.1012 -1.9992 0.9811
-1.3186 0.5870 -0.6681 0.9937
-1.3076 0.3204 -0.6232 0.9941
-1.3049 -0.2728 -0.6171 0.9941
-1.3268 -0.4037 -0.6419 0.9939
-1.3281 -0.5377 -0.6632 0.9937
-2.6272 -3.4528 -2.0083 0.9811
-1.9728 -3.8655 -2.0088 0.9811
-1.2551 -4.1551 -2.0092 0.9810
-0.4972 -4.3122 -2.0093 0.9810
0.6616 -4.2894 -2.0090 0.9811
1.0413 -4.2129 -2.0088 0.9811
1.4125 -4.1028 -2.0085 0.9811
2.4466 -3.5807 -2.0074 0.9811
2.7555 -3.3476 -2.0070 0.9811
3.0422 -3.0878 -2.0065 0.9811
3.3045 -2.8035 -2.0059 0.9811
3.5403 -2.4970 -2.0054 0.9811
4.0711 -1.4698 -2.0035 0.9811
4.1846 -1.1006 -2.0029 0.9811
4.2998 0.4311 -2.0003 0.9811
4.2429 0.8125 -1.9996 0.9811
4.1523 1.1872 -1.9990 0.9811
4.0287 1.5522 -1.9984 0.9812
3.4716 2.5610 -1.9969 0.9812
2.6684 3.3863 -1.9957 0.9812
2.3555 3.6102 -1.9953 0.9812
2.0240 3.8053 -1.9951 0.9812
1.6765 3.9702 -1.9949 0.9812
1.3157 4.1036 -1.9947 0.9812
0.5660 4.2718 -1.9946 0.9812
0.1829 4.3053 -1.9946 0.9812
-0.2017 4.3046 -1.9947 0.9812
-0.5847 4.2698 -1.9949 0.9812
-1.6945 3.9643 -1.9956 0.9812
-2.0415 3.7981 -1.9960 0.9812
-2.9759 3.1245 -1.9973 0.9812
-3.2434 2.8475 -1.9978 0.9812
-3.6997 2.2274 -1.9990 0.9811
-1.3317 0.5064 -0.6595 0.9937
-1.3205 0.3713 -0.6349 0.9940
-1.3136 0.2456 -0.6186 0.9941
-1.3368 0.1281 -0.6216 0.9941
-1.3343 0.0084 -0.6176 0.9941
-1.3379 -0.1113 -0.6215 0.9941
-1.3161 -0.3523 -0.6307 0.9940
-1.3329 -0.4878 -0.6570 0.9938
-3.9204 -1.8462 -2.0059 0.9811
-3.2945 -2.8200 -2.0074 0.9811
-3.0306 -3.1031 -2.0078 0.9811
-2.1024 -3.7964 -2.0087 0.9811
-1.7557 -3.9691 -2.0090 0.9811
-1.3950 -4.1102 -2.0091 0.9811
-1.0230 -4.2184 -2.0092 0.9810
-0.6429 -4.2929 -2.0093 0.9810
0.1298 -4.3386 -2.0092 0.9810
0.5161 -4.3095 -2.0091 0.9811
2.9363 -3.1893 -2.0067 0.9811
3.2081 -2.9140 -2.0061 0.9811
3.8615 -1.9594 -2.0044 0.9811
4.0196 -1.6068 -2.0038 0.9811
4.2383 -0.8668 -2.0025 0.9811
4.2973 -0.4854 -2.0018 0.9811
4.3221 -0.1003 -2.0012 0.9811
4.3124 0.2854 -2.0005 0.9811
4.0794 1.4152 -1.9987 0.9811
3.7611 2.1160 -1.9976 0.9812
3.5565 2.4423 -1.9970 0.9812
3.3238 2.7490 -1.9966 0.9812
3.0649 3.0338 -1.9962 0.9812
2.7817 3.2943 -1.9958 0.9812
1.0863 4.1700 -1.9947 0.9812
0.7102 4.2502 -1.9946 0.9812
0.3284 4.2966 -1.9946 0.9812
-0.0560 4.3089 -1.9947 0.9812
-0.8205 4.2311 -1.9950 0.9812
-1.1946 4.1415 -1.9952 0.9812
-1.5593 4.0191 -1.9955 0.9812
-2.2491 3.6796 -1.9962 0.9812
-2.5688 3.4652 -1.9966 0.9812
-2.8682 3.2231 -1.9971 0.9812
-3.1449 2.9553 -1.9976 0.9812
-3.3968 2.6638 -1.9982 0.9812
-3.6218 2.3511 -1.9987 0.9811
-3.8182 2.0194 -1.9993 0.9811
-1.3252 0.5559 -0.6652 0.9937
-1.2992 0.2887 -0.6160 0.9942
-1.3306 0.1731 -0.6211 0.9941
-1.3379 0.0537 -0.6198 0.9941
-1.3383 -0.0659 -0.6202 0.9941
-1.3284 -0.1851 -0.6208 0.9941
-1.3020 -0.3017 -0.6187 0.9941
-1.3316 -0.4369 -0.6487 0.9938
-3.8128 -2.0609 -2.0062 0.9811
-3.3878 -2.7067 -2.0072 0.9811
-3.1337 -2.9986 -2.0076 0.9811
-2.5522 -3.5088 -2.0084 0.9811
-1.8889 -3.9073 -2.0089 0.9811
-1.5332 -4.0605 -2.0091 0.9811
-1.1651 -4.1813 -2.0092 0.9810
-0.7877 -4.2687 -2.0093 0.9810
0.3700 -4.3246 -2.0091 0.9811
0.7540 -4.2740 -2.0089 0.9811
1.5008 -4.0712 -2.0084 0.9811
1.8575 -3.9205 -2.0081 0.9811
2.1992 -3.7386 -2.0077 0.9811
2.5232 -3.5269 -2.0073 0.9811
2.8269 -3.2871 -2.0068 0.9811
3.1080 -3.0212 -2.0063 0.9811
3.3641 -2.7313 -2.0058 0.9811
3.5931 -2.4198 -2.0052 0.9811
3.7934 -2.0892 -2.0046 0.9811
4.2790 -0.6305 -2.0021 0.9811
4.3167 -0.2465 -2.0014 0.9811
4.3201 0.1394 -2.0008 0.9811
4.1254 1.2765 -1.9989 0.9811
3.9940 1.6387 -1.9983 0.9812
3.6375 2.3208 -1.9972 0.9812
2.8917 3.1985 -1.9959 0.9812
1.9413 3.8480 -1.9950 0.9812
1.5903 4.0054 -1.9948 0.9812
1.2268 4.1310 -1.9947 0.9812
0.8536 4.2237 -1.9946 0.9812
0.4736 4.2830 -1.9946 0.9812
-0.6768 4.2562 -1.9949 0.9812
-1.7798 3.9269 -1.9957 0.9812
-2.4499 3.5498 -1.9965 0.9812
-2.7572 3.3180 -1.9969 0.9812
-3.7472 2.1472 -1.9991 0.9811
-1.3127 0.3387 -0.6275 0.9940
-1.3356 -0.0205 -0.6183 0.9941
-1.3355 -0.1402 -0.6216 0.9941
-1.3101 -0.2572 -0.6180 0.9941
-1.3233 -0.3851 -0.6380 0.9939
-3.6933 -2.2694 -2.0065 0.9811
-2.6693 -3.4202 -2.0082 0.9811
-2.3541 -3.6451 -2.0085 0.9811
-2.0200 -3.8410 -2.0088 0.9811
-1.6696 -4.0062 -2.0090 0.9811
-0.9317 -4.2395 -2.0092 0.9810
0.2235 -4.3348 -2.0092 0.9811
0.9896 -4.2254 -2.0088 0.9811
1.3622 -4.1198 -2.0086 0.9811
1.7239 -3.9814 -2.0082 0.9811
2.4026 -3.6105 -2.0075 0.9811
2.7144 -3.3812 -2.0070 0.9811
3.2701 -2.8439 -2.0060 0.9811
3.5096 -2.5403 -2.0054 0.9811
4.0530 -1.5195 -2.0036 0.9811
4.1710 -1.1518 -2.0030 0.9811
4.3065 -0.3924 -2.0017 0.9811
4.3049 0.3784 -2.0004 0.9811
4.1667 1.1363 -1.9991 0.9811
3.7143 2.1966 -1.9974 0.9812
3.5028 2.5184 -1.9969 0.9812
3.2635 2.8200 -1.9965 0.9812
2.9985 3.0991 -1.9961 0.9812
2.7097 3.3535 -1.9957 0.9812
2.0705 3.7803 -1.9951 0.9812
0.6182 4.2645 -1.9946 0.9812
0.2356 4.3027 -1.9946 0.9812
-0.5324 4.2766 -1.9948 0.9812
-1.6458 3.9846 -1.9956 0.9812
-1.9948 3.8227 -1.9959 0.9812
-2.6432 3.4091 -1.9967 0.9812
-3.2082 2.8869 -1.9977 0.9812
-3.8612 1.9366 -1.9995 0.9811
-1.3088 0.2613 -0.6178 0.9941
-1.3349 0.1444 -0.6215 0.9941
-1.3359 0.0247 -0.6185 0.9941
-1.3384 -0.0949 -0.6211 0.9941
-1.3114 -0.3339 -0.6264 0.9941
-1.3335 -0.4696 -0.6544 0.9938
-3.7676 -2.1429 -2.0063 0.9811
-3.5624 -2.4709 -2.0068 0.9811
-3.3287 -2.7794 -2.0073 0.9811
-3.0683 -3.0657 -2.0077 0.9811
-2.7833 -3.3277 -2.0081 0.9811
-2.4759 -3.5632 -2.0084 0.9811
-1.4452 -4.0927 -2.0091 0.9811
-1.0746 -4.2055 -2.0092 0.9810
-0.6954 -4.2847 -2.0093 0.9810
-0.3106 -4.3296 -2.0093 0.9810
0.0767 -4.3399 -2.0092 0.9810
0.4633 -4.3155 -2.0091 0.9811
1.5883 -4.0376 -2.0084 0.9811
1.9416 -3.8793 -2.0080 0.9811
2.2793 -3.6900 -2.0076 0.9811
2.5987 -3.4714 -2.0072 0.9811
3.1723 -2.9532 -2.0062 0.9811
3.6443 -2.3415 -2.0051 0.9811
4.1302 -1.2924 -2.0032 0.9811
4.2276 -0.9187 -2.0026 0.9811
4.2913 -0.5379 -2.0019 0.9811
4.3207 -0.1532 -2.0012 0.9811
4.3158 0.2326 -2.0006 0.9811
3.7868 2.0699 -1.9976 0.9812
3.5863 2.3986 -1.9971 0.9812
3.3573 2.7082 -1.9966 0.9812
3.1019 2.9961 -1.9962 0.9812
-0.0032 4.3092 -1.9947 0.9812
-1.0428 3.9322 -1.9955 0.9820
-1.3894 3.8241 -1.9958 0.9820
-1.7251 3.6856 -1.9961 0.9820
-2.6405 3.0995 -1.9973 0.9820
-2.9070 2.8524 -1.9977 0.9820
-3.1505 2.5825 -1.9982 0.9820
-1.1064 0.6161 -0.6212 0.9944
-1.1573 0.3958 -0.5999 0.9946
-1.1610 0.2844 -0.5863 0.9947
-1.1851 0.1803 -0.5880 0.9947
-1.1964 -0.0330 -0.5871 0.9947
-1.1500 -0.4656 -0.6086 0.9945
-3.4584 -2.1838 -2.0063 0.9819
-3.2507 -2.4840 -2.0068 0.9819
-3.0169 -2.7645 -2.0072 0.9819
-2.7589 -3.0231 -2.0076 0.9819
-1.8613 -3.6470 -2.0084 0.9819
-1.1842 -3.9202 -2.0088 0.9819
-0.8300 -4.0103 -2.0088 0.9819
0.2609 -4.0868 -2.0087 0.9819
0.9824 -3.9748 -2.0084 0.9819
1.6723 -3.7361 -2.0078 0.9819
2.3084 -3.3784 -2.0071 0.9819
2.5998 -3.1585 -2.0067 0.9819
2.8704 -2.9134 -2.0062 0.9819
3.3405 -2.3561 -2.0052 0.9820
3.5363 -2.0483 -2.0046 0.9820
3.8416 -1.3869 -2.0034 0.9820
3.9487 -1.0385 -2.0028 0.9820
4.0244 -0.6821 -2.0022 0.9820
4.0577 0.4068 -2.0004 0.9820
4.0041 0.7668 -1.9998 0.9820
3.9186 1.1204 -1.9992 0.9820
3.8021 1.4649 -1.9986 0.9820
3.6554 1.7975 -1.9981 0.9820
3.4797 2.1158 -1.9976 0.9820
3.2764 2.4170 -1.9972 0.9820
3.0472 2.6989 -1.9967 0.9820
2.5185 3.1961 -1.9960 0.9820
1.9103 3.5916 -1.9955 0.9820
1.5823 3.7473 -1.9953 0.9820
1.2419 3.8731 -1.9951 0.9820
0.8916 3.9683 -1.9951 0.9820
-0.1904 4.0629 -1.9951 0.9820
-0.5519 4.0300 -1.9953 0.9820
-1.5993 3.7416 -1.9960 0.9820
-2.2392 3.3993 -1.9967 0.9820
-2.8086 2.9488 -1.9976 0.9820
-3.2893 2.4044 -1.9986 0.9820
-3.4915 2.1021 -1.9991 0.9820
-1.1329 0.5510 -0.6180 0.9944
-1.1776 0.2202 -0.5876 0.9947
-1.1945 -0.0994 -0.5880 0.9947
-1.1585 -0.3101 -0.5883 0.9947
-1.1367 -0.5353 -0.6163 0.9944
-3.5300 -2.0654 -2.0061 0.9819
-3.1084 -2.6607 -2.0071 0.9819
-2.8594 -2.9278 -2.0074 0.9819
-1.6565 -3.7447 -2.0086 0.9819
-0.9652 -3.9799 -2.0088 0.9819
-0.6065 -4.0502 -2.0089 0.9819
-0.2430 -4.0881 -2.0088 0.9819
1.2010 -3.9139 -2.0082 0.9819
1.5450 -3.7908 -2.0080 0.9819
2.7704 -3.0092 -2.0064 0.9819
3.0270 -2.7495 -2.0059 0.9819
3.2592 -2.4680 -2.0054 0.9820
3.6437 -1.8489 -2.0042 0.9820
3.7929 -1.5162 -2.0037 0.9820
3.9995 -0.8180 -2.0024 0.9820
4.0552 -0.4580 -2.0018 0.9820
4.0696 0.2693 -2.0006 0.9820
4.0282 0.6309 -2.0000 0.9820
3.9547 0.9873 -1.9994 0.9820
3.7145 1.6730 -1.9983 0.9820
3.5496 1.9970 -1.9978 0.9820
3.3566 2.3050 -1.9973 0.9820
3.1370 2.5945 -1.9969 0.9820
2.0308 3.5251 -1.9956 0.9820
1.7083 3.6917 -1.9953 0.9820
1.3722 3.8290 -1.9952 0.9820
0.6703 4.0115 -1.9950 0.9820
-0.0528 4.0669 -1.9951 0.9820
-0.4152 4.0462 -1.9952 0.9820
-0.7744 3.9934 -1.9954 0.9820
-1.1275 3.9089 -1.9956 0.9820
-1.4717 3.7933 -1.9959 0.9820
-2.1227 3.4728 -1.9965 0.9820
-2.4244 3.2704 -1.9969 0.9820
-2.7069 3.0419 -1.9974 0.9820
-2.9681 2.7891 -1.9979 0.9820
-3.2057 2.5140 -1.9984 0.9820
-3.4181 2.2188 -1.9989 0.9820
-1.1475 0.4814 -0.6104 0.9945
-1.1889 0.1547 -0.5881 0.9947
-1.1581 -0.3799 -0.5979 0.9946
-2.4080 -3.3105 -2.0080 0.9819
-2.1035 -3.5124 -2.0083 0.9819
-1.4465 -3.8309 -2.0087 0.9819
-1.0993 -3.9449 -2.0088 0.9819
-0.7432 -4.0273 -2.0088 0.9819
-0.3812 -4.0775 -2.0089 0.9819
0.7114 -4.0324 -2.0085 0.9819
1.0680 -3.9525 -2.0083 0.9819
2.9325 -2.8506 -2.0061 0.9819
3.3904 -2.2833 -2.0050 0.9820
3.5794 -1.9713 -2.0045 0.9820
3.7398 -1.6439 -2.0039 0.9820
3.9700 -0.9530 -2.0027 0.9820
4.0379 -0.5950 -2.0021 0.9820
4.0736 -0.2326 -2.0014 0.9820
3.7693 1.5465 -1.9985 0.9820
3.6155 1.8760 -1.9980 0.9820
2.9881 2.7640 -1.9966 0.9820
2.7292 3.0188 -1.9963 0.9820
2.4488 3.2496 -1.9959 0.9820
1.1579 3.8990 -1.9951 0.9820
0.8056 3.9866 -1.9950 0.9820
0.4470 4.0425 -1.9950 0.9820
0.0848 4.0663 -1.9951 0.9820
-0.2781 4.0579 -1.9952 0.9820
-0.6388 4.0172 -1.9953 0.9820
-1.3425 3.8407 -1.9957 0.9820
-1.6798 3.7063 -1.9960 0.9820
-2.0039 3.5424 -1.9964 0.9820
-2.3122 3.3503 -1.9968 0.9820
-3.1185 2.6208 -1.9982 0.9820
-1.1393 0.5240 -0.6151 0.9944
-1.1826 0.1948 -0.5879 0.9947
-1.1952 0.0885 -0.5879 0.9947
-1.1521 -0.4501 -0.6067 0.9945
-1.1300 -0.5622 -0.6191 0.9944
-2.7956 -2.9890 -2.0075 0.9819
-2.5184 -3.2269 -2.0079 0.9819
-0.1546 -4.0924 -2.0088 0.9819
0.2108 -4.0897 -2.0087 0.9819
0.5746 -4.0543 -2.0086 0.9819
0.9337 -3.9866 -2.0084 0.9819
1.6264 -3.7564 -2.0079 0.9819
1.9545 -3.5958 -2.0075 0.9819
2.2669 -3.4065 -2.0072 0.9819
2.8346 -2.9485 -2.0063 0.9819
3.0855 -2.6833 -2.0058 0.9819
3.3115 -2.3969 -2.0052 0.9820
3.5111 -2.0915 -2.0047 0.9820
3.8245 -1.4339 -2.0035 0.9820
4.0638 -0.3703 -2.0017 0.9820
3.6772 1.7527 -1.9982 0.9820
3.5054 2.0731 -1.9977 0.9820
3.3059 2.3768 -1.9972 0.9820
3.0801 2.6615 -1.9968 0.9820
2.5575 3.1651 -1.9960 0.9820
0.9401 3.9571 -1.9951 0.9820
0.5835 4.0251 -1.9950 0.9820
-0.1406 4.0649 -1.9951 0.9820
-0.8605 3.9759 -1.9954 0.9820
-1.8828 3.6079 -1.9962 0.9820
-2.1974 3.4263 -1.9966 0.9820
-2.4946 3.2174 -1.9970 0.9820
-3.2595 2.4443 -1.9985 0.9820
-1.1289 0.5662 -0.6195 0.9944
-1.1516 0.4541 -0.6072 0.9945
-1.1833 -0.1910 -0.5879 0.9947
-1.1578 -0.2948 -0.5860 0.9947
-1.1564 -0.4073 -0.6014 0.9946
-1.1402 -0.5200 -0.6147 0.9944
-3.3612 -2.3314 -2.0066 0.9819
-3.1407 -2.6224 -2.0070 0.9819
-2.8950 -2.8925 -2.0074 0.9819
-2.6260 -3.1397 -2.0078 0.9819
-2.3360 -3.3618 -2.0081 0.9819
-1.7022 -3.7241 -2.0085 0.9819
-1.0138 -3.9677 -2.0088 0.9819
-0.2930 -4.0848 -2.0088 0.9819
1.1531 -3.9284 -2.0083 0.9819
2.1505 -3.4816 -2.0073 0.9819
2.4519 -3.2753 -2.0069 0.9819
2.7335 -3.0430 -2.0064 0.9819
2.9932 -2.7864 -2.0060 0.9819
3.2289 -2.5078 -2.0054 0.9819
3.7742 -1.5626 -2.0037 0.9820
3.8973 -1.2195 -2.0031 0.9820
4.0727 0.2195 -2.0007 0.9820
3.5739 1.9535 -1.9979 0.9820
2.9276 2.8277 -1.9965 0.9820
2.3780 3.3016 -1.9959 0.9820
2.0739 3.5000 -1.9956 0.9820
-0.0030 4.0672 -1.9951 0.9820
-0.3100 3.8341 -1.9955 0.9828
-0.9862 3.7187 -1.9959 0.9828
-1.6314 3.4854 -1.9964 0.9828
-1.9359 3.3266 -1.9967 0.9828
-3.1859 2.1673 -1.9990 0.9828
-1.0455 0.4654 -0.5937 0.9949
-1.0609 0.3628 -0.5817 0.9950
-1.0735 0.2630 -0.5734 0.9950
-1.1060 0.0683 -0.5749 0.9950
-1.1013 -0.1293 -0.5752 0.9950
-1.0837 -0.2266 -0.5743 0.9950
-1.0530 -0.4263 -0.5893 0.9949
-1.0250 -0.5258 -0.5976 0.9948
-3.0732 -2.3484 -2.0065 0.9827
-2.6082 -2.8580 -2.0073 0.9827
-1.7596 -3.4477 -2.0081 0.9827
-1.1195 -3.7060 -2.0084 0.9827
-0.4435 -3.8461 -2.0085 0.9827
2.1823 -3.1940 -2.0068 0.9827
2.9478 -2.5009 -2.0055 0.9827
3.1583 -2.2276 -2.0050 0.9827
3.5018 -1.6304 -2.0039 0.9827
3.6322 -1.3113 -2.0033 0.9827
3.7336 -0.9819 -2.0028 0.9828
3.8051 -0.6450 -2.0022 0.9828
3.8464 -0.3030 -2.0016 0.9828
3.8570 0.0411 -2.0010 0.9828
3.8368 0.3847 -2.0004 0.9828
3.7862 0.7250 -1.9999 0.9828
3.7055 1.0594 -1.9993 0.9828
3.2905 2.0008 -1.9978 0.9828
2.3817 3.0225 -1.9963 0.9828
2.1025 3.2223 -1.9960 0.9828
1.8066 3.3966 -1.9958 0.9828
0.8432 3.7528 -1.9954 0.9828
-0.1801 3.8423 -1.9955 0.9828
-0.8597 3.7498 -1.9958 0.9828
-1.5124 3.5384 -1.9963 0.9828
-1.8222 3.3900 -1.9966 0.9828
-2.1175 3.2146 -1.9970 0.9828
-2.6559 2.7885 -1.9978 0.9828
