ply
format ascii 1.0
element vertex 1594
property float32 x
property float32 y
property float32 z
property float32 I
end_header
6.0555 -10.6193 -2.0139 0.9517
6.9785 -10.0339 -2.0134 0.9517
8.6478 -8.6273 -2.0123 0.9517
11.1040 -5.0446 -2.0092 0.9518
11.5047 -4.0306 -2.0082 0.9518
11.8129 -2.9853 -2.0072 0.9518
12.1427 -0.8348 -2.0051 0.9519
12.1620 0.2531 -2.0040 0.9519
12.0839 1.3377 -2.0029 0.9519
10.4203 4.1450 -1.8475 0.9556
9.5061 5.9266 -1.8454 0.9556
8.9341 6.7485 -1.8445 0.9556
8.2914 7.5159 -1.8436 0.9556
7.5833 8.2226 -1.8427 0.9557
6.8155 8.8632 -1.8419 0.9557
5.1256 9.9268 -1.8405 0.9557
4.2170 10.3416 -1.8399 0.9557
3.2754 10.6738 -1.8393 0.9557
1.3233 11.0814 -1.8385 0.9558
-3.5983 10.5611 -1.8380 0.9558
-4.5278 10.1985 -1.8382 0.9558
-7.8194 7.9740 -1.8398 0.9557
-8.5033 7.2460 -1.8404 0.9557
-9.5940 6.7957 -1.9368 0.9535
-10.4597 6.0843 -1.9934 0.9521
-10.9662 5.1279 -1.9943 0.9521
-10.4636 -1.9806 -2.0017 0.9576
-9.1252 -5.5303 -2.0056 0.9575
-8.5986 -6.3262 -2.0065 0.9575
-8.0027 -7.0721 -2.0074 0.9575
-7.3420 -7.7620 -2.0082 0.9574
-6.6219 -8.3901 -2.0090 0.9574
-4.1646 -9.8553 -2.0110 0.9574
-3.2685 -10.1905 -2.0115 0.9574
-1.4036 -10.6138 -2.0123 0.9574
-0.4499 -10.6982 -2.0126 0.9574
1.4611 -10.6091 -2.0129 0.9573
2.4030 -10.4362 -2.0129 0.9573
4.2211 -9.8409 -2.0127 0.9574
5.9031 -8.9302 -2.0121 0.9574
7.3946 -7.7337 -2.0112 0.9574
8.0535 -7.0402 -2.0106 0.9574
8.6475 -6.2907 -2.0100 0.9574
9.1716 -5.4911 -2.0092 0.9574
9.6217 -4.6481 -2.0085 0.9574
10.6164 0.9222 -2.0030 0.9576
10.4864 1.8660 -2.0020 0.9576
10.2727 2.7938 -2.0010 0.9576
9.9757 3.6979 -1.9997 0.9576
9.0143 4.2927 -1.8766 0.9602
7.4243 6.4173 -1.8445 0.9608
6.8185 7.0519 -1.8437 0.9609
6.1589 7.6297 -1.8430 0.9609
5.4508 8.1464 -1.8424 0.9609
4.6997 8.5979 -1.8417 0.9609
3.9117 8.9806 -1.8412 0.9609
3.0931 9.2917 -1.8407 0.9609
2.2502 9.5287 -1.8403 0.9609
0.5186 9.7739 -1.8397 0.9609
-0.3565 9.7801 -1.8395 0.9610
-2.9367 9.3353 -1.8394 0.9610
-3.7591 9.0363 -1.8396 0.9609
-5.6225 7.2063 -1.7180 0.9635
-6.6904 7.1528 -1.8409 0.9609
-7.3046 6.5284 -1.8414 0.9609
-9.0428 5.5498 -1.9943 0.9577
-9.5060 4.7216 -1.9950 0.9577
-10.2029 2.9572 -1.9967 0.9577
-10.4310 2.0349 -1.9976 0.9577
-10.5760 1.0955 -1.9985 0.9576
-10.6124 -0.8047 -2.0004 0.9576
-10.5033 -1.7503 -2.0014 0.9576
-9.6777 -4.4790 -2.0044 0.9575
-9.2433 -5.3281 -2.0053 0.9575
-8.7344 -6.1353 -2.0063 0.9575
-7.5098 -7.5982 -2.0080 0.9575
-6.0426 -8.8200 -2.0096 0.9574
-5.2324 -9.3277 -2.0102 0.9574
-4.3796 -9.7608 -2.0109 0.9574
-3.4911 -10.1157 -2.0114 0.9574
-0.6846 -10.6854 -2.0126 0.9574
0.2727 -10.7050 -2.0128 0.9574
1.2279 -10.6385 -2.0129 0.9573
2.1733 -10.4865 -2.0129 0.9573
3.1013 -10.2502 -2.0129 0.9573
5.7060 -9.0580 -2.0122 0.9574
6.4910 -8.5104 -2.0118 0.9574
8.5080 -6.4795 -2.0101 0.9574
9.5183 -4.8586 -2.0087 0.9574
10.2225 -3.0849 -2.0070 0.9575
10.5985 -1.2155 -2.0052 0.9575
10.3328 2.5680 -2.0012 0.9576
10.0572 3.4790 -2.0003 0.9576
9.4012 4.2264 -1.9374 0.9589
8.0961 5.5553 -1.8455 0.9608
7.5641 6.2535 -1.8447 0.9608
6.3255 7.4934 -1.8432 0.9609
4.8877 8.4934 -1.8419 0.9609
1.6021 9.6574 -1.8400 0.9609
0.7330 9.7605 -1.8397 0.9609
-0.1418 9.7858 -1.8395 0.9610
-1.0153 9.7334 -1.8394 0.9610
-2.7311 9.3973 -1.8394 0.9610
-3.5598 9.1164 -1.8395 0.9610
-4.3604 8.7629 -1.8397 0.9609
-6.5314 7.2974 -1.8408 0.9609
-7.1591 6.6867 -1.8413 0.9609
-8.3431 6.4998 -1.9879 0.9579
-10.1345 3.1801 -1.9965 0.9577
-10.1094 -3.3734 -2.0032 0.9576
-8.8660 -5.9415 -2.0061 0.9575
-8.3035 -6.7127 -2.0070 0.9575
-6.9824 -8.0899 -2.0086 0.9574
-4.5924 -9.6616 -2.0107 0.9574
0.9941 -10.6628 -2.0129 0.9574
1.9427 -10.5317 -2.0129 0.9573
2.8756 -10.3159 -2.0129 0.9573
7.7380 -7.3879 -2.0109 0.9574
8.3644 -6.6652 -2.0103 0.9574
9.8214 -4.2043 -2.0081 0.9574
10.1534 -3.3088 -2.0072 0.9575
10.6526 -0.4977 -2.0044 0.9575
10.6492 0.4556 -2.0035 0.9575
10.5608 1.4043 -2.0025 0.9576
9.7613 4.1332 -1.9924 0.9578
8.6685 4.6235 -1.8466 0.9608
8.2170 5.3768 -1.8457 0.9608
7.7004 6.0866 -1.8449 0.9608
6.4890 7.3535 -1.8434 0.9609
5.8040 7.9008 -1.8427 0.9609
4.3027 8.8016 -1.8415 0.9609
3.4983 9.1482 -1.8409 0.9609
2.6664 9.4218 -1.8405 0.9609
1.8138 9.6204 -1.8401 0.9609
-0.8015 9.7534 -1.8394 0.9610
-2.5241 9.4549 -1.8394 0.9610
-4.9420 8.4498 -1.8399 0.9609
-8.7890 5.9402 -1.9939 0.9577
-9.2879 5.1332 -1.9946 0.9577
-9.7131 4.2847 -1.9954 0.9577
-10.0612 3.4014 -1.9963 0.9577
-10.3294 2.4901 -1.9971 0.9577
-10.5153 1.5582 -1.9980 0.9577
-10.6349 -0.3381 -2.0000 0.9576
-10.4153 -2.2273 -2.0019 0.9576
-9.8625 -4.0490 -2.0039 0.9575
-9.4660 -4.9162 -2.0049 0.9575
-8.4479 -6.5281 -2.0067 0.9575
-6.4227 -8.5449 -2.0092 0.9574
-5.6357 -9.0876 -2.0099 0.9574
-4.8030 -9.5578 -2.0106 0.9574
-3.9312 -9.9515 -2.0112 0.9574
-3.0273 -10.2655 -2.0117 0.9574
-2.0986 -10.4971 -2.0121 0.9574
0.7599 -10.6819 -2.0128 0.9574
2.6486 -10.3766 -2.0129 0.9573
3.5647 -10.0980 -2.0128 0.9574
4.4521 -9.7383 -2.0126 0.9574
5.3034 -9.3004 -2.0124 0.9574
7.5745 -7.5565 -2.0110 0.9574
8.7927 -6.0843 -2.0098 0.9574
10.0794 -3.5312 -2.0074 0.9575
10.3500 -2.6156 -2.0065 0.9575
10.6579 0.2218 -2.0037 0.9575
10.5903 1.1724 -2.0027 0.9576
10.2026 3.0351 -2.0007 0.9576
8.3340 5.1958 -1.8460 0.9608
7.2699 6.5900 -1.8443 0.9609
6.6495 7.2101 -1.8436 0.9609
5.9765 7.7722 -1.8428 0.9609
5.2565 8.2721 -1.8422 0.9609
4.4951 8.7057 -1.8416 0.9609
2.0246 9.5787 -1.8402 0.9609
1.1607 9.7196 -1.8399 0.9609
0.2877 9.7831 -1.8396 0.9609
-3.1562 9.2635 -1.8395 0.9610
-4.7552 8.5559 -1.8399 0.9609
-5.5014 8.0983 -1.8402 0.9609
-8.6558 6.1311 -1.9938 0.9577
-9.1139 -2.5864 -2.0026 0.9620
-8.1125 -4.9166 -2.0052 0.9620
-7.6440 -5.6239 -2.0060 0.9619
-7.1138 -6.2867 -2.0068 0.9619
-5.8859 -7.4575 -2.0082 0.9619
-5.1979 -7.9561 -2.0089 0.9619
-2.9048 -9.0566 -2.0104 0.9619
-1.2473 -9.4323 -2.0112 0.9618
0.4511 -9.5058 -2.0116 0.9618
1.2984 -9.4279 -2.0117 0.9618
2.1354 -9.2743 -2.0117 0.9618
3.7512 -8.7454 -2.0115 0.9618
4.5169 -8.3744 -2.0113 0.9618
5.2461 -7.9362 -2.0110 0.9619
7.6859 -5.5912 -2.0091 0.9619
8.1521 -4.8808 -2.0084 0.9619
8.5525 -4.1316 -2.0077 0.9619
9.3311 -1.7143 -2.0054 0.9620
9.4792 -0.0265 -2.0037 0.9620
9.4396 0.8200 -2.0029 0.9620
9.1350 2.4844 -2.0011 0.9620
7.6069 4.4967 -1.8679 0.9645
6.6037 5.7080 -1.8451 0.9649
6.0652 6.2728 -1.8444 0.9650
5.4787 6.7871 -1.8437 0.9650
4.1810 7.6489 -1.8426 0.9650
2.0020 8.4778 -1.8413 0.9650
1.2365 8.6213 -1.8410 0.9650
-0.3172 8.7018 -1.8406 0.9650
-1.0932 8.6383 -1.8405 0.9650
-1.8605 8.5060 -1.8405 0.9650
-2.6129 8.3060 -1.8406 0.9650
-4.7231 7.3183 -1.8411 0.9650
-5.3589 6.8684 -1.8415 0.9650
-7.0170 6.2713 -1.9893 0.9623
-8.4560 4.2000 -1.9958 0.9621
-8.8005 3.4291 -1.9965 0.9621
-9.0751 2.6303 -1.9972 0.9621
-9.2775 1.8099 -1.9980 0.9621
-9.4594 0.1303 -1.9997 0.9621
-8.9216 -3.1963 -2.0032 0.9620
-8.2176 -4.7369 -2.0050 0.9620
-7.2494 -6.1284 -2.0066 0.9619
-6.6755 -6.7541 -2.0073 0.9619
-6.0476 -7.3259 -2.0080 0.9619
-5.3708 -7.8395 -2.0087 0.9619
-3.1027 -8.9902 -2.0103 0.9619
-2.2877 -9.2333 -2.0108 0.9619
-1.4540 -9.4023 -2.0111 0.9618
1.0912 -9.4540 -2.0117 0.9618
1.9314 -9.3189 -2.0117 0.9618
2.7560 -9.1089 -2.0116 0.9618
3.5584 -8.8258 -2.0115 0.9618
6.4198 -7.0163 -2.0103 0.9619
7.0192 -6.4132 -2.0098 0.9619
8.0436 -5.0589 -2.0086 0.9619
8.4605 -4.3187 -2.0079 0.9619
9.2922 -1.9188 -2.0056 0.9620
9.4774 -0.2346 -2.0039 0.9620
9.3597 1.4543 -2.0022 0.9620
8.9437 3.0938 -2.0004 0.9620
8.6274 3.8785 -1.9995 0.9621
7.9088 4.4440 -1.9176 0.9636
7.2009 4.9410 -1.8460 0.9649
6.7280 5.5622 -1.8453 0.9649
6.2020 6.1387 -1.8446 0.9650
5.0072 7.1394 -1.8433 0.9650
2.9328 8.2047 -1.8418 0.9650
1.4255 8.5924 -1.8411 0.9650
-0.1262 8.7069 -1.8406 0.9650
-0.9034 8.6603 -1.8405 0.9650
-1.6733 8.5448 -1.8405 0.9650
-2.4300 8.3613 -1.8405 0.9650
-3.1673 8.1113 -1.8406 0.9650
-3.8796 7.7967 -1.8408 0.9650
-4.5612 7.4199 -1.8411 0.9650
-5.2066 6.9840 -1.8414 0.9650
-5.8109 6.4924 -1.8418 0.9650
-8.3611 4.3842 -1.9956 0.9621
-9.2346 2.0128 -1.9978 0.9621
-9.4533 0.3378 -1.9995 0.9621
-9.3707 -1.3509 -2.0013 0.9620
-9.2166 -2.1835 -2.0021 0.9620
-8.9887 -2.9994 -2.0030 0.9620
-8.3187 -4.5549 -2.0047 0.9620
-7.3815 -5.9673 -2.0064 0.9619
-6.2064 -7.1908 -2.0079 0.9619
-5.5411 -7.7191 -2.0085 0.9619
-4.8310 -8.1857 -2.0092 0.9619
-4.0816 -8.5870 -2.0097 0.9619
-3.2990 -8.9194 -2.0102 0.9619
-2.4896 -9.1804 -2.0107 0.9619
-1.6599 -9.3678 -2.0110 0.9619
-0.8166 -9.4800 -2.0113 0.9618
0.0335 -9.5160 -2.0115 0.9618
0.8835 -9.4756 -2.0116 0.9618
1.7264 -9.3591 -2.0117 0.9618
2.5555 -9.1673 -2.0117 0.9618
4.8932 -8.1595 -2.0111 0.9618
7.4342 -5.9239 -2.0093 0.9619
7.9313 -5.2346 -2.0087 0.9619
8.3644 -4.5037 -2.0081 0.9619
8.7302 -3.7372 -2.0074 0.9619
9.0258 -2.9413 -2.0066 0.9619
9.2488 -2.1225 -2.0058 0.9619
9.0104 2.8971 -2.0006 0.9620
8.7118 3.6888 -1.9998 0.9621
5.7722 6.5412 -1.8441 0.9650
5.1631 7.0283 -1.8434 0.9650
3.8278 7.8303 -1.8423 0.9650
3.1123 8.1389 -1.8419 0.9650
1.6138 8.5594 -1.8412 0.9650
0.0649 8.7077 -1.8407 0.9650
-0.7131 8.6781 -1.8406 0.9650
-1.4854 8.5794 -1.8405 0.9650
-2.2459 8.4125 -1.8405 0.9650
-2.9885 8.1787 -1.8406 0.9650
-3.7075 7.8797 -1.8408 0.9650
-5.6667 6.6180 -1.8417 0.9650
-7.8187 5.2844 -1.9948 0.9622
-8.2621 4.5663 -1.9954 0.9621
-8.6400 3.8113 -1.9961 0.9621
-9.3971 -1.1448 -2.0010 0.9620
-9.2613 -1.9805 -2.0019 0.9620
-8.7688 -3.6000 -2.0037 0.9620
-7.5099 -5.8033 -2.0062 0.9619
-6.3622 -7.0523 -2.0077 0.9619
-5.7088 -7.5950 -2.0084 0.9619
-4.2688 -8.4948 -2.0096 0.9619
-3.4938 -8.8444 -2.0101 0.9619
-2.6904 -9.1231 -2.0106 0.9619
-1.0244 -9.4595 -2.0112 0.9618
-0.1754 -9.5143 -2.0115 0.9618
0.6753 -9.4926 -2.0116 0.9618
1.5206 -9.3947 -2.0117 0.9618
3.1678 -8.9738 -2.0116 0.9618
4.7131 -8.2652 -2.0112 0.9618
6.1064 -7.2920 -2.0105 0.9619
7.3029 -6.0861 -2.0095 0.9619
8.2643 -4.6866 -2.0082 0.9619
9.2009 -2.3252 -2.0060 0.9619
9.3680 -1.4934 -2.0052 0.9620
9.2817 1.8786 -2.0017 0.9620
8.4156 4.2541 -1.9932 0.9622
7.4122 4.6211 -1.8464 0.9649
5.9149 6.4136 -1.8442 0.9650
4.6762 7.3588 -1.8430 0.9650
3.2904 8.0691 -1.8420 0.9650
1.8013 8.5222 -1.8412 0.9650
1.0327 8.6477 -1.8409 0.9650
0.2560 8.7044 -1.8407 0.9650
-0.5225 8.6918 -1.8406 0.9650
-1.2968 8.6100 -1.8405 0.9650
-2.0607 8.4598 -1.8405 0.9650
-2.8082 8.2422 -1.8406 0.9650
-3.5335 7.9590 -1.8407 0.9650
-4.2308 7.6124 -1.8409 0.9650
-4.8947 7.2052 -1.8412 0.9650
-6.2439 6.3674 -1.8851 0.9642
-7.1743 6.1136 -1.9924 0.9622
-8.1593 4.7461 -1.9953 0.9621
-8.1967 -2.3261 -2.0025 0.9656
-7.2951 -4.4212 -2.0048 0.9656
-6.8735 -5.0570 -2.0056 0.9655
-5.2921 -6.7051 -2.0076 0.9655
-3.3276 -7.8745 -2.0092 0.9655
-2.6114 -8.1420 -2.0096 0.9655
-1.8740 -8.3442 -2.0099 0.9655
3.3722 -7.8618 -2.0105 0.9655
4.0606 -7.5283 -2.0103 0.9655
4.7162 -7.1346 -2.0100 0.9655
5.9083 -6.1793 -2.0093 0.9655
6.9102 -5.0269 -2.0083 0.9655
7.9883 -3.0121 -2.0065 0.9655
8.2226 -2.2857 -2.0058 0.9655
8.5248 -0.0238 -2.0035 0.9656
8.3864 1.4923 -2.0020 0.9656
7.9807 2.9584 -2.0004 0.9656
7.6815 3.6580 -1.9996 0.9656
7.3056 4.3187 -1.9946 0.9657
6.4788 4.6579 -1.8753 0.9677
5.4566 5.6433 -1.8449 0.9683
3.7618 6.8821 -1.8433 0.9683
2.4761 7.4382 -1.8425 0.9683
1.8014 7.6283 -1.8421 0.9683
0.4152 7.8251 -1.8417 0.9683
-2.3512 7.4741 -1.8415 0.9683
-3.0096 7.2346 -1.8416 0.9683
-4.2499 6.5851 -1.8420 0.9683
-4.8320 6.1931 -1.8461 0.9682
-6.8099 5.0691 -1.9952 0.9657
-7.2375 4.4418 -1.9958 0.9657
-7.6076 3.7787 -1.9964 0.9657
-8.3457 1.6281 -1.9984 0.9657
-8.4610 0.8764 -1.9992 0.9657
-8.5087 0.1172 -1.9999 0.9656
-8.4004 -1.3998 -2.0015 0.9656
-8.2450 -2.1455 -2.0023 0.9656
-7.7377 -3.5812 -2.0039 0.9656
-7.3897 -4.2596 -2.0046 0.9656
-6.5185 -5.5106 -2.0061 0.9655
-6.0023 -6.0729 -2.0068 0.9655
-5.4375 -6.5869 -2.0074 0.9655
-4.8288 -7.0484 -2.0080 0.9655
-4.1811 -7.4536 -2.0085 0.9655
-3.4994 -7.7992 -2.0090 0.9655
-2.7894 -8.0823 -2.0095 0.9655
-2.0566 -8.3007 -2.0098 0.9655
-0.5469 -8.5365 -2.0104 0.9655
0.2178 -8.5520 -2.0106 0.9655
2.4775 -8.1885 -2.0106 0.9655
3.1989 -7.9340 -2.0105 0.9655
3.8945 -7.6159 -2.0104 0.9655
5.1860 -6.7994 -2.0098 0.9655
5.7716 -6.3078 -2.0094 0.9655
6.3105 -5.7657 -2.0089 0.9655
7.2320 -4.5484 -2.0079 0.9655
7.6071 -3.8830 -2.0073 0.9655
8.1712 -2.4658 -2.0060 0.9655
8.5230 -0.2109 -2.0037 0.9656
8.5045 0.5510 -2.0029 0.9656
8.4179 1.3080 -2.0021 0.9656
8.2642 2.0539 -2.0014 0.9656
8.0445 2.7828 -2.0006 0.9656
6.0526 5.0039 -1.8457 0.9682
4.5050 6.4234 -1.8439 0.9683
3.2885 7.1188 -1.8430 0.9683
2.6388 7.3825 -1.8426 0.9683
1.2827 7.7316 -1.8419 0.9683
-1.5057 7.6890 -1.8414 0.9683
-4.1042 6.6766 -1.8419 0.9683
-4.6849 6.2842 -1.8422 0.9683
-6.2022 5.7929 -1.9946 0.9657
-7.5223 3.9444 -1.9962 0.9657
-7.8470 3.2578 -1.9969 0.9657
-8.3073 1.8107 -1.9982 0.9657
-8.5033 0.3039 -1.9997 0.9656
-8.4997 -0.4571 -2.0005 0.9656
-8.4282 -1.2150 -2.0013 0.9656
-8.0839 -2.6975 -2.0029 0.9656
-7.0876 -4.7497 -2.0052 0.9655
-6.6374 -5.3657 -2.0059 0.9655
-4.3434 -7.3595 -2.0084 0.9655
-3.6695 -7.7200 -2.0089 0.9655
-0.7341 -8.5222 -2.0103 0.9655
1.5519 -8.4134 -2.0107 0.9655
3.0241 -8.0025 -2.0106 0.9655
3.7265 -7.6997 -2.0104 0.9655
5.0358 -6.9119 -2.0099 0.9655
6.1828 -5.9032 -2.0091 0.9655
6.6838 -5.3260 -2.0086 0.9655
7.8498 -3.3603 -2.0068 0.9655
8.4508 -1.1576 -2.0047 0.9656
8.5172 -0.3980 -2.0039 0.9656
8.1044 2.6058 -2.0008 0.9656
7.8362 3.3181 -2.0000 0.9656
6.1615 4.8702 -1.8458 0.9682
5.6999 5.3993 -1.8452 0.9683
5.1931 5.8850 -1.8446 0.9683
4.0607 6.7112 -1.8435 0.9683
3.4441 7.0453 -1.8431 0.9683
1.4521 7.7018 -1.8420 0.9683
0.7582 7.7997 -1.8418 0.9683
0.0584 7.8355 -1.8416 0.9683
-2.0209 7.5700 -1.8414 0.9683
-2.6892 7.3595 -1.8415 0.9683
-3.9565 6.7648 -1.8419 0.9683
-4.5457 6.3853 -1.8421 0.9683
-6.0706 5.9247 -1.9936 0.9657
-6.5800 5.3624 -1.9950 0.9657
-7.7730 3.4289 -1.9967 0.9657
-8.4128 1.2466 -1.9988 0.9657
-8.1404 -2.5192 -2.0027 0.9656
-7.1895 -4.5926 -2.0050 0.9656
-6.7529 -5.2183 -2.0057 0.9655
-6.2620 -5.8027 -2.0064 0.9655
-5.1328 -6.8287 -2.0077 0.9655
-4.5035 -7.2620 -2.0083 0.9655
-3.8378 -7.6372 -2.0088 0.9655
-3.1410 -7.9513 -2.0093 0.9655
1.3669 -8.4454 -2.0107 0.9655
2.1158 -8.2895 -2.0107 0.9655
2.8477 -8.0670 -2.0106 0.9655
4.2370 -7.4302 -2.0102 0.9655
5.4897 -6.5556 -2.0096 0.9655
6.0521 -6.0378 -2.0092 0.9655
6.5657 -5.4717 -2.0087 0.9655
7.4305 -4.2138 -2.0076 0.9655
8.2735 -2.0908 -2.0056 0.9655
8.5221 0.1773 -2.0033 0.9656
8.4689 0.9375 -2.0025 0.9656
8.1604 2.4276 -2.0009 0.9656
7.9079 3.1456 -2.0002 0.9656
7.5923 3.8379 -1.9994 0.9656
7.1920 4.4838 -1.9919 0.9658
6.2675 4.7343 -1.8460 0.9682
5.8175 5.2734 -1.8454 0.9683
5.3214 5.7700 -1.8448 0.9683
3.5981 6.9685 -1.8432 0.9683
2.9606 7.2603 -1.8428 0.9683
2.2997 7.4942 -1.8424 0.9683
1.6208 7.6684 -1.8421 0.9683
0.9292 7.7814 -1.8418 0.9683
0.2304 7.8325 -1.8416 0.9683
-2.5270 7.4167 -1.8415 0.9683
-5.9317 6.0489 -1.9911 0.9658
-6.4604 5.5052 -1.9948 0.9657
-7.4400 -2.1114 -2.0024 0.9685
-5.3252 -5.6298 -2.0064 0.9685
-4.2408 -6.4911 -2.0076 0.9685
-3.0195 -7.1454 -2.0085 0.9685
-1.7004 -7.5713 -2.0092 0.9684
-1.0174 -7.6939 -2.0094 0.9684
1.7418 -7.5646 -2.0099 0.9684
2.4105 -7.3786 -2.0098 0.9684
4.8398 -6.0646 -2.0090 0.9684
6.2706 -4.5616 -2.0077 0.9685
6.6513 -3.9822 -2.0072 0.9685
6.9785 -3.3712 -2.0066 0.9685
7.2496 -2.7336 -2.0060 0.9685
7.6154 -1.3990 -2.0048 0.9685
7.7057 0.6694 -2.0027 0.9685
7.4582 2.0284 -2.0012 0.9686
7.2447 2.6855 -2.0005 0.9686
6.9733 3.3208 -1.9998 0.9686
2.8432 6.5276 -1.8435 0.9710
1.0103 7.0444 -1.8426 0.9710
0.3770 7.1057 -1.8424 0.9710
-0.2592 7.1105 -1.8423 0.9710
-0.8933 7.0586 -1.8422 0.9710
-1.5202 6.9505 -1.8422 0.9710
-2.7330 6.5696 -1.8423 0.9710
-3.3092 6.2998 -1.8425 0.9710
-3.9147 6.0658 -1.8692 0.9706
-4.7245 6.0554 -1.9886 0.9688
-5.7461 5.1355 -1.9954 0.9687
-6.9072 3.4308 -1.9969 0.9686
-7.6810 0.7956 -1.9994 0.9686
-7.7055 -0.5842 -2.0008 0.9686
-7.6252 -1.2707 -2.0015 0.9686
-7.4839 -1.9474 -2.0022 0.9686
-7.2826 -2.6091 -2.0030 0.9685
-6.7069 -3.8660 -2.0044 0.9685
-4.9344 -5.9775 -2.0069 0.9685
-3.1754 -7.0770 -2.0084 0.9685
-2.5310 -7.3338 -2.0088 0.9685
-1.8661 -7.5319 -2.0091 0.9684
0.1977 -7.7596 -2.0097 0.9684
0.8900 -7.7113 -2.0098 0.9684
1.5753 -7.6010 -2.0099 0.9684
2.9025 -7.1989 -2.0097 0.9684
5.2371 -5.7236 -2.0087 0.9685
6.1693 -4.6984 -2.0078 0.9685
6.5627 -4.1275 -2.0073 0.9685
6.9033 -3.5238 -2.0068 0.9685
7.6904 -0.8820 -2.0042 0.9685
7.7358 -0.1915 -2.0035 0.9685
7.6409 1.1873 -2.0021 0.9686
7.5016 1.8644 -2.0014 0.9686
7.3025 2.5261 -2.0007 0.9686
7.0452 3.1672 -2.0000 0.9686
6.7317 3.7826 -1.9993 0.9686
5.7485 4.7525 -1.9312 0.9697
5.0738 5.0221 -1.8484 0.9709
4.5963 5.4450 -1.8449 0.9710
3.5522 6.1728 -1.8440 0.9710
1.1647 7.0207 -1.8426 0.9710
-0.1031 7.1146 -1.8423 0.9710
-2.5881 6.6279 -1.8423 0.9710
-3.1701 6.3707 -1.8424 0.9710
-4.5706 6.1310 -1.9800 0.9689
-5.1383 5.7410 -1.9949 0.9687
-6.0804 4.7370 -1.9957 0.9687
-6.8298 3.5813 -1.9967 0.9686
-7.3625 2.3102 -1.9979 0.9686
-7.5418 1.6439 -1.9986 0.9686
-7.7192 0.2758 -1.9999 0.9686
-7.7158 -0.4150 -2.0006 0.9686
-7.6506 -1.1029 -2.0014 0.9686
-7.5242 -1.7825 -2.0021 0.9686
-6.7895 -3.7176 -2.0042 0.9685
-6.0237 -4.8696 -2.0055 0.9685
-5.5663 -5.3900 -2.0062 0.9685
-4.5210 -6.2979 -2.0073 0.9685
-2.6912 -7.2762 -2.0087 0.9685
-2.0309 -7.4888 -2.0090 0.9684
-1.3540 -7.6414 -2.0093 0.9684
-0.6661 -7.7327 -2.0095 0.9684
1.4081 -7.6338 -2.0099 0.9684
2.0844 -7.4774 -2.0098 0.9684
2.7439 -7.2610 -2.0098 0.9684
3.9914 -6.6557 -2.0094 0.9684
5.6104 -5.3566 -2.0084 0.9685
7.1237 -3.0495 -2.0063 0.9685
7.3653 -2.4002 -2.0057 0.9685
7.6698 -1.0507 -2.0044 0.9685
7.7304 -0.3612 -2.0037 0.9685
7.7290 0.3307 -2.0030 0.9685
7.6658 1.0194 -2.0023 0.9686
7.1136 3.0121 -2.0001 0.9686
6.4575 4.2255 -1.9981 0.9686
5.9646 4.7146 -1.9685 0.9691
3.1273 6.3972 -1.8437 0.9710
2.5428 6.6496 -1.8433 0.9710
1.3186 6.9937 -1.8427 0.9710
0.6885 7.0827 -1.8425 0.9710
-3.0294 6.4386 -1.8424 0.9710
-4.3491 6.1091 -1.9416 0.9695
-5.5146 5.3821 -1.9952 0.9687
-5.9747 4.8690 -1.9956 0.9687
-7.0573 3.1132 -1.9972 0.9686
-7.3094 2.4711 -1.9978 0.9686
-7.7223 -0.2455 -2.0005 0.9686
-7.3888 -2.2866 -2.0026 0.9685
-7.1576 -2.9385 -2.0033 0.9685
-6.8689 -3.5674 -2.0040 0.9685
-5.6828 -5.2661 -2.0060 0.9685
-5.1913 -5.7544 -2.0066 0.9685
-4.6578 -6.1968 -2.0072 0.9685
-4.0867 -6.5898 -2.0077 0.9685
-3.4825 -6.9301 -2.0082 0.9685
-2.1947 -7.4421 -2.0089 0.9684
-0.8356 -7.7160 -2.0095 0.9684
1.9198 -7.5214 -2.0099 0.9684
2.5839 -7.3196 -2.0098 0.9684
3.2272 -7.0590 -2.0096 0.9684
3.8444 -6.7419 -2.0094 0.9684
4.4307 -6.3708 -2.0092 0.9684
4.9813 -5.9485 -2.0089 0.9685
5.4917 -5.4787 -2.0085 0.9685
5.9579 -4.9652 -2.0081 0.9685
7.7212 -0.5308 -2.0039 0.9685
7.5775 1.5337 -2.0017 0.9686
7.1786 2.8555 -2.0003 0.9686
6.5514 4.0844 -1.9989 0.9686
6.1374 4.6360 -1.9915 0.9687
5.3243 4.8263 -1.8606 0.9707
4.8315 5.2388 -1.8452 0.9710
4.3430 5.6479 -1.8447 0.9710
3.8201 6.0117 -1.8442 0.9710
2.6883 6.5925 -1.8434 0.9710
0.8438 7.0660 -1.8425 0.9710
-1.0596 7.0355 -1.8422 0.9710
-1.6839 6.9127 -1.8422 0.9710
-2.2947 6.7349 -1.8422 0.9710
-3.4570 6.2201 -1.8425 0.9710
-4.1357 6.0879 -1.9056 0.9700
-5.8660 4.9987 -1.9955 0.9687
-6.9475 -1.3151 -2.0017 0.9710
-6.8045 -1.9310 -2.0024 0.9710
-6.0548 -3.6695 -2.0043 0.9710
-5.3084 -4.6912 -2.0055 0.9710
-4.3913 -5.5639 -2.0066 0.9710
-3.3327 -6.2594 -2.0075 0.9710
-2.7608 -6.5333 -2.0079 0.9709
-0.2982 -7.0902 -2.0090 0.9709
0.9683 -7.0308 -2.0092 0.9709
1.5925 -6.9162 -2.0092 0.9709
4.4251 -5.5450 -2.0083 0.9709
6.0819 -3.6413 -2.0067 0.9710
6.3812 -3.0827 -2.0062 0.9710
6.9642 -1.2794 -2.0045 0.9710
7.0484 -0.6520 -2.0039 0.9710
7.0762 -0.0198 -2.0032 0.9710
6.0796 3.5939 -1.9993 0.9711
5.7326 4.1214 -1.9987 0.9711
4.0941 5.0718 -1.8452 0.9733
3.6238 5.4160 -1.8448 0.9733
2.6012 5.9718 -1.8440 0.9733
1.4966 6.3373 -1.8434 0.9733
0.9244 6.4449 -1.8432 0.9733
0.3449 6.5011 -1.8430 0.9733
-0.2372 6.5055 -1.8429 0.9733
-1.3909 6.3592 -1.8428 0.9733
-2.5004 6.0106 -1.8429 0.9733
-3.8107 5.9047 -1.9895 0.9712
-5.2568 4.6982 -1.9959 0.9711
-5.6567 4.2107 -1.9963 0.9711
-6.3187 3.1385 -1.9973 0.9711
-6.7801 1.9651 -1.9984 0.9711
-7.0650 0.0973 -2.0002 0.9711
-7.0477 -0.5344 -2.0009 0.9710
-6.6604 -2.3862 -2.0029 0.9710
-6.1334 -3.5355 -2.0041 0.9710
-5.4097 -4.5732 -2.0054 0.9710
-4.5121 -5.4658 -2.0064 0.9710
-4.0068 -5.8484 -2.0069 0.9710
-2.9034 -6.4708 -2.0078 0.9709
-1.0844 -7.0123 -2.0087 0.9709
0.1807 -7.0945 -2.0091 0.9709
1.4403 -6.9495 -2.0092 0.9709
4.3025 -5.6410 -2.0084 0.9709
4.7884 -5.2333 -2.0081 0.9709
5.2358 -4.7838 -2.0077 0.9709
5.6410 -4.2961 -2.0073 0.9710
6.0009 -3.7741 -2.0069 0.9710
6.7813 -2.0464 -2.0052 0.9710
7.0746 -0.1751 -2.0034 0.9710
6.9883 1.0859 -2.0021 0.9710
6.6792 2.3105 -2.0008 0.9710
6.1575 3.4599 -1.9995 0.9711
5.4331 4.4916 -1.9956 0.9711
3.7420 5.3354 -1.8449 0.9733
3.2497 5.6471 -1.8445 0.9733
2.1922 6.1329 -1.8438 0.9733
1.6353 6.3032 -1.8435 0.9733
0.4875 6.4921 -1.8430 0.9733
-0.0943 6.5092 -1.8429 0.9733
-1.2510 6.3881 -1.8428 0.9733
-3.6772 5.9819 -1.9878 0.9712
-4.2116 5.6494 -1.9948 0.9711
-5.5626 4.3336 -1.9962 0.9711
-6.2479 3.2762 -1.9972 0.9711
-6.5173 2.7057 -1.9977 0.9711
-6.7348 2.1133 -1.9982 0.9711
-6.8987 1.5037 -1.9988 0.9711
-7.0606 0.2523 -2.0001 0.9711
-6.9974 -1.0087 -2.0014 0.9710
-6.7106 -2.2392 -2.0027 0.9710
-5.8824 -3.9420 -2.0046 0.9710
-3.6038 -6.1064 -2.0073 0.9710
-3.0446 -6.4053 -2.0077 0.9709
-1.2380 -6.9866 -2.0087 0.9709
-0.6090 -7.0700 -2.0089 0.9709
0.0250 -7.0967 -2.0090 0.9709
1.2874 -6.9795 -2.0092 0.9709
1.9057 -6.8365 -2.0092 0.9709
2.5087 -6.6387 -2.0091 0.9709
5.1298 -4.8978 -2.0078 0.9709
5.9169 -3.9051 -2.0070 0.9710
6.2406 -3.3602 -2.0065 0.9710
6.5141 -2.7885 -2.0059 0.9710
6.9023 -1.5840 -2.0048 0.9710
7.0141 -0.9608 -2.0042 0.9710
7.0110 0.9323 -2.0022 0.9710
6.8975 1.5543 -2.0016 0.9710
6.5066 2.7551 -2.0003 0.9711
5.9088 3.8664 -1.9990 0.9711
3.3731 5.5747 -1.8446 0.9733
2.8610 5.8525 -1.8442 0.9733
1.7733 6.2660 -1.8435 0.9733
0.6299 6.4800 -1.8431 0.9733
0.0485 6.5098 -1.8429 0.9733
-0.5331 6.4878 -1.8428 0.9733
-2.7860 5.9213 -1.8526 0.9732
-3.5060 5.9944 -1.9659 0.9715
-4.0829 5.7353 -1.9930 0.9712
-5.4659 4.4544 -1.9961 0.9711
-6.4559 2.8479 -1.9976 0.9711
-7.0633 -0.2245 -2.0006 0.9710
-6.9151 -1.4788 -2.0019 0.9710
-6.2817 -3.2624 -2.0038 0.9710
-5.9670 -3.8117 -2.0045 0.9710
-5.6044 -4.3308 -2.0051 0.9710
-5.1966 -4.8155 -2.0056 0.9710
-4.7470 -5.2619 -2.0062 0.9710
-4.2591 -5.6663 -2.0067 0.9710
-3.7368 -6.0255 -2.0072 0.9710
-3.1843 -6.3366 -2.0076 0.9709
-2.0066 -6.8045 -2.0083 0.9709
-0.7640 -7.0548 -2.0088 0.9709
2.3624 -6.6922 -2.0091 0.9709
4.0511 -5.8248 -2.0086 0.9709
4.5545 -5.4389 -2.0083 0.9709
5.0213 -5.0094 -2.0079 0.9709
5.4476 -4.5399 -2.0075 0.9710
5.8301 -4.0343 -2.0071 0.9710
6.1657 -3.4965 -2.0066 0.9710
6.8664 -1.7352 -2.0049 0.9710
6.9918 -1.1146 -2.0043 0.9710
7.0612 -0.4855 -2.0037 0.9710
6.7752 2.0155 -2.0011 0.9710
6.5660 2.6118 -2.0004 0.9711
5.9927 3.7361 -1.9992 0.9711
5.6333 4.2552 -1.9986 0.9711
4.5459 4.9291 -1.8982 0.9725
3.9795 5.1752 -1.8481 0.9732
2.9889 5.7886 -1.8443 0.9733
1.3465 6.3707 -1.8433 0.9733
0.7720 6.4647 -1.8431 0.9733
-0.3906 6.4980 -1.8429 0.9733
-0.9695 6.4369 -1.8428 0.9733
-1.5406 6.3246 -1.8428 0.9733
-2.0994 6.1619 -1.8429 0.9733
-3.3213 5.9759 -1.9355 0.9720
-4.9356 5.0332 -1.9956 0.9711
-5.3665 4.5731 -1.9960 0.9711
-6.3915 2.9887 -1.9974 0.9711
-6.3944 -1.2104 -2.0017 0.9731
-6.2627 -1.7773 -2.0023 0.9731
-6.0807 -2.3303 -2.0029 0.9731
-5.5723 -3.3771 -2.0041 0.9731
-5.2498 -3.8624 -2.0047 0.9731
-4.8851 -4.3171 -2.0052 0.9731
-4.4811 -4.7374 -2.0057 0.9731
-3.5682 -5.4617 -2.0066 0.9731
-3.0667 -5.7597 -2.0070 0.9731
-1.4306 -6.3697 -2.0080 0.9730
-0.2744 -6.5239 -2.0084 0.9730
0.3095 -6.5227 -2.0085 0.9730
0.8910 -6.4692 -2.0086 0.9730
3.0996 -5.7467 -2.0083 0.9730
3.6002 -5.4463 -2.0081 0.9730
4.0718 -5.1023 -2.0078 0.9731
4.5106 -4.7174 -2.0075 0.9731
6.2800 -1.7457 -2.0048 0.9731
6.4091 -1.1774 -2.0043 0.9731
6.4080 1.1402 -2.0019 0.9731
6.0991 2.2609 -2.0007 0.9731
5.8710 2.7958 -2.0001 0.9732
5.2768 3.7938 -1.9990 0.9732
4.0264 4.9880 -1.9717 0.9735
2.8767 5.2628 -1.8448 0.9752
0.3176 5.9852 -1.8435 0.9752
-2.4367 5.8574 -1.9513 0.9738
-3.5180 5.4511 -1.9955 0.9732
-3.9914 5.1157 -1.9957 0.9732
-4.4330 4.7394 -1.9960 0.9732
-5.2075 3.8764 -1.9968 0.9732
-5.5341 3.3964 -1.9972 0.9732
-5.8167 2.8892 -1.9976 0.9732
-6.2412 1.8089 -1.9987 0.9732
-6.5030 0.0896 -2.0004 0.9731
-6.2997 -1.6393 -2.0022 0.9731
-5.9110 -2.7357 -2.0034 0.9731
-4.9783 -4.2085 -2.0051 0.9731
-4.5837 -4.6376 -2.0056 0.9731
-4.1521 -5.0298 -2.0061 0.9731
-3.1922 -5.6908 -2.0069 0.9731
-1.5700 -6.3366 -2.0079 0.9730
-0.9978 -6.4523 -2.0082 0.9730
-0.4175 -6.5162 -2.0084 0.9730
0.1663 -6.5279 -2.0085 0.9730
0.7488 -6.4872 -2.0086 0.9730
1.3253 -6.3944 -2.0086 0.9730
1.8911 -6.2504 -2.0085 0.9730
2.4418 -6.0562 -2.0085 0.9730
3.9590 -5.1906 -2.0079 0.9731
4.8179 -4.4019 -2.0073 0.9731
5.1908 -3.9532 -2.0069 0.9731
5.5220 -3.4730 -2.0064 0.9731
6.2406 -1.8832 -2.0050 0.9731
6.3821 -1.3179 -2.0044 0.9731
6.5110 -0.1611 -2.0033 0.9731
6.4974 0.4210 -2.0027 0.9731
6.4319 0.9994 -2.0021 0.9731
6.3150 1.5695 -2.0015 0.9731
6.1477 2.1267 -2.0008 0.9731
5.9314 2.6665 -2.0003 0.9732
5.6679 3.1848 -1.9997 0.9732
5.3592 3.6773 -1.9991 0.9732
4.6124 4.5653 -1.9961 0.9732
4.1739 4.9446 -1.9903 0.9733
2.9917 5.1987 -1.8449 0.9752
2.0182 5.6461 -1.8442 0.9752
1.5055 5.8029 -1.8439 0.9752
-0.0868 5.9927 -1.8434 0.9752
-1.6790 5.7774 -1.8505 0.9751
-2.8817 5.7913 -1.9896 0.9733
-3.3973 5.5267 -1.9954 0.9732
-3.8780 5.2019 -1.9957 0.9732
-4.3278 4.8354 -1.9960 0.9732
-4.7432 4.4302 -1.9963 0.9732
-5.4580 3.5168 -1.9971 0.9732
-5.7516 3.0159 -1.9975 0.9732
-5.9995 2.4907 -1.9980 0.9732
-6.4504 0.8116 -1.9996 0.9732
-6.4990 0.2322 -2.0002 0.9732
-6.4957 -0.3493 -2.0008 0.9731
-5.4135 -3.6278 -2.0044 0.9731
-5.0692 -4.0980 -2.0049 0.9731
-4.2613 -4.9371 -2.0060 0.9731
-2.8016 -5.8940 -2.0072 0.9731
-2.2642 -6.1217 -2.0076 0.9731
-1.7086 -6.3004 -2.0079 0.9731
2.3083 -6.1084 -2.0085 0.9730
3.3579 -5.5993 -2.0082 0.9730
5.9945 -2.5661 -2.0056 0.9731
6.1982 -2.0199 -2.0051 0.9731
6.4551 -0.8843 -2.0040 0.9731
6.5064 -0.3040 -2.0034 0.9731
6.5056 0.2783 -2.0028 0.9731
6.1934 1.9914 -2.0010 0.9731
5.9889 2.5359 -2.0004 0.9731
5.4390 3.5590 -1.9992 0.9732
5.0979 4.0295 -1.9987 0.9732
4.7151 4.4664 -1.9976 0.9732
4.2844 4.8551 -1.9916 0.9733
3.7038 5.0419 -1.9242 0.9742
3.1113 5.1420 -1.8485 0.9752
2.6339 5.3879 -1.8446 0.9752
1.6326 5.7687 -1.8440 0.9752
1.1106 5.8907 -1.8438 0.9752
0.5799 5.9658 -1.8436 0.9752
0.0447 5.9933 -1.8435 0.9752
-1.0224 5.9052 -1.8433 0.9752
-1.5458 5.7903 -1.8433 0.9752
-2.1285 5.8252 -1.9076 0.9744
-2.7522 5.8494 -1.9883 0.9733
-3.2728 5.5957 -1.9939 0.9732
-4.2205 4.9290 -1.9959 0.9732
-4.6446 4.5330 -1.9962 0.9732
-5.0319 4.1007 -1.9966 0.9732
-5.6837 3.1412 -1.9974 0.9732
-6.4918 0.3748 -2.0001 0.9732
-6.4588 -0.7868 -2.0013 0.9731
-6.3646 -1.3610 -2.0019 0.9731
-5.7812 -3.0025 -2.0037 0.9731
-5.4914 -3.5079 -2.0042 0.9731
-5.1576 -3.9855 -2.0048 0.9731
-3.9192 -5.2142 -2.0063 0.9731
-3.4385 -5.5447 -2.0067 0.9731
-2.9301 -5.8308 -2.0071 0.9731
-0.7030 -6.4913 -2.0083 0.9730
-0.1203 -6.5287 -2.0084 0.9730
0.4634 -6.5137 -2.0085 0.9730
2.1737 -6.1577 -2.0085 0.9730
2.7149 -5.9385 -2.0084 0.9730
3.2343 -5.6718 -2.0082 0.9730
3.7276 -5.3596 -2.0080 0.9730
6.3190 -1.5969 -2.0047 0.9731
6.4986 -0.4468 -2.0036 0.9731
6.5106 0.1355 -2.0030 0.9731
6.4705 0.7163 -2.0024 0.9731
5.5162 3.4390 -1.9994 0.9732
4.3930 4.7633 -1.9930 0.9732
3.8574 5.0163 -1.9463 0.9739
3.2511 5.1162 -1.8645 0.9750
2.7516 5.3290 -1.8447 0.9752
0.7107 5.9517 -1.8436 0.9752
0.1762 5.9910 -1.8435 0.9752
-0.8926 5.9262 -1.8433 0.9752
-1.4183 5.8228 -1.8433 0.9752
-2.6083 5.8750 -1.9771 0.9735
-3.1469 5.6621 -1.9925 0.9733
-3.6458 5.3667 -1.9955 0.9732
-4.1111 5.0202 -1.9958 0.9732
-4.5438 4.6337 -1.9961 0.9732
-4.9405 4.2100 -1.9965 0.9732
-5.7948 -1.6445 -2.0023 0.9749
-5.6263 -2.1561 -2.0028 0.9749
-4.5197 -3.9941 -2.0049 0.9749
-4.1458 -4.3829 -2.0054 0.9749
-3.3011 -5.0528 -2.0063 0.9749
-2.8371 -5.3285 -2.0066 0.9749
-1.8443 -5.7501 -2.0073 0.9749
-1.3234 -5.8926 -2.0075 0.9749
1.3555 -5.8870 -2.0081 0.9749
1.8759 -5.7423 -2.0080 0.9749
2.3812 -5.5515 -2.0079 0.9749
3.7668 -4.7201 -2.0074 0.9749
5.1777 -3.1000 -2.0060 0.9749
5.4328 -2.6245 -2.0056 0.9749
5.9298 -1.0894 -2.0041 0.9749
5.9293 1.0551 -2.0019 0.9749
5.8098 1.5800 -2.0013 0.9749
5.4329 2.5872 -2.0002 0.9750
5.1787 3.0613 -1.9997 0.9750
4.8832 3.5108 -1.9992 0.9750
4.1786 4.3216 -1.9982 0.9750
3.7716 4.6723 -1.9960 0.9750
3.3316 4.9793 -1.9915 0.9751
2.8201 5.1593 -1.9545 0.9755
1.2752 5.3999 -1.8443 0.9769
0.7876 5.4916 -1.8441 0.9769
-0.2035 5.5828 -1.8570 0.9767
-1.7955 5.7077 -1.9889 0.9751
-2.7921 5.3153 -1.9958 0.9750
-3.2560 5.0451 -1.9960 0.9750
-3.6941 4.7347 -1.9962 0.9750
-4.1028 4.3864 -1.9965 0.9750
-4.8195 3.5875 -1.9971 0.9750
-5.3831 2.6738 -1.9979 0.9750
-5.9037 1.1517 -1.9994 0.9750
-5.9845 0.6199 -1.9999 0.9750
-6.0026 -0.4551 -2.0010 0.9749
-5.8291 -1.5168 -2.0021 0.9749
-5.6719 -2.0320 -2.0027 0.9749
-5.4692 -2.5312 -2.0033 0.9749
-5.2226 -3.0105 -2.0038 0.9749
-4.9341 -3.4659 -2.0043 0.9749
-3.4111 -4.9789 -2.0062 0.9749
-1.4524 -5.8620 -2.0075 0.9749
1.7494 -5.7821 -2.0080 0.9749
3.2192 -5.1103 -2.0077 0.9749
3.6624 -4.8018 -2.0074 0.9749
4.0762 -4.4549 -2.0072 0.9749
4.4571 -4.0723 -2.0068 0.9749
4.8022 -3.6572 -2.0065 0.9749
6.0244 -0.1491 -2.0031 0.9749
5.9515 0.9248 -2.0020 0.9749
5.8434 1.4523 -2.0015 0.9749
5.2449 2.9471 -1.9998 0.9750
3.4419 4.9075 -1.9925 0.9750
2.4122 5.2219 -1.9120 0.9760
1.3946 5.3755 -1.8460 0.9769
0.9080 5.4731 -1.8442 0.9769
-0.0807 5.5679 -1.8510 0.9768
-0.5871 5.6286 -1.8811 0.9764
-1.6691 5.7432 -1.9881 0.9751
-2.1797 5.5821 -1.9920 0.9751
-3.5892 4.8145 -1.9961 0.9750
-4.0054 4.4752 -1.9964 0.9750
-4.7394 3.6922 -1.9970 0.9750
-5.0512 3.2548 -1.9974 0.9750
-5.3229 2.7911 -1.9978 0.9750
-5.5522 2.3050 -1.9983 0.9750
-5.7372 1.8003 -1.9988 0.9750
-6.0107 -0.3233 -2.0009 0.9749
-5.5230 -2.4104 -2.0031 0.9749
-4.6900 -3.7915 -2.0047 0.9749
-4.3336 -4.1963 -2.0052 0.9749
-3.0679 -5.1984 -2.0065 0.9749
-2.5918 -5.4526 -2.0068 0.9749
-2.0947 -5.6633 -2.0071 0.9749
-1.0538 -5.9471 -2.0076 0.9749
0.5608 -6.0148 -2.0080 0.9749
1.0958 -5.9408 -2.0081 0.9749
1.6221 -5.8191 -2.0081 0.9749
2.1354 -5.6508 -2.0080 0.9749
4.7210 -3.7619 -2.0066 0.9749
5.0372 -3.3245 -2.0062 0.9749
5.5460 -2.3741 -2.0053 0.9749
5.7345 -1.8688 -2.0048 0.9749
5.9725 -0.8181 -2.0038 0.9749
6.0195 0.2575 -2.0027 0.9749
5.9707 0.7940 -2.0022 0.9749
5.3087 2.8315 -2.0000 0.9750
4.7177 3.7290 -1.9989 0.9750
4.3647 4.1345 -1.9984 0.9750
3.9770 4.5068 -1.9980 0.9750
3.0950 5.1152 -1.9873 0.9751
1.0279 5.4520 -1.8442 0.9769
0.5367 5.5215 -1.8440 0.9769
0.0414 5.5557 -1.8468 0.9769
-0.4613 5.6138 -1.8723 0.9765
-0.9824 5.6741 -1.9142 0.9760
-2.0556 5.6257 -1.9909 0.9751
-2.5556 5.4317 -1.9954 0.9750
-4.2986 4.1953 -1.9966 0.9750
-4.6570 3.7952 -1.9970 0.9750
-5.6960 1.9256 -1.9987 0.9750
-5.8467 1.4095 -1.9991 0.9750
-6.0073 0.3468 -2.0002 0.9750
-6.0160 -0.1912 -2.0008 0.9749
-5.7548 -1.7809 -2.0024 0.9749
-5.5742 -2.2885 -2.0030 0.9749
-5.3490 -2.7780 -2.0035 0.9749
-5.0808 -3.2456 -2.0041 0.9749
-3.1811 -5.1296 -2.0064 0.9749
-2.7107 -5.3942 -2.0067 0.9749
-2.2184 -5.6157 -2.0071 0.9749
1.4940 -5.8533 -2.0081 0.9749
3.8770 -4.6298 -2.0073 0.9749
4.2745 -4.2643 -2.0070 0.9749
4.6375 -3.8648 -2.0067 0.9749
5.2492 -2.9767 -2.0059 0.9749
6.0128 -0.4134 -2.0034 0.9749
5.7704 1.7166 -2.0012 0.9749
4.7987 3.6248 -1.9990 0.9750
4.0752 4.4187 -1.9981 0.9750
3.6580 4.7570 -1.9947 0.9750
3.2115 5.0538 -1.9904 0.9751
2.6755 5.1817 -1.9385 0.9757
2.1457 5.2619 -1.8889 0.9763
1.6375 5.3363 -1.8554 0.9767
0.6578 5.5085 -1.8441 0.9769
-0.3366 5.5989 -1.8645 0.9766
-0.8524 5.6593 -1.9024 0.9762
-2.4344 5.4833 -1.9942 0.9750
-2.9168 5.2481 -1.9958 0.9750
-3.3743 4.9670 -1.9960 0.9750
-3.8049 4.6463 -1.9963 0.9750
-4.2054 4.2885 -1.9965 0.9750
-4.9030 3.4729 -1.9972 0.9750
-5.4450 2.5461 -1.9981 0.9750
-5.4999 -1.0410 -2.0017 0.9765
-5.3863 -1.5286 -2.0022 0.9765
-5.2296 -2.0041 -2.0028 0.9765
-4.5144 -3.3214 -2.0043 0.9765
-4.2007 -3.7122 -2.0047 0.9765
-2.1842 -5.1687 -2.0066 0.9764
-0.7359 -5.5647 -2.0073 0.9764
0.2661 -5.6076 -2.0076 0.9764
2.2129 -5.1591 -2.0075 0.9764
2.6648 -4.9405 -2.0074 0.9764
3.5006 -4.3866 -2.0070 0.9764
3.8780 -4.0558 -2.0067 0.9764
4.8121 -2.8811 -2.0057 0.9765
5.0492 -2.4392 -2.0053 0.9765
5.2458 -1.9780 -2.0049 0.9765
5.5115 -1.0125 -2.0039 0.9765
5.5114 0.9807 -2.0019 0.9765
5.4004 1.4687 -2.0014 0.9765
5.0503 2.4050 -2.0003 0.9765
4.8141 2.8458 -1.9998 0.9765
4.5395 3.2637 -1.9994 0.9765
4.2289 3.6553 -1.9989 0.9765
3.8846 4.0175 -1.9985 0.9765
3.5095 4.3475 -1.9980 0.9765
3.1065 4.6428 -1.9977 0.9765
2.6749 4.8936 -1.9944 0.9766
1.7571 5.2783 -1.9894 0.9766
1.2668 5.3645 -1.9711 0.9769
0.7790 5.4315 -1.9622 0.9770
-1.6745 5.3231 -1.9956 0.9766
-2.1439 5.1536 -1.9961 0.9766
-2.5958 4.9418 -1.9962 0.9766
-3.0272 4.6906 -1.9964 0.9766
-3.4344 4.4019 -1.9966 0.9766
-3.8144 4.0780 -1.9968 0.9766
-4.7614 2.9222 -1.9978 0.9765
-5.2076 2.0292 -1.9986 0.9765
-5.5210 -0.9200 -2.0016 0.9765
-5.4182 -1.4099 -2.0021 0.9765
-5.0835 -2.3527 -2.0031 0.9765
-4.8542 -2.7981 -2.0037 0.9765
-4.5860 -3.2213 -2.0041 0.9765
-3.9414 -3.9878 -2.0051 0.9765
-2.7447 -4.8929 -2.0062 0.9764
-2.2970 -5.1193 -2.0065 0.9764
-1.8308 -5.3048 -2.0068 0.9764
-0.8578 -5.5471 -2.0073 0.9764
-0.3589 -5.6020 -2.0074 0.9764
0.6437 -5.5770 -2.0076 0.9764
1.6258 -5.3734 -2.0076 0.9764
4.1423 -3.7846 -2.0065 0.9764
4.9947 -2.5496 -2.0054 0.9765
5.2014 -2.0928 -2.0050 0.9765
5.4883 -1.1333 -2.0040 0.9765
5.5662 -0.6384 -2.0036 0.9765
5.5881 0.3621 -2.0025 0.9765
5.4317 1.3499 -2.0015 0.9765
5.2880 1.8293 -2.0010 0.9765
5.1022 2.2937 -2.0005 0.9765
4.8756 2.7396 -2.0000 0.9765
3.6042 4.2697 -1.9981 0.9765
3.2078 4.5737 -1.9978 0.9765
2.7828 4.8357 -1.9952 0.9766
2.3362 5.0573 -1.9922 0.9766
1.3874 5.3475 -1.9756 0.9768
-0.0803 5.5430 -1.9824 0.9767
-1.0704 5.4660 -1.9918 0.9766
-2.0303 5.1993 -1.9960 0.9766
-2.4867 4.9975 -1.9962 0.9766
-4.0812 3.8119 -1.9971 0.9766
-4.4061 3.4326 -1.9974 0.9766
-4.9484 2.5948 -1.9981 0.9765
-5.3335 1.6736 -1.9990 0.9765
-5.4629 1.1907 -1.9994 0.9765
-5.5873 -0.3005 -2.0009 0.9765
-5.4475 -1.2906 -2.0020 0.9765
-5.1336 -2.2405 -2.0030 0.9765
-3.2708 -4.5564 -2.0058 0.9765
-2.8513 -4.8313 -2.0061 0.9765
-2.4087 -5.0675 -2.0065 0.9764
-1.4690 -5.4167 -2.0070 0.9764
1.5075 -5.4078 -2.0076 0.9764
1.9845 -5.2514 -2.0075 0.9764
3.3050 -4.5363 -2.0071 0.9764
3.6965 -4.2224 -2.0068 0.9764
4.3876 -3.4962 -2.0062 0.9764
4.9378 -2.6587 -2.0055 0.9765
5.3298 -1.7369 -2.0046 0.9765
5.4624 -1.2536 -2.0042 0.9765
5.5512 -0.7604 -2.0037 0.9765
5.1516 2.1813 -2.0006 0.9765
4.9349 2.6321 -2.0001 0.9765
4.0576 3.8436 -1.9987 0.9765
3.3075 4.5024 -1.9978 0.9765
2.8895 4.7755 -1.9960 0.9766
1.9879 5.1986 -1.9903 0.9766
1.0179 5.3990 -1.9647 0.9769
-0.9499 5.4865 -1.9912 0.9766
-1.9156 5.2426 -1.9960 0.9766
-2.3764 5.0508 -1.9961 0.9766
-2.8183 4.8187 -1.9963 0.9766
-4.6282 3.1280 -1.9976 0.9765
-4.8900 2.7026 -1.9980 0.9765
-5.1130 2.2555 -1.9984 0.9765
-5.4352 1.3103 -1.9993 0.9765
-5.5843 0.3224 -2.0003 0.9765
-5.5922 -0.1778 -2.0008 0.9765
-5.5554 -0.6768 -2.0013 0.9765
-5.4742 -1.1706 -2.0019 0.9765
-5.3491 -1.6554 -2.0024 0.9765
-4.9717 -2.5821 -2.0034 0.9765
-4.7224 -3.0166 -2.0039 0.9765
-3.7561 -4.1635 -2.0053 0.9765
-2.9565 -4.7673 -2.0060 0.9765
-2.0617 -5.2190 -2.0067 0.9764
-1.5874 -5.3830 -2.0070 0.9764
-1.1004 -5.5039 -2.0072 0.9764
-0.6044 -5.5807 -2.0074 0.9764
-0.1035 -5.6127 -2.0075 0.9764
0.3984 -5.5998 -2.0076 0.9764
0.8970 -5.5419 -2.0076 0.9764
1.3884 -5.4396 -2.0076 0.9764
2.3340 -5.1054 -2.0075 0.9764
3.6031 -4.3027 -2.0069 0.9764
3.9725 -3.9631 -2.0066 0.9764
4.3099 -3.5918 -2.0063 0.9764
4.6128 -3.1919 -2.0060 0.9765
5.4339 -1.3732 -2.0043 0.9765
4.7453 2.9584 -1.9997 0.9765
4.1412 3.7538 -1.9988 0.9765
3.7885 4.1078 -1.9983 0.9765
3.4057 4.4289 -1.9979 0.9765
2.9949 4.7131 -1.9969 0.9766
2.1021 5.1551 -1.9909 0.9766
1.1377 5.3825 -1.9673 0.9769
0.1621 5.5124 -1.9721 0.9768
-0.8290 5.5045 -1.9906 0.9766
-1.3191 5.4154 -1.9932 0.9766
-2.2650 5.1016 -1.9961 0.9766
-2.7118 4.8793 -1.9962 0.9766
-3.1371 4.6179 -1.9964 0.9766
-4.5582 3.2287 -1.9975 0.9766
-5.1323 -0.9715 -2.0017 0.9779
-4.4714 -2.7099 -2.0036 0.9779
-4.2124 -3.0992 -2.0041 0.9778
-2.8626 -4.3815 -2.0057 0.9778
-2.4601 -4.6205 -2.0060 0.9778
-1.1475 -5.1093 -2.0068 0.9778
1.1753 -5.1043 -2.0072 0.9778
1.6265 -4.9788 -2.0072 0.9778
2.8878 -4.3686 -2.0068 0.9778
3.2661 -4.0927 -2.0066 0.9778
3.6182 -3.7842 -2.0064 0.9778
3.9412 -3.4454 -2.0061 0.9778
4.2326 -3.0790 -2.0058 0.9778
4.7112 -2.2759 -2.0051 0.9778
5.2264 -0.0146 -2.0029 0.9779
5.1431 0.9152 -2.0019 0.9779
5.0396 1.3706 -2.0014 0.9779
4.7130 2.2444 -2.0004 0.9779
4.4926 2.6558 -2.0000 0.9779
4.2365 3.0458 -1.9995 0.9779
3.9466 3.4113 -1.9991 0.9779
3.6254 3.7494 -1.9987 0.9779
2.8993 4.3331 -1.9979 0.9779
2.5002 4.5740 -1.9976 0.9779
1.6448 4.9410 -1.9956 0.9779
0.2757 5.1958 -1.9939 0.9780
-0.6541 5.1681 -1.9963 0.9779
-2.4228 4.6124 -1.9966 0.9779
-3.2055 4.1084 -1.9969 0.9779
-3.8863 3.4733 -1.9974 0.9779
-4.6705 2.3198 -1.9985 0.9779
-4.8601 1.8937 -1.9989 0.9779
-5.2201 0.0719 -2.0006 0.9779
-5.2069 -0.3948 -2.0011 0.9779
-5.1521 -0.8585 -2.0016 0.9779
-4.5295 -2.6109 -2.0035 0.9779
-4.2792 -3.0058 -2.0040 0.9778
-3.3312 -4.0353 -2.0052 0.9778
-1.7081 -4.9494 -2.0065 0.9778
-0.8003 -5.1755 -2.0069 0.9778
-0.3349 -5.2266 -2.0071 0.9778
0.1334 -5.2359 -2.0072 0.9778
1.5168 -5.0133 -2.0072 0.9778
1.9585 -4.8576 -2.0071 0.9778
2.3845 -4.6630 -2.0070 0.9778
5.0073 -1.5111 -2.0043 0.9778
5.1211 -1.0575 -2.0039 0.9778
5.2145 0.3379 -2.0025 0.9779
5.1622 0.8021 -2.0020 0.9779
4.7614 2.1405 -2.0006 0.9779
4.3025 2.9522 -1.9996 0.9779
4.0207 3.3240 -1.9992 0.9779
3.3637 3.9848 -1.9984 0.9779
2.6001 4.5182 -1.9977 0.9779
2.1858 4.7317 -1.9974 0.9779
0.8515 5.1328 -1.9939 0.9780
0.3896 5.1882 -1.9938 0.9780
-0.0754 5.2040 -1.9945 0.9780
-0.5404 5.1800 -1.9959 0.9779
-2.3210 4.6644 -1.9965 0.9779
-3.1144 4.1776 -1.9969 0.9779
-3.8090 3.5577 -1.9974 0.9779
-4.1122 3.2037 -1.9977 0.9779
-4.3827 2.8240 -1.9980 0.9779
-4.8171 1.9998 -1.9988 0.9779
-5.0982 1.1112 -1.9996 0.9779
-5.2140 -0.2804 -2.0010 0.9779
-5.1694 -0.7452 -2.0015 0.9779
-5.0834 -1.2043 -2.0020 0.9779
-4.9567 -1.6540 -2.0025 0.9779
-4.7903 -2.0906 -2.0029 0.9779
-4.3438 -2.9110 -2.0039 0.9778
-4.0673 -3.2881 -2.0043 0.9778
-3.7582 -3.6391 -2.0047 0.9778
-3.0518 -4.2514 -2.0055 0.9778
-2.2474 -4.7281 -2.0062 0.9778
-1.8163 -4.9106 -2.0064 0.9778
-1.3705 -5.0538 -2.0067 0.9778
-0.4495 -5.2179 -2.0070 0.9778
4.6072 -2.4807 -2.0052 0.9778
4.8095 -2.0588 -2.0049 0.9778
4.9731 -1.6207 -2.0044 0.9778
5.0969 -1.1697 -2.0040 0.9778
5.1799 -0.7096 -2.0036 0.9779
5.2213 -0.2440 -2.0031 0.9779
5.1789 0.6887 -2.0021 0.9779
5.0955 1.1483 -2.0016 0.9779
4.9713 1.5984 -2.0011 0.9779
4.6054 2.4563 -2.0002 0.9779
3.4505 3.9102 -1.9985 0.9779
2.2892 4.6827 -1.9975 0.9779
1.8609 4.8663 -1.9965 0.9779
1.4176 5.0089 -1.9949 0.9779
0.5034 5.1783 -1.9938 0.9780
0.0388 5.2038 -1.9943 0.9780
-0.4264 5.1896 -1.9955 0.9779
-0.8887 5.1331 -1.9963 0.9779
-1.3437 5.0332 -1.9964 0.9779
-1.7880 4.8932 -1.9964 0.9779
-2.2180 4.7141 -1.9965 0.9779
-2.6304 4.4975 -1.9966 0.9779
-3.0219 4.2449 -1.9968 0.9779
-3.7299 3.6403 -1.9973 0.9779
-4.0408 3.2930 -1.9976 0.9779
-4.3195 2.9194 -1.9979 0.9779
-5.2114 0.3009 -2.0004 0.9779
-5.2186 -0.1659 -2.0009 0.9779
-5.1842 -0.6316 -2.0014 0.9779
-4.8347 -1.9849 -2.0028 0.9779
-4.6392 -2.4094 -2.0033 0.9779
-3.8369 -3.5555 -2.0046 0.9778
-3.1442 -4.1832 -2.0054 0.9778
-2.3505 -4.6774 -2.0061 0.9778
-1.9236 -4.8694 -2.0064 0.9778
-1.4811 -5.0224 -2.0066 0.9778
-1.0266 -5.1351 -2.0068 0.9778
-0.5639 -5.2067 -2.0070 0.9778
1.2954 -5.0751 -2.0072 0.9778
2.1776 -4.7633 -2.0071 0.9778
2.5942 -4.5494 -2.0070 0.9778
2.9900 -4.2991 -2.0068 0.9778
4.0213 -3.3512 -2.0060 0.9778
5.0703 -1.2813 -2.0041 0.9778
5.1633 -0.8231 -2.0037 0.9779
5.2150 -0.3585 -2.0032 0.9779
5.2249 0.1087 -2.0027 0.9779
5.1931 0.5749 -2.0022 0.9779
5.1197 1.0362 -2.0018 0.9779
5.0055 1.4890 -2.0013 0.9779
4.8513 1.9297 -2.0008 0.9779
4.6584 2.3548 -2.0003 0.9779
4.1632 3.1447 -1.9994 0.9779
3.5357 3.8338 -1.9986 0.9779
3.1785 4.1335 -1.9982 0.9779
2.7961 4.4001 -1.9978 0.9779
1.9677 4.8255 -1.9970 0.9779
0.6169 5.1659 -1.9937 0.9780
0.1530 5.2012 -1.9941 0.9780
-0.3124 5.1968 -1.9951 0.9779
-1.2329 5.0614 -1.9964 0.9779
-1.6801 4.9312 -1.9964 0.9779
-2.9280 4.3101 -1.9968 0.9779
-3.6490 3.7211 -1.9972 0.9779
-4.2542 3.0133 -1.9978 0.9779
-4.5071 2.6218 -1.9982 0.9779
-4.7062 -1.3356 -2.0022 0.9791
-4.5691 -1.7510 -2.0026 0.9791
-4.1865 -2.5372 -2.0035 0.9791
-3.9439 -2.9016 -2.0039 0.9791
-3.6697 -3.2430 -2.0043 0.9791
-3.0352 -3.8457 -2.0051 0.9790
-2.6800 -4.1021 -2.0054 0.9790
-1.4971 -4.6677 -2.0062 0.9790
-1.0743 -4.7833 -2.0064 0.9790
0.2324 -4.8979 -2.0068 0.9790
0.6690 -4.8576 -2.0069 0.9790
1.1002 -4.7785 -2.0069 0.9790
2.3276 -4.3153 -2.0067 0.9790
3.9626 -2.8826 -2.0055 0.9790
4.2036 -2.5167 -2.0052 0.9790
4.4108 -2.1308 -2.0048 0.9791
4.5827 -1.7280 -2.0045 0.9791
4.8738 -0.4509 -2.0032 0.9791
4.8935 -0.0137 -2.0028 0.9791
4.8156 0.8569 -2.0019 0.9791
4.7188 1.2833 -2.0014 0.9791
4.4131 2.1016 -2.0005 0.9791
4.2068 2.4868 -2.0001 0.9791
3.9670 2.8521 -1.9997 0.9791
3.0671 3.7996 -1.9985 0.9791
2.7150 4.0577 -1.9982 0.9791
1.9491 4.4748 -1.9976 0.9791
0.6927 4.8299 -1.9970 0.9791
0.2585 4.8721 -1.9968 0.9791
-0.1777 4.8755 -1.9968 0.9791
-1.4640 4.6538 -1.9967 0.9791
-2.2689 4.3194 -1.9969 0.9791
-2.6459 4.0998 -1.9970 0.9791
-4.5510 1.7733 -1.9990 0.9791
-4.7959 0.9356 -1.9998 0.9791
-1.9574 0.2028 -0.8054 0.9915
-2.0917 -0.3486 -0.8679 0.9909
-4.7341 -1.2319 -2.0021 0.9791
-4.6062 -1.6502 -2.0025 0.9791
-4.2409 -2.4446 -2.0034 0.9791
-3.7398 -3.1615 -2.0042 0.9791
-3.1187 -3.7779 -2.0050 0.9790
-2.7693 -4.0421 -2.0053 0.9790
-2.3975 -4.2740 -2.0057 0.9790
-2.0064 -4.4717 -2.0059 0.9790
-1.5991 -4.6336 -2.0062 0.9790
-0.3135 -4.8931 -2.0067 0.9790
0.9951 -4.8015 -2.0069 0.9790
1.4200 -4.6933 -2.0069 0.9790
1.8335 -4.5476 -2.0068 0.9790
2.2323 -4.3654 -2.0067 0.9790
2.6131 -4.1482 -2.0065 0.9790
2.9730 -3.8979 -2.0064 0.9790
3.3089 -3.6163 -2.0061 0.9790
3.6183 -3.3059 -2.0059 0.9790
3.8985 -2.9690 -2.0056 0.9790
4.1475 -2.6085 -2.0053 0.9790
4.3632 -2.2272 -2.0049 0.9790
4.7947 -0.9901 -2.0038 0.9791
4.8630 -0.5577 -2.0033 0.9791
4.8923 -0.1211 -2.0029 0.9791
4.7461 1.1795 -2.0015 0.9791
4.4584 2.0043 -2.0006 0.9791
4.2606 2.3940 -2.0002 0.9791
4.0289 2.7645 -1.9998 0.9791
3.4713 3.4359 -1.9990 0.9791
2.8035 3.9973 -1.9983 0.9791
2.4349 4.2311 -1.9979 0.9791
1.6427 4.5956 -1.9974 0.9791
1.2255 4.7235 -1.9972 0.9791
0.7986 4.8136 -1.9970 0.9791
0.3654 4.8654 -1.9969 0.9791
-0.0707 4.8783 -1.9968 0.9791
-1.3615 4.6848 -1.9967 0.9791
-1.7746 4.5446 -1.9968 0.9791
-2.1736 4.3681 -1.9969 0.9791
-2.5552 4.1568 -1.9970 0.9791
-2.9166 3.9123 -1.9972 0.9791
-3.2548 3.6365 -1.9974 0.9791
-3.5670 3.3316 -1.9976 0.9791
-4.5108 1.8727 -1.9989 0.9791
-4.6610 1.4625 -1.9993 0.9791
-4.7740 1.0406 -1.9997 0.9791
-1.9525 0.2457 -0.8054 0.9915
-1.9308 0.0690 -0.7907 0.9917
-1.9447 -0.2804 -0.8042 0.9915
-4.6410 -1.5486 -2.0024 0.9791
-4.4851 -1.9575 -2.0029 0.9791
-4.2933 -2.3508 -2.0033 0.9791
-4.0670 -2.7255 -2.0037 0.9791
-3.8081 -3.0785 -2.0041 0.9791
-3.5186 -3.4071 -2.0045 0.9791
-2.8572 -3.9802 -2.0053 0.9790
-2.4906 -4.2202 -2.0056 0.9790
-2.1040 -4.4264 -2.0059 0.9790
-1.7004 -4.5973 -2.0061 0.9790
-1.2831 -4.7313 -2.0064 0.9790
-0.8554 -4.8275 -2.0065 0.9790
-0.4208 -4.8849 -2.0067 0.9790
1.3167 -4.7234 -2.0069 0.9790
1.7333 -4.5868 -2.0068 0.9790
2.8868 -3.9623 -2.0064 0.9790
3.2288 -3.6882 -2.0062 0.9790
3.8326 -3.0540 -2.0057 0.9790
4.3134 -2.3225 -2.0050 0.9790
4.5028 -1.9276 -2.0047 0.9791
4.8491 0.6448 -2.0021 0.9791
4.6549 1.4967 -2.0012 0.9791
4.0888 2.6755 -1.9999 0.9791
3.8327 3.0294 -1.9995 0.9791
3.5460 3.3590 -1.9991 0.9791
3.2312 3.6617 -1.9987 0.9791
2.5272 4.1768 -1.9980 0.9791
1.7432 4.5586 -1.9975 0.9791
1.3289 4.6955 -1.9972 0.9791
-1.2584 4.7136 -1.9967 0.9791
-1.6744 4.5824 -1.9968 0.9791
-2.0772 4.4147 -1.9968 0.9791
-2.4634 4.2118 -1.9970 0.9791
-2.8300 3.9752 -1.9971 0.9791
-3.4929 3.4090 -1.9976 0.9791
-4.4684 1.9712 -1.9989 0.9791
-4.6275 1.5644 -1.9992 0.9791
-4.7497 1.1450 -1.9996 0.9791
-1.9452 0.2882 -0.8048 0.9915
-1.9455 0.1123 -0.7976 0.9916
-4.6736 -1.4463 -2.0023 0.9791
-4.3436 -2.2559 -2.0032 0.9791
-4.1256 -2.6354 -2.0036 0.9791
-3.8745 -2.9941 -2.0041 0.9791
-3.5923 -3.3289 -2.0044 0.9791
-2.9437 -3.9164 -2.0052 0.9790
-2.5825 -4.1644 -2.0055 0.9790
-1.3866 -4.7019 -2.0063 0.9790
-0.9611 -4.8074 -2.0065 0.9790
-0.5279 -4.8744 -2.0067 0.9790
1.2127 -4.7512 -2.0069 0.9790
1.6322 -4.6237 -2.0068 0.9790
2.7992 -4.0248 -2.0065 0.9790
3.1472 -3.7583 -2.0063 0.9790
3.4699 -3.4617 -2.0060 0.9790
3.7648 -3.1375 -2.0057 0.9790
4.0294 -2.7882 -2.0054 0.9790
4.2616 -2.4167 -2.0051 0.9790
4.6219 -1.6193 -2.0044 0.9791
4.8828 -0.3357 -2.0031 0.9791
4.8921 0.1018 -2.0027 0.9791
4.8624 0.5383 -2.0022 0.9791
4.7938 0.9702 -2.0018 0.9791
4.3620 2.2050 -2.0004 0.9791
4.1467 2.5853 -2.0000 0.9791
3.8984 2.9447 -1.9996 0.9791
3.6191 3.2806 -1.9992 0.9791
1.8429 4.5193 -1.9975 0.9791
1.4316 4.6654 -1.9973 0.9791
1.0091 4.7741 -1.9971 0.9791
0.1434 4.8768 -1.9968 0.9791
-0.2928 4.8699 -1.9967 0.9791
-0.7266 4.8242 -1.9967 0.9791
-1.1546 4.7400 -1.9967 0.9791
-1.5734 4.6180 -1.9967 0.9791
-2.3703 4.2648 -1.9969 0.9791
-3.4172 3.4847 -1.9975 0.9791
-4.4239 2.0687 -1.9988 0.9791
-4.2907 -1.6443 -2.0026 0.9801
-4.1276 -2.0214 -2.0030 0.9801
-3.9313 -2.3826 -2.0034 0.9801
-3.7035 -2.7247 -2.0038 0.9801
-3.4459 -3.0452 -2.0042 0.9801
-2.5165 -3.8518 -2.0052 0.9801
-2.1627 -4.0618 -2.0055 0.9801
-0.1934 -4.5998 -2.0064 0.9801
0.6282 -4.5611 -2.0066 0.9801
1.0331 -4.4868 -2.0066 0.9801
1.4297 -4.3765 -2.0065 0.9801
1.8149 -4.2311 -2.0065 0.9801
2.1855 -4.0519 -2.0064 0.9801
2.5385 -3.8402 -2.0062 0.9801
3.1807 -3.3265 -2.0058 0.9801
3.4647 -3.0288 -2.0056 0.9801
3.9472 -2.3632 -2.0050 0.9801
4.3032 -1.6226 -2.0043 0.9801
4.4301 -1.2315 -2.0039 0.9801
4.5953 -0.0129 -2.0027 0.9801
4.5223 0.8047 -2.0019 0.9802
4.3052 1.5959 -2.0010 0.9802
4.1445 1.9737 -2.0006 0.9802
3.9508 2.3355 -2.0002 0.9802
3.7257 2.6786 -1.9998 0.9802
3.4709 3.0001 -1.9994 0.9802
2.8806 3.5686 -1.9987 0.9802
2.5499 3.8110 -1.9984 0.9802
2.1990 4.0230 -1.9981 0.9802
1.8306 4.2028 -1.9979 0.9802
1.0533 4.4605 -1.9974 0.9802
0.6506 4.5364 -1.9973 0.9802
-0.1669 4.5793 -1.9971 0.9802
-0.5753 4.5460 -1.9970 0.9802
-0.9791 4.4764 -1.9970 0.9802
-1.3751 4.3711 -1.9970 0.9802
-3.6779 2.7378 -1.9982 0.9802
-3.9084 2.3986 -1.9985 0.9802
-1.5687 0.4547 -0.7118 0.9929
-1.5028 0.2932 -0.6673 0.9933
-1.5064 -0.2510 -0.6655 0.9934
-4.1707 -1.9303 -2.0029 0.9801
-3.9824 -2.2956 -2.0033 0.9801
-3.2331 -3.2712 -2.0045 0.9801
-2.9285 -3.5475 -2.0048 0.9801
-2.6003 -3.7955 -2.0051 0.9801
-1.8840 -4.1988 -2.0057 0.9801
-0.7035 -4.5494 -2.0063 0.9801
0.5279 -4.5738 -2.0066 0.9801
1.7216 -4.2700 -2.0065 0.9801
2.0960 -4.0989 -2.0064 0.9801
2.7915 -3.6600 -2.0061 0.9801
3.1070 -3.3956 -2.0059 0.9801
3.6607 -2.7879 -2.0054 0.9801
3.8945 -2.4494 -2.0051 0.9801
4.0971 -2.0914 -2.0047 0.9801
4.2668 -1.7167 -2.0044 0.9801
4.5666 -0.5237 -2.0032 0.9801
4.5942 -0.1137 -2.0028 0.9801
4.5850 0.2971 -2.0024 0.9802
4.4570 1.1077 -2.0015 0.9802
4.3394 1.5011 -2.0011 0.9802
3.7837 2.5963 -1.9999 0.9802
3.5360 2.9233 -1.9995 0.9802
3.2602 3.2269 -1.9991 0.9802
2.9584 3.5046 -1.9988 0.9802
2.2868 3.9739 -1.9982 0.9802
1.9225 4.1617 -1.9979 0.9802
1.1510 4.4364 -1.9975 0.9802
0.7500 4.5211 -1.9973 0.9802
0.3432 4.5697 -1.9972 0.9802
-0.0664 4.5819 -1.9971 0.9802
-0.4754 4.5575 -1.9970 0.9802
-0.8806 4.4968 -1.9970 0.9802
-1.2788 4.4002 -1.9970 0.9802
-2.0415 4.1027 -1.9972 0.9802
-2.7394 3.6745 -1.9975 0.9802
-3.3502 3.1291 -1.9979 0.9802
-3.8546 2.4837 -1.9985 0.9802
-4.0617 2.1298 -1.9988 0.9802
-1.5217 0.3317 -0.6788 0.9932
-1.5284 0.0546 -0.6665 0.9933
-1.5295 -0.0823 -0.6676 0.9933
-1.5878 -0.5298 -0.7295 0.9927
-4.2119 -1.8382 -2.0028 0.9801
-4.0317 -2.2075 -2.0032 0.9801
-3.3040 -3.1993 -2.0044 0.9801
-2.6829 -3.7374 -2.0051 0.9801
