ply
format ascii 1.0
element vertex 1587
property float32 x
property float32 y
property float32 z
property float32 I
end_header
6.3542 -10.3553 -2.0015 0.9519
8.0955 -9.0594 -2.0015 0.9519
11.2172 -4.6672 -2.0015 0.9519
11.5893 -3.6465 -2.0015 0.9519
12.1414 -0.4433 -2.0015 0.9519
12.1324 0.6430 -2.0015 0.9519
12.0265 1.7242 -2.0015 0.9519
11.1389 4.8512 -2.0015 0.9519
10.6610 5.8268 -2.0015 0.9519
10.0979 6.7558 -2.0015 0.9519
8.0704 7.8027 -1.8493 0.9555
6.5532 9.1142 -1.8493 0.9555
5.7128 9.6632 -1.8493 0.9555
4.8267 10.1349 -1.8493 0.9555
3.9021 10.5255 -1.8493 0.9555
1.9669 11.0519 -1.8493 0.9555
-3.0063 10.8155 -1.8493 0.9555
-3.9604 10.5037 -1.8493 0.9555
-4.8828 10.1080 -1.8493 0.9555
-5.7662 9.6314 -1.8493 0.9555
-6.6035 9.0778 -1.8493 0.9555
-8.7812 8.3964 -2.0015 0.9519
-9.4962 7.5784 -2.0015 0.9519
-10.1352 6.6998 -2.0015 0.9519
-10.6931 5.7676 -2.0015 0.9519
-11.1656 4.7894 -2.0015 0.9519
-11.8396 2.7261 -2.0015 0.9519
-12.0358 1.6576 -2.0015 0.9519
-12.1387 -0.5106 -2.0015 0.9519
-11.8541 -2.6624 -2.0015 0.9519
-11.5689 -3.7107 -2.0015 0.9519
-11.1912 -4.7293 -2.0015 0.9519
-10.1710 -6.6452 -2.0015 0.9519
-9.5368 -7.5272 -2.0015 0.9519
-8.0452 -9.1041 -2.0015 0.9519
-7.1997 -9.7864 -2.0015 0.9519
-5.3434 -10.9113 -2.0015 0.9519
-4.3371 -11.3181 -1.9967 0.9521
-3.2021 -11.2845 -1.9324 0.9536
-2.1235 -11.2205 -1.8813 0.9548
5.1551 -10.9759 -1.9977 0.9520
7.0393 -9.9024 -2.0015 0.9519
8.6891 -8.4917 -2.0015 0.9519
9.4129 -7.6816 -2.0015 0.9519
10.0614 -6.8100 -2.0015 0.9519
10.6295 -5.8840 -2.0015 0.9519
11.5069 -3.8987 -2.0015 0.9519
11.8092 -2.8552 -2.0015 0.9519
12.1436 0.3780 -2.0015 0.9519
12.0612 1.4613 -2.0015 0.9519
11.2422 4.6068 -2.0015 0.9519
10.7857 5.5927 -2.0015 0.9519
10.2430 6.5338 -2.0015 0.9519
9.6052 7.4124 -1.9987 0.9520
7.5248 8.3301 -1.8493 0.9555
5.0469 10.0271 -1.8493 0.9555
4.1310 10.4378 -1.8493 0.9555
2.2077 11.0063 -1.8493 0.9555
1.2157 11.1595 -1.8493 0.9555
0.2140 11.2235 -1.8493 0.9555
-0.7894 11.1978 -1.8493 0.9555
-1.7866 11.0825 -1.8493 0.9555
-3.7301 10.5877 -1.8493 0.9555
-4.6610 10.2122 -1.8493 0.9555
-7.7779 9.2998 -1.9972 0.9520
-9.3285 7.7839 -2.0015 0.9519
-9.9865 6.9195 -2.0015 0.9519
-11.7773 2.9839 -2.0015 0.9519
-11.9968 1.9199 -2.0015 0.9519
-11.9094 -2.4030 -2.0015 0.9519
-11.6472 -3.4572 -2.0015 0.9519
-10.8461 -5.4746 -2.0015 0.9519
-8.2420 -8.9263 -2.0015 0.9519
-5.5804 -10.7921 -2.0015 0.9519
-4.5891 -11.2354 -1.9994 0.9520
-3.4801 -11.3175 -1.9506 0.9531
-2.3799 -11.2279 -1.8908 0.9545
-1.3469 -11.2240 -1.8623 0.9552
-0.3368 -11.2309 -1.8510 0.9555
0.6685 -11.2288 -1.8531 0.9554
3.8115 -11.2077 -1.9502 0.9531
5.8961 -10.6228 -2.0015 0.9519
6.8215 -10.0537 -2.0015 0.9519
8.5016 -8.6794 -2.0015 0.9519
9.2429 -7.8853 -2.0015 0.9519
10.4986 -6.1147 -2.0015 0.9519
11.7440 -3.1123 -2.0015 0.9519
12.1104 -0.9729 -2.0015 0.9519
12.1489 0.1128 -2.0015 0.9519
11.9350 2.2728 -2.0015 0.9519
11.3401 4.3603 -2.0015 0.9519
10.9052 5.3559 -2.0015 0.9519
6.1292 9.4046 -1.8493 0.9555
4.3579 10.3452 -1.8493 0.9555
2.4475 10.9555 -1.8493 0.9555
1.4590 11.1303 -1.8493 0.9555
0.4590 11.2162 -1.8493 0.9555
-1.5442 11.1188 -1.8493 0.9555
-2.5313 10.9364 -1.8493 0.9555
-3.4981 10.6666 -1.8493 0.9555
-4.4369 10.3115 -1.8493 0.9555
-6.2010 9.3574 -1.8493 0.9555
-7.4194 9.2753 -1.9567 0.9530
-8.4064 8.7717 -2.0015 0.9519
-9.1563 7.9857 -2.0015 0.9519
-9.8330 7.1358 -2.0015 0.9519
-10.4312 6.2289 -2.0015 0.9519
-11.3731 4.2734 -2.0015 0.9519
-11.7094 3.2403 -2.0015 0.9519
-11.9520 2.1814 -2.0015 0.9519
-12.1494 0.0198 -2.0015 0.9519
-12.1026 -1.0656 -2.0015 0.9519
-11.7199 -3.2021 -2.0015 0.9519
-10.4514 -6.1949 -2.0015 0.9519
-9.8563 -7.1037 -2.0015 0.9519
-9.1823 -7.9558 -2.0015 0.9519
-8.4349 -8.7442 -2.0015 0.9519
-5.8147 -10.6677 -2.0015 0.9519
-3.7693 -11.3682 -1.9730 0.9526
-2.6395 -11.2372 -1.9016 0.9543
-0.5823 -11.2295 -1.8524 0.9554
0.4228 -11.2305 -1.8514 0.9555
1.4341 -11.2237 -1.8640 0.9552
3.5413 -11.2102 -1.9367 0.9535
-9.1309 5.4787 -2.0015 0.9576
-9.5838 4.6411 -2.0015 0.9576
-10.2567 2.8617 -2.0015 0.9576
-10.4713 1.9340 -2.0015 0.9576
-10.6094 -0.9115 -2.0015 0.9576
-10.4855 -1.8556 -2.0015 0.9576
-10.2778 -2.7848 -2.0015 0.9576
-9.9880 -3.6918 -2.0015 0.9576
-9.1717 -5.4102 -2.0015 0.9576
-8.6517 -6.2078 -2.0015 0.9576
-7.4090 -7.6483 -2.0015 0.9576
-5.1160 -9.3389 -2.0015 0.9576
-4.2613 -9.7586 -2.0015 0.9576
-3.3726 -10.1002 -2.0015 0.9576
-2.4569 -10.3611 -2.0015 0.9576
0.3782 -10.6417 -2.0015 0.9576
1.3273 -10.5654 -2.0015 0.9576
2.2657 -10.4046 -2.0015 0.9576
4.9433 -9.4315 -2.0015 0.9576
6.5427 -8.4014 -2.0015 0.9576
7.2670 -7.7833 -2.0015 0.9576
7.9332 -7.1031 -2.0015 0.9576
9.0705 -5.5781 -2.0015 0.9576
9.5326 -4.7455 -2.0015 0.9576
9.9184 -3.8750 -2.0015 0.9576
8.7190 6.1130 -2.0015 0.9576
8.1381 6.8674 -2.0015 0.9576
7.4732 7.5478 -1.9964 0.9577
5.5678 8.1117 -1.8493 0.9607
3.2178 9.2976 -1.8493 0.9607
2.3744 9.5479 -1.8493 0.9607
-1.9884 9.6357 -1.8493 0.9607
-3.6712 9.1281 -1.8493 0.9607
-4.4720 8.7636 -1.8493 0.9607
-5.2369 8.3291 -1.8493 0.9607
-6.4355 8.4525 -1.9968 0.9577
-7.8552 7.1892 -2.0015 0.9576
-8.4660 6.4588 -2.0015 0.9576
-9.0091 5.6767 -2.0015 0.9576
-9.8755 3.9830 -2.0015 0.9576
-10.1918 3.0849 -2.0015 0.9576
-10.4266 2.1622 -2.0015 0.9576
-10.6450 0.2723 -2.0015 0.9576
-10.3362 -2.5598 -2.0015 0.9576
-9.7157 -4.3582 -2.0015 0.9576
-9.2876 -5.2086 -2.0015 0.9576
-8.7852 -6.0174 -2.0015 0.9576
-8.2125 -6.7782 -2.0015 0.9576
-6.8753 -8.1314 -2.0015 0.9576
-6.1215 -8.7130 -2.0015 0.9576
-5.3187 -9.2250 -2.0015 0.9576
-3.5923 -10.0242 -2.0015 0.9576
-2.6825 -10.3050 -2.0015 0.9576
-1.7512 -10.5034 -2.0015 0.9576
-0.8060 -10.6179 -2.0015 0.9576
2.0381 -10.4516 -2.0015 0.9576
5.5692 -9.0760 -2.0015 0.9576
6.3577 -8.5422 -2.0015 0.9576
8.3950 -6.5508 -2.0015 0.9576
8.9466 -5.7747 -2.0015 0.9576
9.4267 -4.9525 -2.0015 0.9576
10.1575 -3.1960 -2.0015 0.9576
10.5641 -1.3376 -2.0015 0.9576
10.6413 -0.3885 -2.0015 0.9576
10.3635 2.4468 -2.0015 0.9576
10.1035 3.3627 -2.0015 0.9576
9.7627 4.2518 -2.0015 0.9576
8.2861 6.6881 -2.0015 0.9576
5.7436 7.9882 -1.8493 0.9607
5.0070 8.4693 -1.8493 0.9607
4.2304 8.8828 -1.8493 0.9607
3.4200 9.2252 -1.8493 0.9607
2.5823 9.4938 -1.8493 0.9607
1.7239 9.6865 -1.8493 0.9607
0.8517 9.8018 -1.8493 0.9607
-0.0273 9.8387 -1.8493 0.9607
-0.9060 9.7969 -1.8493 0.9607
-1.7775 9.6768 -1.8493 0.9607
-2.6348 9.4793 -1.8493 0.9607
-5.0538 8.4415 -1.8493 0.9607
-7.0082 8.0171 -2.0015 0.9576
-8.8830 5.8721 -2.0015 0.9576
-10.1220 3.3067 -2.0015 0.9576
-10.3769 2.3893 -2.0015 0.9576
-10.6365 0.5047 -2.0015 0.9576
-10.5565 -1.3961 -2.0015 0.9576
-10.3896 -2.3335 -2.0015 0.9576
-10.1396 -3.2523 -2.0015 0.9576
-9.8086 -4.1450 -2.0015 0.9576
-8.9145 -5.8242 -2.0015 0.9576
-7.7358 -7.3175 -2.0015 0.9576
-7.0512 -7.9793 -2.0015 0.9576
-6.3103 -8.5773 -2.0015 0.9576
-5.5188 -9.1067 -2.0015 0.9576
-4.6833 -9.5633 -2.0015 0.9576
-2.9068 -10.2440 -2.0015 0.9576
-1.0376 -10.5978 -2.0015 0.9576
-0.0868 -10.6481 -2.0015 0.9576
2.7395 -10.2900 -2.0015 0.9576
3.6478 -10.0042 -2.0015 0.9576
4.5269 -9.6383 -2.0015 0.9576
6.1697 -8.6790 -2.0015 0.9576
6.9203 -8.0931 -2.0015 0.9576
7.6156 -7.4426 -2.0015 0.9576
8.2500 -6.7326 -2.0015 0.9576
10.3502 -2.5025 -2.0015 0.9576
10.5324 -1.5679 -2.0015 0.9576
10.6303 -0.6208 -2.0015 0.9576
10.4145 2.2199 -2.0015 0.9576
9.8533 4.0377 -2.0015 0.9576
9.4532 4.9017 -2.0015 0.9576
7.8152 7.2326 -2.0015 0.9576
6.9622 7.7073 -1.9522 0.9586
5.9166 7.8609 -1.8493 0.9607
5.1907 8.3580 -1.8493 0.9607
1.0655 9.7808 -1.8493 0.9607
0.1876 9.8369 -1.8493 0.9607
-1.5659 9.7133 -1.8493 0.9607
-2.4273 9.5346 -1.8493 0.9607
-5.8021 8.3535 -1.9117 0.9594
-6.8315 8.1682 -2.0015 0.9576
-7.5339 7.5253 -2.0015 0.9576
-8.1760 6.8222 -2.0015 0.9576
-8.7527 6.0646 -2.0015 0.9576
-9.2595 5.2585 -2.0015 0.9576
-10.0474 3.5269 -2.0015 0.9576
-10.5146 1.6827 -2.0015 0.9576
-10.6229 0.7367 -2.0015 0.9576
-10.6463 -0.2151 -2.0015 0.9576
-10.4381 -2.1061 -2.0015 0.9576
-10.2082 -3.0301 -2.0015 0.9576
-9.8967 -3.9299 -2.0015 0.9576
-9.5061 -4.7982 -2.0015 0.9576
-9.0395 -5.6282 -2.0015 0.9576
-7.8937 -7.1469 -2.0015 0.9576
-6.4960 -8.4375 -2.0015 0.9576
-5.7163 -8.9840 -2.0015 0.9576
-4.8909 -9.4588 -2.0015 0.9576
-3.1298 -10.1781 -2.0015 0.9576
1.5799 -10.5306 -2.0015 0.9576
2.5142 -10.3474 -2.0015 0.9576
3.4285 -10.0814 -2.0015 0.9576
4.3153 -9.7348 -2.0015 0.9576
5.1677 -9.3104 -2.0015 0.9576
7.4513 -7.6071 -2.0015 0.9576
8.6860 -6.1598 -2.0015 0.9576
9.2015 -5.3593 -2.0015 0.9576
9.6435 -4.5159 -2.0015 0.9576
10.0083 -3.6364 -2.0015 0.9576
10.2931 -2.7278 -2.0015 0.9576
10.4956 -1.7974 -2.0015 0.9576
10.6480 0.0989 -2.0015 0.9576
10.2407 2.9185 -2.0015 0.9576
9.9390 3.8216 -2.0015 0.9576
9.1004 5.5292 -2.0015 0.9576
8.5701 6.3200 -2.0015 0.9576
5.3719 8.2427 -1.8493 0.9607
0.4023 9.8305 -1.8493 0.9607
-1.3534 9.7452 -1.8493 0.9607
-6.6489 8.3121 -2.0007 0.9576
-7.3678 7.6880 -2.0015 0.9576
-9.1425 5.4594 -2.0015 0.9576
-9.5936 4.6209 -2.0015 0.9576
-10.4754 1.9119 -2.0015 0.9576
-10.6043 0.9685 -2.0015 0.9576
-10.6484 0.0174 -2.0015 0.9576
-10.6074 -0.9339 -2.0015 0.9576
-10.4816 -1.8777 -2.0015 0.9576
-10.2719 -2.8065 -2.0015 0.9576
-9.1602 -5.4295 -2.0015 0.9576
-8.6386 -6.2261 -2.0015 0.9576
-5.9111 -8.8571 -2.0015 0.9576
-4.2407 -9.7676 -2.0015 0.9576
-3.3512 -10.1074 -2.0015 0.9576
-1.4992 -10.5424 -2.0015 0.9576
0.4006 -10.6409 -2.0015 0.9576
1.3496 -10.5626 -2.0015 0.9576
2.2877 -10.3998 -2.0015 0.9576
3.2076 -10.1539 -2.0015 0.9576
-8.5220 4.1269 -2.0015 0.9620
-8.8566 3.3492 -2.0015 0.9620
-9.3112 1.7198 -2.0015 0.9620
-9.4276 0.8811 -2.0015 0.9620
-9.4339 -0.8105 -2.0015 0.9620
-9.3238 -1.6500 -2.0015 0.9620
-9.1392 -2.4763 -2.0015 0.9620
-7.1693 -6.1852 -2.0015 0.9620
-6.5882 -6.8009 -2.0015 0.9620
-5.9543 -7.3622 -2.0015 0.9620
-5.2728 -7.8647 -2.0015 0.9620
-4.5492 -8.3043 -2.0015 0.9620
-3.7892 -8.6774 -2.0015 0.9620
0.3363 -9.4627 -2.0015 0.9620
1.1802 -9.3948 -2.0015 0.9620
2.0147 -9.2519 -2.0015 0.9620
2.8331 -9.0349 -2.0015 0.9620
5.1272 -7.9604 -2.0015 0.9620
5.8178 -7.4706 -2.0015 0.9620
6.4619 -6.9210 -2.0015 0.9620
8.0656 -4.9601 -2.0015 0.9620
8.4764 -4.2197 -2.0015 0.9620
8.8195 -3.4457 -2.0015 0.9620
9.2919 -1.8213 -2.0015 0.9620
9.4677 -0.1388 -2.0015 0.9620
9.1656 2.3764 -2.0015 0.9620
8.9167 3.1856 -2.0015 0.9620
8.2076 4.7214 -2.0015 0.9620
7.7530 5.4357 -2.0015 0.9620
6.6620 6.7286 -2.0015 0.9620
3.5884 7.9789 -1.8493 0.9649
1.3445 8.6447 -1.8493 0.9649
0.5669 8.7303 -1.8493 0.9649
-0.9956 8.6918 -1.8493 0.9649
-2.5264 8.3759 -1.8493 0.9649
-3.2645 8.1168 -1.8493 0.9649
-3.9995 7.8378 -1.8600 0.9647
-5.0237 7.9900 -1.9950 0.9621
-5.7359 7.5336 -2.0015 0.9620
-6.3859 6.9911 -2.0015 0.9620
-8.0110 5.0478 -2.0015 0.9620
-9.0626 2.7432 -2.0015 0.9620
-9.2714 1.9226 -2.0015 0.9620
-9.4061 1.0868 -2.0015 0.9620
-9.4656 0.2422 -2.0015 0.9620
-9.4494 -0.6043 -2.0015 0.9620
-8.9510 -3.0881 -2.0015 0.9620
-8.6393 -3.8753 -2.0015 0.9620
-8.2586 -4.6316 -2.0015 0.9620
-7.8119 -5.3508 -2.0015 0.9620
-6.1136 -7.2305 -2.0015 0.9620
-4.7294 -8.2030 -2.0015 0.9620
-3.9778 -8.5926 -2.0015 0.9620
-1.5572 -9.3398 -2.0015 0.9620
-0.7167 -9.4415 -2.0015 0.9620
0.9748 -9.4184 -2.0015 0.9620
3.4371 -8.8228 -2.0015 0.9620
4.2115 -8.4805 -2.0015 0.9620
5.6533 -7.5958 -2.0015 0.9620
6.3092 -7.0604 -2.0015 0.9620
6.9147 -6.4686 -2.0015 0.9620
7.9554 -5.1350 -2.0015 0.9620
8.7422 -3.6374 -2.0015 0.9620
9.0321 -2.8419 -2.0015 0.9620
8.9841 2.9902 -2.0015 0.9620
8.6811 3.7808 -2.0015 0.9620
8.3087 4.5411 -2.0015 0.9620
7.8698 5.2652 -2.0015 0.9620
7.3680 5.9471 -2.0015 0.9620
6.8073 6.5815 -2.0015 0.9620
6.1922 7.1633 -2.0015 0.9620
5.5083 7.6610 -1.9945 0.9622
4.5628 7.7179 -1.8952 0.9640
3.7617 7.8986 -1.8493 0.9649
2.2962 8.4419 -1.8493 0.9649
1.5329 8.6133 -1.8493 0.9649
-0.0242 8.7486 -1.8493 0.9649
-1.5806 8.6047 -1.8493 0.9649
-2.3429 8.4291 -1.8493 0.9649
-3.0865 8.1861 -1.8493 0.9649
-3.8054 7.8777 -1.8493 0.9649
-5.5700 7.6571 -2.0015 0.9620
-7.4009 5.9062 -2.0015 0.9620
-7.8989 5.2215 -2.0015 0.9620
-8.3337 4.4950 -2.0015 0.9620
-9.3801 1.2919 -2.0015 0.9620
-9.4603 -0.3979 -2.0015 0.9620
-9.3870 -1.2414 -2.0015 0.9620
-9.2385 -2.0750 -2.0015 0.9620
-8.7219 -3.6858 -2.0015 0.9620
-8.3578 -4.4502 -2.0015 0.9620
-7.9268 -5.1790 -2.0015 0.9620
-4.9074 -8.0977 -2.0015 0.9620
-4.1644 -8.5038 -2.0015 0.9620
-2.5848 -9.1091 -2.0015 0.9620
-1.7608 -9.3035 -2.0015 0.9620
-0.9226 -9.4236 -2.0015 0.9620
-0.0771 -9.4684 -2.0015 0.9620
0.7690 -9.4374 -2.0015 0.9620
1.6089 -9.3310 -2.0015 0.9620
2.4360 -9.1500 -2.0015 0.9620
3.2436 -8.8958 -2.0015 0.9620
4.0253 -8.5705 -2.0015 0.9620
6.1536 -7.1965 -2.0015 0.9620
7.3359 -5.9867 -2.0015 0.9620
7.8414 -5.3074 -2.0015 0.9620
8.2842 -4.5857 -2.0015 0.9620
8.6607 -3.8274 -2.0015 0.9620
8.9679 -3.0384 -2.0015 0.9620
9.2035 -2.2252 -2.0015 0.9620
9.3655 -1.3942 -2.0015 0.9620
9.4000 1.1388 -2.0015 0.9620
9.2606 1.9740 -2.0015 0.9620
9.0473 2.7933 -2.0015 0.9620
8.7616 3.5903 -2.0015 0.9620
8.4059 4.3587 -2.0015 0.9620
7.9829 5.0921 -2.0015 0.9620
7.4961 5.7848 -2.0015 0.9620
6.9494 6.4313 -2.0015 0.9620
5.6798 7.5463 -1.9965 0.9621
4.7904 7.7134 -1.9193 0.9636
3.9333 7.8146 -1.8493 0.9649
3.2195 8.1347 -1.8493 0.9649
2.4800 8.3898 -1.8493 0.9649
-0.6153 8.7270 -1.8493 0.9649
-2.1584 8.4782 -1.8493 0.9649
-3.6325 7.9589 -1.8493 0.9649
-4.5155 7.9301 -1.9290 0.9634
-6.0747 7.2632 -2.0015 0.9620
-7.2701 6.0664 -2.0015 0.9620
-7.7830 5.3927 -2.0015 0.9620
-8.6184 3.9217 -2.0015 0.9620
-9.4668 -0.1913 -2.0015 0.9620
-9.2816 -1.8728 -2.0015 0.9620
-8.8003 -3.4945 -2.0015 0.9620
-8.4529 -4.2666 -2.0015 0.9620
-7.5588 -5.7027 -2.0015 0.9620
-6.4234 -6.9567 -2.0015 0.9620
-5.0830 -7.9887 -2.0015 0.9620
-3.5804 -8.7657 -2.0015 0.9620
-1.9634 -9.2629 -2.0015 0.9620
-1.1281 -9.4012 -2.0015 0.9620
1.4048 -9.3639 -2.0015 0.9620
2.2357 -9.2010 -2.0015 0.9620
3.8373 -8.6563 -2.0015 0.9620
6.6257 -6.7643 -2.0015 0.9620
7.2035 -6.1454 -2.0015 0.9620
8.1821 -4.7655 -2.0015 0.9620
8.5750 -4.0156 -2.0015 0.9620
9.1527 -2.4256 -2.0015 0.9620
9.4383 -0.7582 -2.0015 0.9620
9.4683 0.0879 -2.0015 0.9620
8.8379 3.3982 -2.0015 0.9620
7.0881 6.2781 -2.0015 0.9620
5.8491 7.4280 -1.9985 0.9621
5.0239 7.7087 -1.9450 0.9631
3.3963 8.0625 -1.8493 0.9649
1.9074 8.5382 -1.8493 0.9649
-1.2035 8.6655 -1.8493 0.9649
-5.2211 7.8788 -1.9979 0.9621
-7.1360 6.2237 -2.0015 0.9620
-8.8636 3.3305 -2.0015 0.9620
-9.1257 2.5254 -2.0015 0.9620
-9.3148 1.7001 -2.0015 0.9620
-9.1339 -2.4956 -2.0015 0.9620
-8.5440 -4.0811 -2.0015 0.9620
-8.1453 -4.8280 -2.0015 0.9620
-7.1562 -6.2003 -2.0015 0.9620
-6.5738 -6.8148 -2.0015 0.9620
-5.9387 -7.3748 -2.0015 0.9620
-5.2562 -7.8758 -2.0015 0.9620
-4.5317 -8.3139 -2.0015 0.9620
-3.7709 -8.6854 -2.0015 0.9620
-1.3331 -9.3744 -2.0015 0.9620
0.3563 -9.4620 -2.0015 0.9620
1.2001 -9.3923 -2.0015 0.9620
2.8522 -9.0289 -2.0015 0.9620
-7.3025 4.3816 -2.0015 0.9656
-7.6647 3.7118 -2.0015 0.9656
-8.2029 2.2887 -2.0015 0.9656
-8.4792 0.7925 -2.0015 0.9656
-8.2198 -2.2272 -2.0015 0.9656
-7.9879 -2.9525 -2.0015 0.9656
-7.6923 -3.6543 -2.0015 0.9656
-7.3351 -4.3268 -2.0015 0.9656
-6.4481 -5.5630 -2.0015 0.9656
-5.3553 -6.6216 -2.0015 0.9656
-4.0916 -7.4689 -2.0015 0.9656
-3.4080 -7.8045 -2.0015 0.9656
-2.6973 -8.0777 -2.0015 0.9656
-1.9649 -8.2864 -2.0015 0.9656
-1.2168 -8.4288 -2.0015 0.9656
0.3024 -8.5108 -2.0015 0.9656
1.0615 -8.4497 -2.0015 0.9656
1.8120 -8.3211 -2.0015 0.9656
4.6114 -7.1596 -2.0015 0.9656
5.2325 -6.7190 -2.0015 0.9656
6.3446 -5.6807 -2.0015 0.9656
6.8267 -5.0912 -2.0015 0.9656
7.2542 -4.4611 -2.0015 0.9656
7.6237 -3.7952 -2.0015 0.9656
8.1774 -2.3781 -2.0015 0.9656
8.3571 -1.6381 -2.0015 0.9656
8.4700 -0.8850 -2.0015 0.9656
8.5152 -0.1249 -2.0015 0.9656
8.4923 0.6363 -2.0015 0.9656
8.4016 1.3924 -2.0015 0.9656
8.0197 2.8651 -2.0015 0.9656
7.7317 3.5701 -2.0015 0.9656
4.8193 7.0213 -2.0015 0.9656
4.1671 7.4135 -1.9987 0.9657
3.4636 7.7013 -1.9846 0.9659
1.9205 7.7225 -1.8702 0.9678
1.2092 7.7751 -1.8493 0.9682
0.5099 7.8520 -1.8493 0.9682
-0.1936 7.8662 -1.8493 0.9682
-1.5948 7.7281 -1.8545 0.9681
-2.3279 7.7180 -1.8946 0.9674
-4.5330 7.2095 -2.0015 0.9656
-8.1509 2.4672 -2.0015 0.9656
-8.3387 1.7292 -2.0015 0.9656
-8.4599 0.9774 -2.0015 0.9656
-8.4163 -1.3006 -2.0015 0.9656
-8.2664 -2.0472 -2.0015 0.9656
-7.4278 -4.1656 -2.0015 0.9656
-7.0260 -4.8125 -2.0015 0.9656
-6.5680 -5.4209 -2.0015 0.9656
-6.0575 -5.9859 -2.0015 0.9656
-5.4986 -6.5031 -2.0015 0.9656
-4.8957 -6.9683 -2.0015 0.9656
-4.2536 -7.3777 -2.0015 0.9656
-3.5776 -7.7282 -2.0015 0.9656
-2.1453 -8.2415 -2.0015 0.9656
-1.4006 -8.4002 -2.0015 0.9656
-0.6446 -8.4917 -2.0015 0.9656
0.1165 -8.5153 -2.0015 0.9656
0.8768 -8.4709 -2.0015 0.9656
3.0913 -7.9353 -2.0015 0.9656
6.7139 -5.2391 -2.0015 0.9656
8.3194 -1.8202 -2.0015 0.9656
8.5105 -0.3107 -2.0015 0.9656
8.5042 0.4507 -2.0015 0.9656
8.2883 1.9568 -2.0015 0.9656
7.4728 4.0843 -2.0015 0.9656
6.6268 5.3488 -2.0015 0.9656
6.1225 5.9194 -2.0015 0.9656
5.5693 6.4427 -2.0015 0.9656
4.9715 6.9144 -2.0015 0.9656
4.3311 7.3261 -2.0002 0.9656
3.6490 7.6619 -1.9945 0.9657
2.8587 7.7109 -1.9328 0.9668
-0.0218 7.8685 -1.8493 0.9682
-2.1459 7.7201 -1.8832 0.9676
-3.6943 7.6477 -1.9961 0.9657
-4.3745 7.3068 -2.0015 0.9656
-5.0097 6.8868 -2.0015 0.9656
-5.6049 6.4117 -2.0015 0.9656
-6.1552 5.8854 -2.0015 0.9656
-6.6563 5.3121 -2.0015 0.9656
-7.4954 4.0428 -2.0015 0.9656
-7.8265 3.3571 -2.0015 0.9656
-8.0951 2.6446 -2.0015 0.9656
-8.4426 -1.1165 -2.0015 0.9656
-8.3091 -1.8662 -2.0015 0.9656
-7.5170 -4.0025 -2.0015 0.9656
-6.6848 -5.2762 -2.0015 0.9656
-4.4137 -7.2831 -2.0015 0.9656
-3.0473 -7.9523 -2.0015 0.9656
-0.8298 -8.4756 -2.0015 0.9656
-0.0694 -8.5159 -2.0015 0.9656
0.6916 -8.4880 -2.0015 0.9656
2.1910 -8.2295 -2.0015 0.9656
3.6204 -7.7083 -2.0015 0.9656
4.2945 -7.3541 -2.0015 0.9656
4.9342 -6.9410 -2.0015 0.9656
5.5345 -6.4725 -2.0015 0.9656
6.5980 -5.3844 -2.0015 0.9656
7.4508 -4.1244 -2.0015 0.9656
7.7894 -3.4424 -2.0015 0.9656
8.2776 -2.0014 -2.0015 0.9656
8.5017 -0.4965 -2.0015 0.9656
8.4543 1.0243 -2.0015 0.9656
8.1371 2.5123 -2.0015 0.9656
7.1798 4.5798 -2.0015 0.9656
6.2503 5.7844 -2.0015 0.9656
3.8179 7.5853 -1.9958 0.9657
3.0506 7.7081 -1.9483 0.9665
2.2815 7.7185 -1.8916 0.9675
0.1500 7.8671 -1.8493 0.9682
-0.5534 7.8491 -1.8493 0.9682
-1.9658 7.7221 -1.8727 0.9678
-3.5236 7.7202 -1.9945 0.9657
-4.8582 6.9945 -2.0015 0.9656
-7.0000 4.8502 -2.0015 0.9656
-7.7514 3.5272 -2.0015 0.9656
-8.0354 2.8206 -2.0015 0.9656
-8.4957 0.5892 -2.0015 0.9656
-8.5144 -0.1720 -2.0015 0.9656
-8.4650 -0.9319 -2.0015 0.9656
-8.3479 -1.6844 -2.0015 0.9656
-8.1641 -2.4233 -2.0015 0.9656
-7.9150 -3.1429 -2.0015 0.9656
-6.7984 -5.1290 -2.0015 0.9656
-6.3130 -5.7158 -2.0015 0.9656
-5.1952 -6.7479 -2.0015 0.9656
-3.9116 -7.5647 -2.0015 0.9656
-3.2202 -7.8839 -2.0015 0.9656
-1.0146 -8.4555 -2.0015 0.9656
-0.2553 -8.5123 -2.0015 0.9656
0.5061 -8.5011 -2.0015 0.9656
1.2635 -8.4219 -2.0015 0.9656
2.7420 -8.0627 -2.0015 0.9656
3.4512 -7.7855 -2.0015 0.9656
4.1329 -7.4461 -2.0015 0.9656
5.9592 -6.0838 -2.0015 0.9656
7.3590 -4.2861 -2.0015 0.9656
7.7124 -3.6116 -2.0015 0.9656
8.0042 -2.9082 -2.0015 0.9656
8.2320 -2.1816 -2.0015 0.9656
8.5158 0.0791 -2.0015 0.9656
8.4747 0.8395 -2.0015 0.9656
8.3658 1.5931 -2.0015 0.9656
8.1900 2.3341 -2.0015 0.9656
7.6440 3.7542 -2.0015 0.9656
6.8540 5.0545 -2.0015 0.9656
6.3751 5.6465 -2.0015 0.9656
5.8452 6.1934 -2.0015 0.9656
4.6498 7.1347 -2.0015 0.9656
3.9853 7.5053 -1.9972 0.9657
3.2457 7.7050 -1.9650 0.9662
2.4653 7.7163 -1.9038 0.9673
1.7256 7.7244 -1.8602 0.9680
1.0227 7.8018 -1.8493 0.9682
0.3217 7.8620 -1.8493 0.9682
-1.7877 7.7240 -1.8633 0.9679
-2.5303 7.7155 -1.9083 0.9672
-4.7043 7.0989 -2.0015 0.9656
-6.8925 5.0019 -2.0015 0.9656
-8.3778 1.5290 -2.0015 0.9656
-8.4808 0.7746 -2.0015 0.9656
-8.4833 -0.7469 -2.0015 0.9656
-7.9817 -2.9694 -2.0015 0.9656
-7.6845 -3.6705 -2.0015 0.9656
-7.3259 -4.3423 -2.0015 0.9656
-6.9087 -4.9794 -2.0015 0.9656
-6.4363 -5.5766 -2.0015 0.9656
-3.3915 -7.8117 -2.0015 0.9656
-2.6802 -8.0834 -2.0015 0.9656
-1.9474 -8.2905 -2.0015 0.9656
0.3204 -8.5101 -2.0015 0.9656
1.0793 -8.4475 -2.0015 0.9656
2.5653 -8.1206 -2.0015 0.9656
-6.6286 3.9773 -2.0015 0.9686
-6.9573 3.3692 -2.0015 0.9686
-7.4458 2.0775 -2.0015 0.9686
-7.6016 1.4040 -2.0015 0.9686
-7.7301 0.0290 -2.0015 0.9686
-7.4612 -2.0216 -2.0015 0.9686
-7.2508 -2.6800 -2.0015 0.9686
-6.9824 -3.3170 -2.0015 0.9686
-6.6581 -3.9275 -2.0015 0.9686
-6.2807 -4.5066 -2.0015 0.9686
-5.8530 -5.0496 -2.0015 0.9686
-4.8611 -6.0105 -2.0015 0.9686
-3.0935 -7.0842 -2.0015 0.9686
-0.4167 -7.7190 -2.0015 0.9686
1.6448 -7.5532 -2.0015 0.9686
2.3130 -7.3761 -2.0015 0.9686
2.9626 -7.1400 -2.0015 0.9686
3.5886 -6.8468 -2.0015 0.9686
4.1858 -6.4988 -2.0015 0.9686
7.4227 -2.1586 -2.0015 0.9686
7.5859 -1.4869 -2.0015 0.9686
7.7294 -0.1133 -2.0015 0.9686
7.7086 0.5776 -2.0015 0.9686
7.6262 1.2639 -2.0015 0.9686
7.4828 1.9400 -2.0015 0.9686
7.0182 3.2406 -2.0015 0.9686
6.7006 3.8546 -2.0015 0.9686
6.3295 4.4377 -2.0015 0.9686
4.3746 6.3733 -2.0015 0.9686
3.7878 6.7386 -2.0015 0.9686
2.5271 7.3019 -2.0006 0.9686
1.1843 7.6148 -1.9953 0.9687
-0.1895 7.6985 -1.9939 0.9687
-1.5583 7.5514 -1.9964 0.9686
-2.2298 7.3927 -1.9993 0.9686
-2.8845 7.1719 -2.0015 0.9686
-3.5136 6.8856 -2.0015 0.9686
-4.1146 6.5442 -2.0015 0.9686
-4.6828 6.1504 -2.0015 0.9686
-5.7025 5.2190 -2.0015 0.9686
-6.8821 3.5203 -2.0015 0.9686
-7.3987 2.2395 -2.0015 0.9686
-7.5692 1.5696 -2.0015 0.9686
-7.7145 -0.4934 -2.0015 0.9686
-7.6395 -1.1805 -2.0015 0.9686
-7.3075 -2.5211 -2.0015 0.9686
-7.0531 -3.1638 -2.0015 0.9686
-6.7423 -3.7812 -2.0015 0.9686
-2.6078 -7.2771 -2.0015 0.9686
-0.5851 -7.7080 -2.0015 0.9686
0.1058 -7.7295 -2.0015 0.9686
0.7958 -7.6891 -2.0015 0.9686
4.6153 -6.2012 -2.0015 0.9686
5.6451 -5.2810 -2.0015 0.9686
6.0943 -4.7556 -2.0015 0.9686
7.5516 -1.6522 -2.0015 0.9686
7.6690 -0.9710 -2.0015 0.9686
7.3346 2.4412 -2.0015 0.9686
7.0872 3.0866 -2.0015 0.9686
6.4249 4.2985 -2.0015 0.9686
6.0152 4.8552 -2.0015 0.9686
5.5575 5.3731 -2.0015 0.9686
5.0553 5.8481 -2.0015 0.9686
3.9340 6.6543 -2.0015 0.9686
3.3238 6.9791 -2.0015 0.9686
1.3506 7.5888 -1.9957 0.9687
0.6668 7.6736 -1.9943 0.9687
-1.3927 7.5817 -1.9959 0.9687
-2.0671 7.4368 -1.9985 0.9686
-3.3624 6.9606 -2.0015 0.9686
-3.9708 6.6324 -2.0015 0.9686
-4.5474 6.2512 -2.0015 0.9686
-5.5872 5.3423 -2.0015 0.9686
-6.4486 4.2628 -2.0015 0.9686
-6.8036 3.6697 -2.0015 0.9686
-7.5331 1.7345 -2.0015 0.9686
-7.6579 1.0547 -2.0015 0.9686
-7.7215 0.3664 -2.0015 0.9686
-7.5423 -1.6940 -2.0015 0.9686
-7.3608 -2.3610 -2.0015 0.9686
-7.1205 -3.0091 -2.0015 0.9686
-6.4714 -4.2281 -2.0015 0.9686
-4.0064 -6.6110 -2.0015 0.9686
-3.3998 -6.9424 -2.0015 0.9686
-1.4375 -7.5954 -2.0015 0.9686
-0.0630 -7.7300 -2.0015 0.9686
0.6278 -7.7047 -2.0015 0.9686
1.9888 -7.4700 -2.0015 0.9686
2.6481 -7.2625 -2.0015 0.9686
3.2863 -6.9969 -2.0015 0.9686
3.8981 -6.6754 -2.0015 0.9686
4.4789 -6.3005 -2.0015 0.9686
5.9890 -4.8875 -2.0015 0.9686
6.7632 -3.7438 -2.0015 0.9686
7.0706 -3.1247 -2.0015 0.9686
7.3214 -2.4806 -2.0015 0.9686
7.7265 0.2405 -2.0015 0.9686
7.5604 1.6116 -2.0015 0.9686
7.3862 2.2805 -2.0015 0.9686
6.1198 4.7227 -2.0015 0.9686
5.6735 5.2505 -2.0015 0.9686
5.1818 5.7363 -2.0015 0.9686
4.0783 6.5668 -2.0015 0.9686
3.4754 6.9049 -2.0015 0.9686
2.8447 7.1878 -2.0015 0.9686
1.5163 7.5594 -1.9962 0.9686
-0.5416 7.6828 -1.9942 0.9687
-1.2265 7.6085 -1.9954 0.9687
-3.2097 7.0324 -2.0015 0.9686
-3.8250 6.7175 -2.0015 0.9686
-4.9593 5.9297 -2.0015 0.9686
-5.4692 5.4630 -2.0015 0.9686
-5.9353 4.9526 -2.0015 0.9686
-6.3540 4.4026 -2.0015 0.9686
-6.7219 3.8174 -2.0015 0.9686
-7.0360 3.2017 -2.0015 0.9686
-7.6331 1.2216 -2.0015 0.9686
-7.6838 -0.8459 -2.0015 0.9686
-7.5775 -1.5289 -2.0015 0.9686
-6.9009 -3.4833 -2.0015 0.9686
-6.1710 -4.6557 -2.0015 0.9686
-5.7304 -5.1883 -2.0015 0.9686
-5.2441 -5.6794 -2.0015 0.9686
-4.7158 -6.1252 -2.0015 0.9686
-3.5506 -6.8666 -2.0015 0.9686
-2.2720 -7.3888 -2.0015 0.9686
-1.6029 -7.5622 -2.0015 0.9686
-0.9210 -7.6752 -2.0015 0.9686
1.1469 -7.6447 -2.0015 0.9686
1.8252 -7.5116 -2.0015 0.9686
2.4889 -7.3186 -2.0015 0.9686
3.7515 -6.7589 -2.0015 0.9686
4.3402 -6.3967 -2.0015 0.9686
4.8943 -5.9835 -2.0015 0.9686
5.8809 -5.0171 -2.0015 0.9686
6.3056 -4.4717 -2.0015 0.9686
6.6798 -3.8905 -2.0015 0.9686
7.2655 -2.6398 -2.0015 0.9686
7.4723 -1.9803 -2.0015 0.9686
7.6193 -1.3048 -2.0015 0.9686
7.7054 -0.6190 -2.0015 0.9686
7.7299 0.0718 -2.0015 0.9686
7.4342 2.1187 -2.0015 0.9686
6.6064 4.0139 -2.0015 0.9686
6.2214 4.5880 -2.0015 0.9686
5.7867 5.1254 -2.0015 0.9686
5.3058 5.6218 -2.0015 0.9686
4.7824 6.0733 -2.0015 0.9686
3.6253 6.8274 -2.0015 0.9686
3.0009 7.1239 -2.0015 0.9686
2.3504 7.3569 -1.9997 0.9686
1.0014 7.6394 -1.9949 0.9687
0.3149 7.6947 -1.9940 0.9687
-0.3738 7.6922 -1.9940 0.9687
-1.0599 7.6320 -1.9950 0.9687
-1.7394 7.5150 -1.9972 0.9686
-4.2702 6.4437 -2.0015 0.9686
-5.3486 5.5811 -2.0015 0.9686
-6.2564 4.5403 -2.0015 0.9686
-6.9644 3.3545 -2.0015 0.9686
-7.4502 2.0617 -2.0015 0.9686
-7.6046 1.3879 -2.0015 0.9686
-7.6982 0.7031 -2.0015 0.9686
-7.7302 0.0126 -2.0015 0.9686
-7.6091 -1.3631 -2.0015 0.9686
-7.4569 -2.0374 -2.0015 0.9686
-6.9753 -3.3318 -2.0015 0.9686
-6.2712 -4.5198 -2.0015 0.9686
-4.2912 -6.4298 -2.0015 0.9686
-2.4328 -7.3374 -2.0015 0.9686
-1.0884 -7.6532 -2.0015 0.9686
-0.4003 -7.7198 -2.0015 0.9686
0.2909 -7.7247 -2.0015 0.9686
1.6608 -7.5497 -2.0015 0.9686
2.3285 -7.3712 -2.0015 0.9686
-6.0625 3.6376 -2.0015 0.9710
-6.3632 3.0815 -2.0015 0.9710
-7.0700 0.0265 -2.0015 0.9710
-6.8240 -1.8490 -2.0015 0.9710
-6.3861 -3.0337 -2.0015 0.9710
-6.0896 -3.5921 -2.0015 0.9710
-5.7444 -4.1217 -2.0015 0.9710
-5.3532 -4.6184 -2.0015 0.9710
-4.9192 -5.0781 -2.0015 0.9710
-4.4460 -5.4972 -2.0015 0.9710
-3.9371 -5.8724 -2.0015 0.9710
-2.2392 -6.7061 -2.0015 0.9710
-1.6312 -6.8793 -2.0015 0.9710
-0.3811 -7.0598 -2.0015 0.9710
0.8812 -7.0149 -2.0015 0.9710
1.5044 -6.9082 -2.0015 0.9710
2.1154 -6.7462 -2.0015 0.9710
2.7096 -6.5302 -2.0015 0.9710
3.2821 -6.2621 -2.0015 0.9710
4.3440 -5.5781 -2.0015 0.9710
4.8249 -5.1678 -2.0015 0.9710
5.2673 -4.7161 -2.0015 0.9710
5.6675 -4.2267 -2.0015 0.9710
6.9381 -1.3600 -2.0015 0.9710
7.0318 -0.7347 -2.0015 0.9710
7.0693 -0.1037 -2.0015 0.9710
6.9749 1.1559 -2.0015 0.9710
6.8438 1.7744 -2.0015 0.9710
6.6579 2.3786 -2.0015 0.9710
6.1284 3.5254 -2.0015 0.9710
5.7890 4.0587 -2.0015 0.9710
5.4033 4.5596 -2.0015 0.9710
4.9744 5.0241 -2.0015 0.9710
4.5057 5.4484 -2.0015 0.9710
2.8999 6.4480 -2.0015 0.9710
1.7063 6.8611 -2.0015 0.9710
1.0865 6.9861 -2.0015 0.9710
-1.4289 6.9242 -2.0015 0.9710
-2.6381 6.5594 -2.0015 0.9710
-5.2155 4.7733 -2.0015 0.9710
-6.2944 3.2197 -2.0015 0.9710
-6.5569 2.6445 -2.0015 0.9710
-6.7669 2.0483 -2.0015 0.9710
-6.9228 1.4356 -2.0015 0.9710
-7.0233 0.8115 -2.0015 0.9710
-7.0678 0.1808 -2.0015 0.9710
-6.8628 -1.6996 -2.0015 0.9710
-6.6835 -2.3058 -2.0015 0.9710
-6.4508 -2.8936 -2.0015 0.9710
-6.1665 -3.4583 -2.0015 0.9710
-5.8330 -3.9953 -2.0015 0.9710
-5.4528 -4.5004 -2.0015 0.9710
-5.0289 -4.9695 -2.0015 0.9710
-4.0644 -5.7850 -2.0015 0.9710
-1.1627 -6.9738 -2.0015 0.9710
0.0968 -7.0694 -2.0015 0.9710
0.7279 -7.0325 -2.0015 0.9710
1.3532 -6.9394 -2.0015 0.9710
2.5664 -6.5878 -2.0015 0.9710
3.1446 -6.3322 -2.0015 0.9710
3.6977 -6.0260 -2.0015 0.9710
4.2212 -5.6716 -2.0015 0.9710
4.7110 -5.2719 -2.0015 0.9710
5.1631 -4.8300 -2.0015 0.9710
5.5739 -4.3495 -2.0015 0.9710
5.9401 -3.8342 -2.0015 0.9710
6.2589 -3.2882 -2.0015 0.9710
6.7441 -2.1220 -2.0015 0.9710
7.0141 -0.8881 -2.0015 0.9710
7.0654 -0.2580 -2.0015 0.9710
7.0602 0.3742 -2.0015 0.9710
6.8809 1.6245 -2.0015 0.9710
6.4820 2.8230 -2.0015 0.9710
6.2039 3.3908 -2.0015 0.9710
5.5016 4.4406 -2.0015 0.9710
4.6236 5.3487 -2.0015 0.9710
2.4576 6.6292 -2.0015 0.9710
1.2388 6.9607 -2.0015 0.9710
-0.0196 7.0701 -2.0015 0.9710
-0.6511 7.0400 -2.0015 0.9710
-1.2773 6.9537 -2.0015 0.9710
-2.4943 6.6155 -2.0015 0.9710
-3.6317 6.0660 -2.0015 0.9710
-4.1590 5.7174 -2.0015 0.9710
-5.1100 4.8861 -2.0015 0.9710
-6.7206 2.1955 -2.0015 0.9710
-7.0040 0.9646 -2.0015 0.9710
-7.0621 0.3351 -2.0015 0.9710
-7.0638 -0.2971 -2.0015 0.9710
-6.5124 -2.7521 -2.0015 0.9710
-6.2406 -3.3228 -2.0015 0.9710
-5.9188 -3.8670 -2.0015 0.9710
-5.5497 -4.3803 -2.0015 0.9710
-5.1362 -4.8585 -2.0015 0.9710
-4.6817 -5.2979 -2.0015 0.9710
-4.1897 -5.6949 -2.0015 0.9710
-3.1095 -6.3496 -2.0015 0.9710
-2.5298 -6.6020 -2.0015 0.9710
-1.3147 -6.9468 -2.0015 0.9710
-0.6889 -7.0364 -2.0015 0.9710
0.5742 -7.0467 -2.0015 0.9710
1.2014 -6.9673 -2.0015 0.9710
2.4220 -6.6423 -2.0015 0.9710
3.0056 -6.3994 -2.0015 0.9710
3.5652 -6.1053 -2.0015 0.9710
5.4776 -4.4701 -2.0015 0.9710
6.4668 -2.8578 -2.0015 0.9710
6.9930 -1.0410 -2.0015 0.9710
7.0581 -0.4122 -2.0015 0.9710
7.0667 0.2200 -2.0015 0.9710
6.7554 2.0857 -2.0015 0.9710
6.5421 2.6808 -2.0015 0.9710
5.5972 4.3194 -2.0015 0.9710
4.7393 5.2465 -2.0015 0.9710
4.2516 5.6489 -2.0015 0.9710
3.1786 6.3153 -2.0015 0.9710
2.6018 6.5740 -2.0015 0.9710
2.0041 6.7801 -2.0015 0.9710
0.7657 7.0285 -2.0015 0.9710
0.1348 7.0688 -2.0015 0.9710
-1.1252 6.9800 -2.0015 0.9710
-3.4984 6.1439 -2.0015 0.9710
-4.0332 5.8068 -2.0015 0.9710
-4.5358 5.4233 -2.0015 0.9710
-5.4285 4.5296 -2.0015 0.9710
-5.8114 4.0266 -2.0015 0.9710
-6.8535 1.7364 -2.0015 0.9710
-6.9812 1.1173 -2.0015 0.9710
-6.9304 -1.3984 -2.0015 0.9710
-5.6440 -4.2581 -2.0015 0.9710
-4.7963 -5.1944 -2.0015 0.9710
-3.7954 -5.9650 -2.0015 0.9710
-3.2474 -6.2802 -2.0015 0.9710
-2.6734 -6.5452 -2.0015 0.9710
-0.8423 -7.0197 -2.0015 0.9710
-0.2119 -7.0669 -2.0015 0.9710
1.0490 -6.9918 -2.0015 0.9710
2.2764 -6.6936 -2.0015 0.9710
2.8652 -6.4635 -2.0015 0.9710
4.4764 -5.4725 -2.0015 0.9710
4.9473 -5.0508 -2.0015 0.9710
6.1094 -3.5583 -2.0015 0.9710
6.4028 -2.9983 -2.0015 0.9710
6.6451 -2.4144 -2.0015 0.9710
6.8342 -1.8111 -2.0015 0.9710
6.9686 -1.1934 -2.0015 0.9710
7.0474 -0.5661 -2.0015 0.9710
7.0698 0.0656 -2.0015 0.9710
7.0356 0.6969 -2.0015 0.9710
6.9453 1.3226 -2.0015 0.9710
6.7994 1.9377 -2.0015 0.9710
6.5991 2.5374 -2.0015 0.9710
6.0423 3.6711 -2.0015 0.9710
5.6902 4.1962 -2.0015 0.9710
1.5415 6.9000 -2.0015 0.9710
0.9189 7.0101 -2.0015 0.9710
-0.3431 7.0618 -2.0015 0.9710
-1.5942 6.8880 -2.0015 0.9710
-3.3634 6.2188 -2.0015 0.9710
-4.4164 5.5211 -2.0015 0.9710
-5.7221 4.1525 -2.0015 0.9710
-6.0702 3.6248 -2.0015 0.9710
-6.6183 2.4868 -2.0015 0.9710
-7.0408 0.6430 -2.0015 0.9710
-7.0428 -0.6201 -2.0015 0.9710
-6.8201 -1.8634 -2.0015 0.9710
-6.6264 -2.4652 -2.0015 0.9710
-6.3797 -3.0473 -2.0015 0.9710
-5.7356 -4.1338 -2.0015 0.9710
-5.3434 -4.6297 -2.0015 0.9710
-4.9085 -5.0885 -2.0015 0.9710
-4.4343 -5.5066 -2.0015 0.9710
-3.9247 -5.8807 -2.0015 0.9710
-2.2251 -6.7108 -2.0015 0.9710
-1.6167 -6.8828 -2.0015 0.9710
-0.9954 -6.9997 -2.0015 0.9710
-0.3662 -7.0606 -2.0015 0.9710
0.2660 -7.0651 -2.0015 0.9710
0.8961 -7.0131 -2.0015 0.9710
1.5190 -6.9050 -2.0015 0.9710
2.1297 -6.7417 -2.0015 0.9710
-5.5799 3.3480 -2.0015 0.9731
-5.8566 2.8362 -2.0015 0.9731
-6.0866 2.3017 -2.0015 0.9731
-6.2679 1.7488 -2.0015 0.9731
-6.3990 1.1819 -2.0015 0.9731
-6.5072 0.0244 -2.0015 0.9731
-6.4834 -0.5570 -2.0015 0.9731
-6.1036 -2.2560 -2.0015 0.9731
-5.8777 -2.7922 -2.0015 0.9731
-5.2871 -3.7936 -2.0015 0.9731
-4.5276 -4.6738 -2.0015 0.9731
-4.0920 -5.0596 -2.0015 0.9731
-0.9298 -6.4405 -2.0015 0.9731
3.5236 -5.4707 -2.0015 0.9731
3.9982 -5.1341 -2.0015 0.9731
4.4408 -4.7564 -2.0015 0.9731
4.8480 -4.3407 -2.0015 0.9731
5.2163 -3.8903 -2.0015 0.9731
5.8253 -2.9000 -2.0015 0.9731
6.4720 -0.6763 -2.0015 0.9731
6.5066 -0.0954 -2.0015 0.9731
6.2990 1.6331 -2.0015 0.9731
5.9079 2.7279 -2.0015 0.9731
5.3282 3.7356 -2.0015 0.9731
4.9732 4.1967 -2.0015 0.9731
4.5784 4.6241 -2.0015 0.9731
3.6825 5.3650 -2.0015 0.9731
3.1885 5.6725 -2.0015 0.9731
1.5704 6.3149 -2.0015 0.9731
1.0001 6.4299 -2.0015 0.9731
0.4217 6.4936 -2.0015 0.9731
-0.1601 6.5053 -2.0015 0.9731
-1.3151 6.3730 -2.0015 0.9731
-1.8791 6.2300 -2.0015 0.9731
-2.9577 5.7962 -2.0015 0.9731
-3.4637 5.5088 -2.0015 0.9731
-4.3886 4.8046 -2.0015 0.9731
-4.8003 4.3933 -2.0015 0.9731
-5.1736 3.9470 -2.0015 0.9731
-5.5055 3.4690 -2.0015 0.9731
-5.7933 2.9634 -2.0015 0.9731
-6.3717 1.3213 -2.0015 0.9731
-6.4642 0.7469 -2.0015 0.9731
-6.5051 0.1664 -2.0015 0.9731
-6.4940 -0.4153 -2.0015 0.9731
-6.3164 -1.5643 -2.0015 0.9731
-5.9373 -2.6633 -2.0015 0.9731
-5.6756 -3.1830 -2.0015 0.9731
-5.0187 -4.1421 -2.0015 0.9731
-4.6286 -4.5739 -2.0015 0.9731
-4.2015 -4.9691 -2.0015 0.9731
-3.7408 -5.3245 -2.0015 0.9731
-3.2503 -5.6374 -2.0015 0.9731
-2.7337 -5.9052 -2.0015 0.9731
-2.1952 -6.1258 -2.0015 0.9731
-1.6393 -6.2974 -2.0015 0.9731
-0.4925 -6.4886 -2.0015 0.9731
0.6699 -6.4727 -2.0015 0.9731
1.8110 -6.2502 -2.0015 0.9731
2.3621 -6.0634 -2.0015 0.9731
3.4033 -5.5463 -2.0015 0.9731
4.3359 -4.8522 -2.0015 0.9731
4.7521 -4.4455 -2.0015 0.9731
5.1302 -4.0032 -2.0015 0.9731
5.7606 -3.0264 -2.0015 0.9731
6.0080 -2.4998 -2.0015 0.9731
6.4557 -0.8174 -2.0015 0.9731
6.5029 -0.2374 -2.0015 0.9731
6.4981 0.3444 -2.0015 0.9731
6.3331 1.4952 -2.0015 0.9731
6.1743 2.0550 -2.0015 0.9731
5.9660 2.5983 -2.0015 0.9731
5.4085 3.6184 -2.0015 0.9731
4.6783 4.5231 -2.0015 0.9731
3.7987 5.2834 -2.0015 0.9731
3.3116 5.6016 -2.0015 0.9731
2.7980 5.8750 -2.0015 0.9731
-0.5992 6.4796 -2.0015 0.9731
-1.1757 6.4002 -2.0015 0.9731
-3.3426 5.5831 -2.0015 0.9731
-3.8280 5.2622 -2.0015 0.9731
-4.7032 4.4971 -2.0015 0.9731
-5.4284 3.5884 -2.0015 0.9731
-6.1855 2.0207 -2.0015 0.9731
-6.4464 0.8878 -2.0015 0.9731
-6.4999 0.3084 -2.0015 0.9731
-6.5015 -0.2735 -2.0015 0.9731
-6.4511 -0.8531 -2.0015 0.9731
-6.1963 -1.9874 -2.0015 0.9731
-5.9940 -2.5330 -2.0015 0.9731
-5.7438 -3.0583 -2.0015 0.9731
-5.1079 -4.0316 -2.0015 0.9731
-4.7273 -4.4717 -2.0015 0.9731
-4.3090 -4.8761 -2.0015 0.9731
-3.8562 -5.2416 -2.0015 0.9731
-3.3726 -5.5651 -2.0015 0.9731
-1.7763 -6.2601 -2.0015 0.9731
-1.2101 -6.3938 -2.0015 0.9731
-0.6341 -6.4763 -2.0015 0.9731
-0.0530 -6.5070 -2.0015 0.9731
1.1057 -6.4126 -2.0015 0.9731
3.2814 -5.6193 -2.0015 0.9731
4.6539 -4.5482 -2.0015 0.9731
6.3250 -1.5293 -2.0015 0.9731
6.4962 -0.3794 -2.0015 0.9731
6.5041 0.2025 -2.0015 0.9731
6.4600 0.7826 -2.0015 0.9731
6.3643 1.3566 -2.0015 0.9731
5.7768 2.9954 -2.0015 0.9731
5.1516 3.9756 -2.0015 0.9731
3.4331 5.5279 -2.0015 0.9731
2.9256 5.8125 -2.0015 0.9731
1.8446 6.2403 -2.0015 0.9731
1.2798 6.3802 -2.0015 0.9731
0.7047 6.4690 -2.0015 0.9731
0.1240 6.5061 -2.0015 0.9731
-1.0356 6.4243 -2.0015 0.9731
-2.7019 5.9198 -2.0015 0.9731
-3.7122 5.3445 -2.0015 0.9731
-4.1747 4.9916 -2.0015 0.9731
-4.9963 4.1690 -2.0015 0.9731
-5.9229 2.6951 -2.0015 0.9731
-6.1400 2.1553 -2.0015 0.9731
-6.5059 -0.1315 -2.0015 0.9731
-6.4682 -0.7121 -2.0015 0.9731
-6.2382 -1.8517 -2.0015 0.9731
-5.1947 -3.9191 -2.0015 0.9731
-4.8238 -4.3675 -2.0015 0.9731
-3.9697 -5.1561 -2.0015 0.9731
-3.4932 -5.4901 -2.0015 0.9731
-2.9888 -5.7802 -2.0015 0.9731
-2.4605 -6.0241 -2.0015 0.9731
-1.3493 -6.3658 -2.0015 0.9731
0.3867 -6.4957 -2.0015 0.9731
0.9655 -6.4352 -2.0015 0.9731
1.5365 -6.3233 -2.0015 0.9731
2.0952 -6.1607 -2.0015 0.9731
3.1580 -5.6896 -2.0015 0.9731
3.6536 -5.3847 -2.0015 0.9731
5.3080 -3.7642 -2.0015 0.9731
5.6230 -3.2750 -2.0015 0.9731
6.1161 -2.2222 -2.0015 0.9731
6.2901 -1.6670 -2.0015 0.9731
6.4139 -1.0984 -2.0015 0.9731
6.4864 -0.5211 -2.0015 0.9731
6.4756 0.6414 -2.0015 0.9731
6.0737 2.3354 -2.0015 0.9731
5.2372 3.8622 -2.0015 0.9731
4.4664 4.7324 -2.0015 0.9731
4.0258 5.1125 -2.0015 0.9731
3.0518 5.7473 -2.0015 0.9731
2.5262 5.9969 -2.0015 0.9731
0.8458 6.4520 -2.0015 0.9731
-2.0278 6.1832 -2.0015 0.9731
-3.5946 5.4243 -2.0015 0.9731
-4.5025 4.6981 -2.0015 0.9731
-5.8626 2.8238 -2.0015 0.9731
-6.0914 2.2888 -2.0015 0.9731
-6.2715 1.7355 -2.0015 0.9731
-6.4015 1.1684 -2.0015 0.9731
-6.5072 0.0106 -2.0015 0.9731
-6.4822 -0.5707 -2.0015 0.9731
-6.2772 -1.7151 -2.0015 0.9731
-6.0989 -2.2689 -2.0015 0.9731
-5.8718 -2.8047 -2.0015 0.9731
-5.5978 -3.3180 -2.0015 0.9731
-5.2790 -3.8048 -2.0015 0.9731
-4.5178 -4.6834 -2.0015 0.9731
-4.0813 -5.0682 -2.0015 0.9731
-2.5915 -5.9690 -2.0015 0.9731
-2.0479 -6.1766 -2.0015 0.9731
-0.9162 -6.4424 -2.0015 0.9731
0.8247 -6.4548 -2.0015 0.9731
1.9601 -6.2050 -2.0015 0.9731
-5.4192 2.6244 -2.0015 0.9749
-5.7997 1.6182 -2.0015 0.9749
-5.9211 1.0936 -2.0015 0.9749
-5.9951 0.5603 -2.0015 0.9749
-6.0212 0.0226 -2.0015 0.9749
-5.9991 -0.5154 -2.0015 0.9749
-5.9291 -1.0492 -2.0015 0.9749
-5.1862 -3.0592 -2.0015 0.9749
-4.8922 -3.5102 -2.0015 0.9749
-4.5590 -3.9332 -2.0015 0.9749
-4.1895 -4.3248 -2.0015 0.9749
-3.7864 -4.6817 -2.0015 0.9749
-3.3531 -5.0012 -2.0015 0.9749
-0.8603 -5.9594 -2.0015 0.9749
-0.3246 -6.0125 -2.0015 0.9749
0.2138 -6.0174 -2.0015 0.9749
2.3076 -5.5615 -2.0015 0.9749
3.2604 -5.0621 -2.0015 0.9749
4.4859 -4.0165 -2.0015 0.9749
4.8267 -3.5997 -2.0015 0.9749
5.3902 -2.6834 -2.0015 0.9749
5.9088 -1.1582 -2.0015 0.9749
5.9886 -0.6257 -2.0015 0.9749
6.0206 -0.0883 -2.0015 0.9749
5.8285 1.5111 -2.0015 0.9749
5.4666 2.5242 -2.0015 0.9749
4.9302 3.4566 -2.0015 0.9749
4.6017 3.8832 -2.0015 0.9749
3.8373 4.6401 -2.0015 0.9749
3.4075 4.9643 -2.0015 0.9749
2.9504 5.2489 -2.0015 0.9749
2.4697 5.4914 -2.0015 0.9749
1.9693 5.6901 -2.0015 0.9749
1.4531 5.8433 -2.0015 0.9749
0.9254 5.9497 -2.0015 0.9749
0.3902 6.0086 -2.0015 0.9749
-0.6852 5.9821 -2.0015 0.9749
-1.7388 5.7647 -2.0015 0.9749
-3.6475 4.7907 -2.0015 0.9749
-4.4418 4.0652 -2.0015 0.9749
-4.7871 3.6522 -2.0015 0.9749
-5.0943 3.2099 -2.0015 0.9749
-5.5841 2.2522 -2.0015 0.9749
-6.0193 0.1540 -2.0015 0.9749
-6.0089 -0.3843 -2.0015 0.9749
-5.9506 -0.9196 -2.0015 0.9749
-5.6920 -1.9637 -2.0015 0.9749
-5.4938 -2.4643 -2.0015 0.9749
-4.6438 -3.8328 -2.0015 0.9749
-4.2829 -4.2323 -2.0015 0.9749
-3.8877 -4.5979 -2.0015 0.9749
-1.5168 -5.8270 -2.0015 0.9749
0.0824 -6.0207 -2.0015 0.9749
0.6199 -5.9892 -2.0015 0.9749
2.6781 -5.3929 -2.0015 0.9749
4.3971 -4.1135 -2.0015 0.9749
4.7470 -3.7042 -2.0015 0.9749
6.0172 -0.2197 -2.0015 0.9749
5.9603 0.8545 -2.0015 0.9749
5.8601 1.3835 -2.0015 0.9749
5.7131 1.9015 -2.0015 0.9749
5.5204 2.4042 -2.0015 0.9749
5.0045 3.3482 -2.0015 0.9749
4.6854 3.7818 -2.0015 0.9749
3.9377 4.5552 -2.0015 0.9749
3.5150 4.8887 -2.0015 0.9749
1.5804 5.8101 -2.0015 0.9749
1.0550 5.9281 -2.0015 0.9749
0.5213 5.9986 -2.0015 0.9749
-0.0167 6.0212 -2.0015 0.9749
-0.5545 5.9956 -2.0015 0.9749
-1.0879 5.9221 -2.0015 0.9749
-2.1243 5.6341 -2.0015 0.9749
-3.0929 5.1661 -2.0015 0.9749
-3.5421 4.8692 -2.0015 0.9749
-4.3520 4.1612 -2.0015 0.9749
-4.7063 3.7558 -2.0015 0.9749
-5.0230 3.3204 -2.0015 0.9749
-5.2995 2.8584 -2.0015 0.9749
-5.7235 1.8698 -2.0015 0.9749
-5.9649 0.8215 -2.0015 0.9749
-6.0159 -0.2530 -2.0015 0.9749
-5.8749 -1.3195 -2.0015 0.9749
-4.7264 -3.7305 -2.0015 0.9749
-4.3743 -4.1377 -2.0015 0.9749
-3.9872 -4.5120 -2.0015 0.9749
-3.5682 -4.8501 -2.0015 0.9749
-3.1207 -5.1494 -2.0015 0.9749
-2.6482 -5.4076 -2.0015 0.9749
-1.6437 -5.7925 -2.0015 0.9749
-0.5867 -5.9926 -2.0015 0.9749
-0.0491 -6.0210 -2.0015 0.9749
0.4890 -6.0013 -2.0015 0.9749
1.0231 -5.9337 -2.0015 0.9749
2.0627 -5.6569 -2.0015 0.9749
2.5597 -5.4500 -2.0015 0.9749
3.0363 -5.1996 -2.0015 0.9749
3.4887 -4.9076 -2.0015 0.9749
4.6650 -3.8070 -2.0015 0.9749
4.9864 -3.3750 -2.0015 0.9749
5.5074 -2.4339 -2.0015 0.9749
5.8526 -1.4150 -2.0015 0.9749
5.9556 -0.8866 -2.0015 0.9749
6.0110 -0.3510 -2.0015 0.9749
5.9775 0.7242 -2.0015 0.9749
5.7533 1.7763 -2.0015 0.9749
5.5716 2.2831 -2.0015 0.9749
5.3454 2.7717 -2.0015 0.9749
5.0764 3.2381 -2.0015 0.9749
3.6209 4.8108 -2.0015 0.9749
3.1767 5.1151 -2.0015 0.9749
1.7068 5.7743 -2.0015 0.9749
1.1842 5.9036 -2.0015 0.9749
0.6521 5.9858 -2.0015 0.9749
0.1148 6.0201 -2.0015 0.9749
-0.4235 6.0063 -2.0015 0.9749
-0.9583 5.9445 -2.0015 0.9749
-1.4855 5.8351 -2.0015 0.9749
-2.0008 5.6791 -2.0015 0.9749
-2.5001 5.4777 -2.0015 0.9749
-2.9794 5.2324 -2.0015 0.9749
-4.2601 4.2552 -2.0015 0.9749
-4.6232 3.8577 -2.0015 0.9749
-5.2358 2.9734 -2.0015 0.9749
-5.4805 2.4938 -2.0015 0.9749
-5.6814 1.9943 -2.0015 0.9749
-5.8368 1.4788 -2.0015 0.9749
-5.9456 0.9515 -2.0015 0.9749
-6.0068 0.4166 -2.0015 0.9749
-5.9851 -0.6589 -2.0015 0.9749
-5.5962 -2.2222 -2.0015 0.9749
-3.2323 -5.0801 -2.0015 0.9749
-1.7697 -5.7553 -2.0015 0.9749
-1.2486 -5.8904 -2.0015 0.9749
0.3579 -6.0106 -2.0015 0.9749
3.3807 -4.9826 -2.0015 0.9749
3.8123 -4.6607 -2.0015 0.9749
4.2134 -4.3015 -2.0015 0.9749
4.5808 -3.9079 -2.0015 0.9749
5.2031 -3.0304 -2.0015 0.9749
5.4530 -2.5535 -2.0015 0.9749
5.6593 -2.0562 -2.0015 0.9749
5.9348 -1.0164 -2.0015 0.9749
5.9919 0.5935 -2.0015 0.9749
5.7907 1.6503 -2.0015 0.9749
5.6201 2.1609 -2.0015 0.9749
5.4046 2.6543 -2.0015 0.9749
5.1459 3.1265 -2.0015 0.9749
3.7251 4.7306 -2.0015 0.9749
3.2876 5.0445 -2.0015 0.9749
2.8238 5.3180 -2.0015 0.9749
1.3128 5.8764 -2.0015 0.9749
-0.2922 6.0141 -2.0015 0.9749
-1.3577 5.8662 -2.0015 0.9749
-1.8763 5.7214 -2.0015 0.9749
-2.8645 5.2962 -2.0015 0.9749
-3.3261 5.0192 -2.0015 0.9749
-4.1662 4.3472 -2.0015 0.9749
-4.5378 3.9577 -2.0015 0.9749
-5.1697 3.0870 -2.0015 0.9749
-5.8031 1.6059 -2.0015 0.9749
-5.9963 0.5476 -2.0015 0.9749
-5.9980 -0.5281 -2.0015 0.9749
-5.9269 -1.0618 -2.0015 0.9749
-5.8083 -1.5870 -2.0015 0.9749
-5.4332 -2.5952 -2.0015 0.9749
-4.5507 -3.9429 -2.0015 0.9749
-3.3425 -5.0083 -2.0015 0.9749
-2.3979 -5.5231 -2.0015 0.9749
-1.3769 -5.8617 -2.0015 0.9749
-0.8477 -5.9612 -2.0015 0.9749
0.7631 -5.9727 -2.0015 0.9749
1.2936 -5.8806 -2.0015 0.9749
-5.0373 2.4394 -2.0015 0.9765
-5.2351 1.9797 -2.0015 0.9765
-5.5968 0.0210 -2.0015 0.9765
-5.5113 -0.9753 -2.0015 0.9765
-4.8207 -2.8436 -2.0015 0.9765
-4.5474 -3.2629 -2.0015 0.9765
-3.8942 -4.0200 -2.0015 0.9765
-3.5196 -4.3518 -2.0015 0.9765
-3.1167 -4.6488 -2.0015 0.9765
-1.2913 -5.4459 -2.0015 0.9765
-0.7997 -5.5395 -2.0015 0.9765
-0.3017 -5.5888 -2.0015 0.9765
0.6976 -5.5532 -2.0015 0.9765
1.1909 -5.4687 -2.0015 0.9765
3.0307 -4.7054 -2.0015 0.9765
3.8196 -4.0910 -2.0015 0.9765
4.4866 -3.3460 -2.0015 0.9765
5.0104 -2.4943 -2.0015 0.9765
5.3743 -1.5629 -2.0015 0.9765
5.4924 -1.0766 -2.0015 0.9765
5.5666 -0.5816 -2.0015 0.9765
5.4178 1.4046 -2.0015 0.9765
5.2706 1.8830 -2.0015 0.9765
4.5828 3.2130 -2.0015 0.9765
4.2774 3.6096 -2.0015 0.9765
3.9379 3.9772 -2.0015 0.9765
3.5669 4.3131 -2.0015 0.9765
3.1673 4.6145 -2.0015 0.9765
2.7424 4.8790 -2.0015 0.9765
1.8305 5.2891 -2.0015 0.9765
1.3507 5.4315 -2.0015 0.9765
0.8601 5.5304 -2.0015 0.9765
-0.1377 5.5952 -2.0015 0.9765
-1.6162 5.3584 -2.0015 0.9765
-2.0884 5.1927 -2.0015 0.9765
-2.5439 4.9853 -2.0015 0.9765
-2.9791 4.7381 -2.0015 0.9765
-3.3904 4.4531 -2.0015 0.9765
-3.7747 4.1324 -2.0015 0.9765
-4.1287 3.7787 -2.0015 0.9765
-4.4498 3.3948 -2.0015 0.9765
-4.7352 2.9837 -2.0015 0.9765
-4.9829 2.5488 -2.0015 0.9765
-5.1906 2.0935 -2.0015 0.9765
-5.4803 1.1365 -2.0015 0.9765
-5.5599 0.6424 -2.0015 0.9765
-5.2909 -1.8254 -2.0015 0.9765
-5.1067 -2.2907 -2.0015 0.9765
-4.8816 -2.7377 -2.0015 0.9765
-3.9811 -3.9340 -2.0015 0.9765
-3.2175 -4.5796 -2.0015 0.9765
-2.7955 -4.8487 -2.0015 0.9765
-1.4099 -5.4164 -2.0015 0.9765
-0.9205 -5.5207 -2.0015 0.9765
0.0766 -5.5964 -2.0015 0.9765
1.0712 -5.4934 -2.0015 0.9765
3.3416 -4.4898 -2.0015 0.9765
3.7294 -4.1734 -2.0015 0.9765
5.1675 -2.1500 -2.0015 0.9765
5.4676 -1.1962 -2.0015 0.9765
5.5526 -0.7030 -2.0015 0.9765
5.5932 -0.2042 -2.0015 0.9765
5.4471 1.2860 -2.0015 0.9765
5.1314 2.2348 -2.0015 0.9765
4.9112 2.6842 -2.0015 0.9765
4.6518 3.1122 -2.0015 0.9765
4.3552 3.5153 -2.0015 0.9765
3.2673 4.5442 -2.0015 0.9765
2.8483 4.8179 -2.0015 0.9765
2.4065 5.0531 -2.0015 0.9765
0.9807 5.5103 -2.0015 0.9765
0.4845 5.5759 -2.0015 0.9765
-0.5154 5.5731 -2.0015 0.9765
-1.4989 5.3925 -2.0015 0.9765
-2.4345 5.0397 -2.0015 0.9765
-3.6836 4.2139 -2.0015 0.9765
-4.6690 3.0864 -2.0015 0.9765
-4.9260 2.6570 -2.0015 0.9765
-5.1437 2.2063 -2.0015 0.9765
-5.3202 1.7380 -2.0015 0.9765
-5.4542 1.2558 -2.0015 0.9765
-5.5446 0.7636 -2.0015 0.9765
-5.5486 -0.7338 -2.0015 0.9765
-5.3295 -1.7094 -2.0015 0.9765
-5.1554 -2.1786 -2.0015 0.9765
-2.9007 -4.7865 -2.0015 0.9765
-2.4616 -5.0265 -2.0015 0.9765
-1.0408 -5.4993 -2.0015 0.9765
-0.5454 -5.5703 -2.0015 0.9765
-0.0456 -5.5967 -2.0015 0.9765
1.9173 -5.2583 -2.0015 0.9765
3.2428 -4.5617 -2.0015 0.9765
3.6374 -4.2538 -2.0015 0.9765
4.0028 -3.9119 -2.0015 0.9765
4.3362 -3.5387 -2.0015 0.9765
4.6350 -3.1372 -2.0015 0.9765
4.8967 -2.7106 -2.0015 0.9765
5.5874 -0.3263 -2.0015 0.9765
5.5563 0.6732 -2.0015 0.9765
5.3478 1.6511 -2.0015 0.9765
4.9687 2.5764 -2.0015 0.9765
4.7187 3.0099 -2.0015 0.9765
3.7517 4.1533 -2.0015 0.9765
2.9528 4.7546 -2.0015 0.9765
2.0596 5.2041 -2.0015 0.9765
1.5865 5.3673 -2.0015 0.9765
1.1007 5.4876 -2.0015 0.9765
-0.8908 5.5256 -2.0015 0.9765
-1.8598 5.2789 -2.0015 0.9765
-3.1928 4.5968 -2.0015 0.9765
-3.5907 4.2933 -2.0015 0.9765
-3.9598 3.9553 -2.0015 0.9765
-4.8668 2.7639 -2.0015 0.9765
-5.0943 2.3181 -2.0015 0.9765
-5.2810 1.8538 -2.0015 0.9765
-5.5266 0.8845 -2.0015 0.9765
-5.5957 -0.1131 -2.0015 0.9765
-5.5633 -0.6125 -2.0015 0.9765
-5.4863 -1.1070 -2.0015 0.9765
-5.3655 -1.5926 -2.0015 0.9765
-5.2018 -2.0656 -2.0015 0.9765
-4.7512 -2.9582 -2.0015 0.9765
-2.5707 -4.9716 -2.0015 0.9765
-1.1606 -5.4752 -2.0015 0.9765
-0.1678 -5.5944 -2.0015 0.9765
0.3326 -5.5870 -2.0015 0.9765
0.8304 -5.5350 -2.0015 0.9765
1.3215 -5.4386 -2.0015 0.9765
1.8020 -5.2989 -2.0015 0.9765
2.2682 -5.1167 -2.0015 0.9765
2.7162 -4.8936 -2.0015 0.9765
3.1425 -4.6314 -2.0015 0.9765
3.9164 -3.9983 -2.0015 0.9765
4.2579 -3.6325 -2.0015 0.9765
4.5654 -3.2376 -2.0015 0.9765
5.0687 -2.3736 -2.0015 0.9765
5.5166 -0.9447 -2.0015 0.9765
5.5967 0.0520 -2.0015 0.9765
5.5696 0.5517 -2.0015 0.9765
5.4981 1.0470 -2.0015 0.9765
5.3826 1.5340 -2.0015 0.9765
5.2240 2.0087 -2.0015 0.9765
5.0237 2.4673 -2.0015 0.9765
4.1898 3.7110 -2.0015 0.9765
3.4626 4.3973 -2.0015 0.9765
3.0559 4.6890 -2.0015 0.9765
2.6248 4.9432 -2.0015 0.9765
2.1728 5.1579 -2.0015 0.9765
1.7033 5.3314 -2.0015 0.9765
-1.2620 5.4527 -2.0015 0.9765
-2.6626 4.9230 -2.0015 0.9765
-3.4961 4.3706 -2.0015 0.9765
-4.5298 3.2873 -2.0015 0.9765
-4.8053 2.8695 -2.0015 0.9765
-5.0425 2.4288 -2.0015 0.9765
-5.2392 1.9686 -2.0015 0.9765
-5.3942 1.4927 -2.0015 0.9765
-5.5092 -0.9869 -2.0015 0.9765
-5.3990 -1.4751 -2.0015 0.9765
-5.0504 -2.4123 -2.0015 0.9765
-4.5405 -3.2725 -2.0015 0.9765
-3.1069 -4.6553 -2.0015 0.9765
-2.6786 -4.9143 -2.0015 0.9765
-1.7614 -5.3125 -2.0015 0.9765
-0.7880 -5.5411 -2.0015 0.9765
-0.2899 -5.5894 -2.0015 0.9765
0.7094 -5.5518 -2.0015 0.9765
1.2025 -5.4662 -2.0015 0.9765
1.6859 -5.3369 -2.0015 0.9765
-4.8852 1.8474 -2.0015 0.9779
-5.0307 1.4036 -2.0015 0.9779
-5.2002 0.4860 -2.0015 0.9779
-5.2037 -0.4471 -2.0015 0.9779
-4.8989 -1.8107 -2.0015 0.9779
-4.7176 -2.2411 -2.0015 0.9779
-4.2435 -3.0448 -2.0015 0.9779
-3.9545 -3.4117 -2.0015 0.9779
-3.6340 -3.7513 -2.0015 0.9779
-3.2843 -4.0609 -2.0015 0.9779
-2.5093 -4.5806 -2.0015 0.9779
-1.6542 -4.9540 -2.0015 0.9779
-1.2050 -5.0819 -2.0015 0.9779
-0.7462 -5.1693 -2.0015 0.9779
0.1855 -5.2196 -2.0015 0.9779
1.1113 -5.1033 -2.0015 0.9779
3.2090 -4.1207 -2.0015 0.9779
3.8911 -3.4839 -2.0015 0.9779
4.1867 -3.1224 -2.0015 0.9779
4.4489 -2.7359 -2.0015 0.9779
4.8648 -1.9006 -2.0015 0.9779
5.0151 -1.4584 -2.0015 0.9779
5.1253 -1.0046 -2.0015 0.9779
5.1946 -0.5428 -2.0015 0.9779
5.2223 -0.0766 -2.0015 0.9779
5.2082 0.3902 -2.0015 0.9779
5.1526 0.8539 -2.0015 0.9779
5.0557 1.3108 -2.0015 0.9779
4.7418 2.1895 -2.0015 0.9779
4.5272 2.6043 -2.0015 0.9779
3.9916 3.3683 -2.0015 0.9779
3.6747 3.7114 -2.0015 0.9779
3.3285 4.0249 -2.0015 0.9779
2.5592 4.5529 -2.0015 0.9779
2.1422 4.7633 -2.0015 0.9779
1.2604 5.0685 -2.0015 0.9779
0.8027 5.1608 -2.0015 0.9779
0.3384 5.2119 -2.0015 0.9779
-0.1285 5.2213 -2.0015 0.9779
-0.5944 5.1889 -2.0015 0.9779
-1.5082 5.0003 -2.0015 0.9779
-1.9489 4.8456 -2.0015 0.9779
-2.3739 4.6522 -2.0015 0.9779
-2.7800 4.4215 -2.0015 0.9779
-3.8528 3.5262 -2.0015 0.9779
-4.1524 3.1679 -2.0015 0.9779
-4.6498 2.3785 -2.0015 0.9779
-4.9989 1.5131 -2.0015 0.9779
-5.1140 1.0605 -2.0015 0.9779
-5.1883 0.5994 -2.0015 0.9779
-5.2211 0.1336 -2.0015 0.9779
-5.1616 -0.7976 -2.0015 0.9779
-5.0697 -1.2555 -2.0015 0.9779
-4.7654 -2.1376 -2.0015 0.9779
-4.5554 -2.5547 -2.0015 0.9779
-4.3090 -2.9514 -2.0015 0.9779
-4.0281 -3.3245 -2.0015 0.9779
-3.7150 -3.6711 -2.0015 0.9779
-3.3722 -3.9883 -2.0015 0.9779
-3.0025 -4.2736 -2.0015 0.9779
