ply
format ascii 1.0
element vertex 1598
property float32 x
property float32 y
property float32 z
property float32 I
end_header
-0.1468 8.7489 -1.8496 0.9649
-0.9279 8.7002 -1.8495 0.9649
-1.7014 8.5818 -1.8493 0.9649
-2.4612 8.3949 -1.8492 0.9649
-3.2012 8.1409 -1.8491 0.9649
-3.9155 7.8218 -1.8490 0.9649
-4.7669 7.7127 -1.9166 0.9636
-7.4806 5.7976 -2.0005 0.9620
-7.9683 5.1058 -2.0005 0.9620
-8.7493 3.6058 -2.0003 0.9620
-9.4475 -0.5337 -2.0002 0.9621
-9.2019 -2.2067 -2.0002 0.9621
-8.9681 -3.0201 -2.0003 0.9621
-7.8468 -5.2908 -2.0005 0.9620
-5.4974 -7.7058 -2.0009 0.9620
-4.0386 -8.5622 -2.0011 0.9620
-3.2577 -8.8894 -2.0013 0.9620
2.5723 -9.1163 -2.0022 0.9620
4.1544 -8.5140 -2.0025 0.9620
4.8988 -8.1093 -2.0026 0.9620
5.6041 -7.6396 -2.0028 0.9620
6.8751 -6.5209 -2.0030 0.9620
7.9267 -5.1936 -2.0032 0.9620
8.3593 -4.4647 -2.0032 0.9620
8.7251 -3.7001 -2.0033 0.9620
9.2448 -2.0881 -2.0034 0.9620
9.4690 -0.4094 -2.0034 0.9620
9.2384 2.1164 -2.0034 0.9620
9.0121 2.9333 -2.0034 0.9620
7.4127 5.9035 -2.0031 0.9620
6.2430 7.1279 -2.0029 0.9620
4.6226 7.7052 -1.8994 0.9639
2.3510 8.4304 -1.8500 0.9649
1.5883 8.6062 -1.8499 0.9649
-0.7508 8.7174 -1.8495 0.9649
-3.0351 8.2044 -1.8491 0.9649
-5.5017 7.6622 -1.9939 0.9622
-6.1856 7.1645 -2.0008 0.9620
-6.8006 6.5829 -2.0007 0.9620
-7.8630 5.2669 -2.0005 0.9620
-8.3018 4.5431 -2.0004 0.9620
-8.6742 3.7830 -2.0003 0.9620
-9.2086 2.1786 -2.0002 0.9621
-9.3663 1.3471 -2.0002 0.9621
-9.4564 -0.3415 -2.0002 0.9621
-9.2448 -2.0192 -2.0002 0.9621
-8.7382 -3.6325 -2.0003 0.9620
-8.3789 -4.3989 -2.0004 0.9620
-6.9132 -6.4642 -2.0006 0.9620
-6.3083 -7.0564 -2.0007 0.9620
-4.9522 -8.0675 -2.0010 0.9620
-4.2118 -8.4782 -2.0011 0.9620
-0.1300 -9.4692 -2.0018 0.9620
0.7167 -9.4436 -2.0019 0.9620
1.5577 -9.3425 -2.0021 0.9620
3.1961 -8.9173 -2.0023 0.9620
4.7328 -8.2071 -2.0026 0.9620
5.4475 -7.7519 -2.0027 0.9620
6.7410 -6.6593 -2.0030 0.9620
7.3094 -6.0306 -2.0031 0.9620
8.2668 -4.6337 -2.0032 0.9620
8.9600 -3.0886 -2.0033 0.9620
9.3670 -1.4445 -2.0034 0.9620
9.4587 -0.6018 -2.0034 0.9620
9.4148 1.0913 -2.0034 0.9620
9.0700 2.7495 -2.0034 0.9620
8.7878 3.5488 -2.0033 0.9620
7.5312 5.7516 -2.0031 0.9620
6.9869 6.4012 -2.0030 0.9620
6.3867 6.9996 -2.0029 0.9620
5.7215 7.5235 -1.9979 0.9621
3.9740 7.7994 -1.8503 0.9648
3.2610 8.1227 -1.8502 0.9648
2.5220 8.3810 -1.8501 0.9649
1.7630 8.5723 -1.8499 0.9649
0.9899 8.6949 -1.8498 0.9649
-0.5734 8.7310 -1.8495 0.9649
-2.1179 8.4883 -1.8493 0.9649
-5.2966 7.7023 -1.9759 0.9625
-6.0368 7.2867 -2.0002 0.9621
-7.2388 6.0971 -2.0006 0.9620
-8.5956 3.9586 -2.0004 0.9620
-8.9146 3.1747 -2.0003 0.9621
-9.3370 1.5373 -2.0002 0.9621
-9.4614 -0.1491 -2.0002 0.9621
-9.4103 -0.9939 -2.0002 0.9621
-9.0834 -2.6530 -2.0003 0.9621
-8.0553 -4.9673 -2.0004 0.9620
-5.1151 -7.9650 -2.0009 0.9620
-1.1667 -9.3971 -2.0016 0.9620
3.0141 -8.9803 -2.0023 0.9620
3.8047 -8.6756 -2.0025 0.9620
4.5649 -8.3015 -2.0026 0.9620
5.9703 -7.3574 -2.0028 0.9620
6.6042 -6.7949 -2.0029 0.9620
9.4350 0.8996 -2.0034 0.9620
9.1240 2.5645 -2.0034 0.9620
6.5277 6.8683 -2.0029 0.9620
4.1334 7.7203 -1.8511 0.9648
1.9369 8.5348 -1.8500 0.9649
1.1665 8.6731 -1.8498 0.9649
0.3869 8.7420 -1.8497 0.9649
-1.1751 8.6700 -1.8494 0.9649
-1.9449 8.5297 -1.8493 0.9649
-2.6991 8.3213 -1.8492 0.9649
-4.1468 7.7261 -1.8535 0.9648
-5.8818 7.4008 -1.9983 0.9621
-7.1134 6.2431 -2.0006 0.9620
-7.6425 5.5823 -2.0005 0.9620
-8.1103 4.8769 -2.0004 0.9620
-8.5134 4.1327 -2.0004 0.9620
-9.3038 1.7268 -2.0002 0.9621
-9.3192 -1.6416 -2.0002 0.9621
-8.8786 -3.2742 -2.0003 0.9621
-8.1545 -4.8025 -2.0004 0.9620
-7.6931 -5.5121 -2.0005 0.9620
-5.9567 -7.3560 -2.0008 0.9620
-3.7934 -8.6739 -2.0012 0.9620
-3.0034 -8.9788 -2.0013 0.9620
-1.3575 -9.3713 -2.0016 0.9620
-0.5148 -9.4557 -2.0017 0.9620
2.0117 -9.2557 -2.0021 0.9620
3.6273 -8.7511 -2.0024 0.9620
5.8194 -7.4772 -2.0028 0.9620
6.4646 -6.9277 -2.0029 0.9620
7.5951 -5.6670 -2.0031 0.9620
8.4831 -4.2250 -2.0033 0.9620
9.3005 -1.8242 -2.0034 0.9620
9.3503 1.5492 -2.0034 0.9620
8.9249 3.1886 -2.0033 0.9620
8.6041 3.9732 -2.0033 0.9620
7.7590 5.4408 -2.0031 0.9620
6.6661 6.7343 -2.0030 0.9620
6.0342 7.2987 -2.0018 0.9620
4.3325 7.7110 -1.8696 0.9645
3.5886 7.9837 -1.8502 0.9648
2.8608 8.2718 -1.8501 0.9648
-0.2179 8.7473 -1.8496 0.9649
8.3506 -1.7085 -2.0032 0.9656
8.4699 -0.9555 -2.0033 0.9656
8.4200 1.3248 -2.0032 0.9656
8.0496 2.8023 -2.0032 0.9656
7.7668 3.5102 -2.0031 0.9656
6.5571 5.4437 -2.0029 0.9656
6.0443 6.0075 -2.0029 0.9656
5.4830 6.5232 -2.0028 0.9656
4.2288 7.3850 -2.0001 0.9656
3.5320 7.6899 -1.9888 0.9658
1.9829 7.7133 -1.8718 0.9678
0.5716 7.8496 -1.8497 0.9682
-2.2618 7.7149 -1.8895 0.9675
-3.0299 7.7053 -1.9459 0.9666
-3.8004 7.5919 -1.9953 0.9657
-4.4764 7.2426 -2.0011 0.9656
-5.1053 6.8133 -2.0010 0.9656
-6.2359 5.7953 -2.0008 0.9656
-6.7285 5.2147 -2.0007 0.9656
-7.5486 3.9336 -2.0005 0.9656
-7.8697 3.2433 -2.0005 0.9656
-8.1278 2.5271 -2.0004 0.9656
-8.3210 1.7908 -2.0004 0.9656
-8.4476 1.0401 -2.0004 0.9656
-8.4978 -0.4802 -2.0004 0.9656
-8.4210 -1.2374 -2.0004 0.9656
-8.2768 -1.9849 -2.0004 0.9656
-8.0665 -2.7165 -2.0004 0.9656
-6.6047 -5.3707 -2.0007 0.9656
-6.0987 -5.9396 -2.0008 0.9656
-4.9446 -6.9309 -2.0010 0.9656
-4.3058 -7.3454 -2.0011 0.9656
-2.9300 -7.9954 -2.0013 0.9656
-2.2041 -8.2257 -2.0014 0.9656
-0.7049 -8.4878 -2.0017 0.9656
0.0563 -8.5173 -2.0018 0.9656
1.5716 -8.3724 -2.0021 0.9656
2.3135 -8.1990 -2.0022 0.9656
3.0370 -7.9600 -2.0023 0.9656
5.0401 -6.8708 -2.0027 0.9656
6.1831 -5.8646 -2.0029 0.9656
7.1288 -4.6708 -2.0030 0.9656
7.8468 -3.3276 -2.0031 0.9656
8.1129 -2.6132 -2.0032 0.9656
8.3141 -1.8779 -2.0032 0.9656
8.4487 -1.1276 -2.0033 0.9656
8.4453 1.1534 -2.0033 0.9656
8.1049 2.6380 -2.0032 0.9656
5.6146 6.4105 -2.0028 0.9656
4.3811 7.3027 -2.0015 0.9656
2.9111 7.7006 -1.9348 0.9667
1.4285 7.7403 -1.8499 0.9682
0.0280 7.8767 -1.8512 0.9682
-0.6752 7.8405 -1.8495 0.9682
-1.3730 7.7483 -1.8494 0.9682
-2.0929 7.7166 -1.8791 0.9677
-2.8513 7.7078 -1.9315 0.9668
-4.9658 6.9158 -2.0010 0.9656
-5.5636 6.4441 -2.0009 0.9656
-6.1168 5.9210 -2.0008 0.9656
-7.0724 4.7373 -2.0006 0.9656
-7.8022 3.4027 -2.0005 0.9656
-8.4247 1.2117 -2.0004 0.9656
-8.4992 0.4541 -2.0004 0.9656
-8.5058 -0.3073 -2.0004 0.9656
-8.4444 -1.0659 -2.0004 0.9656
-8.3155 -1.8162 -2.0004 0.9656
-8.1201 -2.5519 -2.0004 0.9656
-5.6740 -6.3469 -2.0008 0.9656
-3.0919 -7.9341 -2.0013 0.9656
-2.3708 -8.1791 -2.0014 0.9656
2.1463 -8.2442 -2.0022 0.9656
3.5798 -7.7315 -2.0024 0.9656
4.2566 -7.3812 -2.0025 0.9656
4.8993 -6.9717 -2.0026 0.9656
7.7775 -3.4864 -2.0031 0.9656
8.4240 -1.2991 -2.0032 0.9656
8.5065 -0.5412 -2.0033 0.9656
8.5208 0.2210 -2.0033 0.9656
8.3453 1.7340 -2.0032 0.9656
7.9032 3.1916 -2.0032 0.9656
7.2085 4.5470 -2.0030 0.9656
6.7732 5.1727 -2.0030 0.9656
6.2836 5.7569 -2.0029 0.9656
4.5313 7.2161 -2.0026 0.9656
3.8573 7.5704 -1.9969 0.9657
3.0903 7.6977 -1.9495 0.9665
0.1882 7.8761 -1.8516 0.9681
-0.5157 7.8527 -1.8495 0.9682
-3.4700 7.6986 -1.9847 0.9659
-5.4315 6.5560 -2.0009 0.9656
-6.9747 4.8802 -2.0006 0.9656
-7.3826 4.2373 -2.0006 0.9656
-7.7314 3.5606 -2.0005 0.9656
-8.0184 2.8555 -2.0005 0.9656
-8.2414 2.1276 -2.0004 0.9656
-8.3984 1.3827 -2.0004 0.9656
-8.3506 -1.6467 -2.0004 0.9656
-5.8018 -6.2302 -2.0008 0.9656
-2.5366 -8.1291 -2.0014 0.9656
0.4717 -8.5048 -2.0019 0.9656
3.4218 -7.8026 -2.0024 0.9656
4.1055 -7.4661 -2.0025 0.9656
6.9329 -4.9567 -2.0030 0.9656
7.7049 -3.6438 -2.0031 0.9656
7.9999 -2.9409 -2.0032 0.9656
8.3959 -1.4701 -2.0032 0.9656
8.4852 0.8091 -2.0033 0.9656
8.3789 1.5640 -2.0032 0.9656
8.2055 2.3063 -2.0032 0.9656
7.6637 3.7298 -2.0031 0.9656
7.2995 4.3995 -2.0031 0.9656
6.3995 5.6280 -2.0029 0.9656
5.8707 6.1770 -2.0028 0.9656
4.6771 7.1226 -2.0026 0.9656
4.0130 7.4953 -1.9982 0.9657
1.0491 7.8005 -1.8498 0.9682
0.3480 7.8625 -1.8497 0.9682
-4.0185 7.4872 -1.9971 0.9657
-4.6806 7.1122 -2.0010 0.9656
-5.8712 6.1649 -2.0008 0.9656
-6.8741 5.0210 -2.0006 0.9656
-8.1964 2.2947 -2.0004 0.9656
-8.3685 1.5532 -2.0004 0.9656
-8.4738 0.7993 -2.0004 0.9656
-8.5113 0.0389 -2.0004 0.9656
-8.3824 -1.4766 -2.0004 0.9656
-5.9272 -6.1109 -2.0008 0.9656
-4.7454 -7.0690 -2.0010 0.9656
-4.0951 -7.4651 -2.0011 0.9656
-1.2210 -8.4286 -2.0016 0.9656
-0.4630 -8.5046 -2.0017 0.9656
1.0582 -8.4523 -2.0020 0.9656
1.8093 -8.3244 -2.0021 0.9656
4.6117 -7.1650 -2.0026 0.9656
5.2337 -6.7246 -2.0027 0.9656
5.8139 -6.2304 -2.0028 0.9656
7.2589 -4.4660 -2.0030 0.9656
7.9384 -3.1029 -2.0032 0.9656
8.3642 -1.6405 -2.0032 0.9656
8.4774 -0.8866 -2.0033 0.9656
8.2508 2.1390 -2.0032 0.9656
7.7380 3.5732 -2.0031 0.9656
7.3875 4.2502 -2.0031 0.9656
5.9952 6.0565 -2.0028 0.9656
3.4572 7.6913 -1.9818 0.9659
1.9164 7.7141 -1.8681 0.9679
-0.1962 7.8764 -1.8517 0.9681
7.5794 -1.5507 -2.0031 0.9685
7.6877 -0.8673 -2.0031 0.9685
7.7194 0.5148 -2.0031 0.9685
7.6425 1.2025 -2.0031 0.9685
6.7365 3.8031 -2.0030 0.9685
6.3696 4.3896 -2.0029 0.9685
5.9517 4.9410 -2.0028 0.9685
4.9768 5.9210 -2.0027 0.9685
2.5860 7.2849 -2.0015 0.9686
-0.1291 7.6934 -1.9922 0.9687
-0.8170 7.6603 -1.9946 0.9687
-1.4993 7.5625 -1.9962 0.9686
-2.8287 7.1935 -2.0013 0.9686
-3.4599 6.9116 -2.0012 0.9686
-5.1682 5.7457 -2.0009 0.9686
-6.5061 4.1689 -2.0007 0.9686
-7.5536 1.6256 -2.0005 0.9686
-7.6685 0.9442 -2.0005 0.9686
-7.7222 0.2552 -2.0005 0.9686
-7.6443 -1.1233 -2.0005 0.9686
-7.3225 -2.4660 -2.0006 0.9686
-7.0731 -3.1105 -2.0006 0.9686
-6.4069 -4.3199 -2.0007 0.9686
-5.9955 -4.8753 -2.0008 0.9686
-5.5361 -5.3917 -2.0009 0.9686
-5.0324 -5.8650 -2.0010 0.9686
-4.4885 -6.2915 -2.0010 0.9686
-3.9086 -6.6677 -2.0011 0.9686
-3.2973 -6.9906 -2.0012 0.9686
-1.3256 -7.6161 -2.0016 0.9686
0.0511 -7.7313 -2.0018 0.9686
1.4265 -7.5996 -2.0020 0.9686
2.1000 -7.4422 -2.0022 0.9686
2.7567 -7.2252 -2.0023 0.9686
3.3914 -6.9504 -2.0024 0.9686
4.5748 -6.2364 -2.0026 0.9685
5.6122 -5.3231 -2.0028 0.9685
6.0656 -4.8005 -2.0028 0.9685
7.1222 -3.0203 -2.0030 0.9685
7.7283 0.3578 -2.0031 0.9685
7.6654 1.0469 -2.0031 0.9685
7.3565 2.3944 -2.0031 0.9685
6.8125 3.6653 -2.0030 0.9685
6.0510 4.8190 -2.0029 0.9685
5.0962 5.8186 -2.0027 0.9685
4.5558 6.2504 -2.0026 0.9685
3.9789 6.6321 -2.0025 0.9685
3.3702 6.9608 -2.0024 0.9686
2.7346 7.2337 -2.0023 0.9686
2.0738 7.4363 -1.9989 0.9686
0.7156 7.6706 -1.9947 0.9687
0.0274 7.6933 -1.9919 0.9687
-0.6610 7.6745 -1.9944 0.9687
-2.0200 7.4478 -1.9981 0.9686
-3.3187 6.9806 -2.0013 0.9686
-3.9289 6.6558 -2.0012 0.9686
-4.5077 6.2778 -2.0011 0.9686
-6.4201 4.3004 -2.0007 0.9686
-7.5190 1.7789 -2.0005 0.9686
-7.6656 -0.9676 -2.0005 0.9686
-7.5485 -1.6487 -2.0005 0.9686
-7.3712 -2.3166 -2.0006 0.9686
-5.6445 -5.2780 -2.0008 0.9686
-5.1506 -5.7614 -2.0009 0.9686
-4.6154 -6.1989 -2.0010 0.9686
-2.1521 -7.4244 -2.0014 0.9686
1.9482 -7.4833 -2.0021 0.9686
4.9949 -5.9057 -2.0027 0.9685
5.9667 -4.9228 -2.0028 0.9685
6.7481 -3.7825 -2.0030 0.9685
7.3139 -2.5211 -2.0031 0.9685
7.6461 -1.1792 -2.0031 0.9685
7.7209 -0.4913 -2.0031 0.9685
7.7340 0.2006 -2.0031 0.9685
7.6851 0.8908 -2.0031 0.9685
7.4036 2.2444 -2.0031 0.9685
7.1734 2.8968 -2.0030 0.9685
5.7035 5.2254 -2.0028 0.9685
4.6819 6.1565 -2.0026 0.9685
4.1129 6.5499 -2.0025 0.9685
2.8812 7.1766 -2.0023 0.9686
2.2254 7.3953 -1.9996 0.9686
1.5535 7.5540 -1.9968 0.9686
-0.5047 7.6857 -1.9942 0.9687
-1.1901 7.6141 -1.9954 0.9687
-1.8676 7.4851 -1.9974 0.9686
-4.3792 6.3682 -2.0011 0.9686
-4.9304 5.9512 -2.0010 0.9686
-6.7016 3.8465 -2.0007 0.9686
-7.0183 3.2322 -2.0006 0.9686
-7.2789 2.5922 -2.0006 0.9686
-7.4813 1.9314 -2.0005 0.9686
-7.6238 1.2552 -2.0005 0.9686
-7.7054 0.5690 -2.0005 0.9686
-7.7254 -0.1218 -2.0005 0.9686
-7.6837 -0.8116 -2.0005 0.9686
-7.4167 -2.1662 -2.0005 0.9686
-5.7506 -5.1621 -2.0008 0.9686
-2.9525 -7.1434 -2.0013 0.9686
-2.3026 -7.3790 -2.0014 0.9686
-0.9525 -7.6719 -2.0016 0.9686
1.7956 -7.5213 -2.0021 0.9686
2.4606 -7.3311 -2.0022 0.9686
3.7265 -6.7769 -2.0024 0.9685
5.3911 -5.5468 -2.0027 0.9685
6.9934 -3.3073 -2.0030 0.9685
7.2611 -2.6693 -2.0030 0.9685
7.4707 -2.0099 -2.0031 0.9685
7.6205 -1.3344 -2.0031 0.9685
7.7016 0.7344 -2.0031 0.9685
7.6051 1.4195 -2.0031 0.9685
7.2308 2.7504 -2.0030 0.9685
6.9560 3.3854 -2.0030 0.9685
6.6255 3.9933 -2.0029 0.9685
6.2420 4.5691 -2.0029 0.9685
5.3287 5.6067 -2.0027 0.9685
4.2453 6.4650 -2.0025 0.9685
3.6505 6.8181 -2.0024 0.9685
3.0265 7.1167 -2.0023 0.9686
2.3762 7.3513 -2.0003 0.9686
1.7073 7.5229 -1.9973 0.9686
-0.3483 7.6933 -1.9940 0.9687
-1.7146 7.5194 -1.9969 0.9686
-3.6552 6.8102 -2.0012 0.9686
-4.8084 6.0503 -2.0010 0.9686
-6.2400 4.5579 -2.0008 0.9686
-6.9512 3.3743 -2.0006 0.9686
-7.4405 2.0831 -2.0006 0.9686
-7.5967 1.4100 -2.0005 0.9686
-7.6923 0.7256 -2.0005 0.9686
-7.7263 0.0353 -2.0005 0.9686
-7.6986 -0.6551 -2.0005 0.9686
-7.6093 -1.3404 -2.0005 0.9686
-7.4592 -2.0150 -2.0005 0.9686
-7.2494 -2.6734 -2.0006 0.9686
-6.9817 -3.3106 -2.0006 0.9686
-6.6582 -3.9212 -2.0007 0.9686
-5.8544 -5.0440 -2.0008 0.9686
-4.8635 -6.0060 -2.0010 0.9686
-4.3076 -6.4168 -2.0011 0.9686
-3.7172 -6.7764 -2.0012 0.9686
-2.4521 -7.3306 -2.0014 0.9686
-1.7874 -7.5208 -2.0015 0.9686
1.6423 -7.5561 -2.0021 0.9686
3.5879 -6.8512 -2.0024 0.9685
4.1859 -6.5035 -2.0025 0.9685
4.7505 -6.1038 -2.0026 0.9685
6.1999 -4.6260 -2.0029 0.9685
6.9247 -3.4488 -2.0030 0.9685
7.2053 -2.8164 -2.0030 0.9685
7.4283 -2.1614 -2.0031 0.9685
7.5918 -1.4890 -2.0031 0.9685
7.6946 -0.8048 -2.0031 0.9685
7.7357 -0.1140 -2.0031 0.9685
7.6324 1.2646 -2.0031 0.9685
7.4888 1.9415 -2.0031 0.9685
6.7054 3.8577 -2.0030 0.9685
5.9113 4.9893 -2.0028 0.9685
4.3759 6.3774 -2.0026 0.9685
3.7884 6.7426 -2.0025 0.9685
3.1706 7.0538 -2.0024 0.9686
2.5262 7.3045 -2.0012 0.9686
1.8604 7.4889 -1.9979 0.9686
0.4969 7.6867 -1.9944 0.9687
-0.1917 7.6934 -1.9926 0.9687
6.7773 -2.0319 -2.0030 0.9710
7.0309 -0.7932 -2.0030 0.9710
7.0736 -0.1618 -2.0030 0.9710
6.9894 1.0998 -2.0030 0.9710
6.8632 1.7198 -2.0030 0.9710
6.1610 3.4781 -2.0029 0.9710
5.8254 4.0146 -2.0028 0.9710
5.0175 4.9870 -2.0027 0.9710
4.5517 5.4151 -2.0026 0.9710
4.0494 5.7999 -2.0025 0.9710
2.3660 6.6652 -2.0022 0.9710
1.1418 6.9792 -2.0020 0.9710
0.5136 7.0529 -2.0019 0.9710
-0.7498 7.0309 -2.0017 0.9710
-1.9891 6.7845 -2.0015 0.9710
-3.1645 6.3215 -2.0013 0.9710
-4.2387 5.6568 -2.0011 0.9710
-4.7270 5.2552 -2.0010 0.9710
-6.2675 3.2660 -2.0008 0.9710
-6.5342 2.6929 -2.0007 0.9710
-6.9089 1.4869 -2.0006 0.9710
-7.0140 0.8636 -2.0006 0.9710
-7.0631 0.2335 -2.0006 0.9710
-6.8722 -1.6480 -2.0006 0.9710
-6.4694 -2.8450 -2.0007 0.9710
-6.1895 -3.4117 -2.0008 0.9710
-5.8600 -3.9512 -2.0008 0.9710
-5.4837 -4.4592 -2.0009 0.9710
-4.6028 -5.3644 -2.0010 0.9710
-4.1053 -5.7544 -2.0011 0.9710
-3.0158 -6.3938 -2.0013 0.9710
-2.4326 -6.6380 -2.0014 0.9710
-1.8299 -6.8292 -2.0015 0.9710
-1.2124 -6.9657 -2.0016 0.9710
-0.5852 -7.0466 -2.0017 0.9710
0.6784 -7.0390 -2.0019 0.9710
1.9206 -6.8066 -2.0021 0.9710
2.5212 -6.6081 -2.0022 0.9710
4.1840 -5.7037 -2.0025 0.9710
5.1328 -4.8683 -2.0027 0.9710
5.5474 -4.3904 -2.0028 0.9710
6.2406 -3.3331 -2.0029 0.9710
6.5136 -2.7622 -2.0029 0.9710
7.0689 -0.3056 -2.0030 0.9710
7.0679 0.3272 -2.0030 0.9710
7.0104 0.9574 -2.0030 0.9710
6.8967 1.5799 -2.0030 0.9710
6.2304 3.3522 -2.0029 0.9710
5.9059 3.8953 -2.0028 0.9710
5.1179 4.8840 -2.0027 0.9710
2.5010 6.6158 -2.0022 0.9710
1.2835 6.9546 -2.0020 0.9710
0.6569 7.0411 -2.0019 0.9710
-0.6067 7.0448 -2.0017 0.9710
-4.6192 5.3503 -2.0010 0.9710
-5.4973 4.4424 -2.0009 0.9710
-6.1999 3.3928 -2.0008 0.9710
-6.9950 1.0061 -2.0006 0.9710
-7.0569 0.3770 -2.0006 0.9710
-7.0114 -0.8850 -2.0006 0.9710
-6.5259 -2.7128 -2.0007 0.9710
-5.5732 -4.3467 -2.0009 0.9710
-5.1627 -4.8274 -2.0009 0.9710
-4.7109 -5.2696 -2.0010 0.9710
-4.2214 -5.6697 -2.0011 0.9710
-3.6981 -6.0245 -2.0012 0.9710
-3.1452 -6.3311 -2.0013 0.9710
-2.5670 -6.5871 -2.0014 0.9710
-1.3538 -6.9396 -2.0016 0.9710
-0.7284 -7.0331 -2.0017 0.9710
-0.0970 -7.0705 -2.0018 0.9710
0.5351 -7.0512 -2.0019 0.9710
1.1631 -6.9756 -2.0020 0.9710
4.0671 -5.7875 -2.0025 0.9710
5.0327 -4.9716 -2.0027 0.9710
5.4570 -4.5022 -2.0027 0.9710
5.8376 -3.9968 -2.0028 0.9710
6.1715 -3.4593 -2.0029 0.9710
6.6890 -2.3057 -2.0030 0.9710
7.0284 0.8147 -2.0030 0.9710
6.9274 1.4394 -2.0030 0.9710
6.7710 2.0526 -2.0030 0.9710
6.5604 2.6493 -2.0029 0.9710
5.6225 4.2939 -2.0028 0.9710
5.2162 4.7789 -2.0027 0.9710
4.7681 5.2257 -2.0026 0.9710
4.2820 5.6306 -2.0025 0.9710
3.7616 5.9904 -2.0025 0.9710
2.6351 6.5636 -2.0023 0.9710
2.0380 6.7725 -2.0022 0.9710
0.1689 7.0693 -2.0019 0.9710
-0.4634 7.0558 -2.0017 0.9710
-1.0919 6.9858 -2.0016 0.9710
-1.7116 6.8599 -2.0015 0.9710
-2.3176 6.6792 -2.0014 0.9710
-2.9050 6.4451 -2.0013 0.9710
-3.4690 6.1595 -2.0012 0.9710
-4.0053 5.8246 -2.0011 0.9710
-4.5095 5.4432 -2.0011 0.9710
-5.4059 4.5533 -2.0009 0.9710
-6.4193 2.9564 -2.0007 0.9710
-6.9731 1.1481 -2.0006 0.9710
-7.0279 -0.7423 -2.0006 0.9710
-6.7837 -1.9813 -2.0007 0.9710
-5.6604 -4.2324 -2.0008 0.9710
-4.8171 -5.1727 -2.0010 0.9710
-4.3358 -5.5827 -2.0011 0.9710
-2.1060 -6.7490 -2.0014 0.9710
0.3916 -7.0606 -2.0019 0.9710
1.0210 -6.9977 -2.0020 0.9710
2.2504 -6.7050 -2.0022 0.9710
3.9486 -5.8689 -2.0025 0.9710
4.4573 -5.4929 -2.0026 0.9710
5.3643 -4.6122 -2.0027 0.9710
5.7551 -4.1146 -2.0028 0.9710
6.0999 -3.5840 -2.0028 0.9710
6.6407 -2.4412 -2.0029 0.9710
6.8324 -1.8382 -2.0030 0.9710
7.0506 -0.5928 -2.0030 0.9710
7.0754 0.0396 -2.0030 0.9710
7.0435 0.6716 -2.0030 0.9710
6.8114 1.9145 -2.0030 0.9710
6.3617 3.0961 -2.0029 0.9710
6.0594 3.6521 -2.0029 0.9710
5.3123 4.6719 -2.0027 0.9710
3.8827 5.9127 -2.0025 0.9710
3.3387 6.2357 -2.0024 0.9710
1.5652 6.8968 -2.0021 0.9710
0.3126 7.0645 -2.0019 0.9710
-0.9496 7.0066 -2.0017 0.9710
-1.5718 6.8934 -2.0016 0.9710
-4.8746 5.1185 -2.0010 0.9710
-6.6081 2.5058 -2.0007 0.9710
-6.9484 1.2896 -2.0006 0.9710
-7.0669 0.0323 -2.0006 0.9710
-7.0415 -0.5992 -2.0006 0.9710
-6.8226 -1.8430 -2.0007 0.9710
-6.6307 -2.4453 -2.0007 0.9710
-6.3858 -3.0280 -2.0007 0.9710
-6.0899 -3.5865 -2.0008 0.9710
-5.7452 -4.1165 -2.0008 0.9710
-3.9399 -5.8690 -2.0011 0.9710
-2.8327 -6.4772 -2.0013 0.9710
-1.6348 -6.8786 -2.0015 0.9710
-1.0137 -6.9975 -2.0016 0.9710
0.8785 -7.0169 -2.0020 0.9710
2.1136 -6.7493 -2.0022 0.9710
2.7083 -6.5338 -2.0023 0.9710
3.8284 -5.9479 -2.0025 0.9710
5.6702 -4.2307 -2.0028 0.9710
6.3330 -3.1542 -2.0029 0.9710
6.9431 -1.3618 -2.0030 0.9710
7.0371 -0.7360 -2.0030 0.9710
7.0557 0.5282 -2.0030 0.9710
6.6628 2.3804 -2.0030 0.9710
6.1325 3.5281 -2.0029 0.9710
5.4063 4.5630 -2.0027 0.9710
4.9767 5.0276 -2.0027 0.9710
4.0021 5.8326 -2.0025 0.9710
2.3117 6.6842 -2.0022 0.9710
0.4562 7.0568 -2.0019 0.9710
-0.1761 7.0690 -2.0018 0.9710
6.3165 1.5829 -2.0029 0.9731
6.1497 2.1409 -2.0029 0.9731
5.9337 2.6817 -2.0028 0.9731
5.6703 3.2011 -2.0028 0.9731
5.0097 4.1590 -2.0027 0.9731
4.6179 4.5898 -2.0026 0.9731
3.7270 5.3381 -2.0025 0.9731
2.1776 6.1345 -2.0022 0.9731
1.6207 6.3042 -2.0021 0.9731
1.0509 6.4235 -2.0020 0.9731
-1.8307 6.2445 -2.0015 0.9731
-3.4207 5.5346 -2.0012 0.9731
-3.9014 5.2066 -2.0012 0.9731
-4.3509 4.8370 -2.0011 0.9731
-4.7655 4.4288 -2.0010 0.9731
-5.1420 3.9852 -2.0009 0.9731
-6.4560 0.7949 -2.0007 0.9731
-6.4356 -0.9457 -2.0007 0.9731
-6.3254 -1.5169 -2.0007 0.9731
-6.1647 -2.0761 -2.0008 0.9731
-5.9547 -2.6186 -2.0008 0.9731
-5.3937 -3.6368 -2.0009 0.9731
-4.6606 -4.5390 -2.0010 0.9731
-4.2366 -4.9375 -2.0011 0.9731
-3.7786 -5.2965 -2.0012 0.9731
-2.2390 -6.1097 -2.0014 0.9731
-1.6842 -6.2856 -2.0015 0.9731
0.6244 -6.4786 -2.0019 0.9731
1.2008 -6.3972 -2.0020 0.9731
3.3662 -5.5723 -2.0024 0.9731
4.3046 -4.8846 -2.0025 0.9731
4.7240 -4.4806 -2.0026 0.9731
5.4464 -3.5685 -2.0027 0.9731
6.3518 -1.4347 -2.0029 0.9731
6.5058 -0.2813 -2.0029 0.9731
6.5049 0.3011 -2.0029 0.9731
6.4520 0.8812 -2.0029 0.9731
6.3474 1.4541 -2.0029 0.9731
5.7342 3.0852 -2.0028 0.9731
4.2897 4.8977 -2.0026 0.9731
3.3492 5.5826 -2.0024 0.9731
1.1813 6.4009 -2.0020 0.9731
-1.7034 6.2805 -2.0015 0.9731
-2.2576 6.1029 -2.0014 0.9731
-3.7948 5.2849 -2.0012 0.9731
-4.6745 4.5248 -2.0010 0.9731
-5.0599 4.0889 -2.0010 0.9731
-5.4048 3.6203 -2.0009 0.9731
-5.9626 2.6004 -2.0008 0.9731
-6.1710 2.0572 -2.0008 0.9731
-6.3301 1.4976 -2.0007 0.9731
-6.4954 0.3470 -2.0007 0.9731
-6.5005 -0.2347 -2.0007 0.9731
-6.3550 -1.3880 -2.0007 0.9731
-6.2056 -1.9503 -2.0008 0.9731
-6.0066 -2.4970 -2.0008 0.9731
-5.7596 -3.0238 -2.0008 0.9731
-5.4665 -3.5264 -2.0009 0.9731
-5.1298 -4.0008 -2.0009 0.9731
-4.7519 -4.4433 -2.0010 0.9731
-3.4038 -5.5450 -2.0012 0.9731
-2.8949 -5.8272 -2.0013 0.9731
-1.2460 -6.3872 -2.0016 0.9731
-0.6704 -6.4733 -2.0017 0.9731
0.4925 -6.4899 -2.0019 0.9731
1.0705 -6.4202 -2.0020 0.9731
1.6399 -6.2992 -2.0021 0.9731
2.7352 -5.9073 -2.0023 0.9731
4.6319 -4.5757 -2.0026 0.9731
5.0224 -4.1437 -2.0027 0.9731
5.9419 -2.6636 -2.0028 0.9731
6.3213 -1.5635 -2.0029 0.9731
6.4988 -0.4135 -2.0029 0.9731
6.5097 0.1688 -2.0029 0.9731
6.4686 0.7498 -2.0029 0.9731
6.3757 1.3248 -2.0029 0.9731
6.2317 1.8891 -2.0029 0.9731
6.0379 2.4383 -2.0028 0.9731
4.8008 4.3984 -2.0026 0.9731
2.9554 5.8004 -2.0023 0.9731
1.3112 6.3756 -2.0020 0.9731
0.7363 6.4670 -2.0019 0.9731
-0.4265 6.4941 -2.0017 0.9731
-1.5754 6.3139 -2.0016 0.9731
-2.1331 6.1476 -2.0015 0.9731
-3.1929 5.6693 -2.0013 0.9731
-3.6866 5.3611 -2.0012 0.9731
-4.5815 4.6189 -2.0010 0.9731
-4.9758 4.1910 -2.0010 0.9731
-5.3301 3.7295 -2.0009 0.9731
-6.4183 1.0567 -2.0007 0.9731
-6.4871 0.4790 -2.0007 0.9731
-5.5371 -3.4145 -2.0009 0.9731
-5.2100 -3.8957 -2.0009 0.9731
-4.8412 -4.3457 -2.0010 0.9731
-3.5158 -5.4746 -2.0012 0.9731
-3.0127 -5.7671 -2.0013 0.9731
-2.4855 -6.0135 -2.0014 0.9731
-1.9383 -6.2118 -2.0015 0.9731
-1.3756 -6.3605 -2.0016 0.9731
-0.8019 -6.4583 -2.0017 0.9731
3.1368 -5.7044 -2.0023 0.9731
5.2967 -3.7869 -2.0027 0.9731
5.6141 -3.2986 -2.0028 0.9731
6.4890 -0.5455 -2.0029 0.9731
6.5118 0.0364 -2.0029 0.9731
6.4825 0.6181 -2.0029 0.9731
6.4013 1.1948 -2.0029 0.9731
5.8550 2.8495 -2.0028 0.9731
4.8892 4.2999 -2.0027 0.9731
2.5476 5.9905 -2.0023 0.9731
1.4406 6.3477 -2.0021 0.9731
0.8676 6.4507 -2.0020 0.9731
0.2877 6.5021 -2.0019 0.9731
-0.2943 6.5015 -2.0018 0.9731
-2.0077 6.1898 -2.0015 0.9731
-2.5526 5.9853 -2.0014 0.9731
-3.5768 5.4350 -2.0012 0.9731
-5.2533 3.8371 -2.0009 0.9731
-5.8520 2.8407 -2.0008 0.9731
-6.0823 2.3064 -2.0008 0.9731
-6.3955 1.1870 -2.0007 0.9731
-6.4760 0.6108 -2.0007 0.9731
-6.4813 -0.5516 -2.0007 0.9731
-6.4061 -1.1285 -2.0007 0.9731
-6.2797 -1.6963 -2.0007 0.9731
-6.1031 -2.2507 -2.0008 0.9731
-5.8777 -2.7871 -2.0008 0.9731
-4.9286 -4.2464 -2.0010 0.9731
-4.0943 -5.0561 -2.0011 0.9731
-2.0642 -6.1710 -2.0015 0.9731
-0.9330 -6.4405 -2.0016 0.9731
1.3824 -6.3606 -2.0020 0.9731
2.4927 -6.0135 -2.0022 0.9731
3.0202 -5.7670 -2.0023 0.9731
3.9987 -5.1378 -2.0025 0.9731
4.4419 -4.7601 -2.0026 0.9731
4.8497 -4.3444 -2.0026 0.9731
6.2525 -1.8192 -2.0029 0.9731
6.3901 -1.2533 -2.0029 0.9731
6.4766 -0.6774 -2.0029 0.9731
6.5112 -0.0960 -2.0029 0.9731
6.4243 1.0644 -2.0029 0.9731
6.3034 1.6342 -2.0029 0.9731
4.9757 4.1996 -2.0027 0.9731
4.5804 4.6272 -2.0026 0.9731
4.1485 5.0178 -2.0025 0.9731
3.6834 5.3682 -2.0024 0.9731
3.1889 5.6756 -2.0024 0.9731
0.9986 6.4318 -2.0020 0.9731
-0.1621 6.5062 -2.0018 0.9731
5.9029 -1.2077 -2.0028 0.9749
5.9873 -0.6755 -2.0028 0.9749
6.0237 -0.1378 -2.0028 0.9749
6.0119 0.4010 -2.0028 0.9749
5.8445 1.4646 -2.0028 0.9749
5.4903 2.4813 -2.0028 0.9749
4.9608 3.4188 -2.0027 0.9749
4.6354 3.8483 -2.0026 0.9749
2.0149 5.6762 -2.0022 0.9749
0.9724 5.9437 -2.0020 0.9749
-0.1010 6.0213 -2.0018 0.9749
-0.6386 5.9879 -2.0017 0.9749
-1.6940 5.7782 -2.0015 0.9749
-2.2034 5.6034 -2.0014 0.9749
-3.6101 4.8179 -2.0012 0.9749
-4.4097 4.0981 -2.0011 0.9749
-4.7581 3.6876 -2.0010 0.9749
-5.0684 3.2477 -2.0010 0.9749
-5.3382 2.7817 -2.0009 0.9749
-5.7478 1.7871 -2.0008 0.9749
-5.8845 1.2664 -2.0008 0.9749
-5.9552 -0.8751 -2.0008 0.9749
-5.8532 -1.4037 -2.0008 0.9749
-5.7045 -1.9211 -2.0008 0.9749
-5.5101 -2.4231 -2.0009 0.9749
-4.6705 -3.7979 -2.0010 0.9749
-4.3127 -4.2001 -2.0011 0.9749
-2.5685 -5.4455 -2.0014 0.9749
-2.0718 -5.6535 -2.0015 0.9749
-1.5584 -5.8162 -2.0015 0.9749
-1.0326 -5.9325 -2.0016 0.9749
-0.4984 -6.0013 -2.0017 0.9749
1.1111 -5.9194 -2.0020 0.9749
2.1471 -5.6276 -2.0022 0.9749
2.6415 -5.4135 -2.0023 0.9749
3.5631 -4.8573 -2.0024 0.9749
4.3710 -4.1458 -2.0026 0.9749
5.0394 -3.3018 -2.0027 0.9749
5.5469 -2.3523 -2.0028 0.9749
5.7350 -1.8473 -2.0028 0.9749
5.9723 -0.7971 -2.0028 0.9749
6.0188 0.2787 -2.0028 0.9749
5.9699 0.8153 -2.0028 0.9749
5.7293 1.8648 -2.0028 0.9749
5.5397 2.3692 -2.0028 0.9749
5.3057 2.8546 -2.0027 0.9749
3.9692 4.5318 -2.0025 0.9749
2.6250 5.4215 -2.0023 0.9749
1.6179 5.8017 -2.0021 0.9749
1.0930 5.9228 -2.0020 0.9749
0.0214 6.0222 -2.0018 0.9749
-0.5167 5.9998 -2.0017 0.9749
-1.0507 5.9293 -2.0016 0.9749
-1.5762 5.8115 -2.0016 0.9749
-2.0891 5.6471 -2.0015 0.9749
-2.5852 5.4377 -2.0014 0.9749
-3.0606 5.1847 -2.0013 0.9749
-3.5114 4.8903 -2.0012 0.9749
-4.3255 4.1870 -2.0011 0.9749
-4.6821 3.7836 -2.0010 0.9749
-5.0013 3.3501 -2.0010 0.9749
-5.5175 2.4063 -2.0009 0.9749
-5.7103 1.9037 -2.0008 0.9749
-5.9579 0.8569 -2.0008 0.9749
-5.9718 -0.7538 -2.0008 0.9749
-5.8806 -1.2844 -2.0008 0.9749
-5.7423 -1.8047 -2.0008 0.9749
-5.5582 -2.3106 -2.0009 0.9749
-5.3296 -2.7980 -2.0009 0.9749
-5.0584 -3.2631 -2.0010 0.9749
-4.7468 -3.7021 -2.0010 0.9749
-4.3971 -4.1116 -2.0011 0.9749
-4.0123 -4.4881 -2.0011 0.9749
-3.5954 -4.8289 -2.0012 0.9749
-2.1863 -5.6101 -2.0014 0.9749
-1.6764 -5.7833 -2.0015 0.9749
0.4557 -6.0051 -2.0019 0.9749
3.8902 -4.5997 -2.0025 0.9749
4.2858 -4.2338 -2.0025 0.9749
4.6471 -3.8341 -2.0026 0.9749
4.9712 -3.4036 -2.0027 0.9749
5.4979 -2.4646 -2.0027 0.9749
5.8489 -1.4467 -2.0028 0.9749
6.0233 0.1562 -2.0028 0.9749
5.7661 1.7479 -2.0028 0.9749
5.5867 2.2561 -2.0028 0.9749
5.3627 2.7462 -2.0027 0.9749
5.0958 3.2143 -2.0027 0.9749
3.2034 5.1015 -2.0024 0.9749
1.7356 5.7676 -2.0021 0.9749
0.6813 5.9839 -2.0019 0.9749
-0.3946 6.0091 -2.0018 0.9749
-1.4577 5.8424 -2.0016 0.9749
-2.4741 5.4892 -2.0014 0.9749
-2.9545 5.2459 -2.0013 0.9749
-3.8408 4.6360 -2.0012 0.9749
-5.4674 2.5180 -2.0009 0.9749
-6.0028 0.4433 -2.0008 0.9749
-6.0184 -0.0949 -2.0008 0.9749
-5.9858 -0.6322 -2.0008 0.9749
-5.9054 -1.1646 -2.0008 0.9749
-5.7778 -1.6876 -2.0008 0.9749
-5.1237 -3.1596 -2.0009 0.9749
-3.6928 -4.7547 -2.0012 0.9749
-1.7936 -5.7479 -2.0015 0.9749
-0.2051 -6.0186 -2.0018 0.9749
0.8695 -5.9595 -2.0020 0.9749
2.4192 -5.5163 -2.0022 0.9749
2.9025 -5.2783 -2.0023 0.9749
4.5682 -3.9277 -2.0026 0.9749
4.9010 -3.5040 -2.0026 0.9749
5.6551 -2.0789 -2.0028 0.9749
5.8183 -1.5653 -2.0028 0.9749
6.0252 0.0337 -2.0028 0.9749
5.9229 1.1056 -2.0028 0.9749
5.8004 1.6303 -2.0028 0.9749
5.6315 2.1420 -2.0028 0.9749
5.4175 2.6366 -2.0027 0.9749
5.1601 3.1100 -2.0027 0.9749
4.1502 4.3667 -2.0025 0.9749
2.8432 5.3104 -2.0023 0.9749
0.8028 5.9689 -2.0020 0.9749
0.2663 6.0165 -2.0019 0.9749
-1.3386 5.8709 -2.0016 0.9749
-2.8473 5.3050 -2.0013 0.9749
-3.7457 4.7131 -2.0012 0.9749
-4.8611 3.5507 -2.0010 0.9749
-5.1587 3.1020 -2.0009 0.9749
-5.6283 2.1343 -2.0009 0.9749
-5.7963 1.6228 -2.0008 0.9749
-5.9181 1.0984 -2.0008 0.9749
-6.0191 0.0275 -2.0008 0.9749
-5.9279 -1.0442 -2.0008 0.9749
-5.8109 -1.5697 -2.0008 0.9749
-5.4389 -2.5790 -2.0009 0.9749
-5.1869 -3.0547 -2.0009 0.9749
-4.8933 -3.5060 -2.0010 0.9749
-4.1914 -4.3212 -2.0011 0.9749
-3.7886 -4.6786 -2.0012 0.9749
-1.9101 -5.7102 -2.0015 0.9749
-0.8633 -5.9595 -2.0017 0.9749
0.2112 -6.0186 -2.0018 0.9749
0.7482 -5.9759 -2.0019 0.9749
2.7945 -5.3362 -2.0023 0.9749
3.2603 -5.0653 -2.0024 0.9749
4.1101 -4.4045 -2.0025 0.9749
4.4873 -4.0198 -2.0026 0.9749
5.1314 -3.1571 -2.0027 0.9749
5.9126 -1.1597 -2.0028 0.9749
5.6739 2.0271 -2.0028 0.9749
5.2223 3.0045 -2.0027 0.9749
2.9507 5.2516 -2.0023 0.9749
1.9687 5.6924 -2.0022 0.9749
1.4521 5.8453 -2.0021 0.9749
-0.1500 6.0203 -2.0018 0.9749
5.5652 -0.6279 -2.0028 0.9765
5.5990 -0.1281 -2.0028 0.9765
5.5881 0.3727 -2.0028 0.9765
5.5324 0.8705 -2.0028 0.9765
5.2890 1.8412 -2.0027 0.9765
4.8767 2.7531 -2.0026 0.9765
3.9717 3.9475 -2.0025 0.9765
3.6029 4.2864 -2.0024 0.9765
3.2054 4.5911 -2.0024 0.9765
2.7823 4.8589 -2.0023 0.9765
2.3369 5.0879 -2.0022 0.9765
-1.5746 5.3710 -2.0016 0.9765
-3.3558 4.4785 -2.0012 0.9765
-4.0990 3.8094 -2.0011 0.9765
-4.7113 3.0189 -2.0010 0.9765
-5.1732 2.1320 -2.0009 0.9765
-5.3429 1.6613 -2.0009 0.9765
-5.4700 1.1772 -2.0009 0.9765
-5.5532 0.6837 -2.0009 0.9765
-5.5921 0.1848 -2.0009 0.9765
-5.5862 -0.3156 -2.0009 0.9765
-5.5357 -0.8134 -2.0009 0.9765
-5.4409 -1.3048 -2.0009 0.9765
-4.6395 -3.1282 -2.0010 0.9765
-4.3415 -3.5303 -2.0011 0.9765
-4.0088 -3.9043 -2.0011 0.9765
-3.2501 -4.5557 -2.0013 0.9765
-1.9258 -5.2551 -2.0015 0.9765
-1.4486 -5.4064 -2.0016 0.9765
-0.9598 -5.5144 -2.0016 0.9765
-0.4633 -5.5784 -2.0017 0.9765
0.0370 -5.5977 -2.0018 0.9765
0.5370 -5.5722 -2.0019 0.9765
1.9958 -5.2309 -2.0021 0.9765
4.9397 -2.6383 -2.0027 0.9765
5.5952 -0.2419 -2.0028 0.9765
5.5945 0.2590 -2.0028 0.9765
5.4590 1.2506 -2.0027 0.9765
5.1491 2.2022 -2.0027 0.9765
4.9317 2.6534 -2.0027 0.9765
4.3805 3.4886 -2.0026 0.9765
4.0511 3.8660 -2.0025 0.9765
3.6894 4.2123 -2.0024 0.9765
3.2981 4.5250 -2.0024 0.9765
1.9798 5.2370 -2.0022 0.9765
0.0199 5.5978 -2.0018 0.9765
-2.4030 5.0545 -2.0014 0.9765
-2.8449 4.8194 -2.0013 0.9765
-4.0207 3.8920 -2.0011 0.9765
-4.9086 2.6862 -2.0010 0.9765
-5.1288 2.2368 -2.0009 0.9765
-5.4449 1.2882 -2.0009 0.9765
-5.5382 0.7965 -2.0009 0.9765
-5.5511 -0.7007 -2.0009 0.9765
-5.3379 -1.6776 -2.0009 0.9765
-5.1667 -2.1478 -2.0009 0.9765
-4.4124 -3.4413 -2.0011 0.9765
-4.0874 -3.8219 -2.0011 0.9765
-3.3421 -4.4887 -2.0012 0.9765
-2.4900 -5.0122 -2.0014 0.9765
-2.0322 -5.2148 -2.0015 0.9765
-0.5766 -5.5677 -2.0017 0.9765
-0.0768 -5.5972 -2.0018 0.9765
0.9207 -5.5220 -2.0020 0.9765
1.4105 -5.4179 -2.0020 0.9765
2.7971 -4.8504 -2.0023 0.9765
3.2194 -4.5812 -2.0024 0.9765
4.6207 -3.1636 -2.0026 0.9765
5.2946 -1.8251 -2.0027 0.9765
5.4366 -1.3447 -2.0027 0.9765
5.5892 -0.3556 -2.0028 0.9765
5.5986 0.1452 -2.0028 0.9765
5.5632 0.6448 -2.0028 0.9765
5.4833 1.1393 -2.0027 0.9765
5.1928 2.0970 -2.0027 0.9765
4.9846 2.5526 -2.0027 0.9765
4.4505 3.3989 -2.0026 0.9765
4.1289 3.7828 -2.0025 0.9765
3.3895 4.4570 -2.0024 0.9765
2.9776 4.7419 -2.0023 0.9765
1.6133 5.3611 -2.0021 0.9765
0.1337 5.5963 -2.0018 0.9765
-0.3668 5.5856 -2.0018 0.9765
-1.3550 5.4307 -2.0016 0.9765
-1.8347 5.2877 -2.0015 0.9765
-2.7464 4.8763 -2.0014 0.9765
-3.1710 4.6112 -2.0013 0.9765
-3.9408 3.9730 -2.0011 0.9765
-4.2799 3.6049 -2.0011 0.9765
-5.0823 2.3406 -2.0010 0.9765
-5.5208 0.9090 -2.0009 0.9765
-5.5799 0.4120 -2.0009 0.9765
-5.5944 -0.0882 -2.0009 0.9765
-5.4895 -1.0825 -2.0009 0.9765
-5.0060 -2.4996 -2.0010 0.9765
-4.7628 -2.9370 -2.0010 0.9765
-4.1642 -3.7380 -2.0011 0.9765
-3.4326 -4.4197 -2.0012 0.9765
-2.5913 -4.9605 -2.0014 0.9765
-1.6672 -5.3429 -2.0015 0.9765
-0.1906 -5.5944 -2.0018 0.9765
0.3100 -5.5893 -2.0019 0.9765
1.3000 -5.4454 -2.0020 0.9765
1.7814 -5.3077 -2.0021 0.9765
2.2486 -5.1275 -2.0022 0.9765
3.5283 -4.3480 -2.0024 0.9765
3.9028 -4.0155 -2.0025 0.9765
4.8283 -2.8369 -2.0026 0.9765
5.0626 -2.3942 -2.0027 0.9765
5.5808 -0.4692 -2.0028 0.9765
5.5752 0.5316 -2.0028 0.9765
5.0355 2.4507 -2.0027 0.9765
4.7963 2.8908 -2.0026 0.9765
4.5187 3.3077 -2.0026 0.9765
4.2050 3.6981 -2.0025 0.9765
3.0734 4.6804 -2.0023 0.9765
1.7220 5.3273 -2.0021 0.9765
1.2390 5.4596 -2.0020 0.9765
0.2475 5.5925 -2.0019 0.9765
-0.2532 5.5920 -2.0018 0.9765
-0.7518 5.5468 -2.0017 0.9765
-1.2443 5.4572 -2.0016 0.9765
-1.7269 5.3239 -2.0015 0.9765
-2.6467 4.9312 -2.0014 0.9765
-3.8592 4.0523 -2.0012 0.9765
-4.2058 3.6912 -2.0011 0.9765
-4.7953 2.8835 -2.0010 0.9765
-5.0337 2.4435 -2.0010 0.9765
-5.3881 1.5085 -2.0009 0.9765
-5.5012 1.0210 -2.0009 0.9765
-5.5750 -0.4744 -2.0009 0.9765
-5.5103 -0.9707 -2.0009 0.9765
-5.2497 -1.9360 -2.0009 0.9765
-5.0558 -2.3973 -2.0010 0.9765
-4.8215 -2.8395 -2.0010 0.9765
-3.5217 -4.3490 -2.0012 0.9765
-3.1192 -4.6464 -2.0013 0.9765
-2.6916 -4.9067 -2.0014 0.9765
-2.2425 -5.1278 -2.0014 0.9765
-1.7755 -5.3079 -2.0015 0.9765
-0.8025 -5.5396 -2.0017 0.9765
-0.3043 -5.5894 -2.0018 0.9765
1.1890 -5.4706 -2.0020 0.9765
1.6731 -5.3427 -2.0021 0.9765
3.8203 -4.0940 -2.0025 0.9765
4.4883 -3.3489 -2.0026 0.9765
5.0129 -2.4966 -2.0027 0.9765
5.2160 -2.0388 -2.0027 0.9765
5.3774 -1.5646 -2.0027 0.9765
5.5701 -0.5826 -2.0028 0.9765
5.5848 0.4181 -2.0028 0.9765
5.5251 0.9155 -2.0028 0.9765
5.4212 1.4055 -2.0027 0.9765
5.2738 1.8842 -2.0027 0.9765
4.8541 2.7927 -2.0026 0.9765
4.2794 3.6119 -2.0025 0.9765
3.9394 3.9797 -2.0025 0.9765
3.5679 4.3156 -2.0024 0.9765
2.7427 4.8814 -2.0023 0.9765
2.2955 5.1067 -2.0022 0.9765
0.3612 5.5863 -2.0019 0.9765
4.9354 1.7181 -2.0027 0.9779
4.5506 2.5690 -2.0026 0.9779
4.0205 3.3378 -2.0025 0.9779
3.7061 3.6836 -2.0024 0.9779
3.3621 3.9999 -2.0024 0.9779
2.1807 4.7478 -2.0022 0.9779
1.7477 4.9235 -2.0021 0.9779
-0.0876 5.2229 -2.0018 0.9779
-1.0158 5.1235 -2.0016 0.9779
-1.9113 4.8606 -2.0015 0.9779
-2.7457 4.4425 -2.0014 0.9779
-3.1316 4.1792 -2.0013 0.9779
-3.4923 3.8826 -2.0012 0.9779
-3.8252 3.5549 -2.0012 0.9779
-4.1274 3.1988 -2.0011 0.9779
-4.9860 1.5503 -2.0010 0.9779
-5.2185 0.1725 -2.0009 0.9779
-5.2131 -0.2945 -2.0009 0.9779
-5.1659 -0.7591 -2.0009 0.9779
-5.0775 -1.2176 -2.0009 0.9779
-4.7798 -2.1020 -2.0010 0.9779
-4.5729 -2.5207 -2.0010 0.9779
-4.0515 -3.2945 -2.0011 0.9779
-3.4006 -3.9632 -2.0012 0.9779
-3.0330 -4.2513 -2.0013 0.9779
-2.6411 -4.5055 -2.0014 0.9779
-2.2280 -4.7236 -2.0014 0.9779
-1.7971 -4.9040 -2.0015 0.9779
-0.8957 -5.1459 -2.0017 0.9779
-0.4323 -5.2056 -2.0017 0.9779
0.9638 -5.1344 -2.0020 0.9779
1.4187 -5.0280 -2.0021 0.9779
1.8624 -4.8813 -2.0021 0.9779
3.0905 -4.2131 -2.0023 0.9779
4.9742 -1.6022 -2.0027 0.9779
5.0975 -1.1514 -2.0027 0.9779
5.2211 -0.2257 -2.0027 0.9779
5.2204 0.2417 -2.0027 0.9779
5.1779 0.7072 -2.0027 0.9779
5.0940 1.1670 -2.0027 0.9779
4.8049 2.0549 -2.0026 0.9779
4.6019 2.4760 -2.0026 0.9779
3.7803 3.6075 -2.0025 0.9779
3.0777 4.2225 -2.0023 0.9779
2.6880 4.4804 -2.0023 0.9779
1.8475 4.8870 -2.0021 0.9779
1.4034 5.0323 -2.0021 0.9779
0.4853 5.2013 -2.0019 0.9779
-0.4482 5.2043 -2.0017 0.9779
-1.3672 5.0410 -2.0016 0.9779
-3.0460 4.2421 -2.0013 0.9779
-3.4127 3.9528 -2.0012 0.9779
-3.7521 3.6320 -2.0012 0.9779
-4.0615 3.2821 -2.0011 0.9779
-4.7862 2.0874 -2.0010 0.9779
-5.0812 1.2021 -2.0010 0.9779
-5.1682 0.7433 -2.0009 0.9779
-5.2180 -0.1884 -2.0009 0.9779
-4.3880 -2.8306 -2.0011 0.9779
-4.1176 -3.2114 -2.0011 0.9779
-2.7321 -4.4508 -2.0013 0.9779
-2.3236 -4.6773 -2.0014 0.9779
-1.8964 -4.8664 -2.0015 0.9779
-0.5381 -5.1956 -2.0017 0.9779
-0.0717 -5.2232 -2.0018 0.9779
0.3953 -5.2089 -2.0019 0.9779
0.8592 -5.1529 -2.0020 0.9779
1.3162 -5.0557 -2.0020 0.9779
2.6101 -4.5262 -2.0023 0.9779
3.0042 -4.2750 -2.0023 0.9779
3.7174 -3.6723 -2.0024 0.9779
4.3118 -2.9521 -2.0025 0.9779
4.9406 -1.7030 -2.0027 0.9779
5.0731 -1.2548 -2.0027 0.9779
5.1649 -0.7965 -2.0027 0.9779
5.2155 -0.3319 -2.0027 0.9779
5.1912 0.6017 -2.0027 0.9779
5.1167 1.0632 -2.0027 0.9779
4.8457 1.9568 -2.0026 0.9779
4.6514 2.3819 -2.0026 0.9779
4.4198 2.7879 -2.0026 0.9779
3.1629 4.1591 -2.0024 0.9779
0.1248 5.2223 -2.0018 0.9779
-0.3423 5.2123 -2.0018 0.9779
-0.8066 5.1607 -2.0017 0.9779
-1.2645 5.0678 -2.0016 0.9779
-1.7121 4.9343 -2.0015 0.9779
-2.1461 4.7615 -2.0015 0.9779
-2.5629 4.5505 -2.0014 0.9779
-3.6775 3.7075 -2.0012 0.9779
-3.9940 3.3640 -2.0011 0.9779
-4.5287 2.5993 -2.0010 0.9779
-4.7428 2.1843 -2.0010 0.9779
-5.0557 1.3052 -2.0010 0.9779
-5.1520 0.8482 -2.0009 0.9779
-5.1925 -0.5484 -2.0009 0.9779
-5.0121 -1.4639 -2.0010 0.9779
-4.4446 -2.7408 -2.0011 0.9779
-3.8860 -3.4883 -2.0011 0.9779
-3.2033 -4.1244 -2.0013 0.9779
-2.8220 -4.3943 -2.0013 0.9779
-2.4182 -4.6290 -2.0014 0.9779
-0.6436 -5.1836 -2.0017 0.9779
0.2893 -5.2158 -2.0019 0.9779
1.6624 -4.9529 -2.0021 0.9779
2.0983 -4.7847 -2.0022 0.9779
2.5175 -4.5783 -2.0022 0.9779
2.9166 -4.3352 -2.0023 0.9779
3.2924 -4.0573 -2.0024 0.9779
3.6419 -3.7471 -2.0024 0.9779
3.9622 -3.4068 -2.0025 0.9779
4.2509 -3.0392 -2.0025 0.9779
4.5055 -2.6473 -2.0026 0.9779
4.9049 -1.8031 -2.0026 0.9779
5.1477 -0.9014 -2.0027 0.9779
5.2076 -0.4378 -2.0027 0.9779
5.2259 0.0292 -2.0027 0.9779
5.1373 0.9589 -2.0027 0.9779
5.0310 1.4141 -2.0027 0.9779
4.4756 2.6975 -2.0026 0.9779
4.2166 3.0865 -2.0025 0.9779
3.9239 3.4509 -2.0025 0.9779
3.2468 4.0939 -2.0024 0.9779
2.8680 4.3675 -2.0023 0.9779
2.4662 4.6061 -2.0022 0.9779
1.1562 5.0947 -2.0020 0.9779
0.2310 5.2187 -2.0019 0.9779
-0.7015 5.1761 -2.0017 0.9779
-1.6115 4.9682 -2.0015 0.9779
-3.2492 4.0884 -2.0013 0.9779
-3.9248 3.4446 -2.0012 0.9779
-4.2167 3.0800 -2.0011 0.9779
-5.0281 1.4077 -2.0010 0.9779
-5.1337 0.9528 -2.0009 0.9779
-5.1983 0.4903 -2.0009 0.9779
-5.2213 0.0239 -2.0009 0.9779
-5.1422 -0.9058 -2.0009 0.9779
-4.7181 -2.2372 -2.0010 0.9779
-4.4994 -2.6498 -2.0010 0.9779
-4.2447 -3.0413 -2.0011 0.9779
-3.2864 -4.0584 -2.0013 0.9779
-2.9108 -4.3360 -2.0013 0.9779
-0.7488 -5.1694 -2.0017 0.9779
0.1832 -5.2206 -2.0018 0.9779
0.6490 -5.1835 -2.0019 0.9779
1.1096 -5.1050 -2.0020 0.9779
1.5613 -4.9856 -2.0021 0.9779
2.0006 -4.8264 -2.0022 0.9779
2.4239 -4.6285 -2.0022 0.9779
2.8279 -4.3935 -2.0023 0.9779
3.2092 -4.1234 -2.0024 0.9779
4.1882 -3.1250 -2.0025 0.9779
4.6777 -2.3297 -2.0026 0.9779
4.8673 -1.9025 -2.0026 0.9779
5.0178 -1.4600 -2.0027 0.9779
5.1977 -0.5436 -2.0027 0.9779
5.2255 -0.0770 -2.0027 0.9779
1.7076 4.9375 -2.0021 0.9779
1.2596 5.0702 -2.0020 0.9779
0.8015 5.1622 -2.0020 0.9779
-0.1301 5.2220 -2.0018 0.9779
4.6870 -1.4052 -2.0026 0.9791
4.8623 -0.5486 -2.0026 0.9791
4.8337 0.7606 -2.0026 0.9791
4.6210 1.6087 -2.0026 0.9791
4.4588 2.0151 -2.0026 0.9791
4.2608 2.4054 -2.0025 0.9791
4.0288 2.7765 -2.0025 0.9791
3.7645 3.1252 -2.0025 0.9791
3.4701 3.4490 -2.0024 0.9791
2.8007 4.0113 -2.0023 0.9791
1.6364 4.6100 -2.0021 0.9791
0.7897 4.8273 -2.0020 0.9791
0.3552 4.8784 -2.0019 0.9791
-0.0821 4.8904 -2.0018 0.9791
-0.5187 4.8633 -2.0017 0.9791
-0.9511 4.7974 -2.0017 0.9791
-2.1891 4.3729 -2.0014 0.9791
-2.5709 4.1597 -2.0014 0.9791
-4.3359 2.2595 -2.0011 0.9791
-1.9534 0.2405 -0.8055 0.9915
-1.9448 -0.1099 -0.7972 0.9916
-1.9432 -0.2855 -0.8039 0.9915
-4.6335 -1.5604 -2.0010 0.9791
-4.4756 -1.9682 -2.0011 0.9791
-4.2819 -2.3603 -2.0011 0.9791
-3.7936 -3.0848 -2.0012 0.9791
-3.1842 -3.7110 -2.0013 0.9791
-2.8399 -3.9807 -2.0013 0.9791
-2.4730 -4.2187 -2.0014 0.9791
-2.0862 -4.4229 -2.0015 0.9791
-1.6827 -4.5918 -2.0015 0.9791
-1.2658 -4.7239 -2.0016 0.9791
0.9024 -4.8075 -2.0020 0.9791
1.3284 -4.7078 -2.0020 0.9791
1.7438 -4.5705 -2.0021 0.9791
2.1453 -4.3965 -2.0022 0.9791
2.5296 -4.1874 -2.0022 0.9791
2.8937 -3.9448 -2.0023 0.9791
3.2347 -3.6705 -2.0024 0.9791
3.5498 -3.3669 -2.0024 0.9791
4.0926 -2.6815 -2.0025 0.9791
4.5047 -1.9103 -2.0026 0.9791
4.8501 -0.6473 -2.0026 0.9791
4.8886 -0.2114 -2.0026 0.9791
4.8481 0.6621 -2.0026 0.9791
4.4988 1.9241 -2.0026 0.9791
4.3089 2.3183 -2.0026 0.9791
4.0844 2.6940 -2.0025 0.9791
3.8273 3.0481 -2.0025 0.9791
3.2235 3.6804 -2.0024 0.9791
2.5168 4.1951 -2.0022 0.9791
1.7298 4.5758 -2.0021 0.9791
-0.4197 4.8729 -2.0017 0.9791
-0.8534 4.8158 -2.0017 0.9791
-1.2802 4.7201 -2.0016 0.9791
-1.6967 4.5866 -2.0015 0.9791
-2.0997 4.4165 -2.0015 0.9791
-2.4858 4.2111 -2.0014 0.9791
-2.8521 3.9721 -2.0013 0.9791
-4.0623 2.7211 -2.0011 0.9791
-4.2891 2.3472 -2.0011 0.9791
-4.6382 1.5462 -2.0010 0.9791
-4.7578 1.1256 -2.0010 0.9791
-1.9430 0.1038 -0.7964 0.9916
-1.9524 -0.2464 -0.8054 0.9915
-4.7765 -1.0432 -2.0010 0.9791
-4.5147 -1.8768 -2.0010 0.9791
-4.3290 -2.2727 -2.0011 0.9791
-4.1087 -2.6504 -2.0011 0.9791
-3.8555 -3.0070 -2.0012 0.9791
-3.2589 -3.6454 -2.0013 0.9791
-2.1757 -4.3796 -2.0014 0.9791
-1.3615 -4.6972 -2.0016 0.9791
0.3701 -4.8772 -2.0019 0.9791
1.2324 -4.7338 -2.0020 0.9791
2.0554 -4.4392 -2.0022 0.9791
2.4439 -4.2379 -2.0022 0.9791
2.8129 -4.0028 -2.0023 0.9791
3.1594 -3.7355 -2.0023 0.9791
3.4806 -3.4384 -2.0024 0.9791
4.0372 -2.7641 -2.0025 0.9791
4.2681 -2.3924 -2.0025 0.9791
4.4649 -2.0015 -2.0026 0.9791
4.8360 -0.7458 -2.0026 0.9791
4.8606 0.5634 -2.0026 0.9791
4.7908 0.9954 -2.0026 0.9791
4.6827 1.4195 -2.0026 0.9791
4.5370 1.8322 -2.0026 0.9791
4.3551 2.2302 -2.0026 0.9791
4.1383 2.6104 -2.0025 0.9791
3.8885 2.9696 -2.0025 0.9791
2.9615 3.8942 -2.0023 0.9791
2.6016 4.1431 -2.0023 0.9791
2.2209 4.3589 -2.0022 0.9791
0.9854 4.7913 -2.0020 0.9791
0.5533 4.8600 -2.0019 0.9791
0.1168 4.8898 -2.0018 0.9791
-0.7553 4.8322 -2.0017 0.9791
-1.1840 4.7452 -2.0016 0.9791
-1.6032 4.6202 -2.0015 0.9791
-2.7707 4.0293 -2.0013 0.9791
-3.1196 3.7655 -2.0013 0.9791
-3.4435 3.4716 -2.0012 0.9791
-3.7398 3.1499 -2.0012 0.9791
-4.0062 2.8031 -2.0011 0.9791
-4.2405 2.4339 -2.0011 0.9791
-4.6059 1.6402 -2.0010 0.9791
-4.7339 1.2221 -2.0010 0.9791
-1.9534 0.1442 -0.8017 0.9916
-1.9137 -0.0302 -0.7833 0.9918
-4.7967 -0.9459 -2.0010 0.9791
-4.6931 -1.3707 -2.0010 0.9791
-4.3743 -2.1842 -2.0011 0.9791
-3.9159 -2.9280 -2.0011 0.9791
-3.3323 -3.5784 -2.0012 0.9791
-2.6424 -4.1146 -2.0014 0.9791
-2.2643 -4.3344 -2.0014 0.9791
-1.8680 -4.5195 -2.0015 0.9791
-1.0338 -4.7802 -2.0016 0.9791
2.3572 -4.2867 -2.0022 0.9791
2.7309 -4.0591 -2.0023 0.9791
3.4100 -3.5084 -2.0024 0.9791
3.9802 -2.8456 -2.0025 0.9791
4.2186 -2.4787 -2.0025 0.9791
4.7251 -1.2712 -2.0026 0.9791
4.8760 -0.4099 -2.0026 0.9791
4.8931 0.0274 -2.0026 0.9791
4.8711 0.4645 -2.0026 0.9791
4.8101 0.8978 -2.0026 0.9791
4.1906 2.5257 -2.0025 0.9791
3.9481 2.8900 -2.0025 0.9791
3.3705 3.5464 -2.0024 0.9791
2.6853 4.0894 -2.0023 0.9791
1.9145 4.5018 -2.0021 0.9791
1.5045 4.6547 -2.0021 0.9791
-0.6569 4.8466 -2.0017 0.9791
-1.5089 4.6519 -2.0016 0.9791
-2.6883 4.0848 -2.0014 0.9791
-3.0424 3.8281 -2.0013 0.9791
-3.3722 3.5409 -2.0012 0.9791
-3.9484 2.8840 -2.0011 0.9791
-4.1902 2.5196 -2.0011 0.9791
-4.3985 2.1351 -2.0011 0.9791
-4.5716 1.7336 -2.0010 0.9791
-2.1912 0.4067 -0.9121 0.9904
-1.9026 0.0087 -0.7787 0.9918
-4.7200 -1.2750 -2.0010 0.9791
-4.5872 -1.6917 -2.0010 0.9791
-4.4178 -2.0948 -2.0011 0.9791
-3.7043 -3.1916 -2.0012 0.9791
-3.4044 -3.5099 -2.0012 0.9791
-3.0773 -3.8001 -2.0013 0.9791
-2.3519 -4.2874 -2.0014 0.9791
-1.9595 -4.4806 -2.0015 0.9791
-1.5514 -4.6379 -2.0015 0.9791
-1.1308 -4.7581 -2.0016 0.9791
-0.7012 -4.8403 -2.0017 0.9791
0.1715 -4.8882 -2.0018 0.9791
0.6076 -4.8535 -2.0019 0.9791
1.4619 -4.6682 -2.0021 0.9791
2.2696 -4.3337 -2.0022 0.9791
2.6478 -4.1137 -2.0023 0.9791
3.0049 -3.8608 -2.0023 0.9791
3.3379 -3.5770 -2.0024 0.9791
4.6982 -1.3670 -2.0026 0.9791
4.8926 -0.0721 -2.0026 0.9791
4.8795 0.3653 -2.0026 0.9791
4.8273 0.7998 -2.0026 0.9791
4.7365 1.2280 -2.0026 0.9791
3.7389 3.1557 -2.0025 0.9791
3.1174 3.7706 -2.0023 0.9791
2.7679 4.0340 -2.0023 0.9791
2.3964 4.2650 -2.0022 0.9791
2.0056 4.4619 -2.0022 0.9791
1.1794 4.7473 -2.0020 0.9791
0.3156 4.8811 -2.0019 0.9791
4.4014 -1.3196 -2.0026 0.9802
4.5938 -0.1051 -2.0026 0.9801
4.5849 0.3058 -2.0026 0.9801
4.5392 0.7142 -2.0026 0.9801
4.4572 1.1169 -2.0026 0.9801
4.3395 1.5107 -2.0026 0.9802
4.0012 2.2589 -2.0025 0.9802
3.7833 2.6073 -2.0025 0.9802
2.6301 3.7670 -2.0023 0.9802
2.2829 3.9868 -2.0022 0.9802
1.9175 4.1747 -2.0021 0.9802
1.5368 4.3292 -2.0021 0.9802
1.1438 4.4490 -2.0020 0.9802
0.3336 4.5813 -2.0019 0.9802
-0.0771 4.5926 -2.0018 0.9802
-0.4871 4.5672 -2.0017 0.9802
-0.8932 4.5052 -2.0017 0.9802
-1.6807 4.2740 -2.0015 0.9802
-2.0558 4.1066 -2.0015 0.9802
-2.4144 3.9064 -2.0014 0.9802
-2.7537 3.6750 -2.0013 0.9802
-3.0710 3.4141 -2.0013 0.9802
-3.3636 3.1260 -2.0012 0.9802
-3.6294 2.8129 -2.0012 0.9802
-3.8661 2.4773 -2.0012 0.9802
-4.0720 2.1219 -2.0011 0.9802
-4.2452 1.7496 -2.0011 0.9802
-1.5281 0.0505 -0.6663 0.9934
-1.5889 -0.5351 -0.7307 0.9927
-4.2031 -1.8484 -2.0011 0.9802
-4.0212 -2.2166 -2.0011 0.9802
-3.8072 -2.5670 -2.0012 0.9802
-3.2896 -3.2038 -2.0013 0.9802
-2.6670 -3.7384 -2.0014 0.9802
-1.9592 -4.1536 -2.0015 0.9802
-1.5803 -4.3122 -2.0015 0.9802
-1.1887 -4.4363 -2.0016 0.9802
-0.7876 -4.5249 -2.0017 0.9802
-0.3801 -4.5773 -2.0017 0.9802
0.0304 -4.5931 -2.0018 0.9802
0.8475 -4.5147 -2.0020 0.9802
1.2475 -4.4211 -2.0020 0.9802
1.6376 -4.2921 -2.0021 0.9802
2.0146 -4.1287 -2.0022 0.9802
2.3755 -3.9323 -2.0022 0.9802
2.7175 -3.7045 -2.0023 0.9802
3.0377 -3.4469 -2.0023 0.9802
3.3336 -3.1618 -2.0024 0.9802
3.6028 -2.8514 -2.0024 0.9802
4.3737 -1.4088 -2.0026 0.9802
4.4821 -1.0124 -2.0026 0.9801
4.5546 -0.6079 -2.0026 0.9801
4.5908 -0.1985 -2.0026 0.9801
4.5901 0.2125 -2.0026 0.9801
4.2247 1.8068 -2.0025 0.9802
3.8356 2.5298 -2.0025 0.9802
3.5941 2.8624 -2.0024 0.9802
2.7061 3.7128 -2.0023 0.9802
2.0020 4.1349 -2.0022 0.9802
1.2340 4.4249 -2.0020 0.9802
-0.3941 4.5762 -2.0018 0.9802
-1.9718 4.1476 -2.0015 0.9802
-2.3345 3.9547 -2.0014 0.9802
-2.6784 3.7302 -2.0014 0.9802
-3.0009 3.4759 -2.0013 0.9802
-4.2088 1.8355 -2.0011 0.9802
-1.5877 0.5293 -0.7294 0.9927
-1.5151 0.2179 -0.6671 0.9933
-1.5205 -0.1919 -0.6679 0.9933
-1.5803 -0.4966 -0.7219 0.9928
-4.0655 -2.1343 -2.0011 0.9802
-3.8585 -2.4891 -2.0012 0.9802
-3.3541 -3.1362 -2.0012 0.9802
-2.7424 -3.6833 -2.0013 0.9802
-2.4024 -3.9138 -2.0014 0.9802
-1.6676 -4.2791 -2.0015 0.9802
0.3476 -4.5802 -2.0019 0.9802
0.7555 -4.5310 -2.0019 0.9802
1.5500 -4.3245 -2.0021 0.9802
2.6415 -3.7589 -2.0023 0.9802
2.9669 -3.5080 -2.0023 0.9802
3.7913 -2.5957 -2.0025 0.9802
4.1929 -1.8796 -2.0025 0.9802
4.4606 -1.1033 -2.0026 0.9802
4.5413 -0.7004 -2.0026 0.9801
4.5858 -0.2918 -2.0026 0.9801
4.5935 0.1191 -2.0026 0.9801
4.4989 0.9348 -2.0026 0.9801
4.2606 1.7206 -2.0025 0.9802
3.8862 2.4513 -2.0025 0.9802
3.6516 2.7887 -2.0024 0.9802
3.0968 3.3940 -2.0023 0.9802
2.4431 3.8907 -2.0022 0.9802
2.0857 4.0934 -2.0022 0.9802
1.3237 4.3989 -2.0020 0.9802
0.5196 4.5640 -2.0019 0.9802
-1.5055 4.3389 -2.0016 0.9802
-1.8871 4.1869 -2.0015 0.9802
-2.6020 3.7839 -2.0014 0.9802
-2.9296 3.5362 -2.0013 0.9802
-3.5121 2.9581 -2.0012 0.9802
-3.7623 2.6325 -2.0012 0.9802
-3.9824 2.2857 -2.0011 0.9802
-4.1706 1.9207 -2.0011 0.9802
-1.5072 0.2481 -0.6657 0.9934
-1.5292 0.1129 -0.6683 0.9933
-1.5252 -0.1611 -0.6684 0.9933
-1.5699 -0.4585 -0.7128 0.9929
-3.9083 -2.4101 -2.0011 0.9802
-2.1264 -4.0705 -2.0014 0.9802
-1.7542 -4.2443 -2.0015 0.9802
-1.3680 -4.3842 -2.0016 0.9802
-0.9709 -4.4891 -2.0016 0.9802
-0.5659 -4.5580 -2.0017 0.9802
0.6632 -4.5454 -2.0019 0.9802
1.0667 -4.4681 -2.0020 0.9802
2.5646 -3.8118 -2.0022 0.9802
2.8950 -3.5675 -2.0023 0.9802
3.2022 -3.2947 -2.0024 0.9802
3.4839 -2.9955 -2.0024 0.9802
3.7377 -2.6723 -2.0024 0.9802
4.1538 -1.9644 -2.0025 0.9802
4.3127 -1.5854 -2.0025 0.9802
4.4372 -1.1938 -2.0026 0.9802
4.5262 -0.7925 -2.0026 0.9801
4.5950 0.0257 -2.0026 0.9801
4.5743 0.4362 -2.0026 0.9801
4.5170 0.8431 -2.0026 0.9801
4.1315 2.0108 -2.0025 0.9802
3.4502 3.0343 -2.0024 0.9802
3.1652 3.3303 -2.0024 0.9802
2.5218 3.8403 -2.0022 0.9802
2.1685 4.0501 -2.0022 0.9802
1.7979 4.2276 -2.0021 0.9802
1.4129 4.3711 -2.0021 0.9802
-0.2077 4.5885 -2.0018 0.9802
-1.8016 4.2244 -2.0015 0.9802
-2.1718 4.0464 -2.0014 0.9802
-2.5246 3.8361 -2.0014 0.9802
-2.8571 3.5951 -2.0013 0.9802
-3.9351 2.3662 -2.0011 0.9802
-4.2933 1.6280 -2.0011 0.9802
-1.5634 0.4377 -0.7075 0.9929
-1.4976 0.2780 -0.6638 0.9934
-1.5271 0.1440 -0.6685 0.9933
-1.5232 0.0070 -0.6639 0.9934
-1.5283 -0.1301 -0.6685 0.9933
-3.7326 -2.6744 -2.0012 0.9802
-2.8899 -3.5687 -2.0013 0.9802
-2.2087 -4.0264 -2.0014 0.9802
0.9756 -4.4888 -2.0020 0.9802
1.3728 -4.3838 -2.0020 0.9802
2.4865 -3.8632 -2.0022 0.9802
3.1346 -3.3591 -2.0023 0.9802
3.4223 -3.0657 -2.0024 0.9802
3.6826 -2.7477 -2.0024 0.9802
3.9134 -2.4077 -2.0025 0.9802
4.1130 -2.0485 -2.0025 0.9802
4.2796 -1.6728 -2.0025 0.9802
4.4120 -1.2837 -2.0026 0.9802
4.5091 -0.8844 -2.0026 0.9801
4.5701 -0.4780 -2.0026 0.9801
4.5945 -0.0677 -2.0026 0.9801
4.5822 0.3431 -2.0026 0.9801
4.3271 1.5459 -2.0026 0.9802
4.1716 1.9264 -2.0025 0.9802
3.9827 2.2913 -2.0025 0.9802
3.7620 2.6380 -2.0025 0.9802
2.5993 3.7882 -2.0023 0.9802
1.8835 4.1902 -2.0021 0.9802
1.5015 4.3415 -2.0021 0.9802
1.1076 4.4582 -2.0020 0.9802
0.2964 4.5838 -2.0019 0.9802
-0.1144 4.5918 -2.0018 0.9802
4.2384 -0.8672 -2.0025 0.9811
4.2990 -0.4850 -2.0025 0.9811
4.3251 -0.0990 -2.0026 0.9811
3.9422 1.7817 -2.0025 0.9811
3.5620 2.4548 -2.0024 0.9811
3.3284 2.7632 -2.0024 0.9811
2.7833 3.3113 -2.0023 0.9811
