ply
format ascii 1.0
element vertex 1600
property float32 x
property float32 y
property float32 z
property float32 I
end_header
5.9700 -6.2224 -2.0266 0.9652
6.4917 -5.6561 -2.0236 0.9652
6.9595 -5.0460 -2.0203 0.9653
8.3831 -1.5294 -2.0027 0.9656
8.4909 -0.0144 -1.9956 0.9657
8.4434 0.7422 -1.9920 0.9658
8.3291 1.4903 -1.9886 0.9658
7.9057 2.9379 -1.9822 0.9659
7.6004 3.6264 -1.9792 0.9660
7.2361 4.2843 -1.9764 0.9660
4.6492 6.9535 -1.9659 0.9662
4.0073 7.3359 -1.9646 0.9662
2.6368 7.9247 -1.9629 0.9663
1.9186 8.1268 -1.9625 0.9663
0.4094 7.7052 -1.8135 0.9688
-0.2801 7.7131 -1.8140 0.9688
-2.9693 7.1461 -1.8187 0.9687
-4.9922 5.3445 -1.7188 0.9704
-6.6541 4.0920 -1.8359 0.9684
-7.2624 3.6159 -1.9067 0.9672
-7.8905 3.0839 -1.9911 0.9658
-8.1599 2.3748 -1.9973 0.9657
-8.3543 1.6399 -2.0009 0.9656
-8.5362 -0.6354 -2.0117 0.9654
-7.4836 -4.2967 -2.0281 0.9652
-7.0799 -4.9542 -2.0309 0.9651
-6.1007 -6.1487 -2.0357 0.9650
-5.5330 -6.6754 -2.0377 0.9650
-3.5743 -7.9194 -2.0420 0.9649
-2.8543 -8.2101 -2.0428 0.9649
-2.1106 -8.4340 -2.0433 0.9649
-0.5773 -8.6746 -2.0432 0.9649
1.7393 -8.5068 -2.0406 0.9650
3.9205 -7.7216 -2.0353 0.9650
4.5887 -7.3324 -2.0329 0.9651
5.2182 -6.8847 -2.0303 0.9651
5.8039 -6.3826 -2.0275 0.9652
6.8254 -5.2329 -2.0213 0.9653
7.2533 -4.5953 -2.0180 0.9653
8.3437 -1.7541 -2.0038 0.9656
8.4517 -1.0005 -2.0002 0.9656
8.4920 -0.2417 -1.9966 0.9657
8.4647 0.5163 -1.9931 0.9658
8.3703 1.2676 -1.9896 0.9658
8.2099 2.0063 -1.9863 0.9659
5.9826 5.8705 -1.9699 0.9661
5.4294 6.3748 -1.9680 0.9662
4.8346 6.8282 -1.9663 0.9662
4.2029 7.2274 -1.9649 0.9662
2.8481 7.8521 -1.9631 0.9663
-0.0737 7.7171 -1.8138 0.9688
-1.4460 7.5880 -1.8154 0.9688
-2.1189 7.4338 -1.8167 0.9687
-2.7763 7.2210 -1.8182 0.9687
-3.4131 6.9511 -1.8200 0.9687
-4.0243 6.6259 -1.8220 0.9686
-4.6053 6.2479 -1.8242 0.9686
-5.6585 5.3443 -1.8293 0.9685
-6.5390 4.2664 -1.8350 0.9684
-6.9902 3.7170 -1.8607 0.9680
-7.7904 3.2877 -1.9873 0.9659
-8.3030 1.8618 -1.9999 0.9656
-8.5325 0.3571 -2.0071 0.9655
-8.5456 -0.4066 -2.0107 0.9655
-8.4901 -1.1698 -2.0142 0.9654
-8.3661 -1.9263 -2.0177 0.9653
-7.9158 -3.3941 -2.0242 0.9652
-7.2070 -4.7612 -2.0301 0.9651
-6.7620 -5.3924 -2.0327 0.9651
-5.1075 -7.0129 -2.0390 0.9650
-2.3353 -8.3741 -2.0432 0.9649
-1.5787 -8.5501 -2.0434 0.9649
-0.8092 -8.6564 -2.0433 0.9649
0.7424 -8.6573 -2.0421 0.9649
3.0033 -8.1344 -2.0379 0.9650
5.0342 -7.0246 -2.0311 0.9651
6.1856 -6.0007 -2.0254 0.9652
6.6861 -5.4163 -2.0223 0.9653
7.5177 -4.1274 -2.0156 0.9654
7.8424 -3.4339 -2.0121 0.9654
8.4264 -1.2269 -2.0013 0.9656
8.4870 -0.4690 -1.9977 0.9657
8.4799 0.2899 -1.9941 0.9657
7.0740 4.5385 -1.9753 0.9661
6.6322 5.1453 -1.9728 0.9661
5.5995 6.2290 -1.9685 0.9662
3.7408 7.4733 -1.9641 0.9662
1.6244 8.1829 -1.9607 0.9663
0.8332 7.7875 -1.8407 0.9683
0.1328 7.7156 -1.8136 0.9688
-0.5566 7.6993 -1.8142 0.9688
-2.5815 7.2907 -1.8177 0.9687
-4.8281 5.7577 -1.7660 0.9696
-5.9882 4.9850 -1.8312 0.9685
-6.8011 3.8533 -1.8371 0.9684
-8.0127 2.8048 -1.9952 0.9657
-8.2458 2.0821 -1.9988 0.9657
-8.5153 0.5849 -2.0060 0.9655
-8.5488 -0.1778 -2.0096 0.9655
-8.4103 -1.7009 -2.0166 0.9654
5.2098 -5.8353 -2.0254 0.9682
5.7023 -5.3398 -2.0227 0.9682
6.1474 -4.8027 -2.0198 0.9683
6.8825 -3.6222 -2.0137 0.9684
7.1670 -2.9887 -2.0105 0.9684
7.3932 -2.3332 -2.0073 0.9685
7.5595 -1.6613 -2.0040 0.9685
7.7092 -0.2898 -1.9975 0.9686
7.6136 1.0821 -1.9911 0.9687
7.4751 1.7547 -1.9880 0.9688
7.2779 2.4114 -1.9851 0.9688
6.7149 3.6570 -1.9797 0.9689
5.9436 4.7814 -1.9750 0.9690
4.4524 6.1684 -1.9697 0.9691
3.8815 6.5370 -1.9684 0.9691
3.2808 6.8538 -1.9674 0.9691
2.6550 7.1166 -1.9667 0.9691
2.0087 7.3234 -1.9662 0.9691
-0.0030 7.0177 -1.8170 0.9714
-1.8648 6.7757 -1.8196 0.9714
-2.4640 6.5871 -1.8209 0.9714
-3.6026 6.0553 -1.8243 0.9713
-4.1332 5.7158 -1.8263 0.9713
-5.5212 4.4337 -1.8334 0.9712
-6.7343 3.6600 -1.9845 0.9688
-7.3216 2.4188 -1.9965 0.9686
-7.5205 1.7585 -1.9997 0.9686
-7.7556 -0.2982 -2.0096 0.9684
-7.7104 -0.9909 -2.0128 0.9684
-6.5717 -4.2560 -2.0272 0.9682
-6.1729 -4.8312 -2.0296 0.9681
-5.7231 -5.3687 -2.0317 0.9681
-2.8507 -7.3400 -2.0388 0.9680
-1.5008 -7.7329 -2.0395 0.9680
1.2988 -7.7613 -2.0375 0.9680
1.9852 -7.6098 -2.0362 0.9680
2.6545 -7.3967 -2.0347 0.9681
5.0538 -5.9749 -2.0262 0.9682
6.0193 -4.9676 -2.0207 0.9683
6.4293 -4.4040 -2.0177 0.9683
6.7863 -3.8068 -2.0147 0.9684
7.3317 -2.5314 -2.0083 0.9685
7.5161 -1.8638 -2.0050 0.9685
7.7024 -0.4961 -1.9984 0.9686
7.6433 0.8785 -1.9920 0.9687
7.5228 1.5548 -1.9889 0.9688
7.3430 2.2168 -1.9860 0.9688
7.1057 2.8593 -1.9832 0.9688
6.4672 4.0665 -1.9780 0.9689
5.6286 5.1402 -1.9736 0.9690
2.2040 7.2675 -1.9663 0.9691
-1.0663 6.9408 -1.8182 0.9714
-3.4383 6.1476 -1.8238 0.9713
-4.9615 5.0347 -1.8302 0.9712
-5.3984 4.5779 -1.8326 0.9712
-6.6085 3.8242 -1.9769 0.9689
-6.9764 3.2436 -1.9920 0.9687
-7.4672 1.9581 -1.9987 0.9686
-7.7216 0.6012 -2.0053 0.9685
-7.4910 -2.1525 -2.0180 0.9683
-6.6807 -4.0771 -2.0264 0.9682
-6.2978 -4.6628 -2.0289 0.9681
-5.3796 -5.7202 -2.0331 0.9681
-4.8517 -6.1829 -2.0349 0.9680
-4.2836 -6.5961 -2.0364 0.9680
-3.6800 -6.9563 -2.0376 0.9680
-2.3863 -7.5055 -2.0392 0.9680
-1.7071 -7.6898 -2.0395 0.9680
-0.3126 -7.8699 -2.0393 0.9680
0.3910 -7.8641 -2.0387 0.9680
1.7813 -7.6617 -2.0366 0.9680
2.4563 -7.4668 -2.0352 0.9680
3.1104 -7.2117 -2.0335 0.9681
3.7380 -6.8986 -2.0315 0.9681
5.4129 -5.6418 -2.0243 0.9682
6.6851 -3.9888 -2.0156 0.9683
7.0035 -3.3709 -2.0125 0.9684
7.2648 -2.7280 -2.0092 0.9684
7.6902 -0.7023 -1.9994 0.9686
7.6677 0.6740 -1.9930 0.9687
7.5651 1.3536 -1.9899 0.9687
7.4029 2.0204 -1.9869 0.9688
7.1827 2.6693 -1.9840 0.9688
6.9063 3.2952 -1.9813 0.9689
6.5761 3.8935 -1.9787 0.9689
6.1949 4.4596 -1.9764 0.9690
5.7659 4.9893 -1.9742 0.9690
5.2923 5.4787 -1.9723 0.9690
4.7781 5.9242 -1.9706 0.9690
3.6438 6.6705 -1.9680 0.9691
3.0324 6.9659 -1.9671 0.9691
2.3978 7.2064 -1.9664 0.9691
1.7447 7.3903 -1.9661 0.9691
1.0771 7.5096 -1.9643 0.9691
0.3879 7.3020 -1.8933 0.9702
-0.2547 7.0139 -1.8172 0.9714
-0.8801 6.9659 -1.8179 0.9714
-1.4991 6.8631 -1.8189 0.9714
-3.8191 5.9247 -1.8251 0.9713
-4.3376 5.5665 -1.8272 0.9713
-5.2718 4.7187 -1.8319 0.9712
-6.3656 3.9145 -1.9349 0.9696
-6.8759 3.4235 -1.9888 0.9688
-7.1749 2.8042 -1.9946 0.9687
-7.4085 2.1561 -1.9978 0.9686
-7.6990 0.8071 -2.0043 0.9685
-7.7530 0.1169 -2.0076 0.9685
-7.5425 -1.9505 -2.0171 0.9683
-7.3492 -2.6198 -2.0201 0.9683
-7.0960 -3.2699 -2.0230 0.9682
-6.7848 -3.8955 -2.0257 0.9682
-5.5291 -5.5727 -2.0326 0.9681
-3.8641 -6.8542 -2.0373 0.9680
-1.9122 -7.6411 -2.0394 0.9680
-1.2226 -7.7818 -2.0396 0.9680
0.1805 -7.8726 -2.0389 0.9680
0.8821 -7.8220 -2.0381 0.9680
2.2562 -7.5315 -2.0357 0.9680
3.5532 -6.9983 -2.0322 0.9681
4.1594 -6.6462 -2.0300 0.9681
4.7305 -6.2412 -2.0277 0.9682
5.7499 -5.2869 -2.0224 0.9682
6.1900 -4.7458 -2.0195 0.9683
6.5791 -4.1681 -2.0165 0.9683
6.9141 -3.5587 -2.0134 0.9684
7.1927 -2.9227 -2.0102 0.9684
7.4129 -2.2654 -2.0070 0.9685
7.6724 -0.9083 -2.0004 0.9686
7.7102 -0.2194 -1.9971 0.9686
7.6022 1.1513 -1.9908 0.9687
7.4577 1.8225 -1.9877 0.9688
7.2546 2.4772 -1.9848 0.9688
5.8991 4.8348 -1.9748 0.9690
5.4385 5.3367 -1.9728 0.9690
4.9361 5.7956 -1.9711 0.9690
2.5899 7.1403 -1.9666 0.9691
1.9418 7.3413 -1.9662 0.9691
0.6003 7.5036 -1.9490 0.9694
-0.0670 7.0175 -1.8170 0.9714
-2.5241 6.5649 -1.8211 0.9714
-3.1027 6.3190 -1.8227 0.9713
-3.6580 6.0229 -1.8245 0.9713
-4.6815 5.2887 -1.8288 0.9712
-6.1324 4.0010 -1.8958 0.9702
-6.7710 3.6004 -1.9856 0.9688
-7.3446 2.3524 -1.9968 0.9686
-7.6709 1.0123 -2.0033 0.9685
-7.7433 0.3241 -2.0066 0.9685
-7.7023 -1.0613 -2.0131 0.9684
-7.4134 -2.4212 -2.0192 0.9683
-7.1780 -3.0777 -2.0221 0.9682
-5.6745 -5.4212 -2.0320 0.9681
-2.7838 -7.3659 -2.0388 0.9680
-2.1158 -7.5869 -2.0393 0.9680
-0.0302 -7.8753 -2.0391 0.9680
1.3694 -7.7487 -2.0374 0.9680
2.0543 -7.5908 -2.0361 0.9680
3.3657 -7.0929 -2.0327 0.9681
3.9814 -6.7573 -2.0307 0.9681
4.5635 -6.3678 -2.0284 0.9681
5.1074 -5.9278 -2.0259 0.9682
5.6087 -5.4411 -2.0233 0.9682
6.0635 -4.9118 -2.0204 0.9683
6.4681 -4.3446 -2.0174 0.9683
7.3532 -2.4641 -2.0079 0.9685
7.5315 -1.7950 -2.0047 0.9685
7.6491 -1.1137 -2.0014 0.9686
7.6338 0.9480 -1.9917 0.9687
7.5071 1.6231 -1.9886 0.9688
7.3214 2.2833 -1.9857 0.9688
7.0783 2.9235 -1.9829 0.9689
6.7801 3.5389 -1.9802 0.9689
6.4291 4.1248 -1.9777 0.9689
5.0906 5.6629 -1.9716 0.9690
3.9967 6.4682 -1.9687 0.9691
3.4015 6.7955 -1.9676 0.9691
2.7803 7.0691 -1.9668 0.9691
1.4785 7.4479 -1.9660 0.9691
-1.7447 6.8067 -1.8193 0.9714
-2.3470 6.6285 -1.8206 0.9714
-4.5366 5.4101 -1.8281 0.9712
-5.0078 4.9899 -1.8304 0.9712
-5.9079 4.0841 -1.8596 0.9708
-7.4859 1.8903 -1.9991 0.9686
-7.6373 1.2165 -2.0024 0.9686
-7.7281 0.5309 -2.0056 0.9685
-7.7572 -0.1613 -2.0089 0.9684
4.7602 -5.3317 -2.0234 0.9707
5.9794 -3.8650 -2.0156 0.9708
6.5526 -2.7325 -2.0098 0.9709
6.7603 -2.1335 -2.0068 0.9710
6.9134 -1.5193 -2.0038 0.9710
7.0109 -0.8948 -2.0008 0.9710
7.0374 0.3649 -1.9949 0.9711
6.6612 2.2070 -1.9866 0.9712
6.4294 2.7892 -1.9840 0.9713
5.8174 3.8789 -1.9794 0.9714
5.0251 4.8419 -1.9755 0.9714
4.0778 5.6495 -1.9724 0.9715
3.0051 6.2778 -1.9703 0.9715
1.8400 6.7083 -1.9692 0.9715
0.6177 6.9263 -1.9686 0.9715
-1.7079 6.2058 -1.8221 0.9736
-2.2566 6.0327 -1.8234 0.9736
-2.7882 5.8118 -1.8248 0.9736
-3.2988 5.5447 -1.8265 0.9735
-3.7844 5.2334 -1.8283 0.9735
-4.2411 4.8801 -1.8303 0.9735
-6.1799 3.3587 -1.9912 0.9712
-6.8790 1.6085 -1.9999 0.9711
-7.0056 0.9895 -2.0029 0.9710
-6.7943 -2.1507 -2.0175 0.9708
-6.3198 -3.3330 -2.0227 0.9707
-5.6391 -4.4135 -2.0272 0.9707
-4.7733 -5.3557 -2.0309 0.9706
-3.1899 -6.4411 -2.0348 0.9706
-2.6032 -6.7027 -2.0356 0.9706
-1.3705 -7.0613 -2.0363 0.9705
-0.7347 -7.1552 -2.0362 0.9705
1.1861 -7.0878 -2.0344 0.9706
1.8130 -6.9498 -2.0333 0.9706
2.4245 -6.7556 -2.0319 0.9706
3.0154 -6.5070 -2.0303 0.9706
3.5809 -6.2063 -2.0284 0.9707
4.1164 -5.8559 -2.0264 0.9707
4.6175 -5.4590 -2.0241 0.9707
6.2035 -3.4798 -2.0136 0.9709
6.4800 -2.9080 -2.0107 0.9709
6.7038 -2.3146 -2.0077 0.9709
6.9876 -1.0825 -2.0017 0.9710
7.0458 -0.4538 -1.9987 0.9711
6.9936 0.8038 -1.9929 0.9712
6.7206 2.0289 -1.9874 0.9712
6.5042 2.6172 -1.9848 0.9713
6.2369 3.1834 -1.9823 0.9713
5.9210 3.7231 -1.9800 0.9713
5.5592 4.2322 -1.9779 0.9714
5.1542 4.7070 -1.9760 0.9714
4.2283 5.5395 -1.9728 0.9714
3.1724 6.1959 -1.9706 0.9715
2.6057 6.4519 -1.9698 0.9715
2.0189 6.6570 -1.9693 0.9715
1.4165 6.8098 -1.9691 0.9715
0.1825 6.9338 -1.9636 0.9716
-2.6311 5.8828 -1.8244 0.9736
-3.1484 5.6294 -1.8260 0.9735
-3.6419 5.3311 -1.8277 0.9735
-4.1076 4.9901 -1.8297 0.9735
-5.1212 4.3429 -1.9009 0.9725
-6.8305 1.7911 -1.9990 0.9711
-6.8467 -1.9674 -2.0167 0.9708
-6.6526 -2.5741 -2.0194 0.9708
-5.7534 -4.2597 -2.0266 0.9707
-4.9137 -5.2248 -2.0304 0.9706
-2.1791 -6.8537 -2.0359 0.9705
-1.5588 -7.0219 -2.0363 0.9705
-0.9259 -7.1331 -2.0363 0.9705
0.3571 -7.1814 -2.0355 0.9706
2.2434 -6.8196 -2.0323 0.9706
2.8409 -6.5870 -2.0308 0.9706
3.4145 -6.3016 -2.0290 0.9706
4.4713 -5.5825 -2.0248 0.9707
6.8284 -1.8886 -2.0056 0.9710
6.9593 -1.2696 -2.0026 0.9710
7.0343 -0.6424 -1.9996 0.9711
6.9227 1.2387 -1.9909 0.9712
6.7752 1.8491 -1.9882 0.9712
6.5744 2.4432 -1.9855 0.9713
6.3221 3.0165 -1.9830 0.9713
5.6721 4.0833 -1.9785 0.9714
5.2798 4.5687 -1.9766 0.9714
4.8466 5.0172 -1.9748 0.9714
4.3759 5.4255 -1.9733 0.9714
3.8716 5.7906 -1.9719 0.9715
2.7776 6.3805 -1.9700 0.9715
2.1964 6.6010 -1.9694 0.9715
0.9875 6.8850 -1.9690 0.9715
-0.8061 6.3804 -1.8206 0.9736
-1.3731 6.2860 -1.8215 0.9736
-1.9299 6.1421 -1.8226 0.9736
-3.4969 5.4250 -1.8272 0.9735
-3.9713 5.0965 -1.8291 0.9735
-4.9301 4.4129 -1.8731 0.9729
-5.5915 4.1694 -1.9745 0.9714
-5.9808 3.6779 -1.9877 0.9712
-6.3000 3.1367 -1.9923 0.9712
-6.7771 1.9723 -1.9981 0.9711
-6.8940 -1.7828 -2.0158 0.9708
-6.7164 -2.3943 -2.0186 0.9708
-6.4843 -2.9880 -2.0212 0.9708
-6.1992 -3.5592 -2.0236 0.9707
-5.8634 -4.1030 -2.0259 0.9707
-5.4794 -4.6148 -2.0280 0.9707
-5.0504 -5.0902 -2.0299 0.9706
-4.0711 -5.9161 -2.0330 0.9706
0.8056 -7.1431 -2.0350 0.9706
1.4392 -7.0393 -2.0340 0.9706
2.6643 -6.6623 -2.0313 0.9706
4.3218 -5.7020 -2.0255 0.9707
4.8080 -5.2874 -2.0232 0.9707
5.2543 -4.8312 -2.0207 0.9708
6.3206 -3.2533 -2.0124 0.9709
6.5762 -2.6722 -2.0095 0.9709
6.7784 -2.0715 -2.0065 0.9710
6.9259 -1.4560 -2.0035 0.9710
7.0327 0.4290 -1.9946 0.9711
6.6400 2.2674 -1.9863 0.9713
6.1158 3.4034 -1.9814 0.9713
5.4016 4.4271 -1.9771 0.9714
4.5205 5.3077 -1.9737 0.9714
3.5002 6.0192 -1.9711 0.9715
2.9477 6.3047 -1.9702 0.9715
1.7787 6.7247 -1.9692 0.9715
1.1713 6.8561 -1.9690 0.9715
-0.6373 6.4213 -1.8268 0.9735
-1.2043 6.3195 -1.8212 0.9736
-2.8413 5.7867 -1.8250 0.9736
-3.8324 5.1993 -1.8285 0.9735
-5.8724 3.8314 -1.9850 0.9713
-6.2112 3.3027 -1.9915 0.9712
-6.4905 2.7391 -1.9943 0.9711
-6.7189 2.1520 -1.9973 0.9711
-7.0807 0.2964 -2.0062 0.9710
-7.0894 -0.3373 -2.0092 0.9709
-7.0412 -0.9702 -2.0121 0.9709
-6.9363 -1.5971 -2.0150 0.9708
-5.9691 -3.9434 -2.0253 0.9707
-5.1834 -4.9519 -2.0294 0.9706
-3.6944 -6.1619 -2.0339 0.9706
-1.9320 -6.9280 -2.0361 0.9705
-1.3061 -7.0735 -2.0363 0.9705
-0.6695 -7.1615 -2.0362 0.9705
-0.0276 -7.1914 -2.0359 0.9705
0.6143 -7.1629 -2.0352 0.9706
1.2506 -7.0764 -2.0343 0.9706
1.8762 -6.9325 -2.0332 0.9706
3.6369 -6.1727 -2.0282 0.9707
4.1691 -5.8175 -2.0261 0.9707
4.6665 -5.4161 -2.0239 0.9707
5.1251 -4.9719 -2.0214 0.9708
5.5413 -4.4889 -2.0188 0.9708
5.9119 -3.9710 -2.0161 0.9708
6.2340 -3.4226 -2.0133 0.9709
6.5052 -2.8484 -2.0104 0.9709
6.7236 -2.2531 -2.0074 0.9710
6.9961 -1.0187 -2.0014 0.9710
7.0485 -0.3895 -1.9984 0.9711
6.7009 2.0897 -1.9871 0.9712
6.4792 2.6760 -1.9845 0.9713
5.8862 3.7765 -1.9798 0.9713
5.5198 4.2823 -1.9777 0.9714
5.1106 4.7533 -1.9758 0.9714
4.6620 5.1861 -1.9742 0.9714
4.1774 5.5774 -1.9727 0.9714
3.1157 6.2243 -1.9705 0.9715
1.9581 6.6750 -1.9693 0.9715
-0.4725 6.5352 -1.8549 0.9731
-1.5980 6.2342 -1.8219 0.9736
-2.6848 5.8591 -1.8245 0.9736
-3.6907 5.2983 -1.8279 0.9735
-5.7602 3.9819 -1.9824 0.9713
-6.4121 2.9105 -1.9935 0.9712
-6.6560 2.3299 -1.9964 0.9711
-7.0670 0.4855 -2.0053 0.9710
-7.0927 -0.1475 -2.0083 0.9709
-6.9737 -1.4103 -2.0142 0.9709
4.3775 -4.9031 -2.0217 0.9729
4.7923 -4.4877 -2.0194 0.9729
5.1676 -4.0373 -2.0170 0.9729
5.5005 -3.5554 -2.0145 0.9730
5.7883 -3.0463 -2.0119 0.9730
6.2210 -1.9633 -2.0065 0.9731
6.4790 0.3360 -1.9955 0.9732
6.4146 0.9117 -1.9928 0.9732
5.6626 3.0839 -1.9832 0.9734
5.3591 3.5733 -1.9812 0.9734
5.0140 4.0335 -1.9793 0.9734
4.6300 4.4611 -1.9776 0.9735
3.7576 5.2059 -1.9748 0.9735
2.7694 5.7853 -1.9728 0.9735
2.2412 6.0075 -1.9722 0.9735
1.6957 6.1824 -1.9718 0.9735
1.1370 6.3085 -1.9716 0.9735
-0.5733 6.3662 -1.9660 0.9736
-1.5908 5.7803 -1.8440 0.9752
-2.0827 5.5680 -1.8285 0.9754
-2.5691 5.3549 -1.8268 0.9755
-3.5354 4.8891 -1.8557 0.9751
-4.0792 4.6938 -1.9127 0.9743
-4.6343 4.4576 -1.9778 0.9734
-5.0309 4.0400 -1.9846 0.9734
-5.6904 3.0927 -1.9920 0.9733
-6.1661 2.0371 -1.9974 0.9732
-6.5123 0.3320 -2.0056 0.9731
-6.0554 -2.5313 -2.0187 0.9729
-5.8120 -3.0652 -2.0210 0.9729
-5.5211 -3.5756 -2.0232 0.9728
-4.8064 -4.5088 -2.0270 0.9728
-3.4473 -5.6327 -2.0312 0.9727
-1.8338 -6.3513 -2.0333 0.9727
-0.6753 -6.5767 -2.0335 0.9727
-0.0856 -6.6097 -2.0332 0.9727
1.0903 -6.5152 -2.0318 0.9727
3.2924 -5.7062 -2.0263 0.9728
3.7850 -5.3845 -2.0244 0.9728
4.2462 -5.0201 -2.0223 0.9729
5.4054 -3.7027 -2.0153 0.9730
5.7070 -3.2014 -2.0127 0.9730
5.9621 -2.6756 -2.0100 0.9730
6.1688 -2.1299 -2.0073 0.9731
6.3255 -1.5686 -2.0045 0.9731
6.4314 -0.9964 -2.0018 0.9731
6.4857 -0.4178 -1.9990 0.9732
6.4883 0.1626 -1.9963 0.9732
6.4393 0.7401 -1.9936 0.9732
6.3392 1.3102 -1.9910 0.9733
6.1892 1.8684 -1.9885 0.9733
5.9905 2.4105 -1.9861 0.9733
5.7449 2.9323 -1.9839 0.9734
5.1215 3.8991 -1.9798 0.9734
4.3393 4.7396 -1.9765 0.9735
3.8963 5.1044 -1.9751 0.9735
3.4231 5.4287 -1.9740 0.9735
2.9235 5.7099 -1.9730 0.9735
2.4013 5.9459 -1.9724 0.9735
1.8606 6.1351 -1.9719 0.9735
1.3054 6.2759 -1.9717 0.9735
0.7400 6.3674 -1.9717 0.9735
0.1687 6.4089 -1.9719 0.9735
-0.9486 6.1748 -1.9215 0.9742
-1.9300 5.6127 -1.8256 0.9755
-2.4243 5.4205 -1.8264 0.9755
-2.9008 5.1866 -1.8278 0.9754
-3.9131 4.7538 -1.8938 0.9746
-5.6035 3.2426 -1.9913 0.9733
-6.2875 1.6488 -1.9993 0.9732
-6.4984 0.5059 -2.0048 0.9731
-6.5265 -0.0762 -2.0076 0.9731
-6.4261 -1.2388 -2.0129 0.9730
-6.1188 -2.3675 -2.0180 0.9729
-5.8899 -2.9076 -2.0203 0.9729
-5.6130 -3.4255 -2.0225 0.9729
-4.5174 -4.8035 -2.0282 0.9728
-3.5962 -5.5376 -2.0309 0.9727
-3.0891 -5.8394 -2.0319 0.9727
-0.8510 -6.5564 -2.0335 0.9727
-0.2624 -6.6054 -2.0333 0.9727
2.6118 -6.0558 -2.0285 0.9728
3.6407 -5.4854 -2.0250 0.9728
4.5485 -4.7409 -2.0208 0.9729
4.9479 -4.3110 -2.0185 0.9729
5.8907 -2.8353 -2.0108 0.9730
6.2839 -1.7380 -2.0054 0.9731
6.4051 -1.1685 -2.0026 0.9731
6.4749 -0.5914 -1.9998 0.9732
6.4593 0.5678 -1.9944 0.9732
6.3745 1.1406 -1.9918 0.9733
6.2393 1.7028 -1.9893 0.9733
6.0550 2.2502 -1.9868 0.9733
5.5460 3.2836 -1.9824 0.9734
5.2255 3.7617 -1.9804 0.9734
3.5677 5.3360 -1.9743 0.9735
3.0756 5.6303 -1.9733 0.9735
2.0242 6.0835 -1.9720 0.9735
0.9101 6.3453 -1.9716 0.9735
0.3401 6.4018 -1.9718 0.9735
-0.7935 6.2807 -1.9472 0.9739
-1.2994 5.9486 -1.8728 0.9748
-3.2293 5.0098 -1.8333 0.9754
-4.3072 4.6112 -1.9408 0.9739
-4.7975 4.2942 -1.9804 0.9734
-5.5126 3.3900 -1.9905 0.9733
-6.0434 2.3620 -1.9957 0.9732
-6.5236 0.0984 -2.0067 0.9731
-6.5151 -0.4850 -2.0095 0.9730
-6.1777 -2.2022 -2.0173 0.9729
-5.9636 -2.7481 -2.0196 0.9729
-5.3915 -3.7728 -2.0240 0.9728
-5.0380 -4.2430 -2.0259 0.9728
-4.2101 -5.0794 -2.0292 0.9728
-3.7424 -5.4384 -2.0305 0.9728
-2.7184 -6.0230 -2.0325 0.9727
-1.6049 -6.4134 -2.0334 0.9727
-1.0261 -6.5313 -2.0335 0.9727
-0.4390 -6.5964 -2.0334 0.9727
0.1515 -6.6079 -2.0330 0.9727
0.7405 -6.5659 -2.0323 0.9727
1.3230 -6.4707 -2.0314 0.9727
1.8942 -6.3232 -2.0303 0.9728
2.4494 -6.1248 -2.0289 0.9728
2.9840 -5.8772 -2.0273 0.9728
4.4216 -4.8625 -2.0215 0.9729
4.8325 -4.4434 -2.0192 0.9729
5.2035 -3.9895 -2.0168 0.9729
5.5319 -3.5047 -2.0142 0.9730
6.0509 -2.4588 -2.0089 0.9730
6.2377 -1.9063 -2.0062 0.9731
6.4748 0.3950 -1.9952 0.9732
6.4052 0.9700 -1.9926 0.9733
5.8975 2.6226 -1.9852 0.9734
5.3258 3.6216 -1.9810 0.9734
4.9766 4.0787 -1.9791 0.9734
4.5887 4.5028 -1.9774 0.9735
4.1654 4.8907 -1.9759 0.9735
3.7098 5.2396 -1.9746 0.9735
2.7164 5.8101 -1.9727 0.9735
2.1863 6.0275 -1.9721 0.9735
1.0795 6.3186 -1.9716 0.9735
0.5112 6.3901 -1.9717 0.9735
-3.5895 4.8698 -1.8608 0.9750
-4.1365 4.6731 -1.9196 0.9742
-4.6763 4.4166 -1.9784 0.9734
-5.4179 3.5349 -1.9898 0.9733
-5.9756 2.5218 -1.9949 0.9732
-6.1852 1.9811 -1.9976 0.9732
-6.5159 0.2727 -2.0059 0.9731
-6.5232 -0.3104 -2.0086 0.9730
-6.4781 -0.8926 -2.0113 0.9730
-6.3809 -1.4692 -2.0140 0.9730
-6.0328 -2.5867 -2.0189 0.9729
-5.7845 -3.1184 -2.0212 0.9729
-5.1483 -4.1056 -2.0254 0.9728
-4.7655 -4.5528 -2.0272 0.9728
-2.8782 -5.9474 -2.0322 0.9727
-0.6153 -6.5825 -2.0335 0.9727
-0.0253 -6.6101 -2.0331 0.9727
1.1496 -6.5047 -2.0317 0.9727
2.2852 -6.1895 -2.0294 0.9728
2.8264 -5.9563 -2.0278 0.9728
3.3439 -5.6755 -2.0261 0.9728
3.8336 -5.3493 -2.0242 0.9728
4.2913 -4.9806 -2.0221 0.9729
4.7135 -4.5726 -2.0199 0.9729
5.0968 -4.1288 -2.0175 0.9729
5.4382 -3.6528 -2.0150 0.9730
6.3387 -1.5107 -2.0042 0.9731
6.4393 -0.9376 -2.0015 0.9731
6.4884 -0.3586 -1.9987 0.9732
6.4857 0.2217 -1.9960 0.9732
6.4314 0.7986 -1.9933 0.9732
6.1711 1.9245 -1.9883 0.9733
5.9676 2.4647 -1.9859 0.9733
5.7173 2.9842 -1.9837 0.9734
5.4224 3.4789 -1.9816 0.9734
4.7087 4.3795 -1.9779 0.9734
3.3733 5.4594 -1.9739 0.9735
2.8712 5.7360 -1.9730 0.9735
0.6820 6.3740 -1.9717 0.9735
0.1103 6.4103 -1.9720 0.9735
-0.4611 6.3779 -1.9668 0.9736
-1.4957 5.8353 -1.8528 0.9751
-2.4738 5.3986 -1.8265 0.9755
-3.9693 4.7335 -1.9001 0.9745
-4.5419 4.5256 -1.9721 0.9735
-4.9553 4.1252 -1.9832 0.9734
-5.3194 3.6772 -1.9890 0.9733
-5.9037 2.6797 -1.9941 0.9732
-6.3031 1.5916 -1.9996 0.9732
-6.4289 1.0240 -2.0023 0.9731
-6.4971 -0.7187 -2.0105 0.9730
-6.4154 -1.2974 -2.0132 0.9730
4.0476 -4.5336 -2.0202 0.9747
4.4315 -4.1499 -2.0181 0.9747
5.0873 -3.2884 -2.0136 0.9748
5.3541 -2.8178 -2.0111 0.9748
6.0079 -0.2258 -1.9985 0.9750
5.9376 0.8439 -1.9935 0.9750
5.4829 2.3786 -1.9867 0.9751
4.6435 3.7355 -1.9810 0.9752
4.2881 4.1317 -1.9794 0.9752
3.4805 4.8220 -1.9768 0.9752
3.0347 5.1108 -1.9758 0.9753
2.5653 5.3591 -1.9750 0.9753
2.0762 5.5650 -1.9744 0.9753
1.0533 5.8440 -1.9739 0.9753
0.5275 5.9149 -1.9740 0.9753
-0.0026 5.9393 -1.9743 0.9753
-1.0570 5.8358 -1.9714 0.9753
-2.0564 5.4977 -1.9511 0.9756
-3.0140 5.0659 -1.9594 0.9755
-3.4828 4.8163 -1.9757 0.9753
-3.9080 4.4968 -1.9803 0.9752
-4.6636 3.7450 -1.9882 0.9751
-4.9849 3.3176 -1.9904 0.9751
-5.5086 2.3841 -1.9952 0.9750
-5.7065 1.8852 -1.9977 0.9750
-5.8595 1.3701 -2.0003 0.9750
-5.9660 0.8427 -2.0028 0.9749
-5.9131 -1.3048 -2.0128 0.9748
-5.7798 -1.8296 -2.0152 0.9748
-3.6364 -4.8985 -2.0279 0.9746
-3.1864 -5.2063 -2.0290 0.9746
-2.7101 -5.4723 -2.0299 0.9746
-2.2116 -5.6942 -2.0305 0.9746
-1.1642 -5.9985 -2.0311 0.9746
-0.6241 -6.0783 -2.0311 0.9746
0.4664 -6.0901 -2.0303 0.9746
1.0078 -6.0219 -2.0296 0.9746
2.0602 -5.7407 -2.0274 0.9746
2.5627 -5.5302 -2.0260 0.9746
3.4994 -4.9782 -2.0227 0.9747
4.3203 -4.2683 -2.0188 0.9747
5.8526 -1.4513 -2.0044 0.9749
5.9511 -0.9220 -2.0018 0.9749
5.8682 1.2128 -1.9918 0.9751
5.7298 1.7298 -1.9895 0.9751
5.3194 2.7151 -1.9852 0.9751
5.0509 3.1760 -1.9833 0.9752
4.3981 4.0165 -1.9798 0.9752
4.0191 4.3898 -1.9784 0.9752
3.1708 5.0285 -1.9761 0.9753
2.7081 5.2891 -1.9752 0.9753
2.2245 5.5079 -1.9745 0.9753
1.7236 5.6833 -1.9741 0.9753
0.6855 5.8986 -1.9739 0.9753
-3.7834 4.5963 -1.9789 0.9752
-4.5603 3.8672 -1.9875 0.9751
-4.8927 3.4486 -1.9897 0.9751
-5.1870 3.0016 -1.9921 0.9751
-5.4408 2.5297 -1.9945 0.9750
-5.6519 2.0365 -1.9970 0.9750
-5.9390 1.0016 -2.0020 0.9749
-6.0150 -0.6099 -2.0097 0.9748
-5.8247 -1.6737 -2.0145 0.9748
-5.4463 -2.6886 -2.0190 0.9747
-5.1898 -3.1673 -2.0210 0.9747
-3.7655 -4.7986 -2.0275 0.9746
-2.8552 -5.3972 -2.0296 0.9746
-2.3629 -5.6326 -2.0304 0.9746
-1.8512 -5.8224 -2.0309 0.9746
-0.7865 -6.0596 -2.0311 0.9746
1.3822 -5.9452 -2.0289 0.9746
1.9063 -5.7949 -2.0278 0.9746
2.9022 -5.3561 -2.0250 0.9746
3.8016 -4.7464 -2.0214 0.9747
4.2059 -4.3837 -2.0194 0.9747
4.5755 -3.9866 -2.0172 0.9747
4.9076 -3.5582 -2.0150 0.9748
5.1995 -3.1023 -2.0126 0.9748
5.4490 -2.6227 -2.0102 0.9748
5.9266 -1.0812 -2.0026 0.9749
5.9918 -0.5472 -2.0000 0.9750
6.0091 -0.0102 -1.9975 0.9750
5.9786 0.5255 -1.9950 0.9750
5.9006 1.0558 -1.9926 0.9750
5.7760 1.5764 -1.9902 0.9751
5.6059 2.0833 -1.9880 0.9751
4.8391 3.4836 -1.9820 0.9752
3.7348 4.6306 -1.9775 0.9752
2.8490 5.2154 -1.9754 0.9753
2.3712 5.4469 -1.9747 0.9753
1.8751 5.6354 -1.9742 0.9753
0.8431 5.8780 -1.9739 0.9753
-0.7441 5.8895 -1.9733 0.9753
-1.2651 5.7917 -1.9706 0.9753
-3.6565 4.6925 -1.9775 0.9752
-4.4537 3.9865 -1.9869 0.9751
-4.7971 3.5770 -1.9891 0.9751
-5.1031 3.1382 -1.9914 0.9751
-5.3693 2.6733 -1.9938 0.9750
-5.5933 2.1861 -1.9962 0.9750
-5.9078 1.1597 -2.0013 0.9749
-5.7131 -2.0366 -2.0161 0.9748
-5.5145 -2.5412 -2.0183 0.9747
-4.9848 -3.4881 -2.0224 0.9747
-4.6576 -3.9226 -2.0241 0.9747
-3.4592 -5.0269 -2.0284 0.9746
-2.5125 -5.5668 -2.0302 0.9746
-2.0061 -5.7704 -2.0307 0.9746
-0.4057 -6.0966 -2.0310 0.9746
0.1400 -6.1073 -2.0306 0.9746
0.6844 -6.0686 -2.0300 0.9746
1.2228 -5.9809 -2.0292 0.9746
1.7509 -5.8448 -2.0282 0.9746
4.0884 -4.4960 -2.0200 0.9747
4.4687 -4.1089 -2.0179 0.9747
4.8123 -3.6895 -2.0157 0.9748
5.3789 -2.7685 -2.0109 0.9748
5.5976 -2.2746 -2.0084 0.9749
5.7710 -1.7636 -2.0059 0.9749
5.8978 -1.2399 -2.0033 0.9749
5.9927 0.3656 -1.9957 0.9750
5.6616 1.9333 -1.9886 0.9751
4.9319 3.3538 -1.9825 0.9752
4.6088 3.7773 -1.9808 0.9752
3.4362 4.8532 -1.9767 0.9752
2.9878 5.1380 -1.9757 0.9753
2.5163 5.3821 -1.9749 0.9753
2.0253 5.5836 -1.9743 0.9753
1.0000 5.8534 -1.9739 0.9753
-0.5866 5.9104 -1.9743 0.9753
-1.6242 5.6982 -1.9695 0.9753
-2.5757 5.2457 -1.9426 0.9757
-3.5273 4.7854 -1.9761 0.9753
-3.9498 4.4622 -1.9809 0.9752
-4.3441 4.1029 -1.9863 0.9751
-4.6981 3.7028 -1.9884 0.9751
-5.0156 3.2724 -1.9907 0.9751
-5.7242 1.8334 -1.9980 0.9750
-5.8725 1.3168 -2.0005 0.9750
-5.9922 -0.8256 -2.0107 0.9748
-5.7636 -1.8824 -2.0154 0.9748
-5.0749 -3.3526 -2.0218 0.9747
-4.7597 -3.7956 -2.0236 0.9747
-2.1596 -5.7143 -2.0306 0.9746
-0.5687 -6.0837 -2.0311 0.9746
1.0625 -6.0123 -2.0295 0.9746
3.5443 -4.9457 -2.0225 0.9747
3.9678 -4.6052 -2.0206 0.9747
4.3586 -4.2283 -2.0185 0.9747
4.7134 -3.8182 -2.0163 0.9748
5.9585 -0.8676 -2.0015 0.9749
6.0045 -0.3318 -1.9990 0.9750
6.0026 0.2052 -1.9965 0.9750
5.9530 0.7392 -1.9940 0.9750
5.8562 1.2661 -1.9916 0.9751
5.7132 1.7817 -1.9893 0.9751
5.5252 2.2820 -1.9871 0.9751
5.0213 3.2216 -1.9831 0.9752
4.7094 3.6536 -1.9813 0.9752
3.9786 4.4259 -1.9782 0.9752
3.5654 4.7604 -1.9770 0.9752
1.6717 5.6986 -1.9741 0.9753
1.1562 5.8245 -1.9739 0.9753
0.6317 5.9046 -1.9739 0.9753
0.1022 5.9382 -1.9742 0.9753
-0.4283 5.9250 -1.9747 0.9753
-0.9542 5.8552 -1.9720 0.9753
-2.9164 5.1047 -1.9542 0.9755
-3.3959 4.8751 -1.9749 0.9753
-3.8261 4.5628 -1.9794 0.9752
-4.2295 4.2144 -1.9847 0.9751
-5.2148 2.9545 -1.9923 0.9751
-5.6710 1.9851 -1.9972 0.9750
-5.8329 1.4729 -1.9997 0.9750
-6.0099 -0.6648 -2.0099 0.9748
-5.9338 -1.2000 -2.0124 0.9748
4.1169 -3.8553 -2.0170 0.9763
4.9752 -2.6184 -2.0105 0.9764
5.5508 -0.7084 -2.0011 0.9765
5.5853 -0.2099 -1.9987 0.9765
5.5208 0.7847 -1.9941 0.9766
5.4227 1.2729 -1.9919 0.9766
4.6162 3.0779 -1.9841 0.9767
3.9891 3.8436 -1.9810 0.9767
2.8234 4.7550 -1.9776 0.9768
1.9317 5.1779 -1.9763 0.9768
1.4616 5.3287 -1.9760 0.9768
-0.0024 5.5262 -1.9762 0.9768
-0.9855 5.4409 -1.9774 0.9768
-1.4676 5.3325 -1.9778 0.9768
-2.3927 4.9874 -1.9782 0.9768
-3.6416 4.1903 -1.9853 0.9767
-4.6355 3.0850 -1.9913 0.9766
-4.8978 2.6619 -1.9934 0.9766
-5.3052 1.7527 -1.9980 0.9765
-5.4469 1.2736 -2.0004 0.9765
-5.5998 0.2855 -2.0051 0.9765
-5.2023 -2.1746 -2.0164 0.9763
-4.7417 -3.0708 -2.0202 0.9763
-3.7674 -4.2271 -2.0249 0.9762
-3.3771 -4.5492 -2.0261 0.9762
-2.5167 -5.0817 -2.0279 0.9762
-1.5738 -5.4509 -2.0289 0.9762
-0.5796 -5.6442 -2.0290 0.9762
-0.0734 -5.6727 -2.0288 0.9762
0.4331 -5.6553 -2.0283 0.9762
0.9358 -5.5922 -2.0276 0.9762
1.9134 -5.3314 -2.0256 0.9762
2.8270 -4.8996 -2.0229 0.9763
4.3470 -3.5875 -2.0155 0.9763
4.9050 -2.7515 -2.0112 0.9764
5.1252 -2.3000 -2.0089 0.9764
5.3038 -1.8313 -2.0066 0.9764
5.5318 -0.8570 -2.0018 0.9765
5.3284 1.6086 -1.9904 0.9766
4.4119 3.3588 -1.9829 0.9767
3.7390 4.0838 -1.9800 0.9768
3.3575 4.3986 -1.9789 0.9768
2.9500 4.6784 -1.9779 0.9768
2.5196 4.9211 -1.9771 0.9768
1.6037 5.2879 -1.9761 0.9768
0.6378 5.4883 -1.9759 0.9768
0.1454 5.5240 -1.9761 0.9768
-0.3483 5.5161 -1.9765 0.9768
-0.8395 5.4647 -1.9771 0.9768
-1.7980 5.2289 -1.9773 0.9768
-2.7020 4.8312 -1.9795 0.9768
-3.5273 4.2851 -1.9848 0.9767
-4.5499 3.2069 -1.9906 0.9766
-5.0588 2.3520 -1.9950 0.9766
-5.2546 1.8933 -1.9973 0.9766
-5.5205 0.9310 -2.0020 0.9765
-5.5896 -0.5668 -2.0091 0.9764
-5.2570 -2.0341 -2.0157 0.9763
-5.0595 -2.4977 -2.0178 0.9763
-4.8209 -2.9421 -2.0197 0.9763
-3.8784 -4.1239 -2.0245 0.9762
-3.4970 -4.4564 -2.0257 0.9762
-2.6514 -5.0120 -2.0277 0.9762
-2.1942 -5.2304 -2.0283 0.9762
-1.7190 -5.4066 -2.0288 0.9762
-1.2297 -5.5391 -2.0290 0.9762
-0.7304 -5.6268 -2.0291 0.9762
0.2817 -5.6653 -2.0285 0.9762
0.7860 -5.6158 -2.0278 0.9762
1.7703 -5.3816 -2.0260 0.9762
2.2423 -5.1990 -2.0247 0.9762
3.1263 -4.7105 -2.0218 0.9763
4.8312 -2.8827 -2.0119 0.9764
5.2548 -1.9732 -2.0073 0.9764
5.5866 -0.0095 -1.9978 0.9765
5.5587 0.4886 -1.9955 0.9766
5.0147 2.3927 -1.9870 0.9767
4.7767 2.8281 -1.9851 0.9767
3.4746 4.3080 -1.9792 0.9768
3.0745 4.5985 -1.9781 0.9768
2.6507 4.8524 -1.9773 0.9768
1.7447 5.2434 -1.9762 0.9768
1.2695 5.3775 -1.9759 0.9768
-0.2006 5.5230 -1.9764 0.9768
-0.6929 5.4846 -1.9769 0.9768
-2.1220 5.1068 -1.9776 0.9768
-3.0020 4.6572 -1.9815 0.9767
-3.4105 4.3768 -1.9842 0.9767
-3.7910 4.0585 -1.9860 0.9767
-4.4611 3.3264 -1.9900 0.9766
-4.9923 2.4857 -1.9943 0.9766
-5.3672 1.5620 -1.9990 0.9765
-5.4917 1.0780 -2.0013 0.9765
-5.5726 0.5842 -2.0037 0.9765
-5.4497 -1.4093 -2.0130 0.9764
-5.3078 -1.8921 -2.0151 0.9763
-5.1230 -2.3608 -2.0172 0.9763
-4.8965 -2.8113 -2.0191 0.9763
-3.9865 -4.0179 -2.0241 0.9762
-3.6143 -4.3605 -2.0254 0.9762
-1.3774 -5.5041 -2.0290 0.9762
-0.8806 -5.6053 -2.0291 0.9762
-0.3768 -5.6612 -2.0290 0.9762
0.1300 -5.6712 -2.0286 0.9762
1.6260 -5.4280 -2.0263 0.9762
2.5620 -5.0461 -2.0238 0.9762
2.9999 -4.7936 -2.0222 0.9763
3.7979 -4.1766 -2.0187 0.9763
4.1515 -3.8172 -2.0168 0.9763
4.4710 -3.4279 -2.0147 0.9764
4.9982 -2.5726 -2.0103 0.9764
5.2019 -2.1138 -2.0080 0.9764
5.5563 -0.6578 -2.0009 0.9765
5.5863 -0.1590 -1.9985 0.9765
5.5717 0.3399 -1.9962 0.9766
5.5128 0.8349 -1.9939 0.9766
5.2651 1.7979 -1.9896 0.9766
4.8520 2.7001 -1.9857 0.9767
4.5875 3.1196 -1.9839 0.9767
4.2873 3.5137 -1.9823 0.9767
3.9536 3.8795 -1.9808 0.9767
3.1969 4.5152 -1.9784 0.9768
1.4130 5.3418 -1.9760 0.9768
0.9305 5.4463 -1.9758 0.9768
0.4406 5.5078 -1.9759 0.9768
-0.0528 5.5260 -1.9762 0.9768
-0.5459 5.5006 -1.9767 0.9768
-1.0351 5.4319 -1.9774 0.9768
-1.5160 5.3186 -1.9777 0.9768
-1.9844 5.1613 -1.9774 0.9768
-3.6800 4.1574 -1.9855 0.9767
-4.0402 3.8159 -1.9874 0.9767
-4.3691 3.4435 -1.9894 0.9766
-4.9224 2.6174 -1.9937 0.9766
-5.3216 1.7044 -1.9983 0.9765
-5.4589 1.2241 -2.0006 0.9765
-5.6029 0.2345 -2.0054 0.9765
-5.6080 -0.2668 -2.0077 0.9764
-5.4837 -1.2626 -2.0123 0.9764
-4.9686 -2.6785 -2.0185 0.9763
-4.0917 -3.9090 -2.0236 0.9762
-3.7290 -4.2615 -2.0250 0.9762
-2.9150 -4.8618 -2.0272 0.9762
-1.5241 -5.4651 -2.0289 0.9762
1.4805 -5.4703 -2.0266 0.9762
2.8713 -4.8733 -2.0227 0.9763
4.0491 -3.9280 -2.0174 0.9763
4.3791 -3.5474 -2.0153 0.9763
5.3197 -1.7826 -2.0063 0.9764
5.5807 0.1907 -1.9969 0.9766
5.5350 0.6873 -1.9946 0.9766
5.3129 1.6569 -1.9902 0.9766
5.1386 2.1223 -1.9881 0.9767
4.9238 2.5700 -1.9862 0.9767
4.3808 3.3986 -1.9828 0.9767
4.0568 3.7732 -1.9812 0.9767
3.7013 4.1175 -1.9799 0.9768
3.3171 4.4288 -1.9788 0.9768
2.9071 4.7049 -1.9778 0.9768
2.4746 4.9436 -1.9770 0.9768
2.0229 5.1433 -1.9764 0.9768
1.5554 5.3023 -1.9760 0.9768
1.0758 5.4195 -1.9759 0.9768
0.5878 5.4939 -1.9759 0.9768
0.0951 5.5251 -1.9761 0.9768
-0.3985 5.5128 -1.9766 0.9768
-0.8893 5.4570 -1.9772 0.9768
-1.3734 5.3581 -1.9781 0.9768
-2.3041 5.0283 -1.9780 0.9768
-3.1692 4.5496 -1.9828 0.9767
-3.9356 3.9215 -1.9868 0.9767
-4.2741 3.5581 -1.9888 0.9767
-4.5794 3.1657 -1.9908 0.9766
-4.8490 2.7473 -1.9930 0.9766
-5.0806 2.3061 -1.9953 0.9766
-5.4223 1.3692 -1.9999 0.9765
-5.5294 0.8808 -2.0023 0.9765
-5.5926 0.3842 -2.0047 0.9765
-5.6112 -0.1167 -2.0070 0.9764
-5.5848 -0.6178 -2.0094 0.9764
-5.5136 -1.1151 -2.0116 0.9764
4.9909 -1.5751 -2.0056 0.9778
5.2126 -0.1959 -1.9990 0.9779
5.2036 0.2698 -1.9968 0.9779
4.5534 2.4798 -1.9869 0.9780
4.3102 2.8739 -1.9853 0.9781
4.0334 3.2447 -1.9837 0.9781
2.6369 4.4409 -1.9792 0.9781
2.2292 4.6569 -1.9785 0.9781
1.8042 4.8360 -1.9780 0.9781
0.4584 5.1402 -1.9776 0.9781
-0.4630 5.1417 -1.9784 0.9781
-0.9204 5.0815 -1.9790 0.9781
-1.3709 4.9811 -1.9798 0.9781
-3.4002 3.9125 -1.9864 0.9780
-3.7391 3.5965 -1.9882 0.9780
-4.0490 3.2515 -1.9900 0.9780
-4.3273 2.8799 -1.9920 0.9780
-4.7804 2.0689 -1.9961 0.9779
-4.9513 1.6357 -1.9983 0.9779
-5.0091 -1.5856 -2.0134 0.9777
-4.6561 -2.4556 -2.0173 0.9777
-4.4222 -2.8639 -2.0190 0.9777
-4.1522 -3.2497 -2.0206 0.9777
-3.8483 -3.6100 -2.0220 0.9777
-2.7590 -4.5080 -2.0254 0.9776
-1.9147 -4.9299 -2.0267 0.9776
-0.5403 -5.2623 -2.0272 0.9776
-0.0685 -5.2889 -2.0270 0.9776
0.4038 -5.2727 -2.0265 0.9776
0.8725 -5.2140 -2.0259 0.9776
1.7841 -4.9712 -2.0240 0.9776
2.2194 -4.7893 -2.0228 0.9776
2.6363 -4.5690 -2.0215 0.9777
3.4013 -4.0212 -2.0183 0.9777
3.7433 -3.6983 -2.0165 0.9777
4.3329 -2.9680 -2.0126 0.9778
4.5758 -2.5668 -2.0106 0.9778
5.1622 -0.7997 -2.0018 0.9779
5.2072 -0.3354 -1.9996 0.9779
5.2106 0.1306 -1.9974 0.9779
4.8157 1.9378 -1.9893 0.9780
4.6193 2.3577 -1.9874 0.9780
4.1197 3.1363 -1.9842 0.9781
3.4917 3.8137 -1.9815 0.9781
3.1356 4.1079 -1.9804 0.9781
2.7551 4.3693 -1.9795 0.9781
1.4978 4.9388 -1.9778 0.9781
1.0509 5.0524 -1.9776 0.9781
0.5957 5.1260 -1.9776 0.9781
-3.2935 4.0010 -1.9859 0.9780
-3.6406 3.6943 -1.9876 0.9780
-4.5023 2.6053 -1.9934 0.9780
-4.9042 1.7670 -1.9976 0.9779
-5.2143 0.4060 -2.0043 0.9778
-5.2355 -0.0611 -2.0065 0.9778
-4.9034 -1.8973 -2.0148 0.9777
-4.7189 -2.3295 -2.0167 0.9777
-2.0458 -4.8766 -2.0266 0.9776
-1.1465 -5.1643 -2.0272 0.9776
-0.6809 -5.2460 -2.0272 0.9776
-0.2099 -5.2854 -2.0271 0.9776
0.2626 -5.2820 -2.0267 0.9776
2.0909 -4.8479 -2.0232 0.9776
2.5136 -4.6389 -2.0219 0.9777
3.2933 -4.1118 -2.0188 0.9777
3.6440 -3.7981 -2.0171 0.9777
3.9649 -3.4545 -2.0152 0.9777
4.2532 -3.0838 -2.0133 0.9777
4.5069 -2.6891 -2.0112 0.9778
4.7240 -2.2737 -2.0091 0.9778
5.0420 -1.3945 -2.0047 0.9778
5.1406 -0.9379 -2.0025 0.9779
5.2140 -0.0089 -1.9981 0.9779
5.1883 0.4561 -1.9959 0.9779
5.1215 0.9164 -1.9938 0.9780
4.6820 2.2339 -1.9880 0.9780
3.5931 3.7196 -1.9819 0.9781
3.2448 4.0231 -1.9807 0.9781
2.4756 4.5319 -1.9789 0.9781
2.0605 4.7333 -1.9783 0.9781
1.6295 4.8972 -1.9779 0.9781
1.1857 5.0225 -1.9776 0.9781
-1.1022 5.0460 -1.9793 0.9781
-1.9838 4.7743 -1.9813 0.9781
-3.1845 4.0867 -1.9854 0.9781
-3.5395 3.7893 -1.9871 0.9780
-4.6599 2.3201 -1.9949 0.9779
-4.8536 1.8970 -1.9970 0.9779
-5.0090 1.4578 -1.9992 0.9779
-5.1753 -0.8547 -2.0102 0.9778
-4.5667 -2.6219 -2.0180 0.9777
-4.3180 -3.0216 -2.0196 0.9777
-3.7173 -3.7466 -2.0226 0.9776
-3.3701 -4.0659 -2.0238 0.9776
-2.9953 -4.3528 -2.0249 0.9776
-2.5960 -4.6048 -2.0257 0.9776
-1.2842 -5.1316 -2.0272 0.9776
-0.8210 -5.2260 -2.0273 0.9776
-0.3513 -5.2781 -2.0271 0.9776
0.5926 -5.2542 -2.0263 0.9776
2.3891 -4.7054 -2.0223 0.9776
3.1829 -4.1994 -2.0193 0.9777
3.5421 -3.8953 -2.0176 0.9777
4.4347 -2.8096 -2.0118 0.9778
4.8533 -1.9721 -2.0076 0.9778
5.1458 0.7793 -1.9944 0.9780
5.0505 1.2342 -1.9924 0.9780
4.7413 2.1084 -1.9885 0.9780
4.5302 2.5210 -1.9868 0.9780
3.6920 3.6228 -1.9822 0.9781
3.3519 3.9355 -1.9810 0.9781
2.9856 4.2168 -1.9800 0.9781
2.1866 4.6769 -1.9785 0.9781
1.7600 4.8522 -1.9780 0.9781
1.3197 4.9891 -1.9777 0.9781
0.8690 5.0867 -1.9776 0.9781
0.4115 5.1442 -1.9777 0.9781
-1.4163 4.9686 -1.9799 0.9781
-2.2797 4.6428 -1.9821 0.9781
-2.6868 4.4238 -1.9835 0.9781
-3.0733 4.1694 -1.9850 0.9781
-3.4360 3.8817 -1.9866 0.9780
-3.7721 3.5626 -1.9883 0.9780
-4.5947 2.4432 -1.9942 0.9780
-4.9666 1.5907 -1.9985 0.9779
-5.1817 0.6838 -2.0029 0.9779
-5.1947 -0.7158 -2.0095 0.9778
-4.3962 -2.9043 -2.0192 0.9777
-3.4771 -3.9737 -2.0235 0.9776
-1.8697 -4.9473 -2.0268 0.9776
-0.9605 -5.2021 -2.0273 0.9776
1.3804 -5.1006 -2.0250 0.9776
3.4375 -3.9897 -2.0181 0.9777
4.0846 -3.3088 -2.0144 0.9777
4.9634 -1.6633 -2.0060 0.9778
5.0865 -1.2123 -2.0038 0.9779
5.2094 -0.2879 -1.9994 0.9779
5.2086 0.1780 -1.9972 0.9779
5.1664 0.6416 -1.9951 0.9779
5.0832 1.0990 -1.9930 0.9780
4.7974 1.9814 -1.9891 0.9780
4.5972 2.3995 -1.9873 0.9780
3.7883 3.5235 -1.9826 0.9781
3.4565 3.8451 -1.9814 0.9781
3.0978 4.1360 -1.9803 0.9781
2.7150 4.3940 -1.9794 0.9781
2.3111 4.6171 -1.9787 0.9781
1.8893 4.8037 -1.9781 0.9781
1.4527 4.9522 -1.9777 0.9781
1.0048 5.0617 -1.9776 0.9781
0.0888 5.1604 -1.9778 0.9781
-1.2827 5.0041 -1.9796 0.9781
-1.7251 4.8720 -1.9806 0.9781
-2.1543 4.7012 -1.9817 0.9781
-2.5670 4.4931 -1.9830 0.9781
-3.3301 3.9712 -1.9861 0.9780
-3.6744 3.6613 -1.9878 0.9780
-4.2750 2.9552 -1.9916 0.9780
-4.5263 2.5644 -1.9936 0.9780
-4.7421 2.1525 -1.9957 0.9779
-5.0603 1.2778 -2.0001 0.9779
-5.2184 0.3585 -2.0045 0.9778
-5.2353 -0.1089 -2.0067 0.9778
-5.2103 -0.5764 -2.0089 0.9778
3.2818 -3.6758 -2.0168 0.9789
4.1274 -2.6679 -2.0114 0.9790
4.3448 -2.2866 -2.0094 0.9790
4.7807 -1.0506 -2.0033 0.9791
4.8503 -0.6191 -2.0012 0.9791
4.8812 -0.1835 -1.9992 0.9791
4.6186 1.5303 -1.9913 0.9792
4.4596 1.9347 -1.9896 0.9792
4.0380 2.6924 -1.9863 0.9792
3.4901 3.3629 -1.9836 0.9793
3.1742 3.6589 -1.9825 0.9793
2.8336 3.9256 -1.9815 0.9793
2.4708 4.1612 -1.9807 0.9793
0.8577 4.7590 -1.9791 0.9793
-0.8624 4.7614 -1.9804 0.9793
-1.6968 4.5361 -1.9822 0.9793
-2.0960 4.3690 -1.9833 0.9793
-2.4792 4.1671 -1.9845 0.9793
-3.1853 3.6652 -1.9874 0.9792
-4.6367 1.5318 -1.9985 0.9791
-1.9462 0.2749 -0.8044 0.9915
-1.9516 -0.2508 -0.8053 0.9915
-4.6885 -1.4841 -2.0127 0.9790
-4.5414 -1.8984 -2.0146 0.9790
-4.1384 -2.6801 -2.0179 0.9789
-3.2871 -3.6881 -2.0220 0.9789
-2.9463 -3.9689 -2.0230 0.9789
-2.1954 -4.4330 -2.0246 0.9788
-0.9430 -4.8586 -2.0256 0.9788
-0.0641 -4.9483 -2.0254 0.9788
1.2481 -4.7842 -2.0236 0.9789
2.8367 -4.0354 -2.0188 0.9789
3.5034 -3.4612 -2.0156 0.9789
3.7950 -3.1319 -2.0138 0.9790
4.0557 -2.7781 -2.0120 0.9790
4.6330 -1.5996 -2.0060 0.9790
4.8760 -0.3141 -1.9998 0.9791
4.8796 0.1223 -1.9977 0.9791
4.7706 0.9860 -1.9938 0.9792
4.6592 1.4065 -1.9919 0.9792
4.3272 2.2087 -1.9884 0.9792
4.1095 2.5840 -1.9868 0.9792
3.8596 2.9383 -1.9853 0.9793
3.2715 3.5732 -1.9828 0.9793
2.5815 4.0941 -1.9809 0.9793
2.2050 4.3066 -1.9802 0.9793
1.4035 4.6280 -1.9793 0.9793
0.9848 4.7344 -1.9791 0.9793
-0.3048 4.8275 -1.9797 0.9793
-0.7347 4.7823 -1.9803 0.9793
-1.1590 4.6994 -1.9810 0.9793
-1.5746 4.5792 -1.9819 0.9793
-2.3664 4.2311 -1.9841 0.9793
-3.0854 3.7482 -1.9869 0.9792
-4.2168 2.4401 -1.9940 0.9792
-4.4221 2.0560 -1.9959 0.9791
-2.1119 0.3562 -0.8766 0.9908
-1.9576 -0.1985 -0.8053 0.9915
-4.7252 -1.3578 -2.0122 0.9790
-4.5894 -1.7758 -2.0140 0.9790
-4.4164 -2.1802 -2.0158 0.9789
-4.2076 -2.5678 -2.0174 0.9789
-3.9646 -2.9354 -2.0190 0.9789
-3.3840 -3.5983 -2.0216 0.9789
-1.9140 -4.5626 -2.0250 0.9788
-1.4994 -4.7161 -2.0254 0.9788
-1.0726 -4.8316 -2.0256 0.9788
-0.6371 -4.9081 -2.0256 0.9788
-0.1964 -4.9450 -2.0255 0.9788
0.6856 -4.8989 -2.0245 0.9788
1.5445 -4.6952 -2.0229 0.9789
1.9564 -4.5362 -2.0219 0.9789
2.3521 -4.3408 -2.0206 0.9789
3.0820 -3.8479 -2.0178 0.9789
4.7206 -1.3056 -2.0045 0.9791
4.8133 -0.8781 -2.0025 0.9791
4.8826 -0.0083 -1.9983 0.9791
4.8590 0.4271 -1.9963 0.9791
4.7967 0.8583 -1.9943 0.9792
4.6964 1.2818 -1.9924 0.9792
4.3858 2.0926 -1.9889 0.9792
4.1781 2.4737 -1.9872 0.9792
3.9377 2.8346 -1.9857 0.9792
3.3665 3.4850 -1.9831 0.9793
3.0403 3.7696 -1.9821 0.9793
2.6905 4.0240 -1.9811 0.9793
1.9308 4.4353 -1.9798 0.9793
1.5269 4.5890 -1.9794 0.9793
0.2566 4.8292 -1.9793 0.9793
-0.1755 4.8336 -1.9796 0.9793
-1.4513 4.6190 -1.9816 0.9793
-1.8587 4.4733 -1.9826 0.9793
-2.2519 4.2921 -1.9837 0.9793
-2.6278 4.0766 -1.9850 0.9793
-2.9833 3.8286 -1.9865 0.9792
-3.9009 2.9087 -1.9915 0.9792
-4.3642 2.1729 -1.9953 0.9791
-4.5453 1.7765 -1.9973 0.9791
-4.7986 0.9420 -2.0014 0.9791
-1.9537 -0.1454 -0.8018 0.9916
-4.2738 -2.4538 -2.0169 0.9789
-4.0408 -2.8276 -2.0185 0.9789
-3.7750 -3.1793 -2.0200 0.9789
-3.4784 -3.5058 -2.0213 0.9789
-2.8026 -4.0727 -2.0234 0.9789
-2.4289 -4.3084 -2.0242 0.9789
-2.0352 -4.5094 -2.0248 0.9788
-1.6250 -4.6741 -2.0253 0.9788
-0.7681 -4.8894 -2.0256 0.9788
0.1134 -4.9470 -2.0252 0.9788
0.9907 -4.8452 -2.0241 0.9789
1.4186 -4.7355 -2.0232 0.9789
2.2355 -4.4030 -2.0210 0.9789
2.9787 -3.9299 -2.0182 0.9789
3.6240 -3.3322 -2.0149 0.9789
3.9035 -2.9927 -2.0131 0.9790
4.1511 -2.6299 -2.0112 0.9790
4.3650 -2.2467 -2.0092 0.9790
4.7896 -1.0069 -2.0031 0.9791
4.8822 -0.1390 -1.9990 0.9791
4.8701 0.2971 -1.9969 0.9791
4.8193 0.7299 -1.9949 0.9792
4.7304 1.1560 -1.9930 0.9792
4.6040 1.5721 -1.9911 0.9792
4.4414 1.9751 -1.9894 0.9792
4.2438 2.3616 -1.9877 0.9792
4.0130 2.7289 -1.9862 0.9792
3.7507 3.0740 -1.9848 0.9793
3.4591 3.3943 -1.9835 0.9793
2.7975 3.9511 -1.9814 0.9793
2.0489 4.3824 -1.9800 0.9793
0.8143 4.7666 -1.9791 0.9793
-0.0462 4.8363 -1.9795 0.9793
-0.9058 4.7536 -1.9805 0.9793
-1.7381 4.5207 -1.9823 0.9793
-2.1359 4.3500 -1.9834 0.9793
-2.5173 4.1446 -1.9846 0.9793
-2.8792 3.9061 -1.9860 0.9792
-3.2188 3.6363 -1.9876 0.9792
-3.5335 3.3373 -1.9892 0.9792
-3.8206 3.0112 -1.9910 0.9792
-4.3033 2.2882 -1.9947 0.9792
-4.4948 1.8969 -1.9967 0.9791
-4.6509 1.4896 -1.9987 0.9791
-4.7702 1.0697 -2.0008 0.9791
-1.9503 0.2574 -0.8051 0.9915
-1.9354 0.0810 -0.7928 0.9917
-4.6752 -1.5269 -2.0129 0.9790
-4.3368 -2.3380 -2.0165 0.9789
-3.8579 -3.0765 -2.0195 0.9789
-3.5703 -3.4109 -2.0209 0.9789
-3.2535 -3.7181 -2.0221 0.9789
-2.9101 -3.9958 -2.0231 0.9789
-2.5430 -4.2414 -2.0240 0.9789
-2.1550 -4.4529 -2.0247 0.9788
-1.7493 -4.6287 -2.0252 0.9788
-1.3294 -4.7671 -2.0255 0.9788
-0.0190 -4.9485 -2.0253 0.9788
0.8608 -4.8705 -2.0243 0.9788
1.2916 -4.7724 -2.0235 0.9789
2.5056 -4.2525 -2.0201 0.9789
2.8731 -4.0091 -2.0187 0.9789
3.2170 -3.7338 -2.0171 0.9789
3.5345 -3.4289 -2.0154 0.9789
3.8231 -3.0969 -2.0137 0.9790
4.0804 -2.7408 -2.0118 0.9790
4.3046 -2.3633 -2.0098 0.9790
4.4939 -1.9677 -2.0078 0.9790
4.7624 -1.1350 -2.0037 0.9791
4.8397 -0.7047 -2.0016 0.9791
4.8782 -0.2696 -1.9996 0.9791
4.8778 0.1667 -1.9975 0.9791
4.8386 0.6008 -1.9955 0.9791
4.4938 1.8560 -1.9899 0.9792
4.0855 2.6212 -1.9866 0.9792
2.5440 4.1172 -1.9808 0.9793
2.1656 4.3264 -1.9801 0.9793
1.3613 4.6405 -1.9793 0.9793
0.9416 4.7431 -1.9791 0.9793
0.5144 4.8083 -1.9792 0.9793
-0.3488 4.8246 -1.9798 0.9793
-1.6163 4.5649 -1.9820 0.9793
-2.4050 4.2096 -1.9842 0.9793
-2.7730 3.9809 -1.9856 0.9792
-4.2393 2.4018 -1.9941 0.9792
-4.4411 2.0158 -1.9961 0.9791
-4.6080 1.6130 -1.9981 0.9791
-4.7384 1.1965 -2.0002 0.9791
-2.0316 0.3236 -0.8420 0.9911
-1.9512 0.1340 -0.8005 0.9916
-1.9564 -0.2164 -0.8056 0.9915
-4.8147 -0.9737 -2.0104 0.9790
3.3736 -3.1592 -2.0143 0.9800
3.8749 -2.5047 -2.0108 0.9801
4.2506 -1.7725 -2.0071 0.9801
4.3877 -1.3847 -2.0052 0.9801
4.4894 -0.9866 -2.0032 0.9801
4.5843 -0.1723 -1.9993 0.9802
4.5333 0.6443 -1.9956 0.9802
4.3387 1.4375 -1.9920 0.9803
4.1896 1.8175 -1.9903 0.9803
4.0075 2.1825 -1.9887 0.9803
3.7939 2.5297 -1.9873 0.9803
3.5506 2.8563 -1.9859 0.9803
3.2794 3.1599 -1.9847 0.9803
2.9827 3.4381 -1.9837 0.9803
2.3219 3.9103 -1.9820 0.9804
1.5887 4.2585 -1.9809 0.9804
0.8061 4.4723 -1.9805 0.9804
0.4037 4.5265 -1.9806 0.9804
-0.4077 4.5276 -1.9812 0.9804
-0.8105 4.4744 -1.9818 0.9804
-1.2070 4.3858 -1.9825 0.9803
-2.3295 3.9154 -1.9856 0.9803
-2.6714 3.6943 -1.9869 0.9803
-3.2906 3.1651 -1.9898 0.9803
-4.0220 2.1859 -1.9950 0.9802
-1.5866 0.5242 -0.7282 0.9927
-1.5338 0.3586 -0.6865 0.9932
-1.5160 0.2141 -0.6672 0.9933
-1.5239 -0.3363 -0.6801 0.9932
-1.5813 -0.5005 -0.7228 0.9928
-4.2632 -1.7821 -2.0138 0.9800
-3.6470 -2.8543 -2.0183 0.9800
-3.3798 -3.1705 -2.0196 0.9800
-3.0850 -3.4614 -2.0207 0.9800
-2.7651 -3.7248 -2.0217 0.9800
-1.6811 -4.3285 -2.0237 0.9799
-1.2883 -4.4620 -2.0240 0.9799
-0.0601 -4.6436 -2.0239 0.9799
0.3545 -4.6296 -2.0235 0.9799
0.7661 -4.5782 -2.0230 0.9799
1.5667 -4.3655 -2.0214 0.9800
2.3154 -4.0129 -2.0191 0.9800
3.2887 -3.2491 -2.0148 0.9800
3.5626 -2.9402 -2.0131 0.9800
3.8075 -2.6082 -2.0114 0.9801
4.0215 -2.2559 -2.0096 0.9801
4.5392 -0.7032 -2.0019 0.9802
4.5794 -0.2950 -1.9999 0.9802
4.4812 0.9262 -1.9943 0.9802
4.3768 1.3213 -1.9925 0.9802
4.2378 1.7052 -1.9908 0.9803
4.0654 2.0750 -1.9892 0.9803
3.3634 3.0715 -1.9851 0.9803
2.7607 3.6168 -1.9830 0.9803
2.4259 3.8472 -1.9822 0.9804
1.3190 4.3492 -1.9807 0.9804
0.5246 4.5140 -1.9805 0.9804
0.1196 4.5432 -1.9807 0.9804
-0.2864 4.5366 -1.9811 0.9804
-1.0892 4.4160 -1.9822 0.9803
-1.4796 4.3030 -1.9831 0.9803
-2.2235 3.9756 -1.9852 0.9803
-3.7372 2.6341 -1.9927 0.9802
-3.9610 2.2921 -1.9944 0.9802
-1.5957 0.5749 -0.7392 0.9926
-1.5529 0.4072 -0.6996 0.9930
-1.5248 -0.0178 -0.6646 0.9934
-1.5260 -0.1547 -0.6685 0.9933
-1.5674 -0.4504 -0.7107 0.9929
-4.3083 -1.6670 -2.0133 0.9800
-4.1457 -2.0466 -2.0149 0.9800
-3.7213 -2.7552 -2.0179 0.9800
-1.7962 -4.2817 -2.0236 0.9799
-1.0066 -4.5341 -2.0242 0.9799
-0.1843 -4.6405 -2.0240 0.9799
2.5608 -3.8584 -2.0182 0.9800
2.8929 -3.6119 -2.0168 0.9800
3.9608 -2.3633 -2.0101 0.9801
4.4328 -1.2260 -2.0044 0.9801
4.5712 -0.4175 -2.0005 0.9802
4.5056 0.8062 -1.9948 0.9802
4.1204 1.9660 -1.9897 0.9803
3.9255 2.3241 -1.9881 0.9803
2.8569 3.5421 -1.9833 0.9803
2.5282 3.7814 -1.9824 0.9803
1.8145 4.1680 -1.9811 0.9804
1.0441 4.4229 -1.9806 0.9804
0.2411 4.5383 -1.9806 0.9804
-1.3638 4.3404 -1.9828 0.9803
-1.7466 4.2034 -1.9838 0.9803
-3.1151 3.3350 -1.9889 0.9803
-3.4031 3.0461 -1.9905 0.9803
-3.6645 2.7325 -1.9922 0.9803
-3.8972 2.3966 -1.9939 0.9802
-4.0993 2.0410 -1.9957 0.9802
-4.2691 1.6686 -1.9976 0.9802
-1.5693 0.4567 -0.7123 0.9929
-1.5292 -0.1138 -0.6683 0.9933
-1.5070 -0.2489 -0.6657 0.9934
-4.0117 -2.3033 -2.0160 0.9800
-3.7929 -2.6541 -2.0175 0.9800
-3.5432 -2.9841 -2.0189 0.9800
-3.2647 -3.2904 -2.0201 0.9800
-2.9595 -3.5706 -2.0212 0.9800
-2.6302 -3.8222 -2.0221 0.9800
-2.2794 -4.0433 -2.0228 0.9800
-1.1275 -4.5055 -2.0241 0.9799
0.5203 -4.6134 -2.0233 0.9799
0.9297 -4.5471 -2.0227 0.9800
1.3313 -4.4442 -2.0219 0.9800
2.0982 -4.1325 -2.0199 0.9800
2.4572 -3.9263 -2.0186 0.9800
2.7959 -3.6888 -2.0172 0.9800
3.4020 -3.1281 -2.0141 0.9800
3.6645 -2.8095 -2.0124 0.9801
3.8972 -2.4691 -2.0106 0.9801
4.4977 -0.9455 -2.0030 0.9801
4.5742 0.2790 -1.9972 0.9802
4.5268 0.6856 -1.9954 0.9802
4.4435 1.0859 -1.9935 0.9802
4.1725 1.8555 -1.9902 0.9803
3.5241 2.8883 -1.9858 0.9803
2.9511 3.4650 -1.9836 0.9803
2.6288 3.7128 -1.9826 0.9803
2.2860 3.9312 -1.9819 0.9804
1.5498 4.2728 -1.9809 0.9804
1.1621 4.3935 -1.9806 0.9804
0.3624 4.5300 -1.9806 0.9804
-2.0070 4.0874 -1.9845 0.9803
-2.7052 3.6700 -1.9870 0.9803
-3.0241 3.4164 -1.9884 0.9803
-4.0421 2.1494 -1.9952 0.9802
-4.2218 1.7816 -1.9970 0.9802
-1.5266 0.3423 -0.6818 0.9932
-1.5289 0.0640 -0.6669 0.9933
-1.5171 -0.2090 -0.6674 0.9933
-1.5852 -0.5177 -0.7268 0.9927
-4.0709 -2.1946 -2.0156 0.9800
-3.8617 -2.5511 -2.0171 0.9800
-3.3509 -3.2013 -2.0197 0.9800
-2.7312 -3.7500 -2.0218 0.9800
-2.3865 -3.9804 -2.0226 0.9800
-0.4323 -4.6243 -2.0241 0.9799
-0.0178 -4.6439 -2.0239 0.9799
0.3967 -4.6260 -2.0235 0.9799
1.6063 -4.3508 -2.0213 0.9800
1.9872 -4.1879 -2.0202 0.9800
2.3517 -3.9914 -2.0190 0.9800
2.6968 -3.7630 -2.0177 0.9800
3.3179 -3.2187 -2.0146 0.9800
4.3634 -1.4622 -2.0056 0.9801
4.4721 -1.0658 -2.0036 0.9801
4.5450 -0.6618 -2.0017 0.9802
4.5815 -0.2532 -1.9997 0.9802
4.5814 0.1566 -1.9978 0.9802
4.4722 0.9669 -1.9941 0.9802
4.3642 1.3610 -1.9923 0.9803
4.0460 2.1118 -1.9890 0.9803
3.8385 2.4627 -1.9876 0.9803
3.6008 2.7935 -1.9862 0.9803
3.0432 3.3853 -1.9839 0.9803
1.6637 4.2300 -1.9810 0.9804
1.2793 4.3609 -1.9807 0.9804
0.8848 4.4574 -1.9805 0.9804
0.4835 4.5186 -1.9805 0.9804
-0.3278 4.5339 -1.9811 0.9804
-0.7314 4.4877 -1.9816 0.9804
-1.1294 4.4061 -1.9823 0.9803
-1.5188 4.2895 -1.9832 0.9803
-1.8966 4.1389 -1.9842 0.9803
-2.6055 3.7403 -1.9866 0.9803
-2.9310 3.4953 -1.9880 0.9803
-3.2337 3.2222 -1.9895 0.9803
-3.9821 2.2561 -1.9946 0.9802
-1.5930 0.5576 -0.7356 0.9927
-1.5294 0.1051 -0.6681 0.9933
-1.5243 -0.1686 -0.6683 0.9933
-1.5089 -0.3052 -0.6709 0.9933
3.1752 -2.9734 -2.0136 0.9810
3.8400 -2.0209 -2.0086 0.9811
4.0015 -1.6686 -2.0068 0.9811
4.3100 0.2235 -1.9977 0.9812
4.1942 0.9846 -1.9942 0.9812
3.7746 2.0557 -1.9895 0.9812
3.5736 2.3828 -1.9881 0.9812
3.3445 2.6905 -1.9869 0.9813
2.8098 3.2388 -1.9847 0.9813
1.8493 3.8632 -1.9825 0.9813
1.4968 4.0120 -1.9821 0.9813
1.1325 4.1290 -1.9819 0.9813
0.7594 4.2134 -1.9818 0.9813
0.3803 4.2645 -1.9818 0.9813
-0.0019 4.2819 -1.9820 0.9813
-1.1371 4.1317 -1.9836 0.9813
-1.5020 4.0154 -1.9844 0.9813
-1.8553 3.8672 -1.9854 0.9813
-2.5163 3.4798 -1.9878 0.9812
-3.0993 2.9811 -1.9905 0.9812
-3.3556 2.6947 -1.9921 0.9812
-3.5857 2.3863 -1.9937 0.9812
-3.7876 2.0585 -1.9954 0.9812
-1.3220 0.5721 -0.6668 0.9937
-1.3320 0.4401 -0.6494 0.9938
-1.3279 0.1876 -0.6208 0.9941
-1.3378 -0.0514 -0.6197 0.9941
-1.3295 -0.4208 -0.6455 0.9939
-3.4321 -2.6861 -2.0174 0.9810
-2.9030 -3.2572 -2.0196 0.9810
-2.6019 -3.5050 -2.0206 0.9809
-2.2796 -3.7247 -2.0214 0.9809
-1.9386 -3.9145 -2.0220 0.9809
-1.5818 -4.0728 -2.0224 0.9809
-1.2122 -4.1984 -2.0227 0.9809
-0.8326 -4.2901 -2.0229 0.9809
-0.4464 -4.3472 -2.0228 0.9809
0.7209 -4.3078 -2.0217 0.9809
1.4742 -4.1079 -2.0202 0.9809
1.8341 -3.9580 -2.0192 0.9810
2.1789 -3.7764 -2.0181 0.9810
2.5057 -3.5646 -2.0169 0.9810
2.8120 -3.3245 -2.0155 0.9810
3.0952 -3.0580 -2.0140 0.9810
3.3532 -2.7673 -2.0125 0.9810
3.9565 -1.7755 -2.0073 0.9811
4.0955 -1.4140 -2.0055 0.9811
4.2738 -0.6621 -2.0019 0.9811
