ply
format ascii 1.0
element vertex 1594
property float32 x
property float32 y
property float32 z
property float32 I
end_header
-8.7975 -3.6633 -2.0144 0.9618
-6.9757 -6.5278 -2.0194 0.9617
-6.3679 -7.1279 -2.0204 0.9617
-5.7082 -7.6711 -2.0212 0.9617
-5.0020 -8.1528 -2.0218 0.9616
-1.8320 -9.3923 -2.0228 0.9616
-0.9859 -9.5175 -2.0226 0.9616
-0.1321 -9.5658 -2.0222 0.9616
0.6909 -9.1207 -1.9335 0.9633
2.9756 -8.3097 -1.8657 0.9646
4.4012 -7.6390 -1.8636 0.9646
5.0624 -7.2106 -1.8623 0.9646
5.6819 -6.7249 -1.8610 0.9646
6.7768 -5.5980 -1.8580 0.9647
8.2808 -4.6493 -2.0074 0.9619
8.6551 -3.8878 -2.0056 0.9620
8.9596 -3.0965 -2.0038 0.9620
9.1919 -2.2820 -2.0020 0.9620
9.4423 0.2352 -1.9965 0.9621
8.3790 4.2773 -1.9886 0.9623
7.9584 5.0052 -1.9873 0.9623
7.4751 5.6924 -1.9861 0.9623
6.3370 6.9244 -1.9841 0.9624
5.0006 7.9355 -1.9827 0.9624
3.5078 8.6949 -1.9819 0.9624
1.9051 9.1795 -1.9817 0.9624
1.0778 9.3136 -1.9819 0.9624
-0.5963 9.3605 -1.9826 0.9624
-1.4303 9.2728 -1.9833 0.9624
-3.0596 8.8781 -1.9850 0.9623
-4.5952 8.2015 -1.9872 0.9623
-6.6186 6.7044 -1.9914 0.9622
-7.7183 5.4290 -1.9947 0.9622
-8.9049 3.1977 -2.0000 0.9621
-9.1633 2.3919 -2.0018 0.9620
-9.3489 1.5655 -2.0037 0.9620
-9.4548 -0.9710 -2.0091 0.9619
-9.3383 -1.8129 -2.0108 0.9619
-9.1466 -2.6417 -2.0124 0.9618
-8.5436 -4.2330 -2.0155 0.9618
-7.1293 -6.3577 -2.0192 0.9617
-5.1956 -8.0298 -2.0217 0.9617
-4.4590 -8.4639 -2.0222 0.9616
-2.8830 -9.1246 -2.0227 0.9616
-2.0567 -9.3457 -2.0228 0.9616
-1.2139 -9.4914 -2.0226 0.9616
-0.3614 -9.5604 -2.0223 0.9616
0.4870 -9.4231 -1.9945 0.9622
1.2420 -8.7474 -1.8676 0.9645
2.0174 -8.5982 -1.8668 0.9645
2.7759 -8.3798 -1.8660 0.9646
4.8889 -7.3313 -1.8627 0.9646
5.5201 -6.8605 -1.8613 0.9646
6.0568 -6.2842 -1.8449 0.9649
7.5840 -5.4716 -1.9768 0.9625
8.5615 -4.0952 -2.0061 0.9619
8.8849 -3.3113 -2.0043 0.9620
9.1368 -2.5024 -2.0024 0.9620
9.3152 -1.6749 -2.0006 0.9620
9.4189 -0.8357 -1.9988 0.9621
9.4474 0.0088 -1.9970 0.9621
9.0842 2.5061 -1.9919 0.9622
8.8173 3.3047 -1.9904 0.9622
8.4808 4.0759 -1.9890 0.9623
8.0775 4.8137 -1.9876 0.9623
7.6106 5.5124 -1.9864 0.9623
7.0841 6.1666 -1.9853 0.9623
6.5020 6.7712 -1.9843 0.9623
3.7154 8.6086 -1.9819 0.9624
2.9316 8.9051 -1.9817 0.9624
2.1246 9.1311 -1.9817 0.9624
0.4666 9.3652 -1.9821 0.9624
-0.3717 9.3715 -1.9825 0.9624
-1.2074 9.3036 -1.9831 0.9624
-2.0341 9.1620 -1.9838 0.9624
-2.8454 8.9477 -1.9847 0.9623
-3.6349 8.6623 -1.9857 0.9623
-5.1241 7.8872 -1.9881 0.9623
-6.4546 6.8598 -1.9910 0.9622
-7.5842 5.6113 -1.9942 0.9622
-8.0619 4.9159 -1.9959 0.9621
-9.1011 2.6103 -2.0013 0.9620
-9.4732 -0.7438 -2.0086 0.9619
-8.9594 -3.2360 -2.0136 0.9618
-8.2527 -4.7850 -2.0165 0.9617
-6.7007 -6.8128 -2.0199 0.9617
-6.0681 -7.3871 -2.0208 0.9617
-5.3862 -7.9023 -2.0215 0.9617
-4.6603 -8.3540 -2.0221 0.9616
-3.8965 -8.7386 -2.0225 0.9616
-3.1010 -9.0527 -2.0227 0.9616
-0.5906 -9.5495 -2.0224 0.9616
0.2637 -9.5360 -2.0165 0.9617
1.0320 -8.7755 -1.8677 0.9645
2.5745 -8.4451 -1.8662 0.9645
4.7126 -7.4478 -1.8630 0.9646
5.3551 -6.9923 -1.8617 0.9646
6.5035 -5.9191 -1.8588 0.9647
7.2260 -5.4815 -1.9172 0.9636
8.0516 -5.0429 -2.0082 0.9619
8.4629 -4.3003 -2.0066 0.9619
8.8051 -3.5242 -2.0048 0.9620
9.0764 -2.7214 -2.0029 0.9620
9.2746 -1.8983 -2.0011 0.9620
9.4206 0.6261 -1.9957 0.9621
9.3190 1.4636 -1.9940 0.9622
9.1436 2.2880 -1.9924 0.9622
8.1920 4.6195 -1.9880 0.9623
7.2309 5.9958 -1.9856 0.9623
6.0434 7.1797 -1.9837 0.9624
5.3762 7.6879 -1.9830 0.9624
4.6669 8.1349 -1.9824 0.9624
3.9210 8.5174 -1.9820 0.9624
3.1443 8.8324 -1.9818 0.9624
2.3429 9.0775 -1.9817 0.9624
0.6909 9.3509 -1.9820 0.9624
-0.1469 9.3771 -1.9824 0.9624
-0.9839 9.3291 -1.9829 0.9624
-1.8137 9.2072 -1.9836 0.9624
-2.6297 9.0122 -1.9844 0.9623
-4.1953 8.4096 -1.9865 0.9623
-4.9326 8.0064 -1.9878 0.9623
-6.8933 6.4267 -1.9921 0.9622
-8.3715 4.3810 -1.9972 0.9621
-9.2585 2.0109 -2.0027 0.9620
-9.4861 -0.5163 -2.0081 0.9619
-9.4102 -1.3625 -2.0099 0.9619
-9.2587 -2.1992 -2.0115 0.9618
-9.0325 -3.0196 -2.0132 0.9618
-8.7334 -3.8170 -2.0147 0.9618
-7.4237 -6.0069 -2.0186 0.9617
-6.2429 -7.2387 -2.0206 0.9617
-4.8590 -8.2393 -2.0219 0.9616
-4.1047 -8.6422 -2.0224 0.9616
-1.6676 -9.4227 -2.0227 0.9616
-0.8194 -9.5330 -2.0225 0.9616
0.0351 -9.5552 -2.0198 0.9617
0.8326 -8.9187 -1.8934 0.9640
1.6032 -8.6869 -1.8672 0.9645
2.3715 -8.5054 -1.8665 0.9645
3.1201 -8.2556 -1.8655 0.9646
3.8426 -7.9396 -1.8645 0.9646
4.5334 -7.5600 -1.8633 0.9646
5.1869 -7.1201 -1.8621 0.9646
6.9090 -5.5070 -1.8676 0.9645
7.9174 -5.2273 -2.0054 0.9620
8.3593 -4.5031 -2.0071 0.9619
8.7202 -3.7353 -2.0053 0.9620
9.4415 -0.4444 -1.9980 0.9621
8.9692 2.8794 -1.9912 0.9622
8.6697 3.6660 -1.9897 0.9622
7.3737 5.8215 -1.9859 0.9623
4.1243 8.4213 -1.9821 0.9624
2.5599 9.0187 -1.9817 0.9624
1.7444 9.2114 -1.9817 0.9624
-0.7599 9.3492 -1.9828 0.9624
-1.5922 9.2471 -1.9834 0.9624
-2.4126 9.0716 -1.9842 0.9623
-5.4483 7.6705 -1.9888 0.9623
-6.7358 6.5888 -1.9917 0.9622
-7.3032 5.9658 -1.9933 0.9622
-7.8133 5.2942 -1.9950 0.9621
-8.9611 3.0421 -2.0004 0.9620
-9.3765 1.4022 -2.0040 0.9620
-9.4728 0.5598 -2.0059 0.9619
-9.4935 -0.2886 -2.0077 0.9619
-9.4380 -1.1362 -2.0094 0.9619
-9.1004 -2.8016 -2.0127 0.9618
-8.4695 -4.3822 -2.0157 0.9618
-8.0497 -5.1244 -2.0171 0.9617
-7.5645 -5.8263 -2.0183 0.9617
-7.0178 -6.4820 -2.0194 0.9617
-6.4139 -7.0861 -2.0203 0.9617
-5.0548 -8.1199 -2.0218 0.9617
-3.5312 -8.8931 -2.0226 0.9616
-1.0478 -9.5109 -2.0226 0.9616
-0.1943 -9.5649 -2.0222 0.9616
0.6367 -9.1992 -1.9492 0.9630
1.3946 -8.7237 -1.8674 0.9645
2.1672 -8.5609 -1.8667 0.9645
4.3516 -7.6678 -1.8637 0.9646
5.0156 -7.2438 -1.8624 0.9646
7.7793 -5.4084 -2.0027 0.9620
7.4455 4.0287 -1.9896 0.9658
6.6028 5.2830 -1.9874 0.9659
6.1019 5.8488 -1.9865 0.9659
4.9605 6.8359 -1.9850 0.9659
4.3291 7.2496 -1.9845 0.9659
2.9695 7.9014 -1.9838 0.9659
1.5165 8.3033 -1.9837 0.9659
0.0153 8.4428 -1.9842 0.9659
-3.6430 7.6335 -1.9879 0.9658
-4.9485 6.8717 -1.9902 0.9658
-6.6065 5.3254 -1.9943 0.9657
-7.4600 4.0716 -1.9974 0.9657
-7.8000 3.3919 -1.9990 0.9657
-8.2926 1.9535 -2.0023 0.9656
-8.5218 0.4480 -2.0056 0.9655
-8.4790 -1.0768 -2.0088 0.9655
-8.3553 -1.8310 -2.0103 0.9655
-8.1644 -2.5717 -2.0118 0.9654
-7.9075 -3.2927 -2.0131 0.9654
-7.5868 -3.9883 -2.0144 0.9654
-7.2046 -4.6526 -2.0156 0.9654
-6.2685 -5.8659 -2.0177 0.9653
-5.7220 -6.4049 -2.0185 0.9653
-4.4943 -7.3253 -2.0198 0.9653
-3.1207 -8.0108 -2.0205 0.9653
0.6485 -8.5609 -2.0178 0.9653
2.6740 -7.4673 -1.8641 0.9679
3.3285 -7.1951 -1.8632 0.9679
3.9555 -6.8654 -1.8622 0.9680
4.5500 -6.4808 -1.8610 0.9680
5.1072 -6.0447 -1.8598 0.9680
5.7265 -5.6633 -1.8929 0.9674
6.5728 -5.4295 -2.0037 0.9656
7.4458 -4.1804 -2.0069 0.9655
7.7830 -3.4960 -2.0053 0.9655
8.2672 -2.0524 -2.0020 0.9656
8.4105 -1.3049 -2.0003 0.9656
8.4353 0.9686 -1.9955 0.9657
8.3088 1.7167 -1.9940 0.9657
7.8599 3.1628 -1.9912 0.9658
7.5412 3.8496 -1.9899 0.9658
7.1631 4.5050 -1.9887 0.9658
6.2411 5.7015 -1.9867 0.9659
3.8451 7.5160 -1.9842 0.9659
2.4463 8.0783 -1.9837 0.9659
0.9704 8.3852 -1.9839 0.9659
-0.5369 8.4271 -1.9846 0.9659
-2.0286 8.2024 -1.9858 0.9659
-2.7541 7.9918 -1.9867 0.9659
-4.1360 7.3819 -1.9887 0.9658
-4.7815 6.9872 -1.9898 0.9658
-5.9560 6.0332 -1.9925 0.9658
-6.9444 4.8847 -1.9954 0.9657
-7.3586 4.2484 -1.9970 0.9657
-8.2416 2.1513 -2.0019 0.9656
-8.4077 1.4079 -2.0035 0.9656
-8.5068 0.6520 -2.0052 0.9656
-8.5007 -0.8730 -2.0084 0.9655
-8.3952 -1.6298 -2.0099 0.9655
-7.9828 -3.1016 -2.0128 0.9654
-7.6789 -3.8046 -2.0141 0.9654
-6.8877 -5.1158 -2.0164 0.9654
-6.4065 -5.7132 -2.0174 0.9653
-5.8733 -6.2652 -2.0183 0.9653
-5.2924 -6.7672 -2.0191 0.9653
-4.0063 -7.6047 -2.0201 0.9653
-2.5903 -8.1981 -2.0206 0.9653
-1.0907 -8.5277 -2.0205 0.9653
-0.3247 -8.5899 -2.0203 0.9653
1.8200 -7.7567 -1.8725 0.9678
2.4944 -7.5302 -1.8643 0.9679
4.9617 -6.1665 -1.8602 0.9680
5.5083 -5.7152 -1.8655 0.9679
6.3822 -5.5348 -1.9855 0.9659
6.9318 -5.0011 -2.0089 0.9655
7.6986 -3.6825 -2.0057 0.9655
7.9902 -2.9778 -2.0041 0.9656
8.2174 -2.2506 -2.0024 0.9656
8.3786 -1.5065 -2.0008 0.9656
8.4728 -0.7517 -1.9991 0.9657
8.4579 0.7662 -1.9959 0.9657
8.1744 2.2551 -1.9929 0.9658
7.9349 2.9740 -1.9916 0.9658
7.6326 3.6683 -1.9903 0.9658
6.3768 5.5509 -1.9870 0.9659
5.8531 6.0955 -1.9861 0.9659
5.2834 6.5913 -1.9854 0.9659
3.3451 7.7504 -1.9839 0.9659
2.6394 8.0174 -1.9838 0.9659
-0.3346 8.4370 -1.9844 0.9659
-1.0870 8.3756 -1.9850 0.9659
-1.8312 8.2479 -1.9856 0.9659
-3.2719 7.7973 -1.9873 0.9659
-3.9572 7.4779 -1.9884 0.9658
-5.8085 6.1731 -1.9921 0.9658
-6.3411 5.6338 -1.9935 0.9657
-7.2531 4.4227 -1.9966 0.9657
-7.6251 3.7603 -1.9981 0.9657
-7.9369 3.0669 -1.9998 0.9656
-8.3696 1.6088 -2.0031 0.9656
-8.4301 -1.4277 -2.0095 0.9655
-8.2751 -2.1765 -2.0110 0.9655
-8.0534 -2.9088 -2.0124 0.9654
-6.5409 -5.5573 -2.0172 0.9653
-4.8396 -7.1004 -2.0195 0.9653
-2.7861 -8.1335 -2.0206 0.9653
-2.0487 -8.3501 -2.0207 0.9653
-1.2949 -8.4993 -2.0206 0.9653
-0.5306 -8.5800 -2.0204 0.9653
0.2376 -8.5915 -2.0200 0.9653
1.0005 -8.5074 -2.0132 0.9654
2.3134 -7.5887 -1.8646 0.9679
2.9805 -7.3484 -1.8637 0.9679
3.6229 -7.0493 -1.8627 0.9680
4.2355 -6.6937 -1.8617 0.9680
4.8133 -6.2848 -1.8605 0.9680
5.3517 -5.8260 -1.8592 0.9680
6.1250 -5.5746 -1.9465 0.9665
7.2399 -4.5345 -2.0077 0.9655
8.1629 -2.4475 -2.0028 0.9656
8.4542 -0.9549 -1.9996 0.9656
8.2278 2.0589 -1.9933 0.9658
8.0054 2.7834 -1.9919 0.9658
4.8400 6.9211 -1.9849 0.9659
3.5301 7.6683 -1.9840 0.9659
2.8309 7.9520 -1.9838 0.9659
-0.1322 8.4421 -1.9843 0.9659
-2.3673 8.1128 -1.9862 0.9659
-3.0836 7.8725 -1.9871 0.9659
-3.7762 7.5695 -1.9881 0.9658
-6.6995 5.2099 -1.9946 0.9657
-7.8594 3.2556 -1.9993 0.9656
-8.3268 1.8086 -2.0026 0.9656
-8.4620 1.0587 -2.0043 0.9656
-8.5291 -0.4642 -2.0075 0.9655
-8.4602 -1.2250 -2.0091 0.9655
-7.8498 -3.4308 -2.0134 0.9654
-7.5168 -4.1207 -2.0147 0.9654
-7.1230 -4.7783 -2.0158 0.9654
-6.6713 -5.3981 -2.0169 0.9654
-5.6096 -6.5044 -2.0187 0.9653
-5.0081 -6.9817 -2.0194 0.9653
-4.3658 -7.4031 -2.0199 0.9653
-3.6880 -7.7649 -2.0203 0.9653
-2.9803 -8.0642 -2.0206 0.9653
-2.2484 -8.2986 -2.0207 0.9653
-1.4983 -8.4660 -2.0206 0.9653
0.0315 -8.5952 -2.0201 0.9653
0.7973 -8.5400 -2.0158 0.9654
3.4533 -7.1351 -1.8630 0.9680
4.0744 -6.7945 -1.8620 0.9680
4.6620 -6.3995 -1.8608 0.9680
6.6713 -5.3175 -2.0050 0.9656
7.1305 -4.7078 -2.0082 0.9655
8.4307 -1.1576 -2.0000 0.9656
8.4934 -0.3998 -1.9984 0.9657
8.4884 0.3600 -1.9968 0.9657
8.4158 1.1157 -1.9952 0.9657
7.8024 3.2993 -1.9909 0.9658
7.4719 3.9803 -1.9897 0.9658
7.0825 4.6290 -1.9885 0.9658
6.6373 5.2401 -1.9875 0.9658
5.5944 6.3317 -1.9857 0.9659
5.0049 6.8036 -1.9851 0.9659
4.3762 7.2214 -1.9845 0.9659
3.7131 7.5818 -1.9841 0.9659
2.3048 8.1197 -1.9837 0.9659
1.5705 8.2932 -1.9837 0.9659
0.0702 8.4424 -1.9842 0.9659
-0.6841 8.4168 -1.9847 0.9659
-2.1718 8.1663 -1.9860 0.9659
-3.5931 7.6568 -1.9878 0.9658
-4.2648 7.3093 -1.9889 0.9658
-4.9034 6.9034 -1.9901 0.9658
-5.5039 6.4421 -1.9914 0.9658
-6.5713 5.3680 -1.9942 0.9657
-7.7773 3.4423 -1.9989 0.9657
-8.0602 2.7363 -2.0005 0.9656
-8.2792 2.0073 -2.0022 0.9656
-8.5182 0.5034 -2.0055 0.9655
-8.5360 -0.2595 -2.0071 0.9655
-7.9284 -3.2411 -2.0130 0.9654
-7.6122 -3.9386 -2.0143 0.9654
-7.2344 -4.6054 -2.0155 0.9654
-5.7634 -6.3674 -2.0185 0.9653
-3.8730 -7.6739 -2.0202 0.9653
-2.4467 -8.2422 -2.0207 0.9653
-0.9415 -8.5453 -2.0205 0.9653
-0.1746 -8.5940 -2.0202 0.9653
3.2817 -7.2169 -1.8633 0.9679
4.5080 -6.5106 -1.8611 0.9680
5.0681 -6.0781 -1.8599 0.9680
5.6660 -5.6768 -1.8850 0.9676
6.5357 -5.4708 -2.0031 0.9656
7.0171 -4.8785 -2.0086 0.9655
6.7623 3.6590 -1.9907 0.9687
6.4051 4.2460 -1.9897 0.9687
5.9975 4.7987 -1.9887 0.9688
5.5427 5.3128 -1.9879 0.9688
4.5062 6.2099 -1.9866 0.9688
2.6977 7.1782 -1.9855 0.9688
2.0458 7.3901 -1.9854 0.9688
1.3777 7.5434 -1.9854 0.9688
0.0139 7.6699 -1.9859 0.9688
-1.3513 7.5537 -1.9868 0.9688
-2.0211 7.4054 -1.9875 0.9688
-2.6754 7.1981 -1.9883 0.9688
-3.3090 6.9336 -1.9892 0.9688
-3.9169 6.6137 -1.9902 0.9687
-4.4942 6.2409 -1.9913 0.9687
-5.9989 4.8356 -1.9950 0.9687
-6.4112 4.2836 -1.9964 0.9686
-7.0812 3.0793 -1.9993 0.9686
-7.5272 1.7732 -2.0023 0.9686
-7.7341 0.4066 -2.0053 0.9685
-7.7451 -0.2859 -2.0067 0.9685
-7.5814 -1.6614 -2.0095 0.9684
-6.8827 -3.6181 -2.0133 0.9684
-6.5356 -4.2206 -2.0144 0.9684
-4.6520 -6.2517 -2.0176 0.9683
-4.0762 -6.6438 -2.0182 0.9683
-3.4673 -6.9826 -2.0185 0.9683
-0.8034 -7.7554 -2.0188 0.9683
-0.1076 -7.7951 -2.0185 0.9683
0.5888 -7.7719 -2.0181 0.9683
1.2797 -7.6836 -2.0168 0.9683
1.9542 -7.5138 -2.0102 0.9684
2.5448 -7.1065 -1.9544 0.9693
3.1120 -6.7273 -1.9192 0.9698
3.6857 -6.3972 -1.9116 0.9700
5.9829 -4.9422 -2.0093 0.9684
7.0637 -3.1729 -2.0050 0.9685
7.3134 -2.5276 -2.0035 0.9685
7.5043 -1.8630 -2.0020 0.9686
7.6349 -1.1846 -2.0005 0.9686
7.7045 -0.4977 -1.9990 0.9686
7.7125 0.1922 -1.9975 0.9686
7.3706 2.2249 -1.9934 0.9687
7.1381 2.8724 -1.9922 0.9687
5.6691 5.1790 -1.9881 0.9688
4.6542 6.1005 -1.9867 0.9688
1.5582 7.5081 -1.9854 0.9688
0.8816 7.6177 -1.9855 0.9688
-0.4877 7.6555 -1.9862 0.9688
-1.1697 7.5833 -1.9867 0.9688
-2.5017 7.2594 -1.9881 0.9688
-3.7566 6.7048 -1.9899 0.9687
-4.3427 6.3459 -1.9910 0.9687
-5.8802 4.9772 -1.9947 0.9687
-6.3055 4.4353 -1.9960 0.9686
-6.6811 3.8572 -1.9974 0.9686
-7.7206 0.5918 -2.0049 0.9685
-7.7139 -0.7922 -2.0078 0.9685
-7.6176 -1.4789 -2.0092 0.9684
-7.4601 -2.1546 -2.0105 0.9684
-7.2425 -2.8140 -2.0118 0.9684
-6.9664 -3.4515 -2.0130 0.9684
-6.6340 -4.0621 -2.0141 0.9684
-6.2479 -4.6406 -2.0151 0.9684
-4.2341 -6.5438 -2.0180 0.9683
-3.0036 -7.1951 -2.0188 0.9683
-0.9892 -7.7341 -2.0188 0.9683
1.0955 -7.7153 -2.0177 0.9683
2.3933 -7.2247 -1.9706 0.9690
4.7605 -5.9164 -1.9662 0.9691
6.9870 -3.3420 -2.0054 0.9685
7.6058 -1.3676 -2.0009 0.9686
7.6919 -0.6824 -1.9994 0.9686
7.4231 2.0479 -1.9938 0.9687
7.2061 2.7009 -1.9925 0.9687
5.7923 5.0421 -1.9883 0.9688
5.3168 5.5370 -1.9876 0.9688
4.2445 6.3905 -1.9863 0.9688
3.0389 7.0410 -1.9856 0.9688
2.3978 7.2836 -1.9854 0.9688
1.0640 7.5942 -1.9855 0.9688
0.3816 7.6597 -1.9857 0.9688
-0.3040 7.6646 -1.9861 0.9688
-2.9720 7.0825 -1.9887 0.9688
-6.1961 4.5843 -1.9957 0.9687
-7.2052 2.7841 -2.0000 0.9686
-7.4306 2.1312 -2.0015 0.9686
-7.7469 0.0857 -2.0059 0.9685
-7.6495 -1.2955 -2.0088 0.9685
-6.7285 -3.9013 -2.0138 0.9684
-4.9455 -6.0205 -2.0173 0.9683
-4.3894 -6.4399 -2.0179 0.9683
-3.1751 -7.1208 -2.0187 0.9683
-2.5268 -7.3766 -2.0189 0.9683
-1.8581 -7.5730 -2.0189 0.9683
0.2155 -7.7922 -2.0183 0.9683
0.9103 -7.7400 -2.0178 0.9683
2.8074 -6.9218 -1.9340 0.9696
3.3745 -6.5659 -1.9114 0.9700
3.9590 -6.2567 -1.9170 0.9699
6.1806 -4.6885 -2.0086 0.9685
6.9062 -3.5093 -2.0057 0.9685
7.1867 -2.8765 -2.0043 0.9685
7.5724 -1.5499 -2.0013 0.9686
7.6748 -0.8668 -1.9998 0.9686
7.6954 0.5115 -1.9969 0.9686
7.6136 1.1958 -1.9955 0.9687
7.4714 1.8696 -1.9941 0.9687
7.0110 3.1649 -1.9916 0.9687
6.3293 4.3568 -1.9895 0.9687
5.9122 4.9023 -1.9886 0.9688
5.4486 5.4085 -1.9878 0.9688
4.3968 6.2873 -1.9865 0.9688
3.2070 6.9664 -1.9857 0.9688
1.9163 7.4247 -1.9854 0.9688
0.5651 7.6481 -1.9856 0.9688
-0.1201 7.6692 -1.9859 0.9688
-2.1504 7.3695 -1.9877 0.9688
-2.8010 7.1509 -1.9885 0.9688
-3.4299 6.8753 -1.9894 0.9688
-4.6031 6.1621 -1.9915 0.9687
-6.0833 4.7307 -1.9953 0.9687
-6.4860 4.1715 -1.9967 0.9686
-7.3758 2.3083 -2.0011 0.9686
-7.5582 1.6416 -2.0026 0.9685
-7.6803 0.9609 -2.0041 0.9685
-7.7401 -0.4213 -2.0070 0.9685
-7.6769 -1.1116 -2.0084 0.9685
-7.5522 -1.7939 -2.0098 0.9684
-7.3666 -2.4627 -2.0111 0.9684
-7.1216 -3.1126 -2.0123 0.9684
-6.0515 -4.8966 -2.0155 0.9683
-4.5423 -6.3324 -2.0177 0.9683
-3.9596 -6.7143 -2.0182 0.9683
-2.7029 -7.3138 -2.0188 0.9683
-2.0391 -7.5263 -2.0189 0.9683
-0.6677 -7.7681 -2.0187 0.9683
0.0286 -7.7955 -2.0184 0.9683
0.7245 -7.7601 -2.0180 0.9683
1.4127 -7.6547 -2.0154 0.9683
2.6562 -7.0283 -1.9454 0.9694
3.8008 -6.3381 -1.9135 0.9699
4.4125 -6.0571 -1.9403 0.9695
6.4706 -4.2721 -2.0076 0.9685
6.8214 -3.6746 -2.0061 0.9685
7.1170 -3.0486 -2.0047 0.9685
7.5346 -1.7314 -2.0017 0.9686
7.7069 0.3268 -1.9973 0.9686
5.0819 5.7517 -1.9872 0.9688
4.5466 6.1806 -1.9866 0.9688
3.9755 6.5602 -1.9861 0.9688
2.7443 7.1606 -1.9855 0.9688
2.0938 7.3766 -1.9854 0.9688
1.4268 7.5342 -1.9854 0.9688
-1.3021 7.5622 -1.9868 0.9688
-1.9728 7.4182 -1.9875 0.9688
-2.6284 7.2152 -1.9882 0.9688
-4.4534 6.2698 -1.9912 0.9687
-5.5043 5.3841 -1.9936 0.9687
-6.3829 4.3250 -1.9963 0.9686
-7.0606 3.1251 -1.9992 0.9686
-7.6535 1.1445 -2.0037 0.9685
-7.7464 -0.2355 -2.0066 0.9685
-6.5627 -4.1778 -2.0143 0.9684
-6.1664 -4.7495 -2.0153 0.9684
-5.7202 -5.2835 -2.0162 0.9683
-5.2275 -5.7754 -2.0169 0.9683
-4.6925 -6.2211 -2.0176 0.9683
-2.8774 -7.2467 -2.0188 0.9683
-2.2190 -7.4751 -2.0189 0.9683
-0.8538 -7.7501 -2.0188 0.9683
-0.1583 -7.7943 -2.0185 0.9683
2.5039 -7.1384 -1.9587 0.9692
3.0706 -6.7527 -1.9207 0.9698
5.4746 -5.4850 -2.0065 0.9685
5.9509 -4.9813 -2.0094 0.9684
6.7326 -3.8379 -2.0065 0.9685
5.8612 3.8854 -1.9907 0.9712
5.4885 4.3914 -1.9899 0.9712
5.0724 4.8621 -1.9891 0.9712
4.6164 5.2938 -1.9884 0.9712
4.1241 5.6833 -1.9879 0.9712
3.5993 6.0275 -1.9874 0.9712
3.0462 6.3238 -1.9871 0.9712
2.4690 6.5699 -1.9869 0.9712
1.8724 6.7638 -1.9868 0.9712
0.0127 7.0197 -1.9872 0.9712
-1.8497 6.7772 -1.9887 0.9712
-3.0280 6.3449 -1.9903 0.9712
-3.5842 6.0520 -1.9912 0.9712
-5.8651 3.9187 -1.9969 0.9711
-6.4772 2.8166 -1.9995 0.9711
-6.7074 2.2285 -2.0009 0.9710
-6.8843 1.6218 -2.0023 0.9710
-7.0064 1.0012 -2.0036 0.9710
-6.2919 -3.3076 -2.0123 0.9709
-5.9743 -3.8581 -2.0133 0.9709
-4.2519 -5.7140 -2.0163 0.9708
-2.5867 -6.6401 -2.0174 0.9708
-1.3644 -6.9947 -2.0175 0.9708
-0.7343 -7.0881 -2.0173 0.9708
0.5381 -7.1034 -2.0167 0.9708
1.7921 -6.8906 -2.0156 0.9708
2.3986 -6.6982 -2.0141 0.9709
4.5847 -5.4262 -2.0110 0.9709
5.0480 -4.9922 -2.0099 0.9709
5.4703 -4.5188 -2.0086 0.9709
5.8483 -4.0097 -2.0074 0.9710
6.1789 -3.4692 -2.0060 0.9710
6.4597 -2.9016 -2.0047 0.9710
6.6884 -2.3116 -2.0033 0.9710
6.8634 -1.7039 -2.0020 0.9710
6.9834 -1.0835 -2.0006 0.9710
7.0475 -0.4553 -1.9992 0.9711
6.9027 1.4262 -1.9954 0.9711
6.7437 2.0356 -1.9942 0.9711
5.1881 4.7395 -1.9893 0.9712
3.7430 5.9398 -1.9875 0.9712
3.1971 6.2492 -1.9872 0.9712
2.0341 6.7170 -1.9868 0.9712
1.4261 6.8718 -1.9868 0.9712
0.8069 6.9721 -1.9869 0.9712
0.1810 7.0171 -1.9872 0.9712
-1.0705 6.9403 -1.9880 0.9712
-1.6865 6.8190 -1.9886 0.9712
-2.2895 6.6434 -1.9893 0.9712
-3.4376 6.1354 -1.9909 0.9712
-4.4787 5.4316 -1.9930 0.9712
-4.9486 5.0128 -1.9941 0.9711
-5.3797 4.5536 -1.9953 0.9711
-6.1117 3.5285 -1.9978 0.9711
-6.6508 2.3883 -2.0005 0.9710
-6.8422 1.7860 -2.0019 0.9710
-7.0604 0.5412 -2.0046 0.9710
-7.0853 -0.0915 -2.0060 0.9710
-7.0534 -0.7243 -2.0073 0.9710
-6.8206 -1.9699 -2.0098 0.9709
-6.0644 -3.7133 -2.0130 0.9709
-3.8698 -5.9809 -2.0167 0.9708
-2.7451 -6.5760 -2.0173 0.9708
-2.1471 -6.7953 -2.0175 0.9708
-0.9040 -7.0686 -2.0174 0.9708
0.3677 -7.1147 -2.0168 0.9708
1.0013 -7.0518 -2.0163 0.9708
2.8283 -6.5197 -2.0119 0.9709
3.3962 -6.2356 -2.0101 0.9709
3.9391 -5.9069 -2.0099 0.9709
4.4539 -5.5354 -2.0113 0.9709
4.9276 -5.1127 -2.0102 0.9709
6.6323 -2.4718 -2.0037 0.9710
6.8219 -1.8684 -2.0023 0.9710
6.9567 -1.2509 -2.0010 0.9710
7.0587 0.0066 -1.9983 0.9711
7.0253 0.6364 -1.9970 0.9711
6.9360 1.2604 -1.9957 0.9711
6.0423 3.6009 -1.9912 0.9712
5.6940 4.1242 -1.9903 0.9712
5.3008 4.6142 -1.9895 0.9712
4.8658 5.0673 -1.9888 0.9712
2.7813 6.4443 -1.9870 0.9712
2.1946 6.6664 -1.9868 0.9712
1.5905 6.8356 -1.9868 0.9712
0.9738 6.9506 -1.9869 0.9712
0.3492 7.0105 -1.9871 0.9712
-0.9037 6.9635 -1.9878 0.9712
-2.1293 6.6958 -1.9891 0.9712
-2.7197 6.4814 -1.9898 0.9712
-3.2891 6.2153 -1.9907 0.9712
-3.8328 5.8996 -1.9916 0.9712
-4.3465 5.5366 -1.9927 0.9712
-5.2681 4.6805 -1.9950 0.9711
-5.6686 4.1940 -1.9962 0.9711
-6.0243 3.6734 -1.9975 0.9711
-6.3324 3.1228 -1.9988 0.9711
-6.5905 2.5466 -2.0002 0.9711
-6.9478 1.3355 -2.0029 0.9710
-7.0441 0.7102 -2.0043 0.9710
-7.0675 -0.5549 -2.0069 0.9710
-6.1509 -3.5663 -2.0128 0.9709
-5.8106 -4.1033 -2.0137 0.9709
-5.4232 -4.6077 -2.0146 0.9708
-4.0119 -5.8860 -2.0165 0.9708
-2.9019 -6.5081 -2.0173 0.9708
-2.3094 -6.7418 -2.0174 0.9708
-1.0733 -7.0450 -2.0174 0.9708
1.4600 -6.9698 -2.0159 0.9708
2.0758 -6.8093 -2.0152 0.9708
2.6720 -6.5879 -2.0125 0.9709
3.7962 -5.9995 -2.0099 0.9709
4.3191 -5.6396 -2.0109 0.9709
5.6512 -4.2869 -2.0080 0.9709
6.0076 -3.7627 -2.0068 0.9710
6.3154 -3.2091 -2.0054 0.9710
6.7763 -2.0318 -2.0027 0.9710
7.0581 -0.1627 -1.9986 0.9711
7.0398 0.4679 -1.9973 0.9711
6.9654 1.0940 -1.9960 0.9711
6.8357 1.7105 -1.9948 0.9711
6.6517 2.3128 -1.9936 0.9711
4.9864 4.9496 -1.9890 0.9712
4.5230 5.3734 -1.9883 0.9712
4.0240 5.7542 -1.9878 0.9712
3.4933 6.0893 -1.9874 0.9712
2.3538 6.6119 -1.9869 0.9712
1.7539 6.7955 -1.9868 0.9712
1.1401 6.9251 -1.9868 0.9712
-0.1099 7.0191 -1.9873 0.9712
-0.7364 6.9827 -1.9877 0.9712
-1.3574 6.8909 -1.9882 0.9712
-3.6897 5.9890 -1.9914 0.9712
-5.9335 3.8161 -1.9971 0.9711
-6.5263 2.7034 -1.9998 0.9711
-6.7462 2.1112 -2.0011 0.9710
-7.0776 -0.3852 -2.0066 0.9710
-6.9049 -1.6401 -2.0091 0.9709
-6.7349 -2.2515 -2.0103 0.9709
-6.5106 -2.8455 -2.0115 0.9709
-6.2338 -3.4173 -2.0125 0.9709
-5.9065 -3.9623 -2.0135 0.9709
-5.5315 -4.4759 -2.0144 0.9709
-4.1516 -5.7877 -2.0164 0.9708
-3.0570 -6.4364 -2.0172 0.9708
-2.4703 -6.6844 -2.0174 0.9708
-0.6103 -7.0997 -2.0173 0.9708
1.9121 -6.8578 -2.0154 0.9708
3.0945 -6.3938 -2.0109 0.9709
4.1817 -5.7403 -2.0105 0.9709
5.1339 -4.9027 -2.0096 0.9709
5.5477 -4.4220 -2.0084 0.9709
5.9167 -3.9064 -2.0071 0.9710
6.8912 -1.5835 -2.0017 0.9710
7.0534 -0.3320 -1.9990 0.9711
6.2096 3.3079 -1.9918 0.9712
2.5117 6.5537 -1.9869 0.9712
1.9164 6.7515 -1.9868 0.9712
1.3058 6.8957 -1.9868 0.9712
0.6849 6.9853 -1.9870 0.9712
-1.1917 6.9209 -1.9881 0.9712
-1.8055 6.7889 -1.9887 0.9712
-2.4054 6.6029 -1.9894 0.9712
-2.9866 6.3643 -1.9902 0.9712
-3.5446 6.0750 -1.9911 0.9712
-4.5734 5.3531 -1.9932 0.9712
-5.8392 3.9566 -1.9968 0.9711
-6.8733 1.6664 -2.0022 0.9710
-7.0835 -0.2154 -2.0062 0.9710
-5.9991 -3.8190 -2.0132 0.9709
-4.7781 -5.2788 -2.0157 0.9708
-4.2889 -5.6861 -2.0163 0.9708
-3.7649 -6.0478 -2.0167 0.9708
-3.2104 -6.3610 -2.0171 0.9708
-2.6298 -6.6231 -2.0173 0.9708
-2.0280 -6.8319 -2.0175 0.9708
-1.4098 -6.9857 -2.0175 0.9708
-0.1447 -7.1237 -2.0171 0.9708
0.4919 -7.1069 -2.0167 0.9708
1.1243 -7.0328 -2.0162 0.9708
1.7473 -6.9023 -2.0156 0.9708
2.9411 -6.4679 -2.0114 0.9709
3.5044 -6.1750 -2.0100 0.9709
4.5494 -5.4561 -2.0111 0.9709
5.4410 -4.5545 -2.0087 0.9709
5.8223 -4.0478 -2.0075 0.9710
6.1565 -3.5095 -2.0061 0.9710
5.9529 2.5630 -1.9935 0.9732
5.3971 3.5777 -1.9916 0.9733
5.0540 4.0438 -1.9908 0.9733
4.6710 4.4773 -1.9901 0.9733
3.7979 5.2338 -1.9890 0.9733
3.3147 5.5509 -1.9886 0.9733
2.8054 5.8239 -1.9883 0.9733
2.2739 6.0505 -1.9881 0.9733
1.7244 6.2291 -1.9880 0.9733
0.0117 6.4647 -1.9884 0.9733
-1.7033 6.2410 -1.9898 0.9733
-2.7883 5.8426 -1.9912 0.9733
-3.3003 5.5726 -1.9920 0.9733
-3.7865 5.2580 -1.9930 0.9732
-4.2430 4.9014 -1.9940 0.9732
-5.0527 4.0729 -1.9961 0.9732
-5.3993 3.6075 -1.9973 0.9732
-5.7033 3.1128 -1.9985 0.9732
-5.9622 2.5927 -1.9997 0.9732
-6.3362 1.4926 -2.0022 0.9731
-6.4483 0.9214 -2.0035 0.9731
-6.5089 0.3421 -2.0047 0.9731
-6.5174 -0.2406 -2.0060 0.9731
-6.2313 -1.9628 -2.0094 0.9730
-5.4963 -3.5494 -2.0124 0.9730
-4.7810 -4.4739 -2.0140 0.9730
-2.9149 -5.8703 -2.0159 0.9729
-1.8245 -6.2962 -2.0162 0.9729
-1.2550 -6.4339 -2.0162 0.9729
-0.0905 -6.5533 -2.0159 0.9729
2.7479 -5.9401 -2.0131 0.9730
3.7574 -5.3518 -2.0113 0.9730
4.2182 -4.9924 -2.0103 0.9730
5.0335 -4.1580 -2.0081 0.9730
5.9448 -2.6703 -2.0045 0.9731
6.1557 -2.1275 -2.0032 0.9731
6.4278 -0.9973 -2.0007 0.9731
6.4872 -0.4191 -1.9995 0.9732
6.4947 0.1618 -1.9982 0.9732
6.4504 0.7407 -1.9970 0.9732
6.2088 1.8742 -1.9948 0.9732
5.4819 3.4477 -1.9919 0.9733
5.1500 3.9218 -1.9910 0.9733
4.7775 4.3644 -1.9903 0.9733
4.3673 4.7721 -1.9897 0.9733
2.9443 5.7551 -1.9884 0.9733
2.4183 5.9944 -1.9881 0.9733
0.7431 6.4209 -1.9881 0.9733
0.1667 6.4623 -1.9883 0.9733
-0.9858 6.3914 -1.9891 0.9733
-4.1237 5.0010 -1.9937 0.9732
-4.5561 4.6152 -1.9947 0.9732
-5.6261 3.2481 -1.9982 0.9732
-6.2976 1.6439 -2.0019 0.9731
-6.4977 0.4980 -2.0044 0.9731
-6.4089 -1.2442 -2.0080 0.9730
-6.2757 -1.8125 -2.0092 0.9730
-6.0920 -2.3670 -2.0102 0.9730
-5.8592 -2.9030 -2.0112 0.9730
-5.2540 -3.9024 -2.0130 0.9730
-4.4793 -4.7781 -2.0144 0.9730
-3.0547 -5.7985 -2.0158 0.9729
-2.5250 -6.0488 -2.0161 0.9729
-1.9749 -6.2505 -2.0162 0.9729
0.3382 -6.5444 -2.0156 0.9729
2.6049 -6.0049 -2.0133 0.9730
4.0978 -5.0929 -2.0106 0.9730
5.2924 -3.8183 -2.0073 0.9731
5.6088 -3.3285 -2.0061 0.9731
5.8800 -2.8126 -2.0048 0.9731
6.2787 -1.7196 -2.0023 0.9731
6.4031 -1.1513 -2.0011 0.9731
6.4763 -0.5746 -1.9998 0.9732
6.4977 0.0060 -1.9986 0.9732
6.3855 1.1604 -1.9962 0.9732
4.0450 5.0464 -1.9893 0.9733
3.0816 5.6831 -1.9884 0.9733
2.5614 5.9348 -1.9882 0.9733
2.0211 6.1394 -1.9880 0.9733
0.8968 6.4011 -1.9881 0.9733
0.3216 6.4562 -1.9883 0.9733
-0.2562 6.4601 -1.9886 0.9733
-1.4019 6.3144 -1.9895 0.9733
-1.9608 6.1659 -1.9901 0.9733
-4.0020 5.0978 -1.9934 0.9732
-4.4435 4.7224 -1.9944 0.9732
-4.8501 4.3091 -1.9955 0.9732
-5.2185 3.8610 -1.9967 0.9732
-6.2553 1.7941 -2.0016 0.9731
-6.3945 1.2291 -2.0028 0.9731
-6.5193 0.0721 -2.0053 0.9731
-6.5036 -0.5106 -2.0065 0.9731
-6.4359 -1.0900 -2.0077 0.9731
-6.3164 -1.6613 -2.0089 0.9730
-5.6588 -3.2810 -2.0119 0.9730
-4.5921 -4.6690 -2.0143 0.9730
-3.1928 -5.7233 -2.0158 0.9729
0.1812 -6.5510 -2.0157 0.9729
0.7653 -6.5073 -2.0153 0.9730
1.3430 -6.4114 -2.0148 0.9730
3.4974 -5.5272 -2.0118 0.9730
4.4204 -4.8122 -2.0098 0.9730
5.2001 -3.9447 -2.0076 0.9731
5.5283 -3.4625 -2.0064 0.9731
6.4618 -0.7298 -2.0001 0.9732
6.2933 1.5748 -1.9954 0.9732
5.6423 3.1817 -1.9923 0.9733
5.3333 3.6712 -1.9915 0.9733
4.9822 4.1311 -1.9907 0.9733
4.5918 4.5580 -1.9900 0.9733
4.1652 4.9483 -1.9894 0.9733
3.7057 5.2992 -1.9889 0.9733
3.2171 5.6078 -1.9885 0.9733
2.7031 5.8718 -1.9882 0.9733
-0.1012 6.4641 -1.9885 0.9733
-1.8122 6.2106 -1.9899 0.9733
-2.3604 6.0260 -1.9906 0.9733
-3.3974 5.5146 -1.9922 0.9733
-4.7447 4.4235 -1.9952 0.9732
-5.4622 3.5130 -1.9975 0.9732
-5.7575 3.0130 -1.9987 0.9732
-6.0073 2.4884 -2.0000 0.9732
-6.5146 0.2284 -2.0050 0.9731
-6.1967 -2.0716 -2.0097 0.9730
-5.7351 -3.1440 -2.0117 0.9730
-5.4339 -3.6452 -2.0126 0.9730
-4.7024 -4.5571 -2.0141 0.9730
-3.8189 -5.3239 -2.0152 0.9730
-2.8120 -5.9205 -2.0160 0.9729
-1.7142 -6.3271 -2.0162 0.9729
-1.1424 -6.4548 -2.0162 0.9729
3.3642 -5.6102 -2.0120 0.9730
3.8500 -5.2849 -2.0111 0.9730
4.7237 -4.5110 -2.0090 0.9730
5.7403 -3.0923 -2.0055 0.9731
5.9898 -2.5657 -2.0042 0.9731
6.4435 -0.8847 -2.0005 0.9731
6.4927 -0.3056 -1.9992 0.9732
6.4901 0.2752 -1.9980 0.9732
6.1744 1.9822 -1.9946 0.9732
5.9697 2.5243 -1.9935 0.9732
5.7176 3.0458 -1.9926 0.9733
5.0803 4.0109 -1.9909 0.9733
4.7002 4.4469 -1.9902 0.9733
4.2829 4.8474 -1.9896 0.9733
2.8432 5.8055 -1.9883 0.9733
0.6308 6.4330 -1.9882 0.9733
0.0538 6.4644 -1.9884 0.9733
-1.6626 6.2518 -1.9897 0.9733
-3.2638 5.5938 -1.9920 0.9733
-3.7520 5.2824 -1.9929 0.9732
-4.2108 4.9287 -1.9939 0.9732
-5.3755 3.6424 -1.9972 0.9732
-5.9449 2.6313 -1.9996 0.9732
-6.4418 0.9633 -2.0034 0.9731
-6.3869 -1.3561 -2.0083 0.9730
-5.5191 -3.5134 -2.0123 0.9730
-4.8099 -4.4426 -2.0139 0.9730
-4.3953 -4.8560 -2.0146 0.9730
-2.4190 -6.0921 -2.0161 0.9729
-1.2968 -6.4256 -2.0162 0.9729
-0.7178 -6.5154 -2.0161 0.9729
-0.1331 -6.5527 -2.0159 0.9729
1.6073 -6.3494 -2.0145 0.9730
2.7092 -5.9580 -2.0131 0.9730
3.2291 -5.6899 -2.0123 0.9730
4.1858 -5.0200 -2.0104 0.9730
4.6149 -4.6237 -2.0093 0.9730
5.0065 -4.1908 -2.0082 0.9730
5.3577 -3.7248 -2.0070 0.9731
5.6655 -3.2295 -2.0058 0.9731
5.9276 -2.7091 -2.0046 0.9731
5.5100 2.3723 -1.9941 0.9750
5.2738 2.8536 -1.9932 0.9750
4.9959 3.3118 -1.9924 0.9751
4.6785 3.7433 -1.9917 0.9751
4.3241 4.1448 -1.9910 0.9751
3.5160 4.8453 -1.9900 0.9751
3.0687 5.1389 -1.9896 0.9751
2.5972 5.3916 -1.9893 0.9751
1.0751 5.8865 -1.9891 0.9751
0.0109 5.9849 -1.9894 0.9751
-1.0543 5.8936 -1.9902 0.9751
-2.0871 5.6153 -1.9913 0.9751
-4.6763 3.7695 -1.9966 0.9750
-4.9969 3.3387 -1.9976 0.9750
-5.2780 2.8807 -1.9988 0.9750
-5.9663 0.8526 -2.0034 0.9749
-6.0221 0.3166 -2.0045 0.9749
-5.9891 -0.7606 -2.0068 0.9749
-5.7643 -1.8157 -2.0089 0.9748
-5.0838 -3.2830 -2.0116 0.9748
-4.7721 -3.7253 -2.0124 0.9748
-4.0359 -4.5176 -2.0137 0.9748
-3.1694 -5.1658 -2.0146 0.9748
-2.6958 -5.4290 -2.0149 0.9748
-2.2005 -5.6486 -2.0151 0.9748
-1.1606 -5.9502 -2.0152 0.9748
0.9954 -5.9768 -2.0141 0.9748
1.5247 -5.8625 -2.0135 0.9748
2.5416 -5.4942 -2.0122 0.9748
5.2607 -2.9536 -2.0055 0.9749
5.6956 -1.9685 -2.0031 0.9749
6.0104 0.1497 -1.9985 0.9750
5.8815 1.2152 -1.9963 0.9750
5.7466 1.7346 -1.9953 0.9750
5.5660 2.2398 -1.9944 0.9750
5.3414 2.7266 -1.9935 0.9750
3.6314 4.7599 -1.9901 0.9751
3.1912 5.0641 -1.9897 0.9751
1.2159 5.8590 -1.9890 0.9751
0.1544 5.9827 -1.9894 0.9751
-0.3806 5.9735 -1.9897 0.9751
-0.9126 5.9169 -1.9901 0.9751
-2.4504 5.4682 -1.9918 0.9751
-4.2170 4.2717 -1.9953 0.9750
-4.5839 3.8800 -1.9963 0.9750
-4.9147 3.4570 -1.9973 0.9750
-5.8272 1.5211 -2.0019 0.9749
-5.9432 0.9952 -2.0031 0.9749
-6.0118 0.4608 -2.0042 0.9749
-5.8054 -1.6767 -2.0086 0.9749
-5.4197 -2.6852 -2.0105 0.9748
-4.8596 -3.6094 -2.0122 0.9748
-3.7326 -4.7727 -2.0140 0.9748
-3.2922 -5.0881 -2.0145 0.9748
-2.8251 -5.3626 -2.0148 0.9748
-2.3352 -5.5941 -2.0150 0.9748
-1.8265 -5.7806 -2.0152 0.9748
-1.3030 -5.9207 -2.0152 0.9748
-0.7690 -6.0131 -2.0151 0.9748
-0.2290 -6.0572 -2.0149 0.9748
2.4094 -5.5541 -2.0124 0.9748
2.8946 -5.3147 -2.0117 0.9748
4.1941 -4.3516 -2.0090 0.9748
5.4403 -2.6022 -2.0046 0.9749
5.9251 -1.0654 -2.0011 0.9749
6.0132 0.0056 -1.9988 0.9750
5.9854 0.5422 -1.9977 0.9750
4.8535 3.5154 -1.9921 0.9751
4.5186 3.9334 -1.9914 0.9751
4.1480 4.3198 -1.9907 0.9751
3.3118 4.9864 -1.9898 0.9751
1.3561 5.8281 -1.9890 0.9751
0.2978 5.9771 -1.9893 0.9751
-0.7705 5.9367 -1.9899 0.9751
-1.2978 5.8456 -1.9904 0.9751
-2.3184 5.5248 -1.9916 0.9751
-2.8035 5.2977 -1.9924 0.9751
-3.2667 5.0282 -1.9932 0.9750
-3.7043 4.7185 -1.9941 0.9750
-4.1128 4.3710 -1.9950 0.9750
-5.1323 3.1295 -1.9982 0.9750
-5.3943 2.6602 -1.9993 0.9750
-5.6135 2.1691 -2.0004 0.9750
-5.7882 1.6601 -2.0016 0.9749
-5.9167 1.1373 -2.0028 0.9749
-5.9981 0.6047 -2.0039 0.9749
-6.0316 0.0667 -2.0051 0.9749
-6.0169 -0.4724 -2.0062 0.9749
-5.9539 -1.0084 -2.0073 0.9749
-5.8431 -1.5368 -2.0083 0.9749
-5.6854 -2.0535 -2.0094 0.9748
-5.4819 -2.5542 -2.0103 0.9748
-5.2342 -3.0348 -2.0112 0.9748
-4.9443 -3.4915 -2.0120 0.9748
-4.6144 -3.9205 -2.0127 0.9748
-4.2472 -4.3183 -2.0134 0.9748
-3.8457 -4.6816 -2.0139 0.9748
-2.9528 -5.2931 -2.0147 0.9748
-2.4686 -5.5364 -2.0150 0.9748
-1.9645 -5.7351 -2.0151 0.9748
-0.9130 -5.9931 -2.0151 0.9748
-0.3742 -6.0502 -2.0149 0.9748
0.7078 -6.0183 -2.0143 0.9748
1.2421 -5.9297 -2.0138 0.9748
1.7661 -5.7935 -2.0133 0.9748
2.2757 -5.6108 -2.0126 0.9748
2.7666 -5.3832 -2.0119 0.9748
3.2350 -5.1125 -2.0111 0.9748
3.6769 -4.8011 -2.0102 0.9748
4.4680 -4.0665 -2.0082 0.9749
4.8107 -3.6493 -2.0072 0.9749
5.1146 -3.2034 -2.0061 0.9749
5.3772 -2.7324 -2.0049 0.9749
5.7708 -1.7303 -2.0026 0.9749
5.8988 -1.2073 -2.0014 0.9749
5.9796 -0.6754 -2.0003 0.9750
6.0125 -0.1386 -1.9991 0.9750
5.9975 0.3986 -1.9980 0.9750
5.4673 2.4680 -1.9939 0.9750
5.2227 2.9451 -1.9931 0.9750
4.2507 4.2194 -1.9909 0.9751
2.5025 5.4361 -1.9893 0.9751
1.4954 5.7939 -1.9890 0.9751
0.9721 5.9044 -1.9891 0.9751
0.4410 5.9681 -1.9892 0.9751
-1.1572 5.8746 -1.9903 0.9751
-1.6776 5.7493 -1.9908 0.9751
-3.1448 5.1045 -1.9929 0.9750
-3.5897 4.8054 -1.9938 0.9750
-4.0063 4.4677 -1.9947 0.9750
-4.3914 4.0942 -1.9957 0.9750
-4.7420 3.6876 -1.9968 0.9750
-5.0551 3.2512 -1.9979 0.9750
-5.3282 2.7883 -1.9990 0.9750
-5.7458 1.7981 -2.0013 0.9749
-5.8868 1.2786 -2.0024 0.9749
-5.9810 0.7483 -2.0036 0.9749
-6.0274 0.2113 -2.0048 0.9749
-6.0256 -0.3280 -2.0059 0.9749
-5.7322 -1.9163 -2.0091 0.9748
-5.5409 -2.4217 -2.0100 0.9748
-5.3049 -2.9081 -2.0109 0.9748
-4.7066 -3.8084 -2.0125 0.9748
-4.3492 -4.2148 -2.0132 0.9748
-3.9566 -4.5877 -2.0138 0.9748
-3.5319 -4.9239 -2.0143 0.9748
-3.0787 -5.2206 -2.0146 0.9748
-1.0565 -5.9695 -2.0151 0.9748
-0.5192 -6.0396 -2.0150 0.9748
2.1407 -5.6642 -2.0128 0.9748
2.6370 -5.4485 -2.0121 0.9748
3.1118 -5.1892 -2.0113 0.9748
3.5612 -4.8885 -2.0104 0.9748
3.9816 -4.5488 -2.0095 0.9748
4.7225 -3.7642 -2.0074 0.9749
5.5420 -2.3739 -2.0041 0.9749
5.8691 -1.3486 -2.0018 0.9749
5.9626 -0.8187 -2.0006 0.9749
5.9562 0.7896 -1.9972 0.9750
5.8588 1.3176 -1.9961 0.9750
5.0175 3.2793 -1.9925 0.9751
4.7028 3.7129 -1.9917 0.9751
4.3510 4.1166 -1.9911 0.9751
3.9649 4.4874 -1.9905 0.9751
3.1021 5.1189 -1.9896 0.9751
2.6322 5.3747 -1.9893 0.9751
1.6339 5.7564 -1.9890 0.9751
1.1134 5.8793 -1.9891 0.9751
-1.0159 5.9003 -1.9901 0.9751
-1.5392 5.7875 -1.9907 0.9751
-2.0505 5.6286 -1.9913 0.9751
-3.0212 5.1779 -1.9927 0.9750
-3.4730 4.8895 -1.9936 0.9750
-3.8975 4.5619 -1.9945 0.9750
-4.2914 4.1977 -1.9955 0.9750
-4.6515 3.7997 -1.9965 0.9750
-5.8536 1.4192 -2.0021 0.9749
-5.9604 0.8913 -2.0033 0.9749
-6.0308 -0.1834 -2.0056 0.9749
-5.7758 -1.7781 -2.0088 0.9748
-5.5967 -2.2879 -2.0098 0.9748
-4.4486 -4.1090 -2.0130 0.9748
-3.6488 -4.8375 -2.0141 0.9748
-3.2029 -5.1450 -2.0145 0.9748
-2.7311 -5.4113 -2.0149 0.9748
-2.2372 -5.6341 -2.0151 0.9748
0.9565 -5.9832 -2.0141 0.9748
1.4866 -5.8724 -2.0136 0.9748
2.9868 -5.2629 -2.0115 0.9748
3.4434 -4.9731 -2.0107 0.9748
5.2416 -2.9879 -2.0055 0.9749
5.4843 -2.5065 -2.0044 0.9749
4.6454 3.0794 -1.9931 0.9766
4.3503 3.4808 -1.9924 0.9766
4.0209 3.8542 -1.9918 0.9766
3.6597 4.1967 -1.9913 0.9766
3.2696 4.5057 -1.9908 0.9766
2.8537 4.7788 -1.9905 0.9766
1.9577 5.2091 -1.9900 0.9766
1.4846 5.3629 -1.9900 0.9766
0.9998 5.4741 -1.9900 0.9766
0.0101 5.5656 -1.9903 0.9766
-0.4870 5.5451 -1.9906 0.9766
-0.9804 5.4806 -1.9910 0.9766
-1.9407 5.2215 -1.9921 0.9766
-2.8405 4.7963 -1.9934 0.9766
-3.2588 4.5253 -1.9942 0.9766
-4.0153 3.8769 -1.9960 0.9766
-5.3104 1.7644 -2.0011 0.9765
-5.6041 -0.2069 -2.0054 0.9765
-5.3568 -1.6873 -2.0084 0.9764
-5.1870 -2.1599 -2.0093 0.9764
-4.4342 -3.4615 -2.0117 0.9764
-4.1087 -3.8448 -2.0123 0.9764
-3.7500 -4.1975 -2.0128 0.9764
-3.3609 -4.5167 -2.0133 0.9764
-2.9447 -4.7996 -2.0137 0.9764
-2.0445 -5.2481 -2.0141 0.9764
-1.5677 -5.4100 -2.0142 0.9764
1.8969 -5.2973 -2.0122 0.9764
2.3616 -5.1051 -2.0115 0.9764
2.8071 -4.8721 -2.0108 0.9764
3.2296 -4.6001 -2.0100 0.9764
3.6260 -4.2915 -2.0091 0.9764
4.8894 -2.7452 -2.0052 0.9765
5.1123 -2.2964 -2.0041 0.9765
5.2940 -1.8297 -2.0031 0.9765
5.5806 -0.3605 -1.9998 0.9765
5.4681 1.1298 -1.9967 0.9766
5.3429 1.6128 -1.9958 0.9766
5.1752 2.0825 -1.9949 0.9766
4.4329 3.3757 -1.9926 0.9766
4.1125 3.7569 -1.9919 0.9766
3.7595 4.1080 -1.9914 0.9766
2.9676 4.7092 -1.9905 0.9766
2.5348 4.9547 -1.9903 0.9766
2.0820 5.1608 -1.9901 0.9766
0.6397 5.5280 -1.9900 0.9766
-1.3369 5.4057 -1.9914 0.9766
-1.8148 5.2661 -1.9919 0.9766
-2.2785 5.0846 -1.9925 0.9766
-3.1490 4.6017 -1.9940 0.9766
-3.5488 4.3039 -1.9948 0.9766
-3.9207 3.9716 -1.9957 0.9766
-4.2618 3.6073 -1.9967 0.9766
-4.8403 2.7945 -1.9987 0.9765
-5.0732 2.3523 -1.9998 0.9765
-5.4166 1.4139 -2.0019 0.9765
-5.5242 0.9251 -2.0030 0.9765
-5.5877 0.4283 -2.0041 0.9765
-5.5807 -0.5731 -2.0062 0.9764
-5.5100 -1.0697 -2.0072 0.9764
-5.3950 -1.5582 -2.0082 0.9764
-4.5155 -3.3539 -2.0115 0.9764
-4.1994 -3.7449 -2.0121 0.9764
-3.4681 -4.4345 -2.0132 0.9764
-3.0588 -4.7274 -2.0136 0.9764
-2.6249 -4.9825 -2.0139 0.9764
-1.6970 -5.3708 -2.0142 0.9764
-1.2106 -5.5009 -2.0142 0.9764
-0.7145 -5.5868 -2.0142 0.9764
0.2906 -5.6235 -2.0137 0.9764
0.7915 -5.5741 -2.0133 0.9764
1.2858 -5.4799 -2.0129 0.9764
1.7695 -5.3417 -2.0123 0.9764
2.2387 -5.1608 -2.0117 0.9764
3.1187 -4.6768 -2.0102 0.9764
3.5224 -4.3778 -2.0094 0.9764
3.8975 -4.0439 -2.0085 0.9764
4.2411 -3.6780 -2.0075 0.9764
4.8228 -2.8620 -2.0055 0.9765
5.0564 -2.4186 -2.0044 0.9765
5.2494 -1.9564 -2.0034 0.9765
5.5077 -0.9903 -2.0012 0.9765
5.5712 -0.4943 -2.0001 0.9765
5.5644 0.5041 -1.9980 0.9765
5.3807 1.4844 -1.9960 0.9766
5.0264 2.4157 -1.9943 0.9766
4.5130 3.2688 -1.9928 0.9766
3.8572 4.0170 -1.9915 0.9766
3.4822 4.3443 -1.9910 0.9766
3.0798 4.6370 -1.9906 0.9766
2.6530 4.8927 -1.9903 0.9766
2.2052 5.1095 -1.9901 0.9766
1.2611 5.4198 -1.9899 0.9766
0.2769 5.5584 -1.9902 0.9766
-0.7165 5.5207 -1.9908 0.9766
-1.2069 5.4358 -1.9912 0.9766
-2.1558 5.1374 -1.9924 0.9766
-3.0374 4.6753 -1.9938 0.9766
-3.4442 4.3872 -1.9946 0.9766
-4.4901 3.3221 -1.9974 0.9766
-5.0146 2.4729 -1.9995 0.9765
-5.2182 2.0164 -2.0005 0.9765
-5.4996 1.0571 -2.0027 0.9765
-5.2834 -1.9083 -2.0088 0.9764
-5.0941 -2.3735 -2.0097 0.9764
-4.5942 -3.2443 -2.0113 0.9764
-3.9463 -4.0123 -2.0126 0.9764
-3.1711 -4.6525 -2.0135 0.9764
-1.8252 -5.3285 -2.0142 0.9764
-1.3422 -5.4703 -2.0142 0.9764
-0.8483 -5.5681 -2.0142 0.9764
0.1557 -5.6291 -2.0138 0.9764
0.6576 -5.5918 -2.0134 0.9764
2.1145 -5.2134 -2.0119 0.9764
3.4168 -4.4615 -2.0096 0.9764
5.2017 -2.0820 -2.0036 0.9765
5.3640 -1.6083 -2.0026 0.9765
5.4832 -1.1223 -2.0015 0.9765
5.5585 -0.6278 -2.0004 0.9765
5.0834 2.2947 -1.9945 0.9766
4.8562 2.7384 -1.9937 0.9766
4.2886 3.5560 -1.9923 0.9766
3.5856 4.2598 -1.9912 0.9766
3.1902 4.5620 -1.9907 0.9766
2.7696 4.8278 -1.9904 0.9766
2.3272 5.0553 -1.9902 0.9766
1.8663 5.2425 -1.9900 0.9766
0.9040 5.4908 -1.9900 0.9766
0.4101 5.5500 -1.9901 0.9766
-0.5839 5.5360 -1.9907 0.9766
-2.0318 5.1871 -1.9922 0.9766
-2.4877 4.9866 -1.9928 0.9766
-4.9532 2.5921 -1.9992 0.9765
-5.1676 2.1406 -2.0003 0.9765
-5.3410 1.6715 -2.0013 0.9765
-5.4719 1.1885 -2.0024 0.9765
-5.5592 0.6955 -2.0035 0.9765
-5.6002 -0.3048 -2.0056 0.9765
-5.3270 -1.7808 -2.0086 0.9764
-4.9295 -2.7023 -2.0103 0.9764
-4.6702 -3.1329 -2.0111 0.9764
-3.6762 -4.2626 -2.0129 0.9764
-1.4729 -5.4365 -2.0142 0.9764
-0.4823 -5.6114 -2.0141 0.9764
0.5234 -5.6062 -2.0135 0.9764
1.0217 -5.5359 -2.0131 0.9764
1.5116 -5.4212 -2.0126 0.9764
2.4503 -5.0628 -2.0114 0.9764
3.7001 -4.2272 -2.0090 0.9764
4.0609 -3.8781 -2.0080 0.9764
4.6813 -3.0908 -2.0060 0.9765
4.9361 -2.6590 -2.0050 0.9765
5.1511 -2.2064 -2.0039 0.9765
5.3246 -1.7367 -2.0029 0.9765
5.4555 -1.2536 -2.0018 0.9765
5.5855 -0.2629 -1.9996 0.9765
5.5837 0.2368 -1.9986 0.9765
5.3134 1.7058 -1.9956 0.9766
3.6870 4.1729 -1.9913 0.9766
3.2989 4.4844 -1.9908 0.9766
2.4478 4.9981 -1.9902 0.9766
1.5195 5.3532 -1.9900 0.9766
0.0463 5.5654 -1.9903 0.9766
-0.4509 5.5481 -1.9906 0.9766
-2.3672 5.0444 -1.9927 0.9766
-3.2292 4.5463 -1.9942 0.9766
-3.6238 4.2416 -1.9950 0.9766
-4.3245 3.5326 -1.9969 0.9766
-4.8889 2.7098 -1.9989 0.9765
-5.2986 1.7988 -2.0010 0.9765
-5.4410 1.3192 -2.0021 0.9765
-5.5401 0.8285 -2.0032 0.9765
-5.5950 0.3306 -2.0043 0.9765
-5.5704 -0.6706 -2.0064 0.9764
-5.3675 -1.6524 -2.0083 0.9764
-5.2008 -2.1260 -2.0092 0.9764
-4.7435 -3.0197 -2.0109 0.9764
-4.1335 -3.8179 -2.0122 0.9764
-3.7771 -4.1730 -2.0128 0.9764
-3.3902 -4.4946 -2.0133 0.9764
-2.5375 -5.0277 -2.0139 0.9764
-1.1143 -5.5212 -2.0142 0.9764
-0.6168 -5.5984 -2.0141 0.9764
-0.1144 -5.6305 -2.0139 0.9764
0.3888 -5.6174 -2.0136 0.9764
0.8887 -5.5592 -2.0132 0.9764
1.3813 -5.4563 -2.0128 0.9764
2.3284 -5.1205 -2.0116 0.9764
3.5981 -4.3152 -2.0092 0.9764
4.3043 -3.6029 -2.0073 0.9764
5.0974 -2.3297 -2.0042 0.9765
4.7819 2.0588 -1.9952 0.9779
4.3362 2.8745 -1.9937 0.9780
4.0609 3.2492 -1.9930 0.9780
3.7535 3.5978 -1.9925 0.9780
2.6640 4.4612 -1.9912 0.9780
0.9334 5.1104 -1.9908 0.9780
0.0094 5.1957 -1.9911 0.9780
-2.6515 4.4771 -1.9940 0.9780
-3.0418 4.2240 -1.9947 0.9779
-4.0577 3.2709 -1.9973 0.9779
-4.5792 2.4993 -1.9992 0.9779
-4.7864 2.0814 -2.0002 0.9779
-5.0855 1.1980 -2.0022 0.9779
-5.1748 0.7395 -2.0032 0.9779
-5.2227 0.2745 -2.0042 0.9778
-5.1933 -0.6595 -2.0062 0.9778
-5.1161 -1.1212 -2.0071 0.9778
-4.9977 -1.5742 -2.0080 0.9778
-4.8392 -2.0151 -2.0088 0.9778
-4.1365 -3.2291 -2.0110 0.9778
-3.8328 -3.5867 -2.0116 0.9778
-3.4981 -3.9156 -2.0121 0.9778
-2.7468 -4.4771 -2.0129 0.9778
-2.3364 -4.7051 -2.0132 0.9777
-1.9070 -4.8954 -2.0133 0.9777
-1.4623 -5.0463 -2.0134 0.9777
-1.0059 -5.1567 -2.0134 0.9777
0.8627 -5.1801 -2.0125 0.9778
2.2031 -4.7624 -2.0109 0.9778
4.0376 -3.3353 -2.0069 0.9778
4.3172 -2.9600 -2.0060 0.9778
4.7703 -2.1427 -2.0040 0.9778
4.9401 -1.7073 -2.0030 0.9779
5.0702 -1.2587 -2.0020 0.9779
5.2080 -0.3364 -2.0000 0.9779
5.2147 0.1299 -1.9990 0.9779
5.1798 0.5948 -1.9980 0.9779
4.9868 1.5053 -1.9962 0.9779
4.8305 1.9438 -1.9954 0.9779
4.4043 2.7700 -1.9939 0.9780
3.5095 3.8348 -1.9921 0.9780
3.1524 4.1320 -1.9917 0.9780
2.7703 4.3962 -1.9913 0.9780
2.3663 4.6254 -1.9910 0.9780
1.5056 4.9719 -1.9908 0.9780
-0.7923 5.1364 -1.9916 0.9780
-1.6941 4.9159 -1.9926 0.9780
-2.1269 4.7463 -1.9932 0.9780
-2.9393 4.2953 -1.9945 0.9780
-4.2644 2.9995 -1.9980 0.9779
-4.7345 2.1953 -1.9999 0.9779
-5.0546 1.3194 -2.0019 0.9779
-5.2314 -0.0676 -2.0049 0.9778
-5.2070 -0.5347 -2.0059 0.9778
-5.1408 -0.9980 -2.0068 0.9778
-5.0334 -1.4538 -2.0077 0.9778
-4.6984 -2.3279 -2.0094 0.9778
-4.2124 -3.1287 -2.0108 0.9778
-3.5907 -3.8303 -2.0120 0.9778
-2.8533 -4.4098 -2.0128 0.9778
-2.4485 -4.6476 -2.0131 0.9777
-2.0238 -4.8482 -2.0133 0.9777
-1.1292 -5.1312 -2.0134 0.9777
-0.1985 -5.2496 -2.0132 0.9777
1.1994 -5.1118 -2.0121 0.9778
1.6507 -4.9830 -2.0116 0.9778
2.0884 -4.8143 -2.0110 0.9778
3.2862 -4.0842 -2.0089 0.9778
3.6363 -3.7728 -2.0080 0.9778
5.1398 -0.9242 -2.0012 0.9779
5.1992 -0.4613 -2.0002 0.9779
5.1932 0.4705 -1.9983 0.9779
5.1280 0.9319 -1.9973 0.9779
5.0221 1.3855 -1.9964 0.9779
4.8762 1.8276 -1.9956 0.9779
4.6916 2.2548 -1.9948 0.9779
4.4699 2.6638 -1.9940 0.9780
4.2127 3.0513 -1.9934 0.9780
3.6007 3.7498 -1.9922 0.9780
2.8750 4.3287 -1.9914 0.9780
2.0587 4.7699 -1.9909 0.9780
1.1773 5.0597 -1.9908 0.9780
0.7208 5.1447 -1.9908 0.9780
0.2585 5.1890 -1.9910 0.9780
-1.1266 5.0744 -1.9919 0.9780
-1.5756 4.9547 -1.9924 0.9780
-2.0124 4.7956 -1.9930 0.9780
-2.8352 4.3641 -1.9943 0.9780
-3.2148 4.0950 -1.9951 0.9779
-3.5691 3.7932 -1.9959 0.9779
-4.1907 3.1005 -1.9977 0.9779
-4.4529 2.7152 -1.9987 0.9779
-4.6799 2.3079 -1.9996 0.9779
-4.8697 1.8817 -2.0006 0.9779
-5.2022 0.5245 -2.0037 0.9779
-5.2308 0.0579 -2.0047 0.9778
-5.2176 -0.4097 -2.0056 0.9778
-5.0662 -1.3325 -2.0075 0.9778
-2.5591 -4.5874 -2.0130 0.9777
-2.1395 -4.7982 -2.0132 0.9777
-1.2519 -5.1026 -2.0134 0.9777
-0.3243 -5.2435 -2.0132 0.9777
1.5308 -5.0215 -2.0118 0.9778
2.3982 -4.6663 -2.0106 0.9778
3.5452 -3.8594 -2.0083 0.9778
3.8739 -3.5259 -2.0074 0.9778
4.1714 -3.1644 -2.0065 0.9778
4.6633 -2.3696 -2.0045 0.9778
5.1168 -1.0473 -2.0015 0.9779
5.2037 0.3458 -1.9985 0.9779
5.1496 0.8088 -1.9976 0.9779
5.0545 1.2648 -1.9967 0.9779
4.7449 2.1419 -1.9950 0.9779
3.6898 3.6627 -1.9924 0.9780
2.9781 4.2587 -1.9915 0.9780
2.5855 4.5069 -1.9912 0.9780
2.1725 4.7193 -1.9909 0.9780
1.7423 4.8941 -1.9908 0.9780
0.8439 5.1259 -1.9908 0.9780
0.3828 5.1811 -1.9909 0.9780
-0.0814 5.1952 -1.9911 0.9780
-0.5450 5.1680 -1.9914 0.9780
-1.0045 5.0996 -1.9918 0.9780
-2.3222 4.6548 -1.9935 0.9780
-2.7295 4.4304 -1.9941 0.9780
-3.1154 4.1705 -1.9949 0.9779
-3.4768 3.8772 -1.9957 0.9779
-4.1146 3.1997 -1.9975 0.9779
-4.3860 2.8209 -1.9984 0.9779
-4.6226 2.4191 -1.9994 0.9779
-4.8226 1.9976 -2.0004 0.9779
-5.1061 1.1090 -2.0024 0.9779
-5.1874 0.6490 -2.0034 0.9779
-5.1815 -0.7502 -2.0063 0.9778
-5.0961 -1.2105 -2.0073 0.9778
-4.9699 -1.6615 -2.0081 0.9778
-4.8036 -2.0995 -2.0090 0.9778
-4.5987 -2.5210 -2.0098 0.9778
-4.3568 -2.9227 -2.0105 0.9778
-4.0797 -3.3011 -2.0111 0.9778
-3.7697 -3.6533 -2.0117 0.9778
-3.4293 -3.9763 -2.0122 0.9778
-3.0611 -4.2675 -2.0126 0.9778
-1.8212 -4.9280 -2.0134 0.9777
-0.4499 -5.2343 -2.0133 0.9777
0.4882 -5.2295 -2.0128 0.9778
1.4101 -5.0571 -2.0119 0.9778
1.8555 -4.9097 -2.0114 0.9778
3.0873 -4.2379 -2.0093 0.9778
4.0949 -3.2639 -2.0067 0.9778
4.3679 -2.8838 -2.0058 0.9778
4.8065 -2.0589 -2.0038 0.9779
5.0909 -1.1698 -2.0018 0.9779
5.1725 -0.7102 -2.0008 0.9779
5.1681 0.6851 -1.9978 0.9779
5.0840 1.1434 -1.9969 0.9779
4.9593 1.5921 -1.9960 0.9779
4.3549 2.8463 -1.9937 0.9780
4.0820 3.2228 -1.9931 0.9780
3.7769 3.5734 -1.9925 0.9780
3.4418 3.8954 -1.9920 0.9780
1.8592 4.8510 -1.9908 0.9780
1.4185 4.9974 -1.9908 0.9780
0.9666 5.1042 -1.9908 0.9780
0.0432 5.1955 -1.9911 0.9780
-1.3361 5.0239 -1.9922 0.9780
-2.2097 4.7087 -1.9933 0.9780
-3.0142 4.2436 -1.9947 0.9779
-4.9447 1.6786 -2.0011 0.9779
-5.2206 0.3085 -2.0041 0.9778
-5.2299 -0.1590 -2.0051 0.9778
-5.1231 -1.0878 -2.0070 0.9778
-4.4252 -2.8171 -2.0103 0.9778
-3.8560 -3.5616 -2.0116 0.9778
-3.1624 -4.1927 -2.0125 0.9778
-1.4951 -5.0367 -2.0134 0.9777
-1.0394 -5.1501 -2.0134 0.9777
0.8290 -5.1857 -2.0125 0.9778
2.1721 -4.7768 -2.0109 0.9778
2.9851 -4.3112 -2.0095 0.9778
3.3568 -4.0258 -2.0087 0.9778
3.7013 -3.7084 -2.0079 0.9778
4.0159 -3.3616 -2.0070 0.9778
4.0612 2.6922 -1.9942 0.9792
3.8034 3.0432 -1.9936 0.9792
3.5156 3.3698 -1.9931 0.9792
2.4952 4.1786 -1.9919 0.9792
2.1119 4.3842 -1.9917 0.9792
1.7118 4.5550 -1.9915 0.9792
1.2982 4.6895 -1.9915 0.9792
0.4433 4.8459 -1.9916 0.9792
0.0088 4.8666 -1.9918 0.9792
-0.4258 4.8486 -1.9920 0.9792
-1.6968 4.5652 -1.9933 0.9792
-2.0983 4.3967 -1.9939 0.9792
-2.4833 4.1931 -1.9945 0.9792
-2.8488 3.9560 -1.9952 0.9792
-3.5098 3.3888 -1.9967 0.9791
-3.8000 3.0631 -1.9976 0.9791
-4.0601 2.7127 -1.9985 0.9791
-4.2880 2.3404 -1.9994 0.9791
-4.4820 1.9490 -2.0003 0.9791
-4.6403 1.5417 -2.0012 0.9791
-4.7617 1.1217 -2.0022 0.9791
-1.9317 -0.0713 -0.7912 0.9917
-4.7896 -1.0496 -2.0068 0.9790
-4.1252 -2.6640 -2.0098 0.9790
-3.5877 -3.3573 -2.0110 0.9790
-3.2743 -3.6651 -2.0115 0.9790
-2.5711 -4.1906 -2.0122 0.9790
-2.1869 -4.4040 -2.0124 0.9790
-1.3687 -4.7234 -2.0127 0.9790
-0.5067 -4.8913 -2.0126 0.9790
-0.0679 -4.9165 -2.0124 0.9790
1.2370 -4.7562 -2.0114 0.9790
2.0623 -4.4580 -2.0103 0.9790
3.1668 -3.7481 -2.0082 0.9790
3.4874 -3.4489 -2.0074 0.9790
4.0419 -2.7712 -2.0057 0.9790
4.2713 -2.3981 -2.0048 0.9791
4.4663 -2.0062 -2.0039 0.9791
4.6254 -1.5986 -2.0029 0.9791
4.7474 -1.1786 -2.0020 0.9791
4.8768 -0.3150 -2.0001 0.9791
4.8832 0.1217 -1.9992 0.9791
4.6702 1.4097 -1.9966 0.9791
4.3416 2.2163 -1.9951 0.9792
4.1250 2.5943 -1.9944 0.9792
3.5956 3.2847 -1.9932 0.9792
2.2165 4.3324 -1.9917 0.9792
1.8206 4.5127 -1.9916 0.9792
1.4103 4.6570 -1.9915 0.9792
0.5594 4.8338 -1.9916 0.9792
0.1255 4.8648 -1.9917 0.9792
-1.9921 4.4454 -1.9937 0.9792
-3.1022 3.7622 -1.9957 0.9791
-3.9934 2.8089 -1.9982 0.9791
-4.4334 2.0557 -2.0000 0.9791
-4.7328 1.2354 -2.0019 0.9791
-2.0985 0.3514 -0.8708 0.9908
-1.9110 -0.0247 -0.7822 0.9918
-1.9575 -0.2010 -0.8054 0.9915
-4.7121 -1.3610 -2.0074 0.9790
-4.3983 -2.1791 -2.0089 0.9790
-4.1876 -2.5641 -2.0096 0.9790
-3.3611 -3.5853 -2.0113 0.9790
-1.8943 -4.5379 -2.0126 0.9790
-1.4816 -4.6892 -2.0127 0.9790
-1.0570 -4.8028 -2.0127 0.9790
-0.1858 -4.9136 -2.0125 0.9790
0.2537 -4.9100 -2.0122 0.9790
1.5451 -4.6644 -2.0110 0.9790
1.9549 -4.5065 -2.0105 0.9790
2.3488 -4.3126 -2.0099 0.9790
2.7236 -4.0843 -2.0092 0.9790
3.0763 -3.8233 -2.0084 0.9790
3.4041 -3.5320 -2.0076 0.9790
4.2130 -2.5001 -2.0051 0.9790
4.5863 -1.7093 -2.0032 0.9791
4.8684 -0.4319 -2.0004 0.9791
4.8632 0.4406 -1.9985 0.9791
4.8023 0.8727 -1.9976 0.9791
4.5667 1.7116 -1.9960 0.9791
4.3940 2.1118 -1.9953 0.9792
3.9456 2.8578 -1.9939 0.9792
3.3725 3.5122 -1.9928 0.9792
1.5215 4.6219 -1.9915 0.9792
-0.6265 4.8271 -1.9922 0.9792
-1.4758 4.6407 -1.9930 0.9792
-1.8848 4.4916 -1.9936 0.9792
-2.2790 4.3066 -1.9942 0.9792
-2.6554 4.0872 -1.9948 0.9792
-3.3425 3.5524 -1.9963 0.9791
-4.5599 1.7620 -2.0007 0.9791
-4.7012 1.3484 -2.0017 0.9791
-1.9577 0.1974 -0.8053 0.9915
-1.9552 -0.1535 -0.8027 0.9916
-2.1261 -0.3601 -0.8826 0.9907
-4.7429 -1.2474 -2.0072 0.9790
-3.4459 -3.5035 -2.0112 0.9790
-3.1199 -3.7980 -2.0117 0.9790
-2.7688 -4.0622 -2.0120 0.9790
-2.3953 -4.2939 -2.0123 0.9790
-2.0025 -4.4911 -2.0125 0.9790
-1.1718 -4.7760 -2.0127 0.9790
-0.7406 -4.8615 -2.0126 0.9790
-0.3035 -4.9079 -2.0125 0.9790
0.5742 -4.8823 -2.0120 0.9790
1.0077 -4.8106 -2.0116 0.9790
1.4329 -4.7004 -2.0112 0.9790
2.2449 -4.3681 -2.0100 0.9790
2.6251 -4.1488 -2.0094 0.9790
2.9841 -3.8964 -2.0086 0.9790
3.3188 -3.6130 -2.0079 0.9790
3.9053 -2.9625 -2.0062 0.9790
4.5446 -1.8190 -2.0034 0.9791
4.6867 -1.4052 -2.0025 0.9791
