ply
format ascii 1.0
element vertex 1570
property float32 x
property float32 y
property float32 z
property float32 I
end_header
6.8898 -16.7536 -0.9187 0.9300
8.3924 -17.0355 -0.9631 0.9268
2.8725 -16.9843 -0.8736 0.9333
6.1462 -17.0258 -0.9180 0.9301
7.8064 -16.7605 -0.9377 0.9286
0.9406 -16.7087 -0.8487 0.9352
2.4926 -16.9890 -0.8708 0.9335
2.1149 -16.9937 -0.8685 0.9337
2.0732 -16.9346 -1.2509 0.9339
8.8279 -16.9731 -1.4028 0.9261
-1.9223 17.2649 -1.2737 0.9327
-8.0064 10.5852 -0.9731 0.9482
0.0073 17.1665 -1.2587 0.9335
1.3077 -16.7115 -1.2291 0.9350
2.8629 -16.9277 -1.2588 0.9335
7.8064 -16.7605 -1.3557 0.9285
-1.1587 17.2260 -1.2659 0.9331
0.6478 -11.5080 -0.8451 0.9548
5.7050 -16.9554 -1.3117 0.9308
-0.7800 17.2067 -1.2629 0.9332
-7.6791 -13.9795 -1.1695 0.9380
2.1076 -16.9343 -1.2512 0.9338
-7.7641 -17.6284 -1.8493 0.9255
-1.0989 -19.2311 -1.8493 0.9255
0.3703 -11.4376 -1.0986 0.9551
4.0393 -18.8342 -1.8493 0.9255
8.8272 -16.9718 -1.8366 0.9260
11.7873 -15.2349 -1.8493 0.9255
13.1011 -14.1210 -1.8493 0.9255
14.3101 -12.8943 -1.8493 0.9255
13.5959 13.6452 -1.8493 0.9255
9.4916 16.7616 -1.8493 0.9255
7.9563 17.5425 -1.8493 0.9255
6.3575 18.1830 -1.8493 0.9255
4.7078 18.6783 -1.8493 0.9255
1.3091 19.2179 -1.8493 0.9255
-0.3685 17.1857 -1.6503 0.9333
-1.9223 17.2649 -1.6678 0.9326
-8.7009 17.1853 -1.8493 0.9255
-7.9320 10.4869 -1.2624 0.9485
-9.6742 -16.6569 -1.8493 0.9255
-4.9117 -18.6257 -1.8493 0.9255
3.6266 -18.9180 -1.8493 0.9255
5.1891 -18.1241 -1.8099 0.9270
6.4641 -16.7504 -1.7237 0.9304
10.0221 -16.4499 -1.8493 0.9255
9.0473 -12.2370 -1.4610 0.9407
12.7893 -14.4040 -1.8493 0.9255
14.0248 -13.2040 -1.8493 0.9255
16.9320 9.1842 -1.8493 0.9255
16.0439 10.6600 -1.8493 0.9255
13.8910 13.3447 -1.8493 0.9255
9.8557 16.5501 -1.8493 0.9255
8.3379 17.3643 -1.8493 0.9255
6.7535 18.0397 -1.8493 0.9255
1.7288 19.1847 -1.8493 0.9255
-1.5393 17.2454 -1.6622 0.9328
-5.0993 18.5752 -1.8493 0.9255
-6.7381 18.0455 -1.8493 0.9255
-8.5272 -17.2722 -1.8493 0.9255
-0.2187 -19.2612 -1.8493 0.9255
4.8959 -18.6298 -1.8493 0.9255
7.8064 -16.7605 -1.7751 0.9284
9.6601 -16.6651 -1.8493 0.9255
13.7328 -13.5074 -1.8493 0.9255
17.1287 8.8119 -1.8493 0.9255
14.1794 13.0379 -1.8493 0.9255
12.9581 14.2524 -1.8493 0.9255
11.6331 15.3529 -1.8493 0.9255
10.2151 16.3307 -1.8493 0.9255
7.1462 17.8878 -1.8493 0.9255
0.4292 19.2576 -1.8493 0.9255
-1.1587 17.2260 -1.6575 0.9330
-3.0044 19.0267 -1.8493 0.9255
-6.3421 18.1884 -1.8493 0.9255
-8.9027 -17.0816 -1.8493 0.9255
-7.3412 -17.8086 -1.8493 0.9255
-5.7211 -18.3932 -1.8493 0.9255
-4.0552 -18.8308 -1.8493 0.9255
-0.6397 -19.2518 -1.8493 0.9255
0.6479 -11.5095 -1.1067 0.9547
2.4839 -16.9298 -1.6427 0.9336
7.3635 -16.7572 -1.7572 0.9291
9.2935 -16.8722 -1.8493 0.9255
10.7635 -15.9746 -1.8493 0.9255
12.1474 -14.9493 -1.8493 0.9255
15.7232 -11.2271 -1.8548 0.9253
16.4945 9.9485 -1.8493 0.9255
14.4610 12.7248 -1.8493 0.9255
13.2665 13.9657 -1.8493 0.9255
11.9659 15.0950 -1.8493 0.9255
10.5697 16.1035 -1.8493 0.9255
9.0889 16.9833 -1.8493 0.9255
5.9218 18.3296 -1.8493 0.9255
4.2608 18.7853 -1.8493 0.9255
0.8501 19.2437 -1.8493 0.9255
-0.7800 17.2067 -1.6536 0.9331
-4.2825 18.7804 -1.8493 0.9255
-7.7288 -17.6439 -1.8493 0.9255
-6.1218 -18.2637 -1.8493 0.9255
-1.0604 -19.2332 -1.8493 0.9255
2.1074 -16.9331 -1.6382 0.9337
-13.5848 9.9679 -2.0015 0.9344
-16.2154 4.5792 -2.0015 0.9344
-16.5596 3.1124 -2.0015 0.9344
-16.7714 1.6207 -2.0015 0.9344
-16.8492 0.1161 -2.0015 0.9344
-16.6009 -2.8839 -2.0015 0.9344
-15.2422 -7.1822 -2.0015 0.9344
-14.5397 -8.5150 -2.0015 0.9344
-12.7924 -10.9664 -2.0015 0.9344
-10.6369 -13.0677 -2.0015 0.9344
-6.2751 -14.2476 -1.8493 0.9392
-3.6397 -15.1368 -1.8493 0.9392
3.2646 -15.2221 -1.8493 0.9392
4.6113 -14.8696 -1.8493 0.9392
5.9211 -14.3983 -1.8493 0.9392
7.1837 -13.8118 -1.8493 0.9392
8.3887 -13.1149 -1.8493 0.9392
10.5885 -11.4129 -1.8493 0.9392
13.4751 -10.1158 -2.0015 0.9344
14.3248 -8.8717 -2.0015 0.9344
15.6749 -6.1811 -2.0015 0.9344
16.8469 -0.3003 -2.0015 0.9344
16.6315 2.7023 -2.0015 0.9344
16.3236 4.1772 -2.0015 0.9344
15.8852 5.6186 -2.0015 0.9344
11.9297 10.0026 -1.8493 0.9392
10.9885 11.0283 -1.8493 0.9392
9.9594 11.9658 -1.8493 0.9392
8.8507 12.8076 -1.8493 0.9392
7.6713 13.5471 -1.8493 0.9392
6.4305 14.1781 -1.8493 0.9392
3.8050 15.0961 -1.8493 0.9392
2.4412 15.3757 -1.8493 0.9392
1.0580 15.5323 -1.8493 0.9392
-0.3337 15.5647 -1.8493 0.9392
-1.7228 15.4726 -1.8493 0.9392
-4.4485 14.9192 -1.8493 0.9392
-5.7634 14.4622 -1.8493 0.9392
-8.2449 13.2058 -1.8493 0.9392
-11.3243 12.4767 -2.0015 0.9344
-12.3935 11.4153 -2.0015 0.9344
-14.2270 9.0277 -2.0015 0.9344
-14.9765 7.7208 -2.0015 0.9344
-16.4876 3.4737 -2.0015 0.9344
-16.8426 0.4844 -2.0015 0.9344
-16.3682 -3.9985 -2.0015 0.9344
-15.9456 -5.4447 -2.0015 0.9344
-14.7223 -8.1952 -2.0015 0.9344
-13.9314 -9.4775 -2.0015 0.9344
-13.0291 -10.6841 -2.0015 0.9344
-12.0226 -11.8052 -2.0015 0.9344
-10.9200 -12.8320 -2.0015 0.9344
-7.8770 -13.5624 -1.8630 0.9388
-5.2986 -14.6389 -1.8493 0.9392
-3.9697 -15.0536 -1.8493 0.9392
0.1636 -15.5674 -1.8493 0.9392
2.9311 -15.2899 -1.8493 0.9392
4.2852 -14.9669 -1.8493 0.9392
5.6050 -14.5243 -1.8493 0.9392
6.8800 -13.9655 -1.8493 0.9392
8.1000 -13.2951 -1.8493 0.9392
9.0317 -12.2160 -1.8046 0.9406
10.3365 -11.6416 -1.8493 0.9392
11.9059 -11.2091 -1.9424 0.9363
16.4487 -3.6537 -2.0015 0.9344
16.7093 -2.1697 -2.0015 0.9344
16.8363 -0.6684 -2.0015 0.9344
16.6866 2.3381 -2.0015 0.9344
16.4110 3.8193 -2.0015 0.9344
14.2197 7.7130 -1.9216 0.9369
12.9670 8.6156 -1.8493 0.9392
12.1455 9.7395 -1.8493 0.9392
11.2270 10.7854 -1.8493 0.9392
9.1286 12.6111 -1.8493 0.9392
7.9656 13.3761 -1.8493 0.9392
2.7768 15.3186 -1.8493 0.9392
1.3973 15.5054 -1.8493 0.9392
-2.7638 15.3210 -1.8493 0.9392
-4.1213 15.0128 -1.8493 0.9392
-6.7269 14.0399 -1.8493 0.9392
-14.0263 9.3366 -2.0015 0.9344
-14.8042 8.0463 -2.0015 0.9344
-15.4638 6.6917 -2.0015 0.9344
-15.9997 5.2836 -2.0015 0.9344
-16.4077 3.8333 -2.0015 0.9344
-16.6846 2.3523 -2.0015 0.9344
-16.8280 0.8524 -2.0015 0.9344
-16.7111 -2.1556 -2.0015 0.9344
-16.4517 -3.6397 -2.0015 0.9344
-14.8980 -7.8714 -2.0015 0.9344
-14.1352 -9.1707 -2.0015 0.9344
-13.2595 -10.3967 -2.0015 0.9344
-11.1979 -12.5902 -2.0015 0.9344
-8.7538 -14.3408 -1.9958 0.9346
-6.8919 -13.9597 -1.8493 0.9392
-5.6173 -14.5195 -1.8493 0.9392
-4.2978 -14.9633 -1.8493 0.9392
-2.9440 -15.2874 -1.8493 0.9392
-0.1768 -15.5673 -1.8493 0.9392
2.5961 -15.3503 -1.8493 0.9392
5.2861 -14.6433 -1.8493 0.9392
8.7752 -12.4285 -1.8072 0.9406
10.0796 -11.8648 -1.8493 0.9392
11.4042 -11.2170 -1.9001 0.9376
13.0201 -10.6951 -2.0015 0.9344
16.3649 -4.0124 -2.0015 0.9344
16.8177 -1.0363 -2.0015 0.9344
16.4906 3.4597 -2.0015 0.9344
15.6118 6.3388 -2.0015 0.9344
14.9285 7.6800 -1.9942 0.9346
13.1522 8.3301 -1.8493 0.9392
12.3555 9.4716 -1.8493 0.9392
10.4729 11.5190 -1.8493 0.9392
9.4021 12.4085 -1.8493 0.9392
7.0440 13.8835 -1.8493 0.9392
5.7757 14.4573 -1.8493 0.9392
4.4612 14.9154 -1.8493 0.9392
1.7359 15.4712 -1.8493 0.9392
0.3469 15.5644 -1.8493 0.9392
-1.0448 15.5332 -1.8493 0.9392
-2.4282 15.3777 -1.8493 0.9392
-8.8399 12.8151 -1.8493 0.9392
-10.7681 12.9598 -2.0015 0.9344
-12.9024 10.8368 -2.0015 0.9344
-13.8188 9.6409 -2.0015 0.9344
-15.3138 7.0281 -2.0015 0.9344
-15.8804 5.6321 -2.0015 0.9344
-16.3200 4.1910 -2.0015 0.9344
-16.8053 1.2201 -2.0015 0.9344
-16.7542 -1.7897 -2.0015 0.9344
-13.4837 -10.1044 -2.0015 0.9344
-12.5271 -11.2685 -2.0015 0.9344
-11.4705 -12.3425 -2.0015 0.9344
-10.3221 -13.3177 -2.0015 0.9344
-9.0912 -14.1866 -2.0015 0.9344
-7.1954 -13.8057 -1.8493 0.9392
-4.6239 -14.8657 -1.8493 0.9392
-3.2775 -15.2194 -1.8493 0.9392
-0.5170 -15.5597 -1.8493 0.9392
0.6479 -11.5103 -1.3694 0.9546
3.6269 -15.1399 -1.8493 0.9392
6.2630 -14.2529 -1.8493 0.9392
13.7126 -9.7914 -2.0015 0.9344
15.2361 -7.1951 -2.0015 0.9344
15.8179 -5.8053 -2.0015 0.9344
16.7910 -1.4037 -2.0015 0.9344
16.5622 3.0984 -2.0015 0.9344
16.2193 4.5655 -2.0015 0.9344
13.3312 8.0406 -1.8493 0.9392
11.6877 10.2844 -1.8493 0.9392
10.7222 11.2874 -1.8493 0.9392
9.6711 12.2000 -1.8493 0.9392
3.4437 15.1826 -1.8493 0.9392
2.0737 15.4295 -1.8493 0.9392
-0.7050 15.5523 -1.8493 0.9392
-2.0914 15.4271 -1.8493 0.9392
-3.4612 15.1786 -1.8493 0.9392
-4.8032 14.8088 -1.8493 0.9392
-12.6624 11.1163 -2.0015 0.9344
-13.6047 9.9407 -2.0015 0.9344
-14.4383 8.6857 -2.0015 0.9344
-15.7535 5.9779 -2.0015 0.9344
-16.2245 4.5468 -2.0015 0.9344
-16.5658 3.0793 -2.0015 0.9344
-16.7746 1.5871 -2.0015 0.9344
-16.8494 0.0824 -2.0015 0.9344
-16.5951 -2.9172 -2.0015 0.9344
-16.2682 -4.3879 -2.0015 0.9344
-15.8112 -5.8236 -2.0015 0.9344
-15.2278 -7.2127 -2.0015 0.9344
-11.7375 -12.0888 -2.0015 0.9344
-10.6107 -13.0889 -2.0015 0.9344
-9.3991 -13.9844 -2.0015 0.9344
-7.4954 -13.6451 -1.8493 0.9392
-4.9478 -14.7611 -1.8493 0.9392
-3.6094 -15.1441 -1.8493 0.9392
1.9227 -15.4491 -1.8493 0.9392
-12.0899 7.3059 -2.0015 0.9445
-13.8828 2.6093 -2.0015 0.9445
-14.0604 1.3588 -2.0015 0.9445
-13.6458 -3.6513 -2.0015 0.9445
-13.2651 -4.8557 -2.0015 0.9445
-12.7783 -6.0212 -2.0015 0.9445
-12.1894 -7.1386 -2.0015 0.9445
-11.5030 -8.1989 -2.0015 0.9445
-9.8605 -10.1150 -2.0015 0.9445
-7.9032 -11.7081 -2.0015 0.9445
-6.8145 -12.3469 -1.9982 0.9446
-5.2608 -11.9445 -1.8493 0.9486
-3.0514 -12.6900 -1.8493 0.9486
-1.9056 -12.9119 -1.8493 0.9486
-0.7446 -13.0305 -1.8493 0.9486
1.5860 -12.9550 -1.8493 0.9486
6.0224 -11.5792 -1.8493 0.9486
10.4942 -9.4559 -2.0015 0.9445
11.2969 -8.4807 -2.0015 0.9445
12.0093 -7.4376 -2.0015 0.9445
12.6257 -6.3351 -2.0015 0.9445
13.1411 -5.1820 -2.0015 0.9445
14.0447 -1.5124 -2.0015 0.9445
12.8434 5.8812 -2.0015 0.9445
12.2667 7.0049 -2.0015 0.9445
11.0778 7.7146 -1.9127 0.9469
10.0013 8.3858 -1.8493 0.9486
9.2123 9.2456 -1.8493 0.9486
8.3495 10.0316 -1.8493 0.9486
7.4201 10.7373 -1.8493 0.9486
6.4312 11.3572 -1.8493 0.9486
5.3910 11.8863 -1.8493 0.9486
4.3077 12.3204 -1.8493 0.9486
2.0466 12.8903 -1.8493 0.9486
0.8870 13.0215 -1.8493 0.9486
-0.2798 13.0487 -1.8493 0.9486
-1.4443 12.9716 -1.8493 0.9486
-3.7294 12.5076 -1.8493 0.9486
-5.8955 11.6443 -1.8493 0.9486
-7.8510 10.3797 -1.8440 0.9488
-9.4938 10.4599 -2.0015 0.9445
-11.2035 8.6036 -2.0015 0.9445
-11.9273 7.5684 -2.0015 0.9445
-12.5557 6.4727 -2.0015 0.9445
-14.0273 1.6658 -2.0015 0.9445
-14.1201 0.4061 -2.0015 0.9445
-13.9670 -2.1129 -2.0015 0.9445
-13.7224 -3.3522 -2.0015 0.9445
-12.9069 -5.7404 -2.0015 0.9445
-12.3425 -6.8704 -2.0015 0.9445
-10.9230 -8.9571 -2.0015 0.9445
-10.0792 -9.8970 -2.0015 0.9445
-8.1573 -11.5326 -2.0015 0.9445
-7.0945 -12.2151 -2.0015 0.9445
-5.5898 -11.9750 -1.8725 0.9480
-4.4421 -12.2725 -1.8493 0.9486
-3.3281 -12.6203 -1.8493 0.9486
-1.0292 -13.0111 -1.8493 0.9486
0.1371 -13.0510 -1.8493 0.9486
4.6990 -12.1765 -1.8493 0.9486
10.2850 -9.6830 -2.0015 0.9445
11.8438 -7.6984 -2.0015 0.9445
12.4842 -6.6096 -2.0015 0.9445
13.4611 -4.2827 -2.0015 0.9445
14.1148 -0.5604 -2.0015 0.9445
13.9893 1.9602 -2.0015 0.9445
13.7582 3.2020 -2.0015 0.9445
13.4172 4.4182 -2.0015 0.9445
12.9689 5.5990 -2.0015 0.9445
12.4169 6.7351 -2.0015 0.9445
11.5944 7.7036 -1.9724 0.9453
10.1823 8.1651 -1.8493 0.9486
9.4122 9.0420 -1.8493 0.9486
6.6780 11.2139 -1.8493 0.9486
3.4658 12.5831 -1.8493 0.9486
2.3279 12.8424 -1.8493 0.9486
-1.1604 13.0000 -1.8493 0.9486
-4.5656 12.2271 -1.8493 0.9486
-5.6396 11.7704 -1.8493 0.9486
-6.6684 11.2196 -1.8493 0.9486
-7.6441 10.5790 -1.8493 0.9486
-10.1785 9.7949 -2.0015 0.9445
-11.0128 8.8465 -2.0015 0.9445
-11.7590 7.8274 -2.0015 0.9445
-12.4112 6.7456 -2.0015 0.9445
-13.4134 4.4296 -2.0015 0.9445
-13.9876 1.9720 -2.0015 0.9445
-14.1078 0.7146 -2.0015 0.9445
-13.0293 -5.4569 -2.0015 0.9445
-12.4898 -6.5990 -2.0015 0.9445
-11.1162 -8.7162 -2.0015 0.9445
-7.3598 -12.0571 -2.0015 0.9445
-6.0146 -12.1829 -1.9251 0.9466
-4.7093 -12.1725 -1.8493 0.9486
-3.6031 -12.5445 -1.8493 0.9486
-2.4681 -12.8162 -1.8493 0.9486
-0.1482 -13.0509 -1.8493 0.9486
2.1765 -12.8690 -1.8493 0.9486
4.4317 -12.2763 -1.8493 0.9486
6.5454 -11.2918 -1.8493 0.9486
10.9154 -8.9663 -2.0015 0.9445
11.6727 -7.9554 -2.0015 0.9445
12.3367 -6.8809 -2.0015 0.9445
12.9020 -5.7514 -2.0015 0.9445
13.3642 -4.5759 -2.0015 0.9445
13.7196 -3.3638 -2.0015 0.9445
13.9652 -2.1248 -2.0015 0.9445
14.0992 -0.8688 -2.0015 0.9445
14.0287 1.6539 -2.0015 0.9445
13.8249 2.9004 -2.0015 0.9445
11.9044 7.5398 -1.9966 0.9447
10.3583 7.9406 -1.8493 0.9486
7.8823 10.4027 -1.8493 0.9486
6.9215 11.0653 -1.8493 0.9486
5.9054 11.6393 -1.8493 0.9486
3.7400 12.5044 -1.8493 0.9486
2.6081 12.7885 -1.8493 0.9486
0.2908 13.0485 -1.8493 0.9486
-2.0357 12.8920 -1.8493 0.9486
-3.1792 12.6586 -1.8493 0.9486
-5.3809 11.8909 -1.8493 0.9486
-6.4216 11.3627 -1.8493 0.9486
-9.9619 10.0150 -2.0015 0.9445
-10.8167 9.0851 -2.0015 0.9445
-12.2607 7.0154 -2.0015 0.9445
-12.8384 5.8921 -2.0015 0.9445
-13.3134 4.7217 -2.0015 0.9445
-14.0888 1.0229 -2.0015 0.9445
-14.0460 -1.5004 -2.0015 0.9445
-13.8558 -2.7492 -2.0015 0.9445
-13.5548 -3.9759 -2.0015 0.9445
-13.1455 -5.1708 -2.0015 0.9445
-12.6310 -6.3244 -2.0015 0.9445
-10.5022 -9.4470 -2.0015 0.9445
-7.6216 -11.8934 -2.0015 0.9445
-6.4841 -12.4411 -1.9878 0.9449
-3.8765 -12.4628 -1.8493 0.9486
-2.7477 -12.7592 -1.8493 0.9486
-1.5970 -12.9537 -1.8493 0.9486
-0.4335 -13.0445 -1.8493 0.9486
3.0406 -12.6926 -1.8493 0.9486
8.8935 -10.9448 -1.9982 0.9446
10.7168 -9.2028 -2.0015 0.9445
11.4960 -8.2087 -2.0015 0.9445
13.2610 -4.8669 -2.0015 0.9445
13.6427 -3.6629 -2.0015 0.9445
14.0768 -1.1768 -2.0015 0.9445
14.1256 0.0854 -2.0015 0.9445
14.0616 1.3468 -2.0015 0.9445
13.2012 5.0268 -2.0015 0.9445
12.0917 7.2930 -2.0008 0.9445
8.1078 10.2280 -1.8493 0.9486
7.1617 10.9113 -1.8493 0.9486
6.1584 11.5074 -1.8493 0.9486
5.1058 12.0116 -1.8493 0.9486
1.7385 12.9354 -1.8493 0.9486
0.5760 13.0390 -1.8493 0.9486
-0.5910 13.0383 -1.8493 0.9486
-1.7534 12.9334 -1.8493 0.9486
-2.9017 12.7251 -1.8493 0.9486
-4.0268 12.4150 -1.8493 0.9486
-5.1197 12.0057 -1.8493 0.9486
-9.7406 10.2304 -2.0015 0.9445
-13.2070 5.0116 -2.0015 0.9445
-13.8880 2.5815 -2.0015 0.9445
-14.0631 1.3306 -2.0015 0.9445
-14.1257 0.0691 -2.0015 0.9445
-13.6385 -3.6786 -2.0015 0.9445
-11.4866 -8.2219 -2.0015 0.9445
-9.8402 -10.1347 -2.0015 0.9445
-8.8956 -10.9732 -2.0015 0.9445
-7.8798 -11.7239 -2.0015 0.9445
-6.7885 -12.3581 -1.9978 0.9446
-5.2369 -11.9550 -1.8493 0.9486
1.6119 -12.9518 -1.8493 0.9486
-9.7954 7.1874 -2.0015 0.9519
-10.3983 6.2837 -2.0015 0.9519
-10.9180 5.3297 -2.0015 0.9519
-11.3505 4.3331 -2.0015 0.9519
-11.6922 3.3019 -2.0015 0.9519
-12.1492 0.0837 -2.0015 0.9519
-12.1081 -1.0019 -2.0015 0.9519
-11.9702 -2.0795 -2.0015 0.9519
-11.7365 -3.1404 -2.0015 0.9519
-10.9904 -5.1787 -2.0015 0.9519
-9.2240 -7.9073 -2.0015 0.9519
-8.4808 -8.6997 -2.0015 0.9519
-2.7026 -11.2394 -1.9043 0.9542
0.3636 -11.2308 -1.8511 0.9555
1.3740 -11.2239 -1.8628 0.9552
2.4060 -11.2188 -1.8902 0.9546
3.4766 -11.2108 -1.9336 0.9535
4.6035 -11.1941 -1.9940 0.9521
6.5465 -10.2348 -2.0015 0.9519
7.4346 -9.6091 -2.0015 0.9519
9.0258 -8.1328 -2.0015 0.9519
9.7163 -7.2941 -2.0015 0.9519
10.3290 -6.3970 -2.0015 0.9519
11.9151 -2.3746 -2.0015 0.9519
12.0796 -1.3008 -2.0015 0.9519
11.9922 1.9485 -2.0015 0.9519
11.4541 4.0513 -2.0015 0.9519
10.5504 6.0248 -2.0015 0.9519
9.1872 7.7031 -1.9751 0.9526
6.3819 9.2350 -1.8493 0.9555
5.5314 9.7682 -1.8493 0.9555
2.7436 10.8851 -1.8493 0.9555
1.7603 11.0867 -1.8493 0.9555
-0.2406 11.2230 -1.8493 0.9555
-1.2422 11.1566 -1.8493 0.9555
-5.0706 10.0151 -1.8493 0.9555
-5.9450 9.5221 -1.8493 0.9555
-6.7718 8.9530 -1.8493 0.9555
-8.1654 8.9964 -2.0015 0.9519
-8.9364 8.2310 -2.0015 0.9519
-9.6359 7.3998 -2.0015 0.9519
-10.7989 5.5671 -2.0015 0.9519
-11.2530 4.5802 -2.0015 0.9519
-11.6172 3.5567 -2.0015 0.9519
-12.0647 1.4327 -2.0015 0.9519
-12.1444 0.3493 -2.0015 0.9519
-12.1271 -0.7370 -2.0015 0.9519
-12.0128 -1.8173 -2.0015 0.9519
-11.8024 -2.8831 -2.0015 0.9519
-11.4977 -3.9259 -2.0015 0.9519
-11.1010 -4.9372 -2.0015 0.9519
-10.6156 -5.9092 -2.0015 0.9519
-10.0453 -6.8338 -2.0015 0.9519
-9.3947 -7.7038 -2.0015 0.9519
-7.8739 -9.2526 -2.0015 0.9519
-6.1019 -10.5060 -2.0015 0.9519
-4.1212 -11.3859 -1.9948 0.9521
-0.8881 -11.2266 -1.8552 0.9554
1.1257 -11.2247 -1.8584 0.9553
3.2104 -11.2130 -1.9214 0.9538
4.3231 -11.2025 -1.9781 0.9525
5.3630 -10.8861 -1.9992 0.9520
7.2228 -9.7694 -2.0015 0.9519
8.8459 -8.3282 -2.0015 0.9519
9.5545 -7.5047 -2.0015 0.9519
10.7374 -5.6848 -2.0015 0.9519
11.2023 -4.7029 -2.0015 0.9519
12.1344 0.6044 -2.0015 0.9519
12.0319 1.6859 -2.0015 0.9519
11.8332 2.7540 -2.0015 0.9519
11.5399 3.8000 -2.0015 0.9519
11.1543 4.8156 -2.0015 0.9519
10.1194 6.7236 -2.0015 0.9519
9.4519 7.5795 -1.9959 0.9521
8.0952 7.7769 -1.8493 0.9555
7.3682 8.4689 -1.8493 0.9555
5.7436 9.6449 -1.8493 0.9555
4.8591 10.1194 -1.8493 0.9555
3.9357 10.5130 -1.8493 0.9555
2.9809 10.8225 -1.8493 0.9555
1.0075 11.1803 -1.8493 0.9555
-0.9980 11.1811 -1.8493 0.9555
-1.9928 11.0473 -1.8493 0.9555
-2.9717 10.8251 -1.8493 0.9555
-6.5745 9.0989 -1.8493 0.9555
-7.9647 9.1703 -2.0010 0.9520
-9.4719 7.6087 -2.0015 0.9519
-10.6747 5.8018 -2.0015 0.9519
-11.8309 2.7640 -2.0015 0.9519
-12.0305 1.6961 -2.0015 0.9519
-12.1339 0.6146 -2.0015 0.9519
-12.1403 -0.4717 -2.0015 0.9519
-11.8626 -2.6244 -2.0015 0.9519
-10.7422 -5.6757 -2.0015 0.9519
-7.2311 -9.7632 -2.0015 0.9519
-6.3300 -10.3701 -2.0015 0.9519
-5.3784 -10.8941 -2.0015 0.9519
-3.2426 -11.2894 -1.9350 0.9535
-0.1275 -11.2315 -1.8504 0.9555
1.8979 -11.2216 -1.8749 0.9549
2.9473 -11.2151 -1.9103 0.9541
5.1192 -10.9910 -1.9974 0.9520
7.8661 -9.2593 -2.0015 0.9519
8.6618 -8.5196 -2.0015 0.9519
9.3882 -7.7118 -2.0015 0.9519
10.0395 -6.8423 -2.0015 0.9519
10.6106 -5.9182 -2.0015 0.9519
11.7999 -2.8931 -2.0015 0.9519
12.0112 -1.8275 -2.0015 0.9519
12.1264 -0.7472 -2.0015 0.9519
12.1447 0.3390 -2.0015 0.9519
11.8906 2.4946 -2.0015 0.9519
10.2640 6.5008 -2.0015 0.9519
7.5516 8.3058 -1.8493 0.9555
6.7794 8.9472 -1.8493 0.9555
5.0791 10.0108 -1.8493 0.9555
4.1646 10.4245 -1.8493 0.9555
3.2168 10.7548 -1.8493 0.9555
1.2517 11.1556 -1.8493 0.9555
-1.7508 11.0882 -1.8493 0.9555
-5.5231 9.7728 -1.8493 0.9555
-8.5681 8.6137 -2.0015 0.9519
-9.9641 6.9516 -2.0015 0.9519
-10.5453 6.0338 -2.0015 0.9519
-11.0421 5.0677 -2.0015 0.9519
-11.9905 1.9587 -2.0015 0.9519
-12.1175 0.8797 -2.0015 0.9519
-11.9171 -2.3645 -2.0015 0.9519
-11.6583 -3.4196 -2.0015 0.9519
-10.8637 -5.4395 -2.0015 0.9519
-9.7224 -7.2858 -2.0015 0.9519
-9.0327 -8.1252 -2.0015 0.9519
-6.5552 -10.2293 -2.0015 0.9519
-2.4182 -11.2293 -1.8923 0.9545
-1.3837 -11.2239 -1.8630 0.9552
-0.3732 -11.2307 -1.8512 0.9555
1.6466 -11.2228 -1.8686 0.9551
3.7712 -11.2081 -1.9481 0.9532
6.7889 -10.0757 -2.0015 0.9519
9.2173 -7.9152 -2.0015 0.9519
10.9860 -5.1881 -2.0015 0.9519
11.9684 -2.0896 -2.0015 0.9519
12.1072 -1.0122 -2.0015 0.9519
12.1492 0.0734 -2.0015 0.9519
12.0941 1.1584 -2.0015 0.9519
11.9423 2.2341 -2.0015 0.9519
11.6950 3.2919 -2.0015 0.9519
11.3541 4.3235 -2.0015 0.9519
8.7650 7.7127 -1.9234 0.9538
5.2967 9.8973 -1.8493 0.9555
2.4831 10.9475 -1.8493 0.9555
-0.5083 11.2140 -1.8493 0.9555
-3.4634 10.6779 -1.8493 0.9555
-4.4034 10.3259 -1.8493 0.9555
-5.3082 9.8912 -1.8493 0.9555
-6.1705 9.3775 -1.8493 0.9555
-8.3778 8.7990 -2.0015 0.9519
-9.1303 8.0154 -2.0015 0.9519
-10.4108 6.2629 -2.0015 0.9519
-11.3591 4.3104 -2.0015 0.9519
-11.6987 3.2785 -2.0015 0.9519
-12.1493 0.0594 -2.0015 0.9519
-12.1060 -1.0261 -2.0015 0.9519
-10.4716 -6.1608 -2.0015 0.9519
-9.8794 -7.0715 -2.0015 0.9519
-8.4634 -8.7167 -2.0015 0.9519
-6.7773 -10.0835 -2.0015 0.9519
-5.8494 -10.6486 -2.0015 0.9519
-0.6191 -11.2292 -1.8527 0.9554
0.3861 -11.2307 -1.8512 0.9555
1.3969 -11.2238 -1.8633 0.9552
-9.1136 5.5074 -2.0015 0.9576
-9.5691 4.6712 -2.0015 0.9576
-9.9482 3.7978 -2.0015 0.9576
-10.2476 2.8939 -2.0015 0.9576
-10.4652 1.9670 -2.0015 0.9576
-10.6122 -0.8781 -2.0015 0.9576
-10.2866 -2.7525 -2.0015 0.9576
-9.9996 -3.6603 -2.0015 0.9576
-9.6326 -4.5389 -2.0015 0.9576
-9.1886 -5.3813 -2.0015 0.9576
-8.0845 -6.9304 -2.0015 0.9576
-5.9576 -8.8259 -2.0015 0.9576
-5.1454 -9.3228 -2.0015 0.9576
-4.2921 -9.7451 -2.0015 0.9576
-3.4044 -10.0896 -2.0015 0.9576
-0.6075 -10.6311 -2.0015 0.9576
0.3446 -10.6429 -2.0015 0.9576
3.1541 -10.1706 -2.0015 0.9576
4.0500 -9.8482 -2.0015 0.9576
4.9135 -9.4471 -2.0015 0.9576
6.5161 -8.4220 -2.0015 0.9576
7.2424 -7.8062 -2.0015 0.9576
7.9108 -7.1281 -2.0015 0.9576
9.0529 -5.6067 -2.0015 0.9576
9.5175 -4.7756 -2.0015 0.9576
10.2154 -3.0058 -2.0015 0.9576
10.4431 -2.0812 -2.0015 0.9576
10.5872 -1.1401 -2.0015 0.9576
10.6212 0.7621 -2.0015 0.9576
10.3160 2.6398 -2.0015 0.9576
10.0390 3.5508 -2.0015 0.9576
9.6817 4.4334 -2.0015 0.9576
9.2469 5.2805 -2.0015 0.9576
8.1597 6.8416 -2.0015 0.9576
6.4249 7.7193 -1.8877 0.9599
5.5934 8.0941 -1.8493 0.9607
3.2472 9.2874 -1.8493 0.9607
2.4046 9.5403 -1.8493 0.9607
0.6686 9.8159 -1.8493 0.9607
-2.8113 9.4285 -1.8493 0.9607
-3.6423 9.1397 -1.8493 0.9607
-5.2105 8.3457 -1.8493 0.9607
-6.4070 8.4707 -1.9963 0.9577
-7.1566 7.8849 -2.0015 0.9576
-7.8324 7.2141 -2.0015 0.9576
-8.4455 6.4856 -2.0015 0.9576
-9.8628 4.0143 -2.0015 0.9576
-10.5741 1.2557 -2.0015 0.9576
-10.6440 0.3061 -2.0015 0.9576
-10.6288 -0.6459 -2.0015 0.9576
-10.5286 -1.5928 -2.0015 0.9576
-10.0772 -3.4409 -2.0015 0.9576
-8.8042 -5.9895 -2.0015 0.9576
-8.2340 -6.7521 -2.0015 0.9576
-7.5980 -7.4606 -2.0015 0.9576
-6.1492 -8.6935 -2.0015 0.9576
2.9310 -10.2371 -2.0015 0.9576
3.8337 -9.9344 -2.0015 0.9576
4.7058 -9.5522 -2.0015 0.9576
7.0700 -7.9627 -2.0015 0.9576
7.7530 -7.2993 -2.0015 0.9576
10.3951 -2.3090 -2.0015 0.9576
10.6401 -0.4224 -2.0015 0.9576
10.6353 0.5297 -2.0015 0.9576
10.1142 3.3305 -2.0015 0.9576
9.7763 4.2207 -2.0015 0.9576
8.8692 5.8929 -2.0015 0.9576
8.3073 6.6616 -2.0015 0.9576
7.6713 7.3696 -1.9995 0.9576
5.7690 7.9699 -1.8493 0.9607
5.0340 8.4533 -1.8493 0.9607
1.7548 9.6809 -1.8493 0.9607
0.0042 9.8387 -1.8493 0.9607
-1.7466 9.6824 -1.8493 0.9607
-2.6045 9.4877 -1.8493 0.9607
-4.2512 8.8728 -1.8493 0.9607
-6.9826 8.0395 -2.0015 0.9576
-7.6728 7.3836 -2.0015 0.9576
-8.3017 6.6687 -2.0015 0.9576
-8.8642 5.9004 -2.0015 0.9576
-9.3558 5.0850 -2.0015 0.9576
-9.7727 4.2290 -2.0015 0.9576
-10.1114 3.3391 -2.0015 0.9576
-10.3692 2.4225 -2.0015 0.9576
-10.6348 0.5387 -2.0015 0.9576
-10.6404 -0.4134 -2.0015 0.9576
-9.8218 -4.1136 -2.0015 0.9576
-9.4151 -4.9745 -2.0015 0.9576
-8.3797 -6.5704 -2.0015 0.9576
-7.0768 -7.9567 -2.0015 0.9576
-6.3377 -8.5570 -2.0015 0.9576
-4.7139 -9.5482 -2.0015 0.9576
-2.9396 -10.2346 -2.0015 0.9576
-2.0137 -10.4563 -2.0015 0.9576
-1.0716 -10.5944 -2.0015 0.9576
0.8307 -10.6160 -2.0015 0.9576
1.7757 -10.4993 -2.0015 0.9576
2.7065 -10.2987 -2.0015 0.9576
3.6156 -10.0158 -2.0015 0.9576
4.4959 -9.6528 -2.0015 0.9576
6.1418 -8.6987 -2.0015 0.9576
6.8943 -8.1153 -2.0015 0.9576
8.7992 -5.9970 -2.0015 0.9576
9.2997 -5.1870 -2.0015 0.9576
10.6283 -0.6549 -2.0015 0.9576
10.1846 3.1086 -2.0015 0.9576
9.8662 4.0060 -2.0015 0.9576
9.4689 4.8713 -2.0015 0.9576
8.9959 5.6976 -2.0015 0.9576
8.4510 6.4784 -2.0015 0.9576
7.8385 7.2075 -2.0015 0.9576
2.8193 9.4261 -1.8493 0.9607
1.0970 9.7773 -1.8493 0.9607
0.2192 9.8363 -1.8493 0.9607
-0.6603 9.8165 -1.8493 0.9607
-1.5345 9.7183 -1.8493 0.9607
-3.2394 9.2901 -1.8493 0.9607
-5.7460 8.3299 -1.9021 0.9597
-6.8051 8.1902 -2.0015 0.9576
-7.5096 7.5496 -2.0015 0.9576
-9.6779 4.4416 -2.0015 0.9576
-10.0360 3.5593 -2.0015 0.9576
-10.6469 -0.1807 -2.0015 0.9576
-10.4448 -2.0724 -2.0015 0.9576
-10.2179 -2.9971 -2.0015 0.9576
-9.9094 -3.8979 -2.0015 0.9576
-9.5216 -4.7675 -2.0015 0.9576
-8.5213 -6.3857 -2.0015 0.9576
-7.9168 -7.1214 -2.0015 0.9576
-7.2490 -7.8001 -2.0015 0.9576
-3.1627 -10.1679 -2.0015 0.9576
-1.3029 -10.5684 -2.0015 0.9576
0.5985 -10.6316 -2.0015 0.9576
3.3958 -10.0925 -2.0015 0.9576
5.9502 -8.8309 -2.0015 0.9576
6.7152 -8.2641 -2.0015 0.9576
8.0786 -6.9373 -2.0015 0.9576
9.6288 -4.5471 -2.0015 0.9576
9.9965 -3.6688 -2.0015 0.9576
10.2842 -2.7612 -2.0015 0.9576
10.6114 -0.8871 -2.0015 0.9576
10.5999 1.0153 -2.0015 0.9576
10.4669 1.9581 -2.0015 0.9576
10.2501 2.8852 -2.0015 0.9576
9.5731 4.6631 -2.0015 0.9576
9.1183 5.4996 -2.0015 0.9576
7.9942 7.0344 -2.0015 0.9576
1.3105 9.7510 -1.8493 0.9607
0.4342 9.8291 -1.8493 0.9607
-3.8593 9.0502 -1.8493 0.9607
-4.6524 8.6692 -1.8493 0.9607
-5.4082 8.2190 -1.8493 0.9607
-7.3427 7.7119 -2.0015 0.9576
-8.0023 7.0252 -2.0015 0.9576
-9.5785 4.6521 -2.0015 0.9576
-10.4691 1.9460 -2.0015 0.9576
-10.6011 1.0030 -2.0015 0.9576
-10.6483 0.0521 -2.0015 0.9576
-10.6104 -0.8993 -2.0015 0.9576
-10.4876 -1.8436 -2.0015 0.9576
-9.9922 -3.6803 -2.0015 0.9576
-9.6235 -4.5582 -2.0015 0.9576
-9.1779 -5.3997 -2.0015 0.9576
-8.0706 -6.9466 -2.0015 0.9576
-7.4178 -7.6398 -2.0015 0.9576
-6.7057 -8.2718 -2.0015 0.9576
-5.1268 -9.3330 -2.0015 0.9576
-4.2726 -9.7537 -2.0015 0.9576
-3.3842 -10.0964 -2.0015 0.9576
-1.5336 -10.5374 -2.0015 0.9576
-0.5862 -10.6323 -2.0015 0.9576
1.3151 -10.5669 -2.0015 0.9576
-7.6341 5.6015 -2.0015 0.9620
-8.1039 4.8972 -2.0015 0.9620
-9.1123 2.5733 -2.0015 0.9620
-9.3057 1.7490 -2.0015 0.9620
-9.4364 -0.7808 -2.0015 0.9620
-8.5654 -4.0361 -2.0015 0.9620
-6.6095 -6.7801 -2.0015 0.9620
-5.9775 -7.3434 -2.0015 0.9620
-5.2976 -7.8480 -2.0015 0.9620
-4.5753 -8.2899 -2.0015 0.9620
-1.3825 -9.3672 -2.0015 0.9620
-0.5402 -9.4533 -2.0015 0.9620
1.1506 -9.3985 -2.0015 0.9620
3.6013 -8.7571 -2.0015 0.9620
7.5724 -5.6846 -2.0015 0.9620
8.4631 -4.2465 -2.0015 0.9620
9.2861 -1.8507 -2.0015 0.9620
9.4672 -0.1687 -2.0015 0.9620
9.4444 0.6776 -2.0015 0.9620
9.3461 1.5186 -2.0015 0.9620
8.9268 3.1574 -2.0015 0.9620
7.7701 5.4112 -2.0015 0.9620
2.8875 8.2584 -1.8493 0.9649
2.1382 8.4833 -1.8493 0.9649
-0.1875 8.7466 -1.8493 0.9649
-1.7409 8.5737 -1.8493 0.9649
-2.4999 8.3839 -1.8493 0.9649
-3.2388 8.1271 -1.8493 0.9649
-4.9974 8.0044 -1.9947 0.9622
-6.3637 7.0113 -2.0015 0.9620
-7.5098 5.7671 -2.0015 0.9620
-7.9949 5.0732 -2.0015 0.9620
-8.4161 4.3387 -2.0015 0.9620
-9.2653 1.9520 -2.0015 0.9620
-9.4648 0.2722 -2.0015 0.9620
-9.4512 -0.5744 -2.0015 0.9620
-9.3622 -1.4163 -2.0015 0.9620
-8.6516 -3.8478 -2.0015 0.9620
-8.2733 -4.6053 -2.0015 0.9620
-7.8288 -5.3259 -2.0015 0.9620
-7.3218 -6.0040 -2.0015 0.9620
-6.7562 -6.6340 -2.0015 0.9620
-6.1366 -7.2110 -2.0015 0.9620
-4.7555 -8.1879 -2.0015 0.9620
-3.2226 -8.9034 -2.0015 0.9620
0.9449 -9.4214 -2.0015 0.9620
1.7827 -9.2994 -2.0015 0.9620
4.9265 -8.0862 -2.0015 0.9620
5.6291 -7.6138 -2.0015 0.9620
6.2867 -7.0805 -2.0015 0.9620
7.4463 -5.8488 -2.0015 0.9620
8.7305 -3.6652 -2.0015 0.9620
9.0230 -2.8707 -2.0015 0.9620
9.2434 -2.0532 -2.0015 0.9620
9.3899 -1.2193 -2.0015 0.9620
9.4612 -0.3756 -2.0015 0.9620
9.3771 1.3139 -2.0015 0.9620
9.2222 2.1463 -2.0015 0.9620
8.9936 2.9615 -2.0015 0.9620
8.3231 4.5146 -2.0015 0.9620
7.8866 5.2400 -2.0015 0.9620
6.2150 7.1435 -2.0015 0.9620
4.5957 7.7173 -1.8986 0.9639
3.7869 7.8866 -1.8493 0.9649
3.0673 8.1933 -1.8493 0.9649
2.3231 8.4346 -1.8493 0.9649
0.7852 8.7133 -1.8493 0.9649
0.0037 8.7487 -1.8493 0.9649
-0.7778 8.7140 -1.8493 0.9649
-1.5531 8.6097 -1.8493 0.9649
-2.3160 8.4365 -1.8493 0.9649
-3.0603 8.1959 -1.8493 0.9649
-3.7802 7.8898 -1.8493 0.9649
-5.5455 7.6748 -2.0015 0.9620
-6.8227 6.5656 -2.0015 0.9620
-7.3819 5.9299 -2.0015 0.9620
-8.3193 4.5216 -2.0015 0.9620
-8.9911 2.9692 -2.0015 0.9620
-9.3760 1.3219 -2.0015 0.9620
-9.4566 0.4790 -2.0015 0.9620
-9.4615 -0.3676 -2.0015 0.9620
-9.2451 -2.0454 -2.0015 0.9620
-7.4513 -5.8425 -2.0015 0.9620
-6.8996 -6.4847 -2.0015 0.9620
-6.2927 -7.0751 -2.0015 0.9620
-5.6356 -7.6090 -2.0015 0.9620
-4.9333 -8.0820 -2.0015 0.9620
-2.6140 -9.1007 -2.0015 0.9620
-0.9529 -9.4206 -2.0015 0.9620
0.7387 -9.4398 -2.0015 0.9620
2.4067 -9.1577 -2.0015 0.9620
3.2151 -8.9061 -2.0015 0.9620
4.7485 -8.1919 -2.0015 0.9620
5.4613 -7.7350 -2.0015 0.9620
6.7505 -6.6397 -2.0015 0.9620
7.3167 -6.0102 -2.0015 0.9620
8.6483 -3.8552 -2.0015 0.9620
9.3610 -1.4243 -2.0015 0.9620
9.4508 -0.5824 -2.0015 0.9620
9.4650 0.2642 -2.0015 0.9620
9.4036 1.1086 -2.0015 0.9620
9.0562 2.7642 -2.0015 0.9620
8.7731 3.5621 -2.0015 0.9620
7.9992 5.0664 -2.0015 0.9620
6.3697 7.0059 -2.0015 0.9620
4.8245 7.7127 -1.9230 0.9635
3.2457 8.1243 -1.8493 0.9649
0.1950 8.7465 -1.8493 0.9649
-0.5871 8.7289 -1.8493 0.9649
-2.1310 8.4851 -1.8493 0.9649
-3.6069 7.9705 -1.8493 0.9649
-6.0512 7.2828 -2.0015 0.9620
-6.6776 6.7131 -2.0015 0.9620
-7.2505 6.0898 -2.0015 0.9620
-7.7655 5.4178 -2.0015 0.9620
-8.2185 4.7024 -2.0015 0.9620
-9.4438 0.6856 -2.0015 0.9620
-7.5772 -5.6782 -2.0015 0.9620
-7.0397 -6.3324 -2.0015 0.9620
-6.4459 -6.9359 -2.0015 0.9620
-5.1088 -7.9722 -2.0015 0.9620
-3.6087 -8.7541 -2.0015 0.9620
-2.8123 -9.0414 -2.0015 0.9620
-0.3145 -9.4635 -2.0015 0.9620
0.5322 -9.4537 -2.0015 0.9620
3.0196 -8.9743 -2.0015 0.9620
5.2909 -7.8525 -2.0015 0.9620
5.9712 -7.3485 -2.0015 0.9620
7.7059 -5.5023 -2.0015 0.9620
8.8889 -3.2623 -2.0015 0.9620
9.1448 -2.4553 -2.0015 0.9620
9.3276 -1.6285 -2.0015 0.9620
9.4358 -0.7888 -2.0015 0.9620
9.4685 0.0572 -2.0015 0.9620
9.3072 1.7411 -2.0015 0.9620
8.8489 3.3695 -2.0015 0.9620
8.5125 4.1465 -2.0015 0.9620
8.1081 4.8903 -2.0015 0.9620
7.1085 6.2550 -2.0015 0.9620
5.8740 7.4101 -1.9988 0.9621
3.4225 8.0514 -1.8493 0.9649
2.6896 8.3250 -1.8493 0.9649
1.9352 8.5319 -1.8493 0.9649
-0.3962 8.7397 -1.8493 0.9649
-1.1753 8.6693 -1.8493 0.9649
-1.9450 8.5297 -1.8493 0.9649
-2.6992 8.3219 -1.8493 0.9649
-3.4318 8.0475 -1.8493 0.9649
-4.2218 7.8668 -1.8872 0.9642
-7.1157 6.2468 -2.0015 0.9620
-8.1137 4.8810 -2.0015 0.9620
-8.5173 4.1367 -2.0015 0.9620
-8.8528 3.3593 -2.0015 0.9620
-9.1174 2.5551 -2.0015 0.9620
-9.3092 1.7304 -2.0015 0.9620
-9.4686 0.0463 -2.0015 0.9620
-9.1420 -2.4658 -2.0015 0.9620
-8.5573 -4.0532 -2.0015 0.9620
-8.1610 -4.8014 -2.0015 0.9620
-7.1764 -6.1770 -2.0015 0.9620
-6.5960 -6.7933 -2.0015 0.9620
-3.7992 -8.6731 -2.0015 0.9620
-2.1953 -9.2107 -2.0015 0.9620
-1.3637 -9.3700 -2.0015 0.9620
-0.5213 -9.4543 -2.0015 0.9620
1.1694 -9.3962 -2.0015 0.9620
-6.8661 5.0380 -2.0015 0.9656
-7.2887 4.4046 -2.0015 0.9656
-7.6530 3.7358 -2.0015 0.9656
-8.3696 1.5731 -2.0015 0.9656
-8.5159 0.0587 -2.0015 0.9656
-7.9972 -2.9274 -2.0015 0.9656
-7.7037 -3.6300 -2.0015 0.9656
-6.9349 -4.9429 -2.0015 0.9656
-5.9446 -6.0980 -2.0015 0.9656
-5.3761 -6.6047 -2.0015 0.9656
-4.1151 -7.4559 -2.0015 0.9656
-2.7227 -8.0692 -2.0015 0.9656
-1.9910 -8.2801 -2.0015 0.9656
-1.2434 -8.4249 -2.0015 0.9656
1.0348 -8.4530 -2.0015 0.9656
1.7858 -8.3268 -2.0015 0.9656
2.5225 -8.1340 -2.0015 0.9656
3.9296 -7.5553 -2.0015 0.9656
4.5888 -7.1741 -2.0015 0.9656
5.2113 -6.7355 -2.0015 0.9656
6.8106 -5.1128 -2.0015 0.9656
7.6117 -3.8193 -2.0015 0.9656
7.9224 -3.1241 -2.0015 0.9656
8.1698 -2.4039 -2.0015 0.9656
8.3519 -1.6645 -2.0015 0.9656
8.4672 -0.9118 -2.0015 0.9656
8.5148 -0.1518 -2.0015 0.9656
8.4059 1.3658 -2.0015 0.9656
7.7430 3.5456 -2.0015 0.9656
6.5258 5.4716 -2.0015 0.9656
5.4480 6.5455 -2.0015 0.9656
4.8415 7.0060 -2.0015 0.9656
3.4927 7.7008 -1.9873 0.9659
2.6969 7.7132 -1.9204 0.9670
1.9464 7.7223 -1.8717 0.9678
1.2339 7.7712 -1.8493 0.9682
0.5347 7.8504 -1.8493 0.9682
-1.5695 7.7292 -1.8536 0.9681
-2.3014 7.7183 -1.8929 0.9674
-3.0783 7.7244 -1.9543 0.9664
-5.1374 6.7921 -2.0015 0.9656
-6.2640 5.7695 -2.0015 0.9656
-7.1906 4.5628 -2.0015 0.9656
-7.5695 3.9023 -2.0015 0.9656
-7.8878 3.2105 -2.0015 0.9656
-8.1431 2.4930 -2.0015 0.9656
-8.4567 1.0043 -2.0015 0.9656
-8.5005 -0.5166 -2.0015 0.9656
-8.0593 -2.7519 -2.0015 0.9656
-6.5852 -5.4000 -2.0015 0.9656
-6.0765 -5.9666 -2.0015 0.9656
-5.5192 -6.4856 -2.0015 0.9656
-4.9178 -6.9527 -2.0015 0.9656
-4.2771 -7.3642 -2.0015 0.9656
-2.8984 -8.0077 -2.0015 0.9656
-1.4273 -8.3957 -2.0015 0.9656
0.0895 -8.5157 -2.0015 0.9656
0.8498 -8.4736 -2.0015 0.9656
1.6033 -8.3638 -2.0015 0.9656
2.3441 -8.1872 -2.0015 0.9656
3.0660 -7.9451 -2.0015 0.9656
3.7635 -7.6394 -2.0015 0.9656
5.0628 -6.8478 -2.0015 0.9656
5.6543 -6.3682 -2.0015 0.9656
6.2005 -5.8376 -2.0015 0.9656
8.1153 -2.5819 -2.0015 0.9656
8.3135 -1.8467 -2.0015 0.9656
8.4452 -1.0966 -2.0015 0.9656
8.4338 1.1817 -2.0015 0.9656
8.2945 1.9304 -2.0015 0.9656
8.0889 2.6636 -2.0015 0.9656
7.8186 3.3755 -2.0015 0.9656
5.5898 6.4249 -2.0015 0.9656
3.6738 7.6509 -1.9947 0.9657
2.1264 7.7203 -1.8820 0.9676
0.0033 7.8685 -1.8493 0.9682
-0.6996 7.8374 -1.8493 0.9682
-2.8820 7.7183 -1.9363 0.9667
-4.9877 6.9027 -2.0015 0.9656
-5.5843 6.4296 -2.0015 0.9656
-6.1364 5.9051 -2.0015 0.9656
-6.6393 5.3333 -2.0015 0.9656
-7.0892 4.7189 -2.0015 0.9656
-7.4824 4.0668 -2.0015 0.9656
-8.0866 2.6705 -2.0015 0.9656
-8.4327 1.1889 -2.0015 0.9656
-8.5097 -0.3306 -2.0015 0.9656
-8.4462 -1.0895 -2.0015 0.9656
-8.1175 -2.5750 -2.0015 0.9656
-7.8550 -3.2898 -2.0015 0.9656
-6.7017 -5.2547 -2.0015 0.9656
-6.2055 -5.8324 -2.0015 0.9656
-3.7700 -7.6362 -2.0015 0.9656
-2.3510 -8.1852 -2.0015 0.9656
-0.0967 -8.5156 -2.0015 0.9656
0.6644 -8.4902 -2.0015 0.9656
1.4201 -8.3969 -2.0015 0.9656
2.1645 -8.2365 -2.0015 0.9656
2.8916 -8.0102 -2.0015 0.9656
4.2708 -7.3678 -2.0015 0.9656
4.9119 -6.9569 -2.0015 0.9656
8.5000 -0.5238 -2.0015 0.9656
8.5128 0.2376 -2.0015 0.9656
8.3347 1.7486 -2.0015 0.9656
8.1452 2.4861 -2.0015 0.9656
7.5728 3.8958 -2.0015 0.9656
7.1945 4.5567 -2.0015 0.9656
6.2689 5.7642 -2.0015 0.9656
5.7289 6.3011 -2.0015 0.9656
5.1431 6.7877 -2.0015 0.9656
2.3085 7.7182 -1.8934 0.9674
0.8774 7.8195 -1.8493 0.9682
0.1753 7.8666 -1.8493 0.9682
-1.9394 7.7223 -1.8713 0.9678
-2.6895 7.7133 -1.9199 0.9670
-3.4983 7.7306 -1.9942 0.9657
-4.8356 7.0101 -2.0015 0.9656
-6.5211 5.4772 -2.0015 0.9656
-6.9844 4.8728 -2.0015 0.9656
-7.3917 4.2294 -2.0015 0.9656
-8.0263 2.8466 -2.0015 0.9656
-8.2485 2.1182 -2.0015 0.9656
-8.3533 -1.6574 -2.0015 0.9656
-8.1719 -2.3970 -2.0015 0.9656
-7.9251 -3.1173 -2.0015 0.9656
-7.2439 -4.4778 -2.0015 0.9656
-6.8149 -5.1070 -2.0015 0.9656
-5.7974 -6.2382 -2.0015 0.9656
-5.2170 -6.7311 -2.0015 0.9656
-1.7928 -8.3253 -2.0015 0.9656
-1.0420 -8.4522 -2.0015 0.9656
-0.2828 -8.5114 -2.0015 0.9656
0.4786 -8.5027 -2.0015 0.9656
1.2363 -8.4259 -2.0015 0.9656
1.9840 -8.2818 -2.0015 0.9656
2.7158 -8.0715 -2.0015 0.9656
3.4260 -7.7966 -2.0015 0.9656
4.1088 -7.4594 -2.0015 0.9656
5.3705 -6.6092 -2.0015 0.9656
6.4609 -5.5481 -2.0015 0.9656
7.7007 -3.6366 -2.0015 0.9656
7.9947 -2.9342 -2.0015 0.9656
8.3892 -1.4647 -2.0015 0.9656
8.4865 -0.7095 -2.0015 0.9656
6.8704 5.0322 -2.0015 0.9656
5.8653 6.1744 -2.0015 0.9656
5.2903 6.6737 -2.0015 0.9656
4.6730 7.1195 -2.0015 0.9656
2.4928 7.7159 -1.9057 0.9672
0.3473 7.8609 -1.8493 0.9682
-0.3563 7.8605 -1.8493 0.9682
-1.0571 7.7972 -1.8493 0.9682
-4.0229 7.4962 -1.9994 0.9656
-5.8724 6.1676 -2.0015 0.9656
-7.6605 3.7205 -2.0015 0.9656
-7.9622 3.0213 -2.0015 0.9656
-8.3727 1.5563 -2.0015 0.9656
-8.4783 0.8022 -2.0015 0.9656
-7.9913 -2.9434 -2.0015 0.9656
-7.3400 -4.3184 -2.0015 0.9656
-6.9249 -4.9568 -2.0015 0.9656
-6.4545 -5.5556 -2.0015 0.9656
-5.9324 -6.1099 -2.0015 0.9656
-5.3629 -6.6154 -2.0015 0.9656
-4.7505 -7.0680 -2.0015 0.9656
-4.1001 -7.4642 -2.0015 0.9656
-3.4170 -7.8006 -2.0015 0.9656
-2.7065 -8.0746 -2.0015 0.9656
-0.4688 -8.5032 -2.0015 0.9656
0.2926 -8.5111 -2.0015 0.9656
1.0518 -8.4510 -2.0015 0.9656
-6.2324 4.5731 -2.0015 0.9686
-6.9467 3.3911 -2.0015 0.9686
-7.2219 2.7570 -2.0015 0.9686
-7.5972 1.4279 -2.0015 0.9686
-7.7039 -0.6375 -2.0015 0.9686
-7.2591 -2.6572 -2.0015 0.9686
-5.8689 -5.0311 -2.0015 0.9686
-5.3960 -5.5353 -2.0015 0.9686
-4.8800 -5.9952 -2.0015 0.9686
-4.3249 -6.4071 -2.0015 0.9686
-3.7353 -6.7678 -2.0015 0.9686
-2.4714 -7.3245 -2.0015 0.9686
-0.4410 -7.7176 -2.0015 0.9686
0.2502 -7.7262 -2.0015 0.9686
1.6210 -7.5583 -2.0015 0.9686
2.2897 -7.3833 -2.0015 0.9686
2.9401 -7.1493 -2.0015 0.9686
3.5669 -6.8581 -2.0015 0.9686
4.1653 -6.5120 -2.0015 0.9686
4.7304 -6.1139 -2.0015 0.9686
6.9092 -3.4668 -2.0015 0.9686
7.4159 -2.1820 -2.0015 0.9686
7.5811 -1.5109 -2.0015 0.9686
7.6858 -0.8276 -2.0015 0.9686
7.7104 0.5532 -2.0015 0.9686
7.4889 1.9164 -2.0015 0.9686
6.7128 3.8334 -2.0015 0.9686
6.3435 4.4177 -2.0015 0.9686
5.4562 5.4760 -2.0015 0.9686
4.3947 6.3594 -2.0015 0.9686
2.5504 7.2943 -2.0007 0.9686
1.8856 7.4811 -1.9976 0.9686
1.2085 7.6112 -1.9954 0.9687
0.5234 7.6840 -1.9941 0.9687
-2.2063 7.3993 -1.9992 0.9686
-2.8617 7.1810 -2.0015 0.9686
-4.0939 6.5572 -2.0015 0.9686
-4.6633 6.1652 -2.0015 0.9686
-5.1953 5.7240 -2.0015 0.9686
-5.6859 5.2371 -2.0015 0.9686
-6.5270 4.1417 -2.0015 0.9686
-7.3916 2.2630 -2.0015 0.9686
-7.7270 0.2222 -2.0015 0.9686
-7.6432 -1.1563 -2.0015 0.9686
-7.0631 -3.1414 -2.0015 0.9686
-6.7543 -3.7598 -2.0015 0.9686
-6.3914 -4.3481 -2.0015 0.9686
-4.4640 -6.3110 -2.0015 0.9686
-3.8824 -6.6846 -2.0015 0.9686
-3.2697 -7.0046 -2.0015 0.9686
-1.9711 -7.4747 -2.0015 0.9686
-0.6096 -7.7061 -2.0015 0.9686
0.0812 -7.7298 -2.0015 0.9686
1.4554 -7.5920 -2.0015 0.9686
4.5956 -6.2158 -2.0015 0.9686
5.1325 -5.7805 -2.0015 0.9686
5.6283 -5.2989 -2.0015 0.9686
7.1276 -2.9923 -2.0015 0.9686
7.3664 -2.3436 -2.0015 0.9686
7.5463 -1.6762 -2.0015 0.9686
7.7206 0.3845 -2.0015 0.9686
7.6554 1.0727 -2.0015 0.9686
6.4386 4.2780 -2.0015 0.9686
5.5746 5.3554 -2.0015 0.9686
2.7102 7.2395 -2.0015 0.9686
1.3748 7.5847 -1.9958 0.9687
0.6913 7.6715 -1.9943 0.9687
-0.6848 7.6721 -1.9943 0.9687
-1.3684 7.5858 -1.9958 0.9687
-2.0432 7.4430 -1.9984 0.9686
-2.7041 7.2418 -2.0015 0.9686
-3.3402 6.9713 -2.0015 0.9686
-4.5274 6.2657 -2.0015 0.9686
-6.7919 3.6915 -2.0015 0.9686
-7.3403 2.4240 -2.0015 0.9686
-7.5275 1.7586 -2.0015 0.9686
-7.7244 -0.3001 -2.0015 0.9686
-7.3683 -2.3374 -2.0015 0.9686
-7.1301 -2.9862 -2.0015 0.9686
-6.0832 -4.7698 -2.0015 0.9686
-5.1374 -5.7761 -2.0015 0.9686
-4.6009 -6.2120 -2.0015 0.9686
-4.0276 -6.5981 -2.0015 0.9686
-3.4221 -6.9315 -2.0015 0.9686
-0.7779 -7.6910 -2.0015 0.9686
0.6031 -7.7067 -2.0015 0.9686
1.2891 -7.6220 -2.0015 0.9686
1.9648 -7.4764 -2.0015 0.9686
3.2638 -7.0074 -2.0015 0.9686
3.8767 -6.6879 -2.0015 0.9686
4.4586 -6.3148 -2.0015 0.9686
5.0049 -5.8913 -2.0015 0.9686
5.5111 -5.4207 -2.0015 0.9686
5.9733 -4.9067 -2.0015 0.9686
6.7511 -3.7655 -2.0015 0.9686
7.0605 -3.1474 -2.0015 0.9686
7.3134 -2.5041 -2.0015 0.9686
7.5078 -1.8408 -2.0015 0.9686
7.6423 -1.1628 -2.0015 0.9686
7.7156 -0.4754 -2.0015 0.9686
7.7272 0.2157 -2.0015 0.9686
7.5655 1.5872 -2.0015 0.9686
7.3935 2.2567 -2.0015 0.9686
6.8739 3.5363 -2.0015 0.9686
5.6903 5.2322 -2.0015 0.9686
5.2002 5.7196 -2.0015 0.9686
4.6685 6.1613 -2.0015 0.9686
4.0994 6.5537 -2.0015 0.9686
3.4976 6.8937 -2.0015 0.9686
2.8678 7.1786 -2.0015 0.9686
1.5407 7.5547 -1.9963 0.9686
0.8590 7.6556 -1.9946 0.9687
0.1716 7.6989 -1.9939 0.9687
-1.2020 7.6122 -1.9954 0.9687
-1.8794 7.4833 -1.9977 0.9686
-2.5444 7.2970 -2.0009 0.9686
-3.1870 7.0427 -2.0015 0.9686
-3.8034 6.7298 -2.0015 0.9686
-5.4515 5.4806 -2.0015 0.9686
-6.3398 4.4231 -2.0015 0.9686
-7.0256 3.2244 -2.0015 0.9686
-7.4873 1.9228 -2.0015 0.9686
-7.6291 1.2462 -2.0015 0.9686
-7.7099 0.5598 -2.0015 0.9686
-7.7291 -0.1312 -2.0015 0.9686
-7.5824 -1.5044 -2.0015 0.9686
-6.9122 -3.4609 -2.0015 0.9686
-5.7472 -5.1697 -2.0015 0.9686
-5.2624 -5.6625 -2.0015 0.9686
-4.7355 -6.1099 -2.0015 0.9686
-4.1708 -6.5085 -2.0015 0.9686
-3.5728 -6.8550 -2.0015 0.9686
-2.9461 -7.1468 -2.0015 0.9686
-2.2959 -7.3814 -2.0015 0.9686
-0.9458 -7.6721 -2.0015 0.9686
-0.2567 -7.7260 -2.0015 0.9686
1.1222 -7.6483 -2.0015 0.9686
1.8009 -7.5175 -2.0015 0.9686
2.4652 -7.3266 -2.0015 0.9686
3.1098 -7.0771 -2.0015 0.9686
4.8749 -5.9993 -2.0015 0.9686
5.8646 -5.0361 -2.0015 0.9686
7.2569 -2.6634 -2.0015 0.9686
7.4658 -2.0045 -2.0015 0.9686
7.7033 -0.6440 -2.0015 0.9686
7.5984 1.4215 -2.0015 0.9686
6.9496 3.3852 -2.0015 0.9686
6.6194 3.9924 -2.0015 0.9686
6.2363 4.5678 -2.0015 0.9686
3.6475 6.8156 -2.0015 0.9686
2.3745 7.3496 -1.9998 0.9686
1.7060 7.5214 -1.9969 0.9686
1.0263 7.6363 -1.9949 0.9687
-0.3487 7.6933 -1.9940 0.9687
-1.0351 7.6352 -1.9950 0.9687
-1.7148 7.5203 -1.9971 0.9686
-3.0323 7.1107 -2.0015 0.9686
-4.8090 6.0522 -2.0015 0.9686
-5.3304 5.5984 -2.0015 0.9686
-5.8092 5.0999 -2.0015 0.9686
-6.2416 4.5606 -2.0015 0.9686
-6.6240 3.9848 -2.0015 0.9686
-6.9535 3.3772 -2.0015 0.9686
-7.6958 0.7281 -2.0015 0.9686
-7.7301 0.0378 -2.0015 0.9686
-7.6135 -1.3383 -2.0015 0.9686
-5.8588 -5.0429 -2.0015 0.9686
-5.3849 -5.5461 -2.0015 0.9686
-4.8680 -6.0049 -2.0015 0.9686
-3.7218 -6.7753 -2.0015 0.9686
-3.1017 -7.0807 -2.0015 0.9686
-1.7922 -7.5196 -2.0015 0.9686
-5.7002 4.1826 -2.0015 0.9710
-6.6051 2.5215 -2.0015 0.9710
-6.9484 1.3060 -2.0015 0.9710
-7.0373 0.6801 -2.0015 0.9710
-6.9657 -1.2101 -2.0015 0.9710
-6.8298 -1.8275 -2.0015 0.9710
-6.6392 -2.4303 -2.0015 0.9710
-6.3956 -3.0136 -2.0015 0.9710
-6.1008 -3.5729 -2.0015 0.9710
-5.7573 -4.1036 -2.0015 0.9710
-4.9352 -5.0626 -2.0015 0.9710
-3.4163 -6.1899 -2.0015 0.9710
-2.2604 -6.6990 -2.0015 0.9710
-1.6529 -6.8741 -2.0015 0.9710
-1.0323 -6.9943 -2.0015 0.9710
-0.4033 -7.0586 -2.0015 0.9710
0.8591 -7.0177 -2.0015 0.9710
1.4826 -6.9129 -2.0015 0.9710
2.0942 -6.7528 -2.0015 0.9710
2.6890 -6.5388 -2.0015 0.9710
3.2623 -6.2724 -2.0015 0.9710
6.0107 -3.7226 -2.0015 0.9710
6.5772 -2.5936 -2.0015 0.9710
6.7826 -1.9957 -2.0015 0.9710
7.0294 -0.7570 -2.0015 0.9710
7.0520 0.5060 -2.0015 0.9710
6.9786 1.1339 -2.0015 0.9710
6.4282 2.9436 -2.0015 0.9710
5.8018 4.0404 -2.0015 0.9710
4.0194 5.8164 -2.0015 0.9710
3.4838 6.1522 -2.0015 0.9710
2.9203 6.4388 -2.0015 0.9710
-0.1515 7.0685 -2.0015 0.9710
-0.7824 7.0267 -2.0015 0.9710
-2.6174 6.5678 -2.0015 0.9710
-3.1936 6.3077 -2.0015 0.9710
-4.2650 5.6388 -2.0015 0.9710
-5.2003 4.7898 -2.0015 0.9710
-5.6074 4.3062 -2.0015 0.9710
-5.9697 3.7880 -2.0015 0.9710
-6.2842 3.2396 -2.0015 0.9710
-6.5484 2.6653 -2.0015 0.9710
-6.7603 2.0697 -2.0015 0.9710
-6.9182 1.4576 -2.0015 0.9710
-7.0672 0.2032 -2.0015 0.9710
-6.9905 -1.0575 -2.0015 0.9710
-6.4600 -2.8731 -2.0015 0.9710
-6.1775 -3.4387 -2.0015 0.9710
-5.8456 -3.9768 -2.0015 0.9710
-5.0447 -4.9535 -2.0015 0.9710
-4.5820 -5.3843 -2.0015 0.9710
-4.0828 -5.7721 -2.0015 0.9710
-3.5508 -6.1137 -2.0015 0.9710
-1.8028 -6.8364 -2.0015 0.9710
-0.5575 -7.0481 -2.0015 0.9710
0.0743 -7.0697 -2.0015 0.9710
0.7055 -7.0348 -2.0015 0.9710
1.9460 -6.7970 -2.0015 0.9710
3.1245 -6.3422 -2.0015 0.9710
4.2031 -5.6850 -2.0015 0.9710
4.6942 -5.2869 -2.0015 0.9710
5.1477 -4.8464 -2.0015 0.9710
5.5600 -4.3672 -2.0015 0.9710
6.2484 -3.3081 -2.0015 0.9710
6.5189 -2.7367 -2.0015 0.9710
6.7373 -2.1435 -2.0015 0.9710
6.9019 -1.5331 -2.0015 0.9710
7.0112 -0.9104 -2.0015 0.9710
7.0017 0.9811 -2.0015 0.9710
6.4910 2.8023 -2.0015 0.9710
6.2147 3.3710 -2.0015 0.9710
5.8888 3.9126 -2.0015 0.9710
5.0985 4.8980 -2.0015 0.9710
4.1456 5.7271 -2.0015 0.9710
3.0603 6.3734 -2.0015 0.9710
1.8774 6.8163 -2.0015 0.9710
0.0030 7.0701 -2.0015 0.9710
-0.6286 7.0421 -2.0015 0.9710
-1.2551 6.9578 -2.0015 0.9710
-1.8716 6.8179 -2.0015 0.9710
-3.0549 6.3760 -2.0015 0.9710
-3.6123 6.0776 -2.0015 0.9710
-4.1408 5.7306 -2.0015 0.9710
-4.6361 5.3379 -2.0015 0.9710
-5.0944 4.9024 -2.0015 0.9710
-5.8854 3.9176 -2.0015 0.9710
-6.2119 3.3762 -2.0015 0.9710
-6.8847 1.6084 -2.0015 0.9710
-7.0610 0.3577 -2.0015 0.9710
-7.0647 -0.2745 -2.0015 0.9710
-7.0120 -0.9045 -2.0015 0.9710
-5.9312 -3.8480 -2.0015 0.9710
-5.1518 -4.8420 -2.0015 0.9710
-2.5510 -6.5938 -2.0015 0.9710
-1.9518 -6.7953 -2.0015 0.9710
-0.0803 -7.0696 -2.0015 0.9710
1.1790 -6.9711 -2.0015 0.9710
2.4006 -6.6500 -2.0015 0.9710
5.4632 -4.4877 -2.0015 0.9710
5.8423 -3.9817 -2.0015 0.9710
6.6889 -2.2903 -2.0015 0.9710
6.8667 -1.6836 -2.0015 0.9710
6.9896 -1.0635 -2.0015 0.9710
7.0673 0.1973 -2.0015 0.9710
7.0215 0.8278 -2.0015 0.9710
6.9194 1.4517 -2.0015 0.9710
6.5507 2.6598 -2.0015 0.9710
6.2869 3.2343 -2.0015 0.9710
5.9729 3.7830 -2.0015 0.9710
5.6111 4.3014 -2.0015 0.9710
3.7494 5.9940 -2.0015 0.9710
2.6229 6.5655 -2.0015 0.9710
1.4128 6.9275 -2.0015 0.9710
-1.1027 6.9836 -2.0015 0.9710
-2.9148 6.4413 -2.0015 0.9710
-3.4786 6.1551 -2.0015 0.9710
-5.4138 4.5471 -2.0015 0.9710
-5.7984 4.0453 -2.0015 0.9710
-6.1366 3.5112 -2.0015 0.9710
-6.4257 2.9490 -2.0015 0.9710
-6.6634 2.3632 -2.0015 0.9710
-6.9776 1.1398 -2.0015 0.9710
-7.0515 0.5119 -2.0015 0.9710
-7.0301 -0.7510 -2.0015 0.9710
-6.7843 -1.9899 -2.0015 0.9710
-6.3219 -3.1654 -2.0015 0.9710
-5.6577 -4.2398 -2.0015 0.9710
-5.2564 -4.7283 -2.0015 0.9710
-4.3311 -5.5881 -2.0015 0.9710
-3.2677 -6.2696 -2.0015 0.9710
-2.6945 -6.5365 -2.0015 0.9710
-1.4884 -6.9116 -2.0015 0.9710
-0.8651 -7.0170 -2.0015 0.9710
-0.2348 -7.0662 -2.0015 0.9710
1.0263 -6.9952 -2.0015 0.9710
2.8443 -6.4727 -2.0015 0.9710
3.9506 -5.8633 -2.0015 0.9710
4.4586 -5.4870 -2.0015 0.9710
4.9309 -5.0668 -2.0015 0.9710
5.3638 -4.6060 -2.0015 0.9710
6.0978 -3.5781 -2.0015 0.9710
6.3931 -3.0191 -2.0015 0.9710
6.8283 -1.8333 -2.0015 0.9710
6.9647 -1.2160 -2.0015 0.9710
7.0455 -0.5890 -2.0015 0.9710
6.9495 1.3001 -2.0015 0.9710
6.6073 2.5159 -2.0015 0.9710
6.0541 3.6515 -2.0015 0.9710
4.8693 5.1260 -2.0015 0.9710
4.3920 5.5404 -2.0015 0.9710
3.3360 6.2335 -2.0015 0.9710
2.1735 6.7277 -2.0015 0.9710
1.5639 6.8949 -2.0015 0.9710
-0.3202 7.0628 -2.0015 0.9710
-3.3432 6.2297 -2.0015 0.9710
-3.8863 5.9062 -2.0015 0.9710
-4.3983 5.5354 -2.0015 0.9710
-5.3131 4.6644 -2.0015 0.9710
-5.7086 4.1711 -2.0015 0.9710
-6.3597 3.0888 -2.0015 0.9710
-6.6102 2.5083 -2.0015 0.9710
-6.8078 1.9078 -2.0015 0.9710
-6.9510 1.2921 -2.0015 0.9710
-7.0386 0.6660 -2.0015 0.9710
-6.8261 -1.8412 -2.0015 0.9710
-6.6344 -2.4436 -2.0015 0.9710
-6.3896 -3.0264 -2.0015 0.9710
-4.4523 -5.4921 -2.0015 0.9710
-3.9439 -5.8679 -2.0015 0.9710
-2.8368 -6.4760 -2.0015 0.9710
-2.2470 -6.7035 -2.0015 0.9710
-1.6392 -6.8774 -2.0015 0.9710
-0.3892 -7.0594 -2.0015 0.9710
0.2430 -7.0659 -2.0015 0.9710
-5.2464 3.8496 -2.0015 0.9731
-6.0793 2.3208 -2.0015 0.9731
-6.2623 1.7685 -2.0015 0.9731
-6.3953 1.2020 -2.0015 0.9731
-6.4771 0.6259 -2.0015 0.9731
-6.4851 -0.5366 -2.0015 0.9731
-6.1107 -2.2368 -2.0015 0.9731
-5.8865 -2.7737 -2.0015 0.9731
-5.2990 -3.7769 -2.0015 0.9731
-4.9404 -4.2352 -2.0015 0.9731
-4.1079 -5.0467 -2.0015 0.9731
-3.6407 -5.3935 -2.0015 0.9731
-3.1444 -5.6971 -2.0015 0.9731
-2.0804 -6.1657 -2.0015 0.9731
-1.5213 -6.3269 -2.0015 0.9731
-0.9501 -6.4375 -2.0015 0.9731
0.7907 -6.4590 -2.0015 0.9731
1.9274 -6.2152 -2.0015 0.9731
2.4749 -6.0182 -2.0015 0.9731
3.0026 -5.7731 -2.0015 0.9731
4.8343 -4.3560 -2.0015 0.9731
5.2040 -3.9067 -2.0015 0.9731
5.5322 -3.4262 -2.0015 0.9731
5.8162 -2.9183 -2.0015 0.9731
6.0536 -2.3871 -2.0015 0.9731
6.2426 -1.8368 -2.0015 0.9731
6.3818 -1.2718 -2.0015 0.9731
6.4698 -0.6967 -2.0015 0.9731
6.5062 -0.1160 -2.0015 0.9731
6.4906 0.4657 -2.0015 0.9731
6.4230 1.0436 -2.0015 0.9731
6.3041 1.6132 -2.0015 0.9731
5.9165 2.7092 -2.0015 0.9731
5.6508 3.2269 -2.0015 0.9731
5.3400 3.7188 -2.0015 0.9731
4.9864 4.1809 -2.0015 0.9731
3.6995 5.3533 -2.0015 0.9731
2.6878 5.9262 -2.0015 0.9731
0.4422 6.4922 -2.0015 0.9731
-0.1395 6.5058 -2.0015 0.9731
-2.4090 6.0449 -2.0015 0.9731
-3.4462 5.5198 -2.0015 0.9731
-3.9255 5.1899 -2.0015 0.9731
-4.3734 4.8185 -2.0015 0.9731
-5.4944 3.4865 -2.0015 0.9731
-5.7839 2.9817 -2.0015 0.9731
-6.2222 1.9049 -2.0015 0.9731
-6.4618 0.7674 -2.0015 0.9731
-6.5046 0.1871 -2.0015 0.9731
-6.4340 -0.9733 -2.0015 0.9731
-6.3214 -1.5442 -2.0015 0.9731
-6.1581 -2.1027 -2.0015 0.9731
-5.6857 -3.1649 -2.0015 0.9731
-5.3803 -3.6602 -2.0015 0.9731
-5.0318 -4.1262 -2.0015 0.9731
-2.7524 -5.8965 -2.0015 0.9731
-2.2147 -6.1188 -2.0015 0.9731
1.2251 -6.3909 -2.0015 0.9731
1.7911 -6.2559 -2.0015 0.9731
2.3428 -6.0709 -2.0015 0.9731
3.3857 -5.5571 -2.0015 0.9731
3.8685 -5.2325 -2.0015 0.9731
4.7379 -4.4606 -2.0015 0.9731
5.1174 -4.0195 -2.0015 0.9731
5.4560 -3.5463 -2.0015 0.9731
5.7510 -3.0448 -2.0015 0.9731
6.3524 -1.4110 -2.0015 0.9731
6.4992 0.3237 -2.0015 0.9731
6.3379 1.4750 -2.0015 0.9731
5.9743 2.5792 -2.0015 0.9731
5.4200 3.6012 -2.0015 0.9731
5.0766 4.0709 -2.0015 0.9731
3.3295 5.5910 -2.0015 0.9731
1.1606 6.4029 -2.0015 0.9731
0.5840 6.4810 -2.0015 0.9731
-1.1552 6.4039 -2.0015 0.9731
-1.7226 6.2751 -2.0015 0.9731
-2.2763 6.0961 -2.0015 0.9731
-3.8111 5.2744 -2.0015 0.9731
-4.6888 4.5121 -2.0015 0.9731
-5.0731 4.0752 -2.0015 0.9731
-5.4169 3.6058 -2.0015 0.9731
-5.7173 3.1075 -2.0015 0.9731
-6.1790 2.0405 -2.0015 0.9731
-6.3366 1.4804 -2.0015 0.9731
-6.4435 0.9084 -2.0015 0.9731
-6.5023 -0.2527 -2.0015 0.9731
-6.3536 -1.4056 -2.0015 0.9731
-6.2027 -1.9676 -2.0015 0.9731
-6.0021 -2.5138 -2.0015 0.9731
