ply
format ascii 1.0
element vertex 1583
property float32 x
property float32 y
property float32 z
property float32 I
end_header
9.5399 -12.3358 -1.8524 0.9391
10.6052 -11.4366 -1.8527 0.9391
13.5008 -10.1416 -2.0058 0.9342
15.0931 -7.5801 -2.0062 0.9342
15.7112 -6.2025 -2.0064 0.9342
16.5661 -3.3092 -2.0067 0.9342
16.7960 -1.8167 -2.0068 0.9342
16.8514 1.2001 -2.0068 0.9342
15.3615 7.0222 -2.0063 0.9342
13.5560 7.7291 -1.8536 0.9391
12.3939 8.6183 -1.7932 0.9410
11.9618 10.0147 -1.8531 0.9391
11.0180 11.0412 -1.8529 0.9391
9.9864 11.9790 -1.8525 0.9391
8.8752 12.8206 -1.8522 0.9391
7.6934 13.5594 -1.8519 0.9391
5.1565 14.7057 -1.8511 0.9392
2.4573 15.3817 -1.8503 0.9392
-0.3180 15.5665 -1.8495 0.9392
-7.0093 13.8839 -1.8475 0.9393
-8.2195 13.1999 -1.8471 0.9393
-10.4327 11.5231 -1.8464 0.9393
-12.3124 9.4806 -1.8459 0.9393
-15.9184 -5.4068 -1.9970 0.9345
-15.3733 -6.8073 -1.9971 0.9345
-11.5355 -11.2874 -1.9171 0.9371
-10.0955 -11.8205 -1.8465 0.9393
-9.0012 -12.6771 -1.8468 0.9393
-7.8346 -13.4328 -1.8472 0.9393
-5.3223 -14.6181 -1.8479 0.9393
-3.9965 -15.0382 -1.8483 0.9392
-2.6382 -15.3384 -1.8487 0.9392
1.5227 -15.4995 -1.8500 0.9392
8.0828 -13.3318 -1.8519 0.9391
9.2427 -12.5591 -1.8523 0.9391
10.3292 -11.6856 -1.8526 0.9391
14.1377 -9.2359 -2.0060 0.9342
15.5585 -6.5751 -2.0064 0.9342
16.0848 -5.1599 -2.0065 0.9342
16.7478 -2.2165 -2.0067 0.9342
16.4632 3.7870 -2.0067 0.9342
16.0583 5.2417 -2.0066 0.9342
15.5249 6.6543 -2.0064 0.9342
13.0192 8.6001 -1.8534 0.9391
11.2786 10.7759 -1.8529 0.9391
10.2696 11.7381 -1.8526 0.9391
9.1787 12.6061 -1.8523 0.9391
8.0148 13.3728 -1.8520 0.9391
2.8234 15.3197 -1.8504 0.9392
0.0531 15.5706 -1.8496 0.9392
-1.3372 15.5097 -1.8492 0.9392
-2.7163 15.3248 -1.8488 0.9392
-5.3967 14.5909 -1.8479 0.9393
-6.6767 14.0478 -1.8476 0.9393
-11.1642 10.8133 -1.8462 0.9393
-14.7468 8.0788 -1.9973 0.9345
-15.4077 6.7289 -1.9971 0.9345
-15.9458 5.3257 -1.9970 0.9345
-16.3566 3.8803 -1.9969 0.9345
-16.6371 2.4040 -1.9968 0.9345
-16.7849 0.9087 -1.9967 0.9345
-16.7989 -0.5939 -1.9967 0.9345
-16.6791 -2.0917 -1.9968 0.9345
-16.4263 -3.5729 -1.9968 0.9345
-16.0425 -5.0258 -1.9969 0.9345
-15.5308 -6.4388 -1.9971 0.9345
-14.8952 -7.8007 -1.9973 0.9345
-14.1406 -9.1007 -1.9975 0.9345
10.3377 -9.6612 -2.0048 0.9444
11.1605 -8.7005 -2.0051 0.9444
11.8942 -7.6700 -2.0053 0.9444
12.5328 -6.5778 -2.0055 0.9444
13.0712 -5.4328 -2.0056 0.9444
13.5050 -4.2441 -2.0058 0.9444
13.8307 -3.0213 -2.0059 0.9444
14.0457 -1.7742 -2.0059 0.9444
14.1483 -0.5128 -2.0060 0.9444
14.1375 0.7527 -2.0060 0.9444
14.0136 2.0121 -2.0059 0.9444
13.7774 3.2554 -2.0059 0.9444
11.4849 7.6849 -1.9580 0.9457
10.1740 8.2126 -1.8526 0.9485
9.3988 9.0872 -1.8524 0.9486
8.5486 9.8888 -1.8521 0.9486
7.6303 10.6112 -1.8518 0.9486
6.6512 11.2484 -1.8515 0.9486
1.1332 13.0068 -1.8499 0.9486
-1.1982 12.9960 -1.8492 0.9486
-2.3535 12.8347 -1.8489 0.9486
-3.4896 12.5709 -1.8485 0.9487
-6.6933 11.1906 -1.8476 0.9487
-7.6647 10.5465 -1.8473 0.9487
-8.5746 9.8184 -1.8470 0.9487
-11.6934 7.7394 -1.9869 0.9449
-13.9780 -1.8372 -1.9976 0.9446
-12.9930 -5.4772 -1.9979 0.9446
-11.0797 -8.7276 -1.9984 0.9446
-10.2573 -9.6834 -1.9987 0.9446
-9.3528 -10.5621 -1.9989 0.9446
-6.8189 -11.2246 -1.8609 0.9483
-4.6812 -12.1746 -1.8481 0.9487
-3.5759 -12.5462 -1.8485 0.9487
-1.2875 -12.9871 -1.8491 0.9486
-0.1227 -13.0526 -1.8495 0.9486
2.2020 -12.8711 -1.8502 0.9486
3.3432 -12.6254 -1.8505 0.9486
7.9560 -11.2263 -1.9496 0.9459
10.9496 -8.9638 -2.0050 0.9444
12.3722 -6.8745 -2.0054 0.9444
13.9994 -2.1085 -2.0059 0.9444
14.1320 -0.8499 -2.0060 0.9444
14.1515 0.4155 -2.0060 0.9444
13.8513 2.9261 -2.0059 0.9444
13.1084 5.3428 -2.0057 0.9444
11.9126 7.5663 -1.9996 0.9446
10.3672 7.9680 -1.8527 0.9485
5.8990 11.6587 -1.8513 0.9486
3.7297 12.5177 -1.8507 0.9486
-4.3054 12.3136 -1.8483 0.9487
-5.3868 11.8778 -1.8479 0.9487
-7.4114 10.7266 -1.8473 0.9487
-13.6577 3.4994 -1.9977 0.9446
-14.0615 1.0140 -1.9975 0.9446
-14.0958 -0.2457 -1.9975 0.9446
-13.8278 -2.7494 -1.9976 0.9446
-13.1196 -5.1659 -1.9978 0.9446
-12.6068 -6.3173 -1.9980 0.9446
-11.2842 -8.4608 -1.9984 0.9446
-9.6016 -10.3358 -1.9989 0.9446
-7.1872 -11.2191 -1.8878 0.9476
-3.8738 -12.4569 -1.8484 0.9487
-2.7464 -12.7553 -1.8487 0.9487
-1.5967 -12.9520 -1.8491 0.9486
1.8945 -12.9193 -1.8501 0.9486
3.0412 -12.7008 -1.8504 0.9486
4.1640 -12.3808 -1.8508 0.9486
7.5641 -11.2315 -1.9186 0.9468
10.7325 -9.2219 -2.0049 0.9444
11.5145 -8.2277 -2.0052 0.9444
13.2870 -4.8827 -2.0057 0.9444
13.9450 -2.4415 -2.0059 0.9444
14.1077 -1.1865 -2.0060 0.9444
14.1574 0.0780 -2.0060 0.9444
13.2323 5.0289 -2.0057 0.9444
12.1175 7.2970 -2.0042 0.9445
10.5545 7.7189 -1.8527 0.9485
9.8219 8.6295 -1.8525 0.9486
9.0108 9.4709 -1.8522 0.9486
8.1279 10.2363 -1.8520 0.9486
7.1803 10.9195 -1.8517 0.9486
5.1216 12.0187 -1.8511 0.9486
4.0272 12.4258 -1.8508 0.9486
2.9009 12.7335 -1.8504 0.9486
-0.5775 13.0396 -1.8494 0.9486
-5.1024 12.0034 -1.8480 0.9487
-6.1529 11.4979 -1.8477 0.9487
-7.1539 10.9007 -1.8474 0.9487
-8.0975 10.2167 -1.8471 0.9487
-10.5495 7.7297 -1.8530 0.9485
-12.0744 7.2858 -1.9981 0.9446
-13.8573 2.5968 -1.9976 0.9446
-14.0334 1.3489 -1.9976 0.9446
-13.8893 -2.4190 -1.9976 0.9446
-13.6184 -3.6498 -1.9977 0.9446
-12.7535 -6.0149 -1.9979 0.9446
-12.1665 -7.1304 -1.9981 0.9446
-11.4823 -8.1892 -1.9983 0.9446
-9.8449 -10.1036 -1.9988 0.9446
-7.5664 -11.2133 -1.9167 0.9468
-6.2995 -11.4176 -1.8477 0.9487
-5.2556 -11.9366 -1.8480 0.9487
-3.0495 -12.6856 -1.8486 0.9487
-0.7445 -13.0306 -1.8493 0.9486
0.4222 -13.0475 -1.8497 0.9486
1.5859 -12.9601 -1.8500 0.9486
2.7374 -12.7691 -1.8504 0.9486
3.8675 -12.4759 -1.8507 0.9486
4.9670 -12.0828 -1.8510 0.9486
6.0272 -11.5930 -1.8513 0.9486
7.1841 -11.2364 -1.8897 0.9475
9.6199 -10.3741 -2.0046 0.9444
12.0299 -7.4559 -2.0053 0.9444
12.6488 -6.3525 -2.0055 0.9444
13.1666 -5.1979 -2.0057 0.9444
13.8827 -2.7732 -2.0059 0.9444
14.0753 -1.5224 -2.0060 0.9444
13.9752 2.2627 -2.0059 0.9444
13.7168 3.5015 -2.0058 0.9444
13.3486 4.7121 -2.0057 0.9444
12.8736 5.8850 -2.0056 0.9444
11.0651 7.6943 -1.9096 0.9470
10.0251 8.3932 -1.8526 0.9485
8.3699 10.0400 -1.8521 0.9486
7.4388 10.7457 -1.8518 0.9486
2.0599 12.8945 -1.8502 0.9486
-0.2666 13.0503 -1.8495 0.9486
-2.5828 12.7900 -1.8488 0.9487
-4.8151 12.1222 -1.8481 0.9487
-6.8923 11.0686 -1.8475 0.9487
-7.8520 10.4072 -1.8472 0.9487
-8.7487 9.6630 -1.8469 0.9487
-9.5754 8.8420 -1.8467 0.9487
-10.3255 7.9506 -1.8465 0.9487
-11.8740 7.5567 -1.9942 0.9447
-12.5251 6.4784 -1.9980 0.9446
-13.0525 5.3336 -1.9979 0.9446
-13.7916 2.9264 -1.9976 0.9446
-13.9974 1.6830 -1.9976 0.9446
-14.0733 -0.8338 -1.9975 0.9446
-13.3504 -4.5346 -1.9978 0.9446
-7.9575 -11.2071 -1.9475 0.9460
-4.4626 -12.2569 -1.8482 0.9487
-2.2119 -12.8599 -1.8489 0.9486
-1.0549 -13.0085 -1.8492 0.9486
2.4322 -12.8301 -1.8503 0.9486
4.6774 -12.1972 -1.8509 0.9486
9.3696 -10.6000 -2.0045 0.9444
11.8484 -7.7404 -2.0053 0.9444
13.0387 -5.5102 -2.0056 0.9444
13.8125 -3.1033 -2.0059 0.9444
14.0349 -1.8575 -2.0059 0.9444
14.1450 -0.5967 -2.0060 0.9444
13.7966 3.1736 -2.0059 0.9444
13.0105 5.5765 -2.0056 0.9444
12.4595 6.7155 -2.0055 0.9444
11.6287 7.6816 -1.9747 0.9453
10.2227 8.1521 -1.8526 0.9485
9.4527 9.0313 -1.8524 0.9486
7.6932 10.5658 -1.8519 0.9486
5.6891 11.7620 -1.8513 0.9486
4.6152 12.2209 -1.8509 0.9486
3.5049 12.5820 -1.8506 0.9486
2.3668 12.8424 -1.8503 0.9486
1.2103 13.0000 -1.8499 0.9486
0.0446 13.0537 -1.8496 0.9486
-2.2774 12.8486 -1.8489 0.9486
-3.4150 12.5916 -1.8485 0.9487
-4.5250 12.2341 -1.8482 0.9487
-5.5984 11.7791 -1.8479 0.9487
-9.3623 9.0680 -1.8468 0.9487
-10.1333 8.1947 -1.8465 0.9487
-12.9220 5.6433 -1.9979 0.9446
-13.7181 3.2543 -1.9977 0.9446
-13.9534 2.0162 -1.9976 0.9446
-14.0774 0.7621 -1.9975 0.9446
-14.0892 -0.4981 -1.9975 0.9446
-13.7765 -2.9966 -1.9976 0.9446
-13.0252 -5.4000 -1.9978 0.9446
-12.4919 -6.5421 -1.9980 0.9446
8.8894 -8.3077 -2.0044 0.9519
9.5968 -7.4814 -2.0046 0.9519
10.2275 -6.5952 -2.0048 0.9519
11.6122 -3.6493 -2.0052 0.9519
11.8921 -2.5978 -2.0053 0.9519
12.1559 0.6472 -2.0054 0.9518
12.0493 1.7301 -2.0053 0.9518
11.5485 3.8456 -2.0052 0.9519
10.6789 5.8379 -2.0049 0.9519
10.1141 6.7676 -2.0048 0.9519
9.4373 7.6179 -1.9980 0.9520
6.5615 9.1249 -1.8515 0.9555
5.7197 9.6731 -1.8513 0.9555
4.8323 10.1437 -1.8510 0.9555
3.9066 10.5332 -1.8507 0.9555
2.9499 10.8383 -1.8504 0.9555
1.9700 11.0566 -1.8501 0.9555
0.9746 11.1866 -1.8498 0.9555
-0.0283 11.2271 -1.8496 0.9555
-1.0306 11.1779 -1.8493 0.9555
-2.0243 11.0394 -1.8490 0.9555
-3.0016 10.8129 -1.8487 0.9555
-3.9546 10.5000 -1.8484 0.9555
-5.7576 9.6262 -1.8478 0.9555
-8.1001 7.7529 -1.8471 0.9556
-9.4557 7.5544 -1.9938 0.9521
-10.1174 6.6963 -1.9987 0.9520
-10.6741 5.7655 -1.9986 0.9520
-11.5280 3.7743 -1.9983 0.9520
-12.0146 1.6633 -1.9982 0.9520
-12.1150 0.5838 -1.9981 0.9520
-11.5536 -3.6949 -1.9983 0.9520
-11.1781 -4.7121 -1.9984 0.9520
-10.7134 -5.6919 -1.9985 0.9520
-10.1631 -6.6264 -1.9987 0.9520
-9.5317 -7.5082 -1.9989 0.9520
-8.8240 -8.3303 -1.9991 0.9520
-7.2032 -9.7695 -1.9996 0.9520
-4.3087 -11.2060 -1.9778 0.9525
-3.1973 -11.2178 -1.9216 0.9538
0.9010 -11.2353 -1.8568 0.9553
7.0332 -9.9242 -2.0038 0.9519
7.8924 -9.2577 -2.0041 0.9519
9.4154 -7.7078 -2.0046 0.9519
11.1245 -4.9378 -2.0051 0.9519
11.5217 -3.9249 -2.0052 0.9519
11.8267 -2.8805 -2.0053 0.9519
12.0371 -1.8129 -2.0053 0.9519
12.1511 -0.7308 -2.0054 0.9518
12.0872 1.4424 -2.0054 0.9518
11.9098 2.5159 -2.0053 0.9519
11.6371 3.5693 -2.0052 0.9519
10.2727 6.5248 -2.0048 0.9519
8.3582 7.7042 -1.8726 0.9550
7.5519 8.3262 -1.8518 0.9555
5.0729 10.0261 -1.8511 0.9555
2.2330 11.0070 -1.8502 0.9555
0.2393 11.2251 -1.8496 0.9555
-6.3755 9.2273 -1.8477 0.9556
-7.1731 8.6200 -1.8474 0.9556
-7.9132 7.9441 -1.8472 0.9556
-9.9552 6.9357 -1.9988 0.9520
-11.0284 5.0534 -1.9985 0.9520
-11.9716 1.9493 -1.9982 0.9520
-12.0976 0.8724 -1.9981 0.9520
-12.1272 -0.2114 -1.9981 0.9520
-11.6382 -3.4184 -1.9983 0.9520
-10.3179 -6.3822 -1.9987 0.9520
-9.7077 -7.2787 -1.9988 0.9520
-9.0198 -8.1174 -1.9990 0.9520
-4.6098 -11.1854 -1.9930 0.9521
-2.4167 -11.2243 -1.8915 0.9545
-1.3845 -11.2306 -1.8641 0.9552
-0.3736 -11.2379 -1.8523 0.9554
0.6320 -11.2375 -1.8542 0.9554
7.6692 -9.4429 -2.0040 0.9519
8.4828 -8.7213 -2.0043 0.9519
9.9010 -7.0748 -2.0047 0.9519
10.4942 -6.1629 -2.0049 0.9519
11.0035 -5.2015 -2.0050 0.9519
11.4247 -4.1984 -2.0052 0.9519
11.7546 -3.1615 -2.0053 0.9519
12.1302 -1.0202 -2.0054 0.9518
12.1182 1.1539 -2.0054 0.9518
10.4256 6.2782 -2.0049 0.9519
8.7581 7.6948 -1.9206 0.9538
6.9894 8.8024 -1.8516 0.9555
6.1746 9.3902 -1.8514 0.9555
3.4634 10.6862 -1.8506 0.9555
2.4949 10.9511 -1.8503 0.9555
1.5067 11.1284 -1.8500 0.9555
0.5069 11.2167 -1.8497 0.9555
-0.4967 11.2153 -1.8494 0.9555
-1.4960 11.1243 -1.8491 0.9555
-4.3890 10.3251 -1.8482 0.9555
-5.2927 9.8905 -1.8480 0.9555
-6.9658 8.7888 -1.8475 0.9556
-7.7219 8.1307 -1.8472 0.9556
-12.0734 1.1605 -1.9981 0.9520
-12.1287 0.0777 -1.9981 0.9520
-12.0873 -1.0057 -1.9981 0.9520
-11.9494 -2.0811 -1.9982 0.9520
-11.7162 -3.1400 -1.9982 0.9520
-11.3896 -4.1739 -1.9983 0.9520
-10.4669 -6.1343 -1.9986 0.9520
-9.8781 -7.0451 -1.9988 0.9520
-9.2105 -7.8998 -1.9990 0.9520
-7.6600 -9.4144 -1.9994 0.9520
-6.7896 -10.0622 -1.9997 0.9520
-5.8648 -10.6297 -2.0000 0.9520
-3.7820 -11.2119 -1.9493 0.9532
-1.6569 -11.2292 -1.8699 0.9550
-0.6420 -11.2358 -1.8540 0.9554
1.3747 -11.2339 -1.8645 0.9552
4.6058 -11.2042 -1.9957 0.9521
6.5518 -10.2474 -2.0037 0.9519
9.0369 -8.1473 -2.0044 0.9519
9.7294 -7.3086 -2.0046 0.9519
10.8761 -5.4622 -2.0050 0.9519
11.9368 -2.3845 -2.0053 0.9519
12.1710 -0.2231 -2.0054 0.9518
12.1423 0.8647 -2.0054 0.9518
11.7942 3.0107 -2.0053 0.9519
11.4777 4.0517 -2.0052 0.9519
11.0694 5.0602 -2.0051 0.9519
10.5725 6.0280 -2.0049 0.9519
9.9911 6.9475 -2.0047 0.9519
9.1790 7.6848 -1.9721 0.9526
7.9407 7.9573 -1.8519 0.9555
7.1975 8.6336 -1.8517 0.9555
6.3969 9.2407 -1.8515 0.9555
5.5454 9.7737 -1.8512 0.9555
3.7173 10.6011 -1.8507 0.9555
0.7741 11.2019 -1.8498 0.9555
-0.2293 11.2244 -1.8495 0.9555
-4.1418 10.4272 -1.8483 0.9555
-5.0557 10.0142 -1.8480 0.9555
-6.7546 8.9527 -1.8475 0.9556
-8.3629 7.7224 -1.8752 0.9549
-9.6023 7.3938 -1.9965 0.9521
-10.7754 5.5734 -1.9985 0.9520
-11.8653 2.5176 -1.9982 0.9520
-12.1078 -0.7173 -1.9981 0.9520
-11.7876 -2.8598 -1.9982 0.9520
-11.0921 -4.9116 -1.9984 0.9520
-10.6099 -5.8829 -1.9986 0.9520
-9.3959 -7.6778 -1.9989 0.9520
-7.0273 -9.8971 -1.9996 0.9520
-4.0809 -11.2086 -1.9651 0.9528
-1.9311 -11.2276 -1.8768 0.9549
-0.9109 -11.2329 -1.8566 0.9553
0.0956 -11.2393 -1.8516 0.9555
2.1291 -11.2314 -1.8832 0.9547
3.1886 -11.2254 -1.9224 0.9538
5.3443 -10.9071 -2.0009 0.9520
6.3054 -10.4002 -2.0036 0.9519
9.5521 -7.5382 -2.0046 0.9519
10.7426 -5.7198 -2.0050 0.9519
11.5903 -3.7181 -2.0052 0.9519
11.8765 -2.6683 -2.0053 0.9519
12.0677 -1.5971 -2.0054 0.9518
12.1595 0.5750 -2.0054 0.9518
12.0594 1.6586 -2.0054 0.9518
9.4867 7.5652 -1.9989 0.9520
8.1283 7.7660 -1.8520 0.9554
7.4015 8.4599 -1.8518 0.9555
4.8925 10.1150 -1.8510 0.9555
3.9691 10.5099 -1.8507 0.9555
3.0142 10.8207 -1.8505 0.9555
2.0356 11.0449 -1.8502 0.9555
1.0410 11.1807 -1.8499 0.9555
-1.9588 11.0514 -1.8490 0.9555
-2.9374 10.8306 -1.8487 0.9555
-3.8922 10.5234 -1.8484 0.9555
-4.8157 10.1322 -1.8481 0.9555
-7.3261 8.4900 -1.8474 0.9556
-8.0540 7.8009 -1.8471 0.9556
-10.0776 6.7562 -1.9987 0.9520
-10.6397 5.8288 -1.9986 0.9520
-11.5054 3.8427 -1.9983 0.9520
-12.0045 1.7346 -1.9982 0.9520
-12.1113 0.6557 -1.9981 0.9520
-11.8523 -2.5780 -1.9982 0.9520
-10.2022 -6.5660 -1.9987 0.9520
8.4096 -6.5560 -2.0043 0.9575
8.9622 -5.7793 -2.0044 0.9575
9.4432 -4.9562 -2.0046 0.9575
10.1754 -3.1977 -2.0048 0.9575
10.4206 -2.2764 -2.0049 0.9575
10.3805 2.4527 -2.0049 0.9575
7.6543 7.4005 -2.0012 0.9576
6.6552 7.6986 -1.9128 0.9594
5.7501 7.9965 -1.8513 0.9607
5.0125 8.4770 -1.8511 0.9607
2.5853 9.4987 -1.8503 0.9607
0.8542 9.8043 -1.8498 0.9607
-0.0248 9.8400 -1.8495 0.9607
-0.9033 9.7971 -1.8493 0.9607
-1.7743 9.6760 -1.8490 0.9608
-4.2737 8.8560 -1.8483 0.9608
-5.7795 7.9526 -1.8478 0.9608
-6.7345 7.7114 -1.9244 0.9592
-8.3102 6.6392 -1.9993 0.9576
-9.3572 5.0542 -1.9990 0.9576
-9.7705 4.1982 -1.9988 0.9576
-10.1059 3.3087 -1.9987 0.9576
-10.3606 2.3930 -1.9987 0.9576
-10.5326 1.4582 -1.9986 0.9576
-10.6238 -0.4387 -1.9986 0.9576
-10.5424 -1.3857 -1.9986 0.9576
-10.3767 -2.3216 -1.9986 0.9576
-9.3916 -4.9897 -1.9989 0.9576
-5.5248 -9.0943 -2.0001 0.9576
-2.9179 -10.2374 -2.0009 0.9576
-1.9923 -10.4585 -2.0011 0.9576
-1.0505 -10.5961 -2.0014 0.9576
2.7272 -10.2991 -2.0026 0.9576
3.6365 -10.0158 -2.0028 0.9576
4.5170 -9.6523 -2.0031 0.9576
5.3616 -9.2115 -2.0033 0.9575
7.6139 -7.4635 -2.0040 0.9575
8.2508 -6.7544 -2.0042 0.9575
9.3222 -5.1798 -2.0045 0.9575
9.7481 -4.3269 -2.0047 0.9575
10.3633 -2.5241 -2.0048 0.9575
10.5476 -1.5886 -2.0049 0.9575
10.6475 -0.6403 -2.0049 0.9575
10.6622 0.3130 -2.0049 0.9575
10.4361 2.2046 -2.0049 0.9575
10.1972 3.1277 -2.0048 0.9575
9.4772 4.8912 -2.0046 0.9575
9.0019 5.7176 -2.0044 0.9575
7.8399 7.2264 -2.0041 0.9575
6.9759 7.6911 -1.9517 0.9586
5.9465 7.8671 -1.8536 0.9607
3.6429 9.1472 -1.8506 0.9607
2.8111 9.4347 -1.8504 0.9607
1.9571 9.6467 -1.8501 0.9607
1.0877 9.7816 -1.8499 0.9607
0.2098 9.8382 -1.8496 0.9607
-1.5432 9.7159 -1.8491 0.9608
-2.4044 9.5379 -1.8488 0.9608
-4.8445 8.5561 -1.8481 0.9608
-6.4225 7.7180 -1.8873 0.9600
-7.4904 7.5196 -1.9950 0.9577
-8.1497 6.8356 -1.9993 0.9576
-8.7269 6.0799 -1.9991 0.9576
-9.2342 5.2759 -1.9990 0.9576
-10.3007 2.6393 -1.9987 0.9576
-10.2026 -2.9967 -1.9987 0.9576
-9.5077 -4.7643 -1.9989 0.9576
-7.9068 -7.1157 -1.9994 0.9576
-7.2405 -7.7941 -1.9996 0.9576
-6.5162 -8.4104 -1.9998 0.9576
-5.7398 -8.9598 -2.0000 0.9576
-4.0554 -9.8404 -2.0005 0.9576
-2.2409 -10.4077 -2.0011 0.9576
-0.3539 -10.6433 -2.0016 0.9576
0.5981 -10.6339 -2.0019 0.9576
3.3966 -10.0993 -2.0028 0.9576
4.2855 -9.7569 -2.0030 0.9576
7.4337 -7.6427 -2.0040 0.9575
8.0872 -6.9490 -2.0042 0.9575
8.6762 -6.1996 -2.0043 0.9575
9.1959 -5.4004 -2.0045 0.9575
10.5067 -1.8395 -2.0049 0.9575
10.4858 1.9553 -2.0049 0.9575
9.9700 3.7891 -2.0047 0.9575
9.1358 5.5015 -2.0045 0.9575
7.3098 7.6830 -1.9933 0.9578
6.1270 7.7162 -1.8520 0.9607
4.6541 8.6783 -1.8509 0.9607
3.0353 9.3654 -1.8505 0.9607
2.1865 9.5977 -1.8502 0.9607
1.3205 9.7532 -1.8500 0.9607
0.4442 9.8308 -1.8497 0.9607
-6.1233 7.7259 -1.8530 0.9607
-7.2989 7.6853 -1.9922 0.9578
-9.5597 4.6592 -1.9989 0.9576
-10.2350 2.8841 -1.9987 0.9576
-10.4513 1.9585 -1.9986 0.9576
-10.5842 1.0174 -1.9986 0.9576
-10.4755 -1.8244 -1.9986 0.9576
-10.2710 -2.7527 -1.9987 0.9576
-9.9846 -3.6590 -1.9988 0.9576
-9.6185 -4.5363 -1.9989 0.9576
-9.1755 -5.3775 -1.9990 0.9576
-5.9516 -8.8201 -2.0000 0.9576
-5.1407 -9.3175 -2.0002 0.9576
-4.2887 -9.7406 -2.0005 0.9576
-3.4022 -10.0860 -2.0007 0.9576
0.3444 -10.6447 -2.0018 0.9576
1.2938 -10.5729 -2.0021 0.9576
3.1548 -10.1770 -2.0027 0.9576
4.0516 -9.8559 -2.0029 0.9576
4.9162 -9.4560 -2.0032 0.9576
9.5305 -4.7864 -2.0046 0.9575
10.2311 -3.0150 -2.0048 0.9575
10.6398 0.7577 -2.0049 0.9575
10.3349 2.6382 -2.0048 0.9575
9.6998 4.4341 -2.0047 0.9575
9.2645 5.2822 -2.0045 0.9575
8.1758 6.8449 -2.0042 0.9575
6.4225 7.7040 -1.8852 0.9600
4.8598 8.5652 -1.8510 0.9607
2.4148 9.5432 -1.8503 0.9607
0.6785 9.8178 -1.8498 0.9607
-0.2010 9.8377 -1.8495 0.9607
-1.0785 9.7791 -1.8492 0.9607
-1.9472 9.6424 -1.8490 0.9608
-2.8001 9.4287 -1.8487 0.9608
-3.6304 9.1397 -1.8485 0.9608
-4.4315 8.7779 -1.8482 0.9608
-6.9770 7.7062 -1.9539 0.9586
-7.8151 7.2165 -1.9994 0.9576
-8.9726 5.7103 -1.9991 0.9576
-9.8440 4.0226 -1.9988 0.9576
-10.1634 3.1272 -1.9987 0.9576
-10.5570 1.2694 -1.9986 0.9576
-10.6280 0.3215 -1.9986 0.9576
-10.6143 -0.6288 -1.9986 0.9576
-10.5159 -1.5742 -1.9986 0.9576
-10.0688 -3.4200 -1.9987 0.9576
-9.7237 -4.3057 -1.9988 0.9576
-9.3009 -5.1571 -1.9990 0.9576
-7.6033 -7.4398 -1.9995 0.9576
-6.9092 -8.0899 -1.9997 0.9576
-6.1599 -8.6755 -1.9999 0.9576
-5.3612 -9.1920 -2.0001 0.9576
-4.5195 -9.6353 -2.0004 0.9576
-3.6415 -10.0017 -2.0006 0.9576
-2.7342 -10.2883 -2.0009 0.9576
0.0906 -10.6495 -2.0018 0.9576
1.9841 -10.4665 -2.0023 0.9576
2.9112 -10.2489 -2.0026 0.9576
3.8154 -9.9494 -2.0029 0.9576
4.6892 -9.5702 -2.0031 0.9576
5.5258 -9.1143 -2.0034 0.9575
6.3184 -8.5855 -2.0036 0.9575
7.7465 -7.3261 -2.0041 0.9575
8.9277 -5.8323 -2.0044 0.9575
9.4136 -5.0121 -2.0046 0.9575
9.8242 -4.1517 -2.0047 0.9575
10.1562 -3.2580 -2.0048 0.9575
10.5744 -1.3995 -2.0049 0.9575
10.6573 -0.4496 -2.0049 0.9575
10.6548 0.5039 -2.0049 0.9575
10.5672 1.4533 -2.0049 0.9575
9.3880 5.0600 -2.0046 0.9575
8.8979 5.8777 -2.0044 0.9575
8.3368 6.6483 -2.0042 0.9575
5.7975 7.9623 -1.8513 0.9607
5.0627 8.4472 -1.8511 0.9607
3.4784 9.2107 -1.8506 0.9607
2.6417 9.4833 -1.8503 0.9607
-2.5747 9.4931 -1.8488 0.9608
-8.2707 6.6884 -1.9993 0.9576
-8.8342 5.9226 -1.9991 0.9576
-9.7455 4.2561 -1.9988 0.9576
-10.3462 2.4544 -1.9987 0.9576
-10.5238 1.5206 -1.9986 0.9576
-10.6174 0.5748 -1.9986 0.9576
-10.6263 -0.3757 -1.9986 0.9576
-10.5504 -1.3231 -1.9986 0.9576
-10.1473 -3.1788 -1.9987 0.9576
-9.8234 -4.0726 -1.9988 0.9576
-9.4210 -4.9339 -1.9989 0.9576
6.9259 -6.4727 -2.0038 0.9620
7.9681 -5.1382 -2.0041 0.9620
8.3957 -4.4064 -2.0043 0.9620
8.7561 -3.6393 -2.0044 0.9620
9.0465 -2.8430 -2.0044 0.9620
9.4771 -0.3435 -2.0046 0.9620
9.4699 0.5042 -2.0046 0.9620
9.3869 1.3478 -2.0046 0.9620
9.2288 2.1806 -2.0045 0.9620
7.3769 5.9547 -2.0040 0.9620
4.5559 7.7048 -1.8921 0.9641
0.7595 8.7180 -1.8498 0.9649
-0.0220 8.7498 -1.8495 0.9649
-0.8032 8.7118 -1.8493 0.9649
-3.0824 8.1843 -1.8486 0.9649
-3.8005 7.8755 -1.8484 0.9649
-4.6136 7.7136 -1.8999 0.9639
-7.3905 5.9044 -1.9995 0.9621
-8.6894 3.7337 -1.9992 0.9621
-9.3673 1.2968 -1.9989 0.9621
-9.4485 -0.3902 -1.9989 0.9621
-7.9233 -5.1660 -1.9994 0.9621
-6.8790 -6.4941 -1.9997 0.9621
-6.2722 -7.0831 -1.9999 0.9621
-5.6151 -7.6157 -2.0001 0.9621
-4.9131 -8.0875 -2.0003 0.9621
-4.1718 -8.4949 -2.0005 0.9620
-3.3969 -8.8345 -2.0007 0.9620
-0.9341 -9.4223 -2.0015 0.9620
0.7571 -9.4406 -2.0020 0.9620
7.3357 -6.0053 -2.0039 0.9620
7.8432 -5.3266 -2.0041 0.9620
8.2881 -4.6052 -2.0042 0.9620
8.6667 -3.8469 -2.0043 0.9620
9.2136 -2.2440 -2.0045 0.9620
9.3774 -1.4123 -2.0045 0.9620
6.9704 6.4250 -2.0038 0.9620
6.3682 7.0211 -2.0037 0.9620
5.7004 7.5414 -1.9983 0.9621
4.8041 7.6997 -1.9184 0.9636
2.4995 8.3890 -1.8503 0.9648
0.9671 8.6977 -1.8498 0.9649
0.1865 8.7482 -1.8496 0.9649
-0.5953 8.7288 -1.8494 0.9649
-1.3723 8.6397 -1.8491 0.9649
-2.8866 8.2557 -1.8487 0.9649
-4.3699 7.7180 -1.8748 0.9644
-5.3201 7.6999 -1.9783 0.9625
-7.2478 6.0790 -1.9996 0.9621
-8.2124 4.6921 -1.9993 0.9621
-8.5981 3.9398 -1.9992 0.9621
-8.9151 3.1561 -1.9991 0.9621
-9.1610 2.3473 -1.9990 0.9621
-9.3338 1.5198 -1.9990 0.9621
-9.4321 0.6802 -1.9989 0.9621
-9.4551 -0.1648 -1.9989 0.9621
-9.4027 -1.0085 -1.9989 0.9621
-9.0737 -2.6652 -1.9990 0.9621
-8.7998 -3.4650 -1.9991 0.9621
-8.0440 -4.9756 -1.9993 0.9621
-7.5681 -5.6745 -1.9995 0.9621
-6.4390 -6.9314 -1.9998 0.9621
-5.7949 -7.4794 -2.0000 0.9621
-5.1044 -7.9679 -2.0002 0.9621
-4.3729 -8.3928 -2.0004 0.9620
-3.6064 -8.7507 -2.0007 0.9620
-1.9927 -9.2549 -2.0011 0.9620
-0.3147 -9.4642 -2.0016 0.9620
2.2059 -9.2126 -2.0024 0.9620
3.0201 -8.9799 -2.0026 0.9620
4.5704 -8.3013 -2.0031 0.9620
5.9755 -7.3574 -2.0035 0.9620
7.1903 -6.1783 -2.0039 0.9620
8.1758 -4.8014 -2.0042 0.9620
8.5725 -4.0523 -2.0043 0.9620
8.9005 -3.2708 -2.0044 0.9620
9.1574 -2.4630 -2.0045 0.9620
9.1297 2.5638 -2.0045 0.9620
8.5273 4.1466 -2.0043 0.9620
8.1224 4.8912 -2.0042 0.9620
7.6526 5.5966 -2.0040 0.9620
6.5339 6.8675 -2.0037 0.9620
5.8851 7.4117 -2.0005 0.9620
3.4321 8.0540 -1.8506 0.9648
2.6989 8.3273 -1.8504 0.9648
1.1742 8.6725 -1.8499 0.9649
0.3950 8.7416 -1.8497 0.9649
-1.1660 8.6702 -1.8492 0.9649
-1.9353 8.5304 -1.8490 0.9649
-2.6890 8.3225 -1.8488 0.9649
-4.1340 7.7251 -1.8520 0.9648
-5.0567 7.7052 -1.9481 0.9630
-6.5151 6.8600 -1.9998 0.9621
-7.1010 6.2502 -1.9996 0.9621
-7.6302 5.5907 -1.9995 0.9621
-9.4132 0.9048 -1.9989 0.9621
-9.4563 0.0606 -1.9989 0.9621
-9.4240 -0.7841 -1.9989 0.9621
-9.3165 -1.6226 -1.9990 0.9621
-9.1346 -2.4481 -1.9990 0.9621
-8.8798 -3.2542 -1.9991 0.9621
-8.1602 -4.7824 -1.9993 0.9621
-7.1804 -6.1586 -1.9996 0.9621
-6.6023 -6.7758 -1.9998 0.9621
-5.9714 -7.3390 -2.0000 0.9621
-4.5716 -8.2859 -2.0004 0.9620
-2.2127 -9.2045 -2.0011 0.9620
-1.3820 -9.3665 -2.0013 0.9620
0.3063 -9.4653 -2.0018 0.9620
1.1504 -9.4014 -2.0021 0.9620
3.6025 -8.7634 -2.0028 0.9620
4.3711 -8.4077 -2.0030 0.9620
7.5802 -5.6941 -2.0040 0.9620
8.0589 -4.9948 -2.0041 0.9620
8.4733 -4.2555 -2.0043 0.9620
8.8199 -3.4820 -2.0044 0.9620
9.4282 -1.0198 -2.0046 0.9620
9.4817 -0.1738 -2.0046 0.9620
9.4593 0.6736 -2.0046 0.9620
9.3613 1.5156 -2.0045 0.9620
9.1883 2.3455 -2.0045 0.9620
8.2368 4.6963 -2.0042 0.9620
7.7840 5.4127 -2.0041 0.9620
7.2690 6.0857 -2.0039 0.9620
6.6959 6.7100 -2.0038 0.9620
6.0672 7.2778 -2.0028 0.9620
5.3223 7.6883 -1.9766 0.9625
3.6232 7.9701 -1.8506 0.9648
0.6033 8.7299 -1.8497 0.9649
-0.1787 8.7478 -1.8495 0.9649
-0.9590 8.6958 -1.8493 0.9649
-1.7315 8.5744 -1.8490 0.9649
-2.4900 8.3845 -1.8488 0.9649
-3.9408 7.8060 -1.8484 0.9649
-5.6849 7.5349 -1.9952 0.9621
-7.4949 5.7711 -1.9995 0.9621
-7.9797 5.0784 -1.9994 0.9621
-8.4008 4.3452 -1.9992 0.9621
-8.7548 3.5775 -1.9991 0.9621
-9.0389 2.7812 -1.9990 0.9621
-9.2509 1.9629 -1.9990 0.9621
-9.3890 1.1289 -1.9989 0.9621
-9.4522 0.2860 -1.9989 0.9621
-9.3525 -1.4000 -1.9990 0.9621
-9.1903 -2.2297 -1.9990 0.9621
-8.6478 -3.8292 -1.9992 0.9621
-6.7618 -6.6163 -1.9997 0.9621
-6.1445 -7.1944 -1.9999 0.9621
-5.4780 -7.7151 -2.0001 0.9621
-4.7677 -8.1743 -2.0003 0.9621
-4.0191 -8.5684 -2.0005 0.9620
-3.2383 -8.8941 -2.0008 0.9620
-2.4314 -9.1489 -2.0010 0.9620
-1.6048 -9.3306 -2.0013 0.9620
3.3924 -8.8465 -2.0028 0.9620
6.2776 -7.1020 -2.0036 0.9620
7.4421 -5.8730 -2.0040 0.9620
8.3693 -4.4562 -2.0042 0.9620
9.4012 -1.2442 -2.0046 0.9620
9.4749 -0.3997 -2.0046 0.9620
8.3466 4.4987 -2.0042 0.9620
7.9109 5.2258 -2.0041 0.9620
7.4121 5.9109 -2.0040 0.9620
5.5599 7.6360 -1.9966 0.9621
4.6170 7.7036 -1.8984 0.9639
3.0929 8.1897 -1.8505 0.9648
1.5863 8.6072 -1.8500 0.9649
0.8112 8.7134 -1.8498 0.9649
0.0299 8.7499 -1.8496 0.9649
-0.7515 8.7165 -1.8493 0.9649
-1.5267 8.6135 -1.8491 0.9649
-2.2895 8.4417 -1.8489 0.9649
-3.7538 7.8979 -1.8484 0.9649
-4.5524 7.7147 -1.8935 0.9640
-6.1810 7.1630 -1.9999 0.9621
-8.2950 4.5443 -1.9993 0.9621
-8.9701 2.9959 -1.9991 0.9621
-9.2015 2.1829 -1.9990 0.9621
-9.3595 1.3524 -1.9990 0.9621
-9.4427 0.5112 -1.9989 0.9621
-9.4506 -0.3341 -1.9989 0.9621
-9.0246 -2.8272 -1.9990 0.9621
-8.7365 -3.6220 -1.9991 0.9621
-8.3786 -4.3879 -1.9992 0.9621
-7.9538 -5.1189 -1.9994 0.9621
6.2285 -5.8209 -2.0036 0.9656
6.7240 -5.2419 -2.0038 0.9656
7.1657 -4.6208 -2.0039 0.9656
7.8742 -3.2727 -2.0041 0.9656
8.5225 -0.3089 -2.0043 0.9656
8.5160 0.4534 -2.0043 0.9656
8.2993 1.9610 -2.0042 0.9656
7.8175 3.4058 -2.0041 0.9656
7.4818 4.0901 -2.0040 0.9656
6.1289 5.9257 -2.0036 0.9656
3.6518 7.6656 -1.9956 0.9657
2.0985 7.7102 -1.8780 0.9677
0.6831 7.8408 -1.8498 0.9682
-0.7224 7.8355 -1.8493 0.9682
-2.1414 7.7142 -1.8816 0.9676
-3.6873 7.6409 -1.9940 0.9657
-4.3671 7.3014 -1.9995 0.9656
-5.0035 6.8848 -2.0003 0.9656
-5.5978 6.4099 -2.0001 0.9656
-6.1474 5.8839 -1.9999 0.9656
-7.0950 4.6959 -1.9996 0.9656
-7.4855 4.0433 -1.9995 0.9656
-8.4966 0.4094 -1.9992 0.9657
-8.4340 -1.1085 -1.9992 0.9657
-8.3014 -1.8573 -1.9993 0.9657
-8.1026 -2.5913 -1.9993 0.9656
-7.5131 -3.9917 -1.9995 0.9656
-7.1271 -4.6469 -1.9996 0.9656
-6.6841 -5.2651 -1.9997 0.9656
-6.1876 -5.8414 -1.9999 0.9656
-4.4192 -7.2744 -2.0004 0.9656
-3.7523 -7.6408 -2.0006 0.9656
-3.0553 -7.9462 -2.0008 0.9656
-2.3338 -8.1881 -2.0010 0.9656
-1.5934 -8.3648 -2.0013 0.9656
-0.8402 -8.4746 -2.0015 0.9656
-0.0800 -8.5167 -2.0017 0.9656
2.1809 -8.2361 -2.0024 0.9656
2.9080 -8.0093 -2.0026 0.9656
3.6120 -7.7184 -2.0028 0.9656
4.2873 -7.3658 -2.0030 0.9656
5.5302 -6.4869 -2.0034 0.9656
6.0879 -5.9676 -2.0036 0.9656
6.5970 -5.4005 -2.0037 0.9656
7.7939 -3.4595 -2.0041 0.9656
8.5244 0.2503 -2.0043 0.9656
8.3437 1.7626 -2.0042 0.9656
7.1974 4.5714 -2.0039 0.9656
6.2685 5.7780 -2.0036 0.9656
5.1398 6.7998 -2.0033 0.9656
3.0650 7.6963 -1.9470 0.9665
2.2965 7.7077 -1.8902 0.9675
-4.1885 7.3976 -1.9979 0.9657
-5.4436 6.5417 -2.0001 0.9656
-6.0055 6.0289 -2.0000 0.9656
-6.5194 5.4681 -1.9998 0.9656
-8.0194 2.8390 -1.9994 0.9656
-8.3960 1.3671 -1.9992 0.9657
-8.5051 -0.1483 -1.9992 0.9657
-8.4579 -0.9072 -1.9992 0.9657
-8.3433 -1.6589 -1.9993 0.9657
-8.1620 -2.3974 -1.9993 0.9656
-6.8075 -5.1042 -1.9997 0.9656
-6.3250 -5.6921 -1.9999 0.9656
-1.7923 -8.3241 -2.0012 0.9656
-0.2830 -8.5121 -2.0017 0.9656
1.9839 -8.2855 -2.0023 0.9656
2.7162 -8.0761 -2.0025 0.9656
3.4269 -7.8021 -2.0028 0.9656
4.1104 -7.4657 -2.0030 0.9656
5.9438 -6.1109 -2.0035 0.9656
6.4663 -5.5561 -2.0037 0.9656
8.0041 -2.9414 -2.0041 0.9656
8.2350 -2.2149 -2.0042 0.9656
8.4896 0.8084 -2.0043 0.9656
8.3834 1.5632 -2.0043 0.9656
8.2101 2.3056 -2.0042 0.9656
7.9711 3.0294 -2.0041 0.9656
7.3044 4.3986 -2.0039 0.9656
6.8820 5.0330 -2.0038 0.9656
4.6829 7.1215 -2.0032 0.9656
3.2782 7.6927 -1.9653 0.9662
1.0561 7.7999 -1.8499 0.9682
0.3559 7.8733 -1.8523 0.9681
-0.3482 7.8615 -1.8495 0.9682
-1.0487 7.7981 -1.8492 0.9682
-3.2730 7.6998 -1.9663 0.9662
-4.0079 7.4896 -1.9964 0.9657
-5.8602 6.1705 -2.0000 0.9656
-6.3873 5.6220 -1.9998 0.9656
-7.9495 3.0293 -1.9994 0.9656
-8.3804 -1.4596 -1.9992 0.9657
-8.2168 -2.2021 -1.9993 0.9656
-7.9876 -2.9272 -1.9994 0.9656
-7.6946 -3.6290 -1.9994 0.9656
-7.3402 -4.3018 -1.9995 0.9656
-6.4587 -5.5396 -1.9998 0.9656
-4.7606 -7.0552 -2.0003 0.9656
-3.4304 -7.7911 -2.0007 0.9656
-2.7212 -8.0671 -2.0009 0.9656
-1.9901 -8.2788 -2.0011 0.9656
1.0347 -8.4554 -2.0020 0.9656
1.7858 -8.3302 -2.0023 0.9656
2.5229 -8.1383 -2.0025 0.9656
3.2399 -7.8814 -2.0027 0.9656
3.9311 -7.5613 -2.0029 0.9656
4.5911 -7.1808 -2.0031 0.9656
5.2145 -6.7427 -2.0033 0.9656
6.3319 -5.7086 -2.0036 0.9656
8.3627 -1.6705 -2.0042 0.9656
8.4183 1.3630 -2.0043 0.9656
7.7552 3.5452 -2.0041 0.9656
7.0001 4.8676 -2.0038 0.9656
6.0217 6.0344 -2.0036 0.9656
4.8514 7.0081 -2.0032 0.9656
4.1999 7.4022 -2.0002 0.9656
1.9514 7.7119 -1.8696 0.9678
1.2417 7.7727 -1.8499 0.9682
0.5426 7.8516 -1.8497 0.9682
-0.1607 7.8678 -1.8495 0.9682
-3.0597 7.7030 -1.9480 0.9665
-3.8255 7.5776 -1.9950 0.9657
-4.4991 7.2252 -2.0004 0.9656
-5.7116 6.3085 -2.0000 0.9656
-6.2516 5.7728 -1.9999 0.9656
-6.7417 5.1911 -1.9997 0.9656
-8.1307 2.5018 -1.9993 0.9656
-8.4457 1.0155 -1.9992 0.9657
-8.0550 -2.7360 -1.9993 0.9656
-7.7788 -3.4445 -1.9994 0.9656
-7.4405 -4.1256 -1.9995 0.9656
-7.0428 -4.7738 -1.9996 0.9656
-5.5268 -6.4713 -2.0001 0.9656
-4.2883 -7.3525 -2.0005 0.9656
-3.6150 -7.7069 -2.0007 0.9656
-2.1868 -8.2288 -2.0011 0.9656
-1.4434 -8.3921 -2.0013 0.9656
2.3281 -8.1959 -2.0024 0.9656
3.0510 -7.9561 -2.0027 0.9656
3.7497 -7.6527 -2.0029 0.9656
4.4186 -7.2880 -2.0031 0.9656
6.1939 -5.8578 -2.0036 0.9656
6.6927 -5.2816 -2.0037 0.9656
7.1381 -4.6632 -2.0039 0.9656
7.5264 -4.0074 -2.0040 0.9656
7.8546 -3.3194 -2.0041 0.9656
8.1200 -2.6048 -2.0042 0.9656
8.3204 -1.8694 -2.0042 0.9656
8.5205 -0.3595 -2.0043 0.9656
8.4485 1.1619 -2.0043 0.9656
8.3108 1.9117 -2.0042 0.9656
8.1066 2.6461 -2.0042 0.9656
7.5060 4.0456 -2.0040 0.9656
7.1143 4.6995 -2.0039 0.9656
6.1640 5.8892 -2.0036 0.9656
5.6130 6.4156 -2.0034 0.9656
5.0172 6.8906 -2.0033 0.9656
4.3788 7.3061 -2.0019 0.9656
3.6979 7.6452 -1.9959 0.9657
2.9075 7.6989 -1.9341 0.9668
2.1476 7.7096 -1.8809 0.9677
1.4267 7.7411 -1.8500 0.9682
0.7296 7.8367 -1.8498 0.9682
-0.6759 7.8397 -1.8494 0.9682
-1.3732 7.7472 -1.8491 0.9682
-2.0924 7.7147 -1.8786 0.9677
-5.5597 6.4430 -2.0001 0.9656
-6.1124 5.9203 -1.9999 0.9656
-7.0670 4.7379 -1.9996 0.9656
-8.0688 2.6949 -1.9993 0.9656
-8.2770 1.9635 -1.9993 0.9656
-8.4940 0.4598 -1.9992 0.9657
-8.5011 -0.3005 -1.9992 0.9657
-7.5366 -3.9470 -1.9995 0.9656
-7.1545 -4.6045 -1.9996 0.9656
5.6532 -5.2833 -2.0034 0.9685
7.1467 -2.9704 -2.0039 0.9685
7.5616 -1.6518 -2.0040 0.9685
7.7351 -0.2804 -2.0041 0.9685
7.7292 0.4115 -2.0041 0.9685
7.3433 2.4453 -2.0039 0.9685
7.0953 3.0911 -2.0039 0.9685
6.4316 4.3036 -2.0037 0.9685
6.0213 4.8604 -2.0036 0.9685
5.5628 5.3784 -2.0034 0.9685
5.0599 5.8532 -2.0033 0.9685
4.5166 6.2811 -2.0031 0.9685
1.3524 7.5903 -1.9962 0.9686
0.6686 7.6745 -1.9946 0.9687
-1.3902 7.5811 -1.9956 0.9687
-2.7238 7.2322 -2.0009 0.9686
-4.5421 6.2498 -2.0004 0.9686
-6.7954 3.6705 -1.9997 0.9686
-7.5244 1.7379 -1.9995 0.9686
-7.7133 0.3717 -1.9994 0.9686
-7.6565 -1.0064 -1.9995 0.9686
-7.3557 -2.3524 -1.9995 0.9686
-6.8205 -3.6237 -1.9997 0.9686
-6.4699 -4.2185 -1.9998 0.9686
-6.0678 -4.7797 -1.9999 0.9686
-5.1215 -5.7836 -2.0002 0.9686
-4.5849 -6.2184 -2.0004 0.9686
-3.4062 -6.9360 -2.0007 0.9686
-2.7735 -7.2131 -2.0009 0.9686
-2.1185 -7.4327 -2.0011 0.9686
-1.4464 -7.5930 -2.0013 0.9686
-0.7626 -7.6926 -2.0015 0.9686
-0.0727 -7.7307 -2.0017 0.9686
1.3040 -7.6219 -2.0021 0.9686
1.9796 -7.4758 -2.0023 0.9686
3.8914 -6.6856 -2.0029 0.9685
4.4733 -6.3120 -2.0031 0.9685
7.6537 -1.1527 -2.0040 0.9685
7.7368 0.2271 -2.0041 0.9685
7.3995 2.2696 -2.0040 0.9685
6.5325 4.1491 -2.0037 0.9685
5.1981 5.7310 -2.0033 0.9685
4.6652 6.1718 -2.0031 0.9685
3.4923 6.9021 -2.0028 0.9685
2.8617 7.1857 -2.0026 0.9685
0.8515 7.6577 -1.9949 0.9687
-0.5241 7.6838 -1.9941 0.9687
-1.8855 7.4796 -1.9972 0.9686
-3.1917 7.0376 -2.0008 0.9686
-4.9416 5.9384 -2.0003 0.9686
-6.3375 4.4153 -1.9999 0.9686
-6.7061 3.8315 -1.9997 0.9686
-7.7023 0.5554 -1.9994 0.9686
-7.5742 -1.5060 -1.9995 0.9686
-7.4096 -2.1764 -1.9995 0.9686
-7.1859 -2.8295 -1.9996 0.9686
-6.9048 -3.4600 -1.9997 0.9686
-6.5686 -4.0630 -1.9998 0.9686
-5.7418 -5.1673 -2.0000 0.9686
-5.2578 -5.6598 -2.0002 0.9686
-3.5705 -6.8527 -2.0007 0.9686
-2.9445 -7.1448 -2.0009 0.9686
-2.2950 -7.3799 -2.0011 0.9686
-1.6269 -7.5561 -2.0013 0.9686
-0.2569 -7.7266 -2.0017 0.9686
1.8008 -7.5207 -2.0023 0.9686
5.3948 -5.5465 -2.0034 0.9685
5.8690 -5.0429 -2.0035 0.9685
6.6732 -3.9190 -2.0037 0.9685
6.9969 -3.3075 -2.0038 0.9685
7.2646 -2.6696 -2.0039 0.9685
7.4742 -2.0103 -2.0040 0.9685
7.6240 -1.3348 -2.0040 0.9685
7.7400 0.0427 -2.0041 0.9685
7.4516 2.0926 -2.0040 0.9685
7.2347 2.7495 -2.0039 0.9685
6.9600 3.3845 -2.0038 0.9685
6.6296 3.9923 -2.0037 0.9685
6.2463 4.5681 -2.0036 0.9685
5.8130 5.1073 -2.0035 0.9685
4.8111 6.0590 -2.0032 0.9685
4.2504 6.4639 -2.0030 0.9685
3.0322 7.1156 -2.0027 0.9685
1.7137 7.5220 -1.9975 0.9686
1.0340 7.6368 -1.9953 0.9687
0.3475 7.6908 -1.9933 0.9687
-0.3407 7.6915 -1.9934 0.9687
-3.0231 7.1119 -2.0009 0.9686
-4.2392 6.4595 -2.0005 0.9686
-4.7987 6.0546 -2.0003 0.9686
-5.3198 5.6015 -2.0002 0.9686
-5.7984 5.1036 -2.0000 0.9686
-6.6129 3.9903 -1.9998 0.9686
-7.2167 2.7501 -1.9996 0.9686
-7.4332 2.0946 -1.9995 0.9686
-7.5903 1.4224 -1.9995 0.9686
-7.7221 0.0495 -1.9994 0.9686
-6.9852 -3.2944 -1.9997 0.9686
-6.6634 -3.9052 -1.9998 0.9686
-4.3216 -6.4045 -2.0004 0.9686
-3.1139 -7.0724 -2.0008 0.9686
-1.1283 -7.6471 -2.0014 0.9686
-0.4410 -7.7181 -2.0016 0.9686
1.6210 -7.5612 -2.0022 0.9686
4.1672 -6.5177 -2.0030 0.9685
4.7329 -6.1200 -2.0032 0.9685
5.2610 -5.6734 -2.0033 0.9685
5.7470 -5.1813 -2.0035 0.9685
6.1871 -4.6477 -2.0036 0.9685
6.9160 -3.4733 -2.0038 0.9685
7.4241 -2.1879 -2.0040 0.9685
7.6952 -0.8323 -2.0040 0.9685
7.7206 0.5498 -2.0041 0.9685
7.4994 1.9144 -2.0040 0.9685
7.2983 2.5763 -2.0039 0.9685
5.9332 4.9674 -2.0035 0.9685
5.4655 5.4770 -2.0034 0.9685
4.9542 5.9427 -2.0032 0.9685
4.4034 6.3609 -2.0031 0.9685
3.8174 6.7281 -2.0029 0.9685
2.5580 7.2950 -2.0016 0.9686
1.8932 7.4817 -1.9982 0.9686
-0.1571 7.6916 -1.9919 0.9687
-2.1974 7.3991 -1.9985 0.9686
-2.8528 7.1821 -2.0009 0.9686
-4.0842 6.5589 -2.0005 0.9686
-4.6531 6.1674 -2.0004 0.9686
-5.6752 5.2405 -2.0001 0.9686
-6.1201 4.7125 -1.9999 0.9686
-6.5160 4.1469 -1.9998 0.9686
-6.8600 3.5482 -1.9997 0.9686
-7.1491 2.9213 -1.9996 0.9686
-7.3812 2.2712 -1.9995 0.9686
-7.5543 1.6029 -1.9995 0.9686
-7.6373 -1.1433 -1.9995 0.9686
-6.7545 -3.7452 -1.9997 0.9686
-5.9813 -4.8876 -2.0000 0.9686
-5.5213 -5.4026 -2.0001 0.9686
-3.8928 -6.6744 -2.0006 0.9686
-3.2815 -6.9960 -2.0008 0.9686
-1.9851 -7.4696 -2.0011 0.9686
-1.3103 -7.6178 -2.0013 0.9686
-0.6248 -7.7052 -2.0016 0.9686
0.7560 -7.6950 -2.0020 0.9686
1.4403 -7.5975 -2.0022 0.9686
3.4035 -6.9461 -2.0028 0.9685
5.6218 -5.3167 -2.0034 0.9685
6.0745 -4.7938 -2.0036 0.9685
6.4787 -4.2324 -2.0037 0.9685
7.1290 -3.0127 -2.0039 0.9685
7.6732 -1.0155 -2.0040 0.9685
7.7315 0.3656 -2.0041 0.9685
7.5429 1.7351 -2.0040 0.9685
7.3577 2.4017 -2.0039 0.9685
7.1135 3.0490 -2.0039 0.9685
5.5946 5.3453 -2.0034 0.9685
5.0946 5.8231 -2.0033 0.9685
4.5538 6.2543 -2.0031 0.9685
3.3681 6.9633 -2.0028 0.9685
2.7325 7.2356 -2.0026 0.9685
2.0718 7.4375 -1.9990 0.9686
0.0263 7.6915 -1.9915 0.9687
-0.6616 7.6737 -1.9942 0.9687
-1.3451 7.5888 -1.9955 0.9687
-2.0196 7.4466 -1.9977 0.9686
-3.9267 6.6545 -2.0006 0.9686
-5.0470 5.8489 -2.0002 0.9686
-5.5487 5.3744 -2.0001 0.9686
-6.0061 4.8571 -2.0000 0.9686
-7.0775 3.0909 -1.9996 0.9686
-7.6430 1.1044 -1.9995 0.9686
-7.6623 -0.9609 -1.9995 0.9686
-7.3695 -2.3087 -1.9995 0.9686
-7.1341 -2.9577 -1.9996 0.9686
-6.4948 -4.1800 -1.9998 0.9686
5.5813 -4.3510 -2.0034 0.9710
6.2669 -3.2891 -2.0036 0.9710
6.5358 -2.7165 -2.0037 0.9710
6.7525 -2.1221 -2.0038 0.9710
6.9152 -1.5106 -2.0038 0.9710
7.0226 -0.8871 -2.0038 0.9710
7.0738 -0.2564 -2.0039 0.9710
7.0684 0.3763 -2.0039 0.9710
7.0065 1.0060 -2.0038 0.9710
6.8886 1.6277 -2.0038 0.9710
6.7156 2.2362 -2.0038 0.9710
6.4888 2.8269 -2.0037 0.9710
6.2102 3.3949 -2.0036 0.9710
5.0874 4.9187 -2.0033 0.9710
3.6009 6.0899 -2.0028 0.9710
2.4598 6.6322 -2.0025 0.9710
1.2405 6.9627 -2.0021 0.9710
0.6138 7.0450 -2.0019 0.9710
-0.6491 7.0405 -2.0016 0.9710
-1.2751 6.9537 -2.0014 0.9710
-1.8908 6.8114 -2.0012 0.9710
-2.4913 6.6148 -2.0010 0.9710
-3.0718 6.3653 -2.0008 0.9710
-3.6276 6.0651 -2.0007 0.9710
-5.8913 3.8992 -2.0000 0.9711
-6.2157 3.3574 -1.9999 0.9711
-6.8825 1.5896 -1.9997 0.9711
-7.0553 0.3400 -1.9996 0.9711
-7.0575 -0.2914 -1.9996 0.9711
-6.8933 -1.5423 -1.9997 0.9711
-6.5094 -2.7440 -1.9998 0.9711
-5.9179 -3.8585 -2.0000 0.9711
-5.1378 -4.8503 -2.0002 0.9711
-4.6844 -5.2901 -2.0003 0.9711
-3.6692 -6.0399 -2.0006 0.9710
-3.1154 -6.3440 -2.0008 0.9710
-2.5367 -6.5974 -2.0010 0.9710
-1.9376 -6.7982 -2.0012 0.9710
-1.3229 -6.9447 -2.0013 0.9710
-0.0665 -7.0706 -2.0017 0.9710
0.5653 -7.0489 -2.0019 0.9710
1.1926 -6.9709 -2.0021 0.9710
2.4140 -6.6488 -2.0025 0.9710
4.0910 -5.7726 -2.0030 0.9710
4.5905 -5.3846 -2.0031 0.9710
5.0534 -4.9535 -2.0033 0.9710
5.8546 -3.9761 -2.0035 0.9710
6.4692 -2.8715 -2.0037 0.9710
6.8772 -1.6750 -2.0038 0.9710
6.9994 -1.0542 -2.0038 0.9710
7.0754 0.2077 -2.0039 0.9710
6.9255 1.4630 -2.0038 0.9710
6.5544 2.6715 -2.0037 0.9710
5.9741 3.7945 -2.0035 0.9710
5.6111 4.3126 -2.0034 0.9710
5.2033 4.7961 -2.0033 0.9710
4.7539 5.2413 -2.0032 0.9710
4.2665 5.6444 -2.0030 0.9710
3.7451 6.0024 -2.0029 0.9710
2.0197 6.7787 -2.0024 0.9710
1.4062 6.9313 -2.0022 0.9710
0.1507 7.0696 -2.0018 0.9710
-1.1090 6.9823 -2.0014 0.9710
-1.7280 6.8548 -2.0012 0.9710
-2.3330 6.6725 -2.0011 0.9710
-2.9192 6.4369 -2.0009 0.9710
-5.4133 4.5404 -2.0001 0.9711
-6.1339 3.5046 -1.9999 0.9711
-6.4221 2.9427 -1.9998 0.9711
-6.8427 1.7533 -1.9997 0.9711
-7.0452 0.5080 -1.9996 0.9711
-7.0233 -0.7533 -1.9996 0.9711
-6.9280 -1.3775 -1.9997 0.9711
-6.7775 -1.9907 -1.9997 0.9711
-5.6526 -4.2382 -2.0001 0.9711
-3.8121 -5.9506 -2.0006 0.9710
-2.6932 -6.5349 -2.0009 0.9710
-1.4880 -6.9110 -2.0013 0.9710
1.0261 -6.9972 -2.0020 0.9710
3.4121 -6.1974 -2.0028 0.9710
4.4608 -5.4924 -2.0031 0.9710
4.9338 -5.0725 -2.0032 0.9710
5.3674 -4.6119 -2.0033 0.9710
6.1029 -3.5840 -2.0036 0.9710
6.9723 -1.2207 -2.0038 0.9710
7.0784 0.0390 -2.0039 0.9710
7.0466 0.6710 -2.0039 0.9710
6.8146 1.9137 -2.0038 0.9710
6.6163 2.5145 -2.0037 0.9710
5.7124 4.1777 -2.0035 0.9710
4.8775 5.1266 -2.0032 0.9710
2.7732 6.5077 -2.0026 0.9710
2.1808 6.7287 -2.0024 0.9710
0.9489 7.0081 -2.0020 0.9710
0.3192 7.0641 -2.0018 0.9710
-0.3129 7.0638 -2.0017 0.9710
-1.5641 6.8942 -2.0013 0.9710
-3.8774 5.9082 -2.0006 0.9710
-5.6989 4.1756 -2.0000 0.9711
-6.3502 3.0950 -1.9999 0.9711
-7.0312 0.6758 -1.9996 0.9711
-7.0634 0.0452 -1.9996 0.9711
-7.0392 -0.5857 -1.9996 0.9711
-6.9589 -1.2120 -1.9997 0.9711
-6.8230 -1.8286 -1.9997 0.9711
-4.9310 -5.0606 -2.0003 0.9711
-1.0320 -6.9941 -2.0014 0.9710
0.2287 -7.0675 -2.0018 0.9710
0.8590 -7.0195 -2.0020 0.9710
3.8111 -5.9608 -2.0029 0.9710
4.3285 -5.5971 -2.0030 0.9710
4.8114 -5.1886 -2.0032 0.9710
5.2558 -4.7385 -2.0033 0.9710
6.0156 -3.7284 -2.0035 0.9710
6.7895 -2.0008 -2.0038 0.9710
7.0374 -0.7612 -2.0038 0.9710
7.0773 -0.1297 -2.0039 0.9710
7.0606 0.5028 -2.0039 0.9710
6.8583 1.7507 -2.0038 0.9710
6.6744 2.3561 -2.0037 0.9710
6.4371 2.9426 -2.0037 0.9710
5.8104 4.0404 -2.0035 0.9710
4.9984 5.0089 -2.0032 0.9710
2.3406 6.6750 -2.0025 0.9710
1.1157 6.9836 -2.0021 0.9710
0.4875 7.0547 -2.0019 0.9710
-0.1444 7.0694 -2.0017 0.9710
-0.7750 7.0276 -2.0015 0.9710
-1.3994 6.9297 -2.0013 0.9710
-2.6093 6.5690 -2.0010 0.9710
-3.7356 5.9991 -2.0006 0.9710
-4.2560 5.6411 -2.0005 0.9711
-6.7515 2.0774 -1.9997 0.9711
-7.0603 0.2136 -1.9996 0.9711
-6.9857 -1.0458 -1.9997 0.9711
-6.8646 -1.6654 -1.9997 0.9711
-6.1783 -3.4257 -1.9999 0.9711
-5.4709 -4.4706 -2.0001 0.9711
-4.5890 -5.3732 -2.0004 0.9711
-3.5606 -6.1047 -2.0007 0.9710
-3.0014 -6.3988 -2.0008 0.9710
-1.1984 -6.9674 -2.0014 0.9710
0.0602 -7.0708 -2.0018 0.9710
4.6863 -5.3017 -2.0031 0.9710
5.1413 -4.8623 -2.0033 0.9710
5.5553 -4.3841 -2.0034 0.9710
5.9250 -3.8707 -2.0035 0.9710
6.2472 -3.3263 -2.0036 0.9710
6.9061 -1.5516 -2.0038 0.9710
7.0172 -0.9287 -2.0038 0.9710
7.0706 0.3344 -2.0039 0.9710
7.0124 0.9644 -2.0038 0.9710
6.2302 3.3580 -2.0036 0.9710
5.1165 4.8885 -2.0033 0.9710
3.0803 6.3684 -2.0027 0.9710
1.8980 6.8136 -2.0023 0.9710
-0.6073 7.0442 -2.0016 0.9710
-2.4520 6.6295 -2.0010 0.9710
-3.5916 6.0865 -2.0007 0.9710
-4.1204 5.7410 -2.0005 0.9710
-5.0753 4.9158 -2.0002 0.9711
-6.1956 3.3942 -1.9999 0.9711
-6.7001 2.2378 -1.9997 0.9711
-6.8730 1.6305 -1.9997 0.9711
-6.9910 1.0102 -1.9997 0.9711
-7.0532 0.3818 -1.9996 0.9711
-7.0591 -0.2496 -1.9996 0.9711
-6.9023 -1.5013 -1.9997 0.9711
-5.9407 -3.8233 -2.0000 0.9711
4.7582 -4.4468 -2.0032 0.9731
5.1366 -4.0044 -2.0033 0.9731
5.4740 -3.5299 -2.0034 0.9731
5.7676 -3.0271 -2.0035 0.9731
6.0151 -2.5000 -2.0035 0.9731
6.2145 -1.9530 -2.0036 0.9731
6.5052 0.3463 -2.0037 0.9731
6.4482 0.9258 -2.0037 0.9731
6.3397 1.4980 -2.0036 0.9731
5.7154 3.1244 -2.0035 0.9731
5.0680 4.0909 -2.0033 0.9731
4.6821 4.5269 -2.0032 0.9731
3.8017 5.2869 -2.0029 0.9731
1.7096 6.2813 -2.0023 0.9731
1.1418 6.4083 -2.0021 0.9731
-0.0164 6.5081 -2.0017 0.9731
-0.5974 6.4800 -2.0016 0.9731
-1.1736 6.4003 -2.0014 0.9731
-1.7403 6.2693 -2.0012 0.9731
-2.2930 6.0884 -2.0011 0.9731
-2.8273 5.8588 -2.0009 0.9731
-3.3390 5.5825 -2.0008 0.9731
-4.2782 4.8988 -2.0005 0.9731
-5.0808 4.0592 -2.0002 0.9732
-5.4227 3.5890 -2.0001 0.9732
-5.7213 3.0903 -2.0000 0.9732
-6.1793 2.0232 -1.9999 0.9732
-6.4404 0.8916 -1.9998 0.9732
-6.4942 0.3129 -1.9998 0.9732
-5.4472 -3.5516 -2.0001 0.9732
-5.1085 -4.0241 -2.0002 0.9732
-4.7290 -4.4644 -2.0003 0.9732
-3.8600 -5.2351 -2.0006 0.9731
-3.3773 -5.5593 -2.0007 0.9731
-2.8676 -5.8392 -2.0009 0.9731
-2.3348 -6.0724 -2.0010 0.9731
-1.2176 -6.3919 -2.0014 0.9731
-0.0612 -6.5077 -2.0017 0.9731
0.5203 -6.4877 -2.0019 0.9731
1.0976 -6.4159 -2.0021 0.9731
1.6663 -6.2928 -2.0022 0.9731
2.7596 -5.8970 -2.0026 0.9731
4.2249 -4.9557 -2.0030 0.9731
4.6508 -4.5589 -2.0031 0.9731
5.6937 -3.1637 -2.0034 0.9731
6.3292 -1.5415 -2.0036 0.9731
6.4417 -0.9702 -2.0037 0.9731
6.0322 2.4586 -2.0036 0.9731
5.4982 3.4922 -2.0034 0.9731
5.1641 3.9690 -2.0033 0.9731
4.7888 4.4141 -2.0032 0.9731
3.9267 5.1948 -2.0029 0.9731
2.4088 6.0484 -2.0025 0.9731
1.8589 6.2389 -2.0023 0.9731
1.2942 6.3794 -2.0021 0.9731
0.7193 6.4689 -2.0020 0.9731
-1.0208 6.4266 -2.0014 0.9731
-2.6870 5.9247 -2.0010 0.9731
-3.2050 5.6606 -2.0008 0.9731
-3.6975 5.3514 -2.0006 0.9731
-4.5898 4.6077 -2.0004 0.9731
-4.9826 4.1792 -2.0003 0.9732
-5.3357 3.7173 -2.0002 0.9732
-5.9113 2.7087 -2.0000 0.9732
-6.1294 2.1699 -1.9999 0.9732
-6.2985 1.6138 -1.9999 0.9732
-6.4173 1.0449 -1.9998 0.9732
-6.4849 0.4676 -1.9998 0.9732
-6.3770 -1.2679 -1.9998 0.9732
-6.2385 -1.8324 -1.9999 0.9732
-6.0501 -2.3822 -1.9999 0.9732
-5.8134 -2.9131 -2.0000 0.9732
-5.5302 -3.4207 -2.0001 0.9732
-5.2029 -3.9011 -2.0002 0.9732
-4.8340 -4.3504 -2.0003 0.9732
-4.4265 -4.7650 -2.0004 0.9731
-3.9836 -5.1416 -2.0006 0.9731
-2.4789 -6.0149 -2.0010 0.9731
-1.9320 -6.2127 -2.0012 0.9731
-1.3696 -6.3610 -2.0013 0.9731
-0.2163 -6.5043 -2.0017 0.9731
0.3655 -6.4981 -2.0018 0.9731
0.9444 -6.4401 -2.0020 0.9731
1.5158 -6.3306 -2.0022 0.9731
3.6374 -5.4010 -2.0028 0.9731
4.1055 -5.0549 -2.0030 0.9731
5.8890 -2.7838 -2.0035 0.9731
6.1143 -2.2469 -2.0036 0.9731
6.2906 -1.6919 -2.0036 0.9731
6.4167 -1.1235 -2.0037 0.9731
6.4039 1.1941 -2.0037 0.9731
6.2716 1.7612 -2.0036 0.9731
6.0891 2.3142 -2.0036 0.9731
5.5799 3.3602 -2.0034 0.9731
4.8927 4.2987 -2.0032 0.9731
4.0495 5.0999 -2.0030 0.9731
3.0772 5.7380 -2.0027 0.9731
2.5523 5.9894 -2.0025 0.9731
-0.2879 6.5015 -2.0017 0.9731
-0.8673 6.4492 -2.0015 0.9731
-3.5689 5.4381 -2.0007 0.9731
-4.0400 5.0973 -2.0005 0.9731
-4.8817 4.2968 -2.0003 0.9732
-5.2456 3.8435 -2.0002 0.9732
-5.5676 3.3596 -2.0001 0.9732
-5.8451 2.8488 -2.0000 0.9732
-6.0760 2.3154 -1.9999 0.9732
-6.2583 1.7635 -1.9999 0.9732
-6.3906 1.1976 -1.9998 0.9732
-6.4794 -0.5391 -1.9998 0.9732
-6.4054 -1.1156 -1.9998 0.9732
-6.2803 -1.6832 -1.9999 0.9732
-5.6101 -3.2879 -2.0001 0.9732
-5.2944 -3.7759 -2.0002 0.9732
-4.5387 -4.6580 -2.0004 0.9731
-3.1425 -5.6956 -2.0008 0.9731
-2.6215 -5.9539 -2.0010 0.9731
-2.0795 -6.1648 -2.0011 0.9731
-1.5208 -6.3264 -2.0013 0.9731
-0.9498 -6.4374 -2.0015 0.9731
0.2105 -6.5049 -2.0018 0.9731
3.0034 -5.7769 -2.0026 0.9731
4.4281 -4.7752 -2.0031 0.9731
5.5363 -3.4313 -2.0034 0.9731
6.2485 -1.8414 -2.0036 0.9731
6.3881 -1.2761 -2.0037 0.9731
6.4766 -0.7005 -2.0037 0.9731
6.4979 0.4627 -2.0037 0.9731
6.4306 1.0411 -2.0037 0.9731
6.3118 1.6112 -2.0036 0.9731
6.1426 2.1684 -2.0036 0.9731
5.9242 2.7082 -2.0035 0.9731
5.6585 3.2262 -2.0034 0.9731
5.3475 3.7185 -2.0033 0.9731
4.9938 4.1809 -2.0032 0.9731
4.6002 4.6099 -2.0031 0.9731
4.1700 5.0020 -2.0030 0.9731
3.2132 5.6632 -2.0027 0.9731
2.6944 5.9270 -2.0026 0.9731
1.5969 6.3108 -2.0022 0.9731
1.0268 6.4276 -2.0021 0.9731
0.4487 6.4931 -2.0019 0.9731
-0.7133 6.4682 -2.0015 0.9731
-1.2880 6.3781 -2.0014 0.9731
-2.4016 6.0462 -2.0010 0.9731
-3.4383 5.5217 -2.0007 0.9731
-5.1526 3.9675 -2.0002 0.9732
-5.7756 2.9874 -2.0000 0.9732
-6.0191 2.4596 -2.0000 0.9732
-6.2145 1.9122 -1.9999 0.9732
-6.4553 0.7762 -1.9998 0.9732
-6.4988 0.1966 -1.9998 0.9732
-6.4302 -0.9626 -1.9998 0.9732
-6.3186 -1.5330 -1.9999 0.9732
-6.1566 -2.0912 -1.9999 0.9732
-5.3828 -3.6486 -2.0001 0.9732
-4.6484 -4.5484 -2.0004 0.9732
-3.7657 -5.3035 -2.0006 0.9731
-2.7626 -5.8897 -2.0009 0.9731
-2.2258 -6.1133 -2.0011 0.9731
-1.6711 -6.2882 -2.0012 0.9731
-1.1030 -6.4128 -2.0014 0.9731
0.6364 -6.4775 -2.0019 0.9731
2.8648 -5.8467 -2.0026 0.9731
3.3757 -5.5680 -2.0027 0.9731
4.3130 -4.8793 -2.0030 0.9731
4.7318 -4.4750 -2.0032 0.9731
5.4529 -3.5623 -2.0034 0.9731
5.7495 -3.0612 -2.0035 0.9731
6.3558 -1.4280 -2.0036 0.9731
6.4581 -0.8547 -2.0037 0.9731
6.5071 0.3077 -2.0037 0.9731
6.3485 1.4603 -2.0036 0.9731
6.1926 2.0214 -2.0036 0.9731
4.7089 4.4990 -2.0032 0.9731
2.3001 6.0905 -2.0024 0.9731
1.7469 6.2710 -2.0023 0.9731
0.0222 6.5081 -2.0018 0.9731
-0.5590 6.4835 -2.0016 0.9731
-1.1356 6.4071 -2.0014 0.9731
-1.7031 6.2796 -2.0012 0.9731
-2.2569 6.1019 -2.0011 0.9731
-3.7926 5.2843 -2.0006 0.9731
-4.2491 4.9241 -2.0005 0.9731
-4.6715 4.5247 -2.0004 0.9732
-5.4013 3.6212 -2.0001 0.9732
-6.4923 0.3515 -1.9998 0.9732
-6.0065 -2.4902 -1.9999 0.9732
-5.7603 -3.0167 -2.0000 0.9732
-5.4682 -3.5192 -2.0001 0.9732
4.4026 -4.1145 -2.0031 0.9749
5.0648 -3.2660 -2.0033 0.9749
5.3365 -2.8008 -2.0033 0.9749
5.5654 -2.3132 -2.0034 0.9749
5.9799 -0.7554 -2.0035 0.9749
6.0189 0.3204 -2.0035 0.9749
5.8658 1.3860 -2.0035 0.9749
5.7184 1.9042 -2.0035 0.9749
5.5254 2.4072 -2.0034 0.9749
5.2882 2.8909 -2.0033 0.9749
5.0087 3.3514 -2.0032 0.9749
4.3322 4.1885 -2.0030 0.9749
3.9406 4.5584 -2.0029 0.9749
3.5176 4.8918 -2.0028 0.9749
2.0947 5.6480 -2.0024 0.9749
1.5819 5.8120 -2.0022 0.9749
1.0565 5.9296 -2.0021 0.9749
-0.0152 6.0220 -2.0017 0.9749
-0.5528 5.9961 -2.0016 0.9749
-1.0860 5.9223 -2.0014 0.9749
-1.6104 5.8012 -2.0013 0.9749
-3.5384 4.8689 -2.0007 0.9749
-3.9588 4.5331 -2.0006 0.9750
-4.7016 3.7562 -2.0003 0.9750
-5.0180 3.3212 -2.0003 0.9750
-5.5283 2.3754 -2.0001 0.9750
-5.7182 1.8722 -2.0000 0.9750
-6.0115 -0.2482 -1.9999 0.9750
-5.8716 -1.3137 -2.0000 0.9750
-5.7309 -1.8328 -2.0000 0.9750
-5.3138 -2.8232 -2.0002 0.9750
-5.0407 -3.2866 -2.0002 0.9750
-3.9899 -4.5058 -2.0005 0.9750
-3.5718 -4.8444 -2.0007 0.9749
-3.1251 -5.1443 -2.0008 0.9749
-2.6535 -5.4032 -2.0009 0.9749
-2.1605 -5.6190 -2.0011 0.9749
-1.6502 -5.7899 -2.0012 0.9749
-0.5941 -5.9921 -2.0016 0.9749
-0.0566 -6.0217 -2.0017 0.9749
0.4814 -6.0031 -2.0019 0.9749
1.0157 -5.9366 -2.0020 0.9749
1.5419 -5.8227 -2.0022 0.9749
2.0558 -5.6622 -2.0024 0.9749
2.5534 -5.4564 -2.0025 0.9749
3.4838 -4.9158 -2.0028 0.9749
4.3032 -4.2182 -2.0030 0.9749
4.6630 -3.8173 -2.0031 0.9749
4.9855 -3.3858 -2.0032 0.9749
5.7052 -1.9435 -2.0034 0.9749
5.8561 -1.4263 -2.0035 0.9749
5.9601 -0.8977 -2.0035 0.9749
6.0165 -0.3618 -2.0035 0.9749
6.0248 0.1769 -2.0035 0.9749
5.8972 1.2458 -2.0035 0.9749
5.7623 1.7674 -2.0035 0.9749
5.5812 2.2748 -2.0034 0.9749
5.3556 2.7641 -2.0034 0.9749
5.0872 3.2311 -2.0033 0.9749
4.7781 3.6723 -2.0032 0.9749
4.4309 4.0842 -2.0031 0.9749
4.0482 4.4633 -2.0030 0.9749
3.6332 4.8066 -2.0028 0.9749
3.1893 5.1115 -2.0027 0.9749
2.7199 5.3755 -2.0026 0.9749
1.7200 5.7728 -2.0023 0.9749
1.1975 5.9029 -2.0021 0.9749
0.6656 5.9857 -2.0020 0.9749
0.1284 6.0208 -2.0018 0.9749
-0.4097 6.0077 -2.0016 0.9749
-1.4717 5.8381 -2.0013 0.9749
-2.4863 5.4823 -2.0010 0.9749
-3.4214 4.9519 -2.0007 0.9749
