ply
format ascii 1.0
element vertex 1588
property float32 x
property float32 y
property float32 z
property float32 I
end_header
-16.1077 -4.8267 -1.9974 0.9345
-14.2609 -8.9189 -1.9980 0.9345
-13.4109 -10.1558 -1.9983 0.9345
-9.4714 -12.3333 -1.8472 0.9393
-8.3359 -13.1307 -1.8475 0.9393
-7.1336 -13.8240 -1.8478 0.9393
-3.2239 -15.2278 -1.8489 0.9392
-1.8542 -15.4577 -1.8493 0.9392
-0.4691 -15.5647 -1.8497 0.9392
3.5164 -14.5183 -1.7744 0.9416
4.8894 -14.4214 -1.8088 0.9405
6.3007 -14.2569 -1.8515 0.9391
8.7350 -12.9162 -1.8522 0.9391
9.8531 -12.0881 -1.8525 0.9391
8.3363 -2.2368 -1.0253 0.9658
16.6041 3.0920 -2.0062 0.9342
16.2614 4.5594 -2.0061 0.9342
15.1909 7.3731 -2.0058 0.9342
13.4264 8.0686 -1.8607 0.9389
11.6502 12.2105 -2.0047 0.9343
6.1437 9.3078 -1.3248 0.9561
6.6437 15.5010 -2.0033 0.9343
0.8069 16.8317 -2.0017 0.9344
-2.1936 16.7007 -2.0009 0.9344
-3.6727 16.4354 -2.0005 0.9344
-5.1221 16.0395 -2.0001 0.9344
-6.5301 15.5162 -1.9997 0.9344
-7.8857 14.8698 -1.9993 0.9344
-9.1781 14.1053 -1.9990 0.9345
-10.3972 13.2290 -1.9987 0.9345
-11.5333 12.2478 -1.9984 0.9345
-12.5774 11.1695 -1.9981 0.9345
-8.2534 6.1058 -1.2195 0.9595
-14.3576 8.7569 -1.9977 0.9345
-10.4220 5.1431 -1.3805 0.9543
9.6125 -8.8606 -1.8523 0.9486
7.1870 -2.9350 -1.1000 0.9691
13.7581 3.3239 -2.0055 0.9444
13.4063 4.5367 -2.0053 0.9444
11.1173 7.5092 -1.9009 0.9472
10.1790 8.2873 -1.8598 0.9484
7.1241 8.3055 -1.5504 0.9568
7.1541 12.1967 -2.0035 0.9445
4.2318 8.9604 -1.4041 0.9608
4.8732 13.2689 -2.0028 0.9445
1.1884 14.0782 -2.0018 0.9445
-0.0711 14.1256 -2.0015 0.9445
-2.5772 13.8838 -2.0008 0.9445
-3.8039 13.5966 -2.0005 0.9446
-4.9998 13.2013 -2.0001 0.9446
-6.1557 12.7012 -1.9998 0.9446
-7.2622 12.1002 -1.9995 0.9446
-8.3107 11.4031 -1.9993 0.9446
-6.6940 6.3942 -1.3116 0.9633
-9.0042 5.9508 -1.5292 0.9573
-10.2560 4.4026 -1.5814 0.9559
-9.7242 3.1819 -1.4497 0.9595
-13.9670 1.9359 -1.9979 0.9446
-14.0839 0.6833 -1.9979 0.9446
-8.6631 -9.7438 -1.8474 0.9487
-7.7612 -10.4787 -1.8476 0.9487
-6.7973 -11.1304 -1.8479 0.9487
-5.7791 -11.6938 -1.8482 0.9487
-4.7146 -12.1644 -1.8485 0.9487
-3.6121 -12.5383 -1.8488 0.9487
-0.1663 -13.0539 -1.8497 0.9486
0.9981 -13.0190 -1.8501 0.9486
2.1549 -12.8804 -1.8504 0.9486
3.2949 -12.6391 -1.8507 0.9486
4.4091 -12.2971 -1.8510 0.9486
5.4885 -11.8570 -1.8513 0.9486
6.5245 -11.3223 -1.8515 0.9486
7.5088 -10.6972 -1.8518 0.9486
8.4334 -9.9866 -1.8520 0.9486
10.0749 -8.3324 -1.8525 0.9486
10.7785 -7.4019 -1.8526 0.9485
11.3963 -6.4122 -1.8528 0.9485
7.1277 -3.2109 -1.1077 0.9689
7.5829 -1.8939 -1.1074 0.9689
8.7054 -1.3647 -1.2485 0.9650
14.1241 -0.9371 -2.0056 0.9444
14.1513 0.3255 -2.0056 0.9444
14.0657 1.5856 -2.0056 0.9444
13.1429 5.2496 -2.0053 0.9444
11.9998 7.4984 -2.0049 0.9444
10.4676 7.9206 -1.8599 0.9484
9.7188 8.8211 -1.8597 0.9484
7.1814 7.7938 -1.5016 0.9581
5.0245 6.5375 -1.1683 0.9672
5.3421 13.0882 -2.0030 0.9445
4.1535 13.5100 -2.0026 0.9445
1.6881 14.0280 -2.0020 0.9445
-0.8292 14.1000 -2.0013 0.9445
-2.0823 13.9676 -2.0009 0.9445
-2.1483 6.3444 -0.9491 0.9733
-6.8280 12.3513 -1.9997 0.9446
-7.9006 11.6919 -1.9994 0.9446
-8.9101 10.9398 -1.9991 0.9446
-9.8486 10.1008 -1.9989 0.9446
-10.7085 9.1817 -1.9987 0.9446
-11.4832 8.1899 -1.9985 0.9446
-10.9192 2.9343 -1.6020 0.9553
-14.0507 1.1834 -1.9979 0.9446
-14.1003 -0.0737 -1.9979 0.9446
-14.0379 -1.3302 -1.9979 0.9446
-13.8640 -2.5763 -1.9980 0.9446
-12.6908 -6.1536 -1.9984 0.9446
-12.0929 -7.2610 -1.9986 0.9446
-9.0034 -9.4293 -1.8473 0.9487
-7.1882 -10.8811 -1.8478 0.9487
-6.1907 -11.4803 -1.8481 0.9487
-5.1436 -11.9883 -1.8484 0.9487
-1.7894 -12.9285 -1.8493 0.9486
-0.6301 -13.0388 -1.8496 0.9486
2.8435 -12.7474 -1.8506 0.9486
3.9690 -12.4453 -1.8509 0.9486
5.0633 -12.0438 -1.8512 0.9486
7.1234 -10.9567 -1.8517 0.9486
11.7246 -5.7915 -1.8529 0.9485
10.2477 -1.0468 -1.4595 0.9592
14.1540 -0.1776 -2.0056 0.9444
13.9600 2.3382 -2.0055 0.9444
13.6953 3.5731 -2.0054 0.9444
13.3215 4.7793 -2.0053 0.9444
12.2592 7.0675 -2.0050 0.9444
10.7430 7.5440 -1.8600 0.9483
6.7606 6.8330 -1.3620 0.9619
6.8107 8.2382 -1.5145 0.9577
8.0034 11.6591 -2.0037 0.9445
6.9312 12.3242 -2.0034 0.9445
3.4220 13.7121 -2.0024 0.9445
1.2862 8.2148 -1.1781 0.9670
-0.3275 14.1215 -2.0014 0.9445
-1.5847 14.0337 -2.0011 0.9445
-2.8288 13.8343 -2.0007 0.9446
-4.0500 13.5249 -2.0004 0.9446
-5.2385 13.1080 -2.0001 0.9446
-9.4838 10.4449 -1.9990 0.9446
-13.9998 1.6820 -1.9979 0.9446
-14.0940 0.4275 -1.9979 0.9446
-14.0762 -0.8305 -1.9979 0.9446
-13.9466 -2.0819 -1.9980 0.9446
-13.3567 -4.5256 -1.9982 0.9446
-12.3428 -6.8264 -1.9985 0.9446
-11.6864 -7.9001 -1.9987 0.9446
-10.8599 -8.8485 -1.9848 0.9450
-8.4850 -9.8998 -1.8474 0.9487
-6.5944 -11.2524 -1.8479 0.9487
-4.4931 -12.2484 -1.8485 0.9487
-1.0930 -13.0073 -1.8495 0.9486
2.3885 -12.8396 -1.8504 0.9486
5.7030 -11.7558 -1.8513 0.9486
7.7019 -10.5594 -1.8519 0.9486
9.4567 -9.0263 -1.8523 0.9486
10.9113 -7.2051 -1.8527 0.9485
7.3187 -2.3917 -1.0910 0.9694
7.6930 -1.7737 -1.1186 0.9686
14.1388 -0.6805 -2.0056 0.9444
14.1430 0.5824 -2.0056 0.9444
14.0345 1.8407 -2.0056 0.9444
13.4833 4.3029 -2.0054 0.9444
8.4132 11.3680 -2.0038 0.9445
4.4421 8.9971 -1.4217 0.9603
5.1034 13.1826 -2.0029 0.9445
1.4332 14.0559 -2.0019 0.9445
-1.0850 14.0821 -2.0012 0.9445
-3.5669 13.6611 -2.0005 0.9446
-2.2472 6.2600 -0.9424 0.9735
-5.9340 12.8067 -1.9999 0.9446
-6.5720 6.4999 -1.3097 0.9633
-10.8732 8.9856 -1.9986 0.9446
-11.6298 7.9799 -1.9984 0.9446
-9.3040 3.2246 -1.3952 0.9610
-13.9313 2.1785 -1.9979 0.9446
-14.0699 0.9281 -1.9979 0.9446
-14.0967 -0.3297 -1.9979 0.9446
-13.8150 -2.8276 -1.9980 0.9446
-13.0950 -5.2363 -1.9983 0.9446
-12.5772 -6.3831 -1.9984 0.9446
-11.2463 -8.5166 -1.9988 0.9446
-9.6496 -8.7650 -1.8471 0.9487
-7.9421 -10.3418 -1.8476 0.9487
-6.9897 -11.0102 -1.8478 0.9487
-5.9814 -11.5912 -1.8481 0.9487
-3.8295 -12.4731 -1.8487 0.9487
0.7715 -13.0339 -1.8500 0.9486
5.2813 -11.9503 -1.8512 0.9486
6.3264 -11.4337 -1.8515 0.9486
9.1296 -9.3562 -1.8522 0.9486
9.9283 -8.5062 -1.8524 0.9486
7.2320 -3.4104 -1.1329 0.9682
8.3431 -1.4570 -1.2000 0.9664
10.7443 -0.9008 -1.5277 0.9574
14.0912 1.3407 -2.0056 0.9444
13.9151 2.5913 -2.0055 0.9444
12.7312 6.1792 -2.0051 0.9444
8.2597 7.2389 -1.5562 0.9566
6.5480 6.8629 -1.3440 0.9624
6.1438 9.3079 -1.5802 0.9559
4.9077 9.1094 -1.4661 0.9591
5.5691 12.9937 -2.0030 0.9445
2.8184 8.6299 -1.2863 0.9640
0.6765 14.1111 -2.0017 0.9445
-0.5838 14.1128 -2.0013 0.9445
-1.8391 14.0022 -2.0010 0.9445
-4.2947 13.4487 -2.0003 0.9446
-5.4755 13.0103 -2.0000 0.9446
-6.6123 12.4686 -1.9997 0.9446
-7.6963 11.8279 -1.9994 0.9446
-9.6716 10.2708 -1.9989 0.9446
-10.5474 9.3668 -1.9987 0.9446
-8.2535 6.1058 -1.4547 0.9594
7.5530 -8.3248 -1.8518 0.9555
8.9128 -6.8528 -1.8521 0.9554
9.4889 -6.0315 -1.8523 0.9554
9.9894 -5.1621 -1.8524 0.9554
6.6394 -2.7114 -1.1815 0.9713
9.6673 -1.1652 -1.6041 0.9613
12.1656 -0.3736 -2.0051 0.9519
12.1503 0.7122 -2.0051 0.9519
12.0381 1.7923 -2.0050 0.9519
11.8300 2.8581 -2.0049 0.9519
11.5276 3.9010 -2.0048 0.9519
10.0825 6.8103 -2.0044 0.9519
5.1922 10.9940 -2.0030 0.9519
4.1910 11.4115 -2.0027 0.9519
2.0976 11.9708 -2.0021 0.9519
1.0221 12.1083 -2.0018 0.9519
-1.1437 12.0939 -2.0012 0.9519
-3.2719 11.6953 -2.0006 0.9520
-4.3008 11.3555 -2.0004 0.9520
-6.2471 10.4088 -1.9999 0.9520
-6.6941 6.3942 -1.5250 0.9632
-9.4868 7.5661 -1.9990 0.9520
-6.0785 4.0172 -1.2003 0.9709
-8.1931 3.5171 -1.4688 0.9645
-10.9662 2.5328 -1.8541 0.9554
-12.1209 -0.4945 -1.9984 0.9520
-12.0288 -1.5729 -1.9985 0.9520
-11.1856 -4.7000 -1.9988 0.9520
-10.7230 -5.6787 -1.9989 0.9520
-10.1750 -6.6125 -1.9991 0.9520
-9.5460 -7.4938 -1.9993 0.9520
-8.1688 -7.6834 -1.8475 0.9556
-7.4522 -8.3819 -1.8477 0.9556
-4.9710 -10.0587 -1.8484 0.9555
-3.1069 -10.7846 -1.8489 0.9555
-2.1336 -11.0202 -1.8492 0.9555
1.8533 -11.0775 -1.8503 0.9555
2.8337 -10.8698 -1.8505 0.9555
5.6107 -9.7366 -1.8513 0.9555
8.6633 -7.1650 -1.8521 0.9554
9.2683 -6.3648 -1.8522 0.9554
8.7650 -1.3741 -1.4616 0.9647
12.1446 -0.8058 -2.0051 0.9519
12.1680 0.2799 -2.0051 0.9519
11.9243 2.4359 -2.0050 0.9519
11.3012 4.5139 -2.0048 0.9519
10.8531 5.5029 -2.0046 0.9519
9.3928 7.1074 -1.9404 0.9534
5.0245 6.5375 -1.3583 0.9671
6.0505 9.5228 -1.8587 0.9553
4.5942 11.2560 -2.0028 0.9519
3.5721 11.6190 -2.0025 0.9519
2.5219 11.8894 -2.0022 0.9519
1.4519 12.0651 -2.0019 0.9519
0.3707 12.1447 -2.0016 0.9519
-2.1477 6.3427 -1.1032 0.9732
-7.6648 9.4108 -1.9995 0.9520
-9.8787 7.0456 -1.9989 0.9520
-10.0406 3.6854 -1.7620 0.9576
-12.1307 -0.0634 -1.9984 0.9520
-12.0770 -1.1444 -1.9985 0.9520
-11.9273 -2.2164 -1.9985 0.9520
-10.9177 -5.2939 -1.9989 0.9520
-9.8059 -7.1495 -1.9992 0.9520
-9.0349 -7.9121 -1.9785 0.9525
-6.1833 -9.3599 -1.8480 0.9555
-5.3251 -9.8751 -1.8483 0.9555
-4.4243 -10.3119 -1.8485 0.9555
-1.5391 -11.1198 -1.8493 0.9555
-0.5419 -11.2144 -1.8496 0.9555
0.4599 -11.2197 -1.8499 0.9555
1.4583 -11.1357 -1.8502 0.9555
2.4454 -10.9630 -1.8504 0.9555
3.4133 -10.7029 -1.8507 0.9555
4.3543 -10.3574 -1.8509 0.9555
9.5970 -5.8583 -1.8523 0.9554
6.8822 -3.3996 -1.2645 0.9694
7.9549 -1.5386 -1.3348 0.9677
10.1744 -1.0393 -1.6848 0.9594
12.1353 0.9327 -2.0051 0.9519
12.0035 2.0106 -2.0050 0.9519
11.7761 3.0723 -2.0049 0.9519
10.5416 6.0773 -2.0045 0.9519
8.6220 7.2839 -1.8594 0.9553
6.8107 8.2382 -1.7609 0.9576
4.9916 11.0862 -2.0029 0.9519
1.2862 8.2148 -1.3698 0.9669
-1.3630 12.0707 -2.0012 0.9519
-2.4332 11.8995 -2.0009 0.9520
-6.4348 10.2934 -1.9998 0.9520
-5.1108 6.7516 -1.3950 0.9663
-8.1584 8.9852 -1.9994 0.9520
-6.1438 3.9020 -1.1990 0.9709
-10.7589 3.3055 -1.8542 0.9554
-11.2745 2.3892 -1.8986 0.9544
-12.1253 0.3678 -1.9984 0.9520
-12.1099 -0.7145 -1.9985 0.9520
-11.9984 -1.7911 -1.9985 0.9520
-11.7914 -2.8535 -1.9986 0.9520
-10.6183 -5.8726 -1.9990 0.9520
-10.0534 -6.7962 -1.9991 0.9520
-9.4013 -7.6601 -1.9978 0.9520
-7.2990 -8.5160 -1.8477 0.9555
-5.6724 -9.6791 -1.8482 0.9555
-4.7877 -10.1476 -1.8484 0.9555
-2.9107 -10.8395 -1.8490 0.9555
-1.9332 -11.0574 -1.8492 0.9555
0.0608 -11.2283 -1.8498 0.9555
3.9833 -10.5051 -1.8508 0.9555
4.9044 -10.1096 -1.8511 0.9555
5.7867 -9.6334 -1.8513 0.9555
8.1319 -7.7617 -1.8519 0.9555
8.7921 -7.0066 -1.8521 0.9554
9.8980 -5.3350 -1.8524 0.9554
6.7382 -2.8895 -1.2078 0.9707
9.2896 -1.2840 -1.5449 0.9627
12.1572 -0.5852 -2.0051 0.9519
12.1609 0.5008 -2.0051 0.9519
12.0676 1.5827 -2.0050 0.9519
10.7512 5.6989 -2.0046 0.9519
10.1996 6.6340 -2.0044 0.9519
8.9284 7.0144 -1.8705 0.9550
8.2181 7.7357 -1.8593 0.9553
6.6111 8.9330 -1.8308 0.9559
4.3890 11.3372 -2.0027 0.9519
3.3605 11.6816 -2.0025 0.9519
1.2326 12.0891 -2.0019 0.9519
0.1501 12.1490 -2.0016 0.9519
-0.9332 12.1123 -2.0013 0.9519
-2.2470 6.2593 -1.0956 0.9734
-7.8343 9.2699 -1.9994 0.9520
-8.6285 8.5338 -1.9992 0.9520
-9.2823 6.3692 -1.8545 0.9554
-9.8123 5.5161 -1.8544 0.9554
-9.3041 3.2246 -1.6222 0.9609
-10.9206 2.7231 -1.8541 0.9554
-11.9853 1.8742 -1.9984 0.9520
-12.1276 -0.2836 -1.9984 0.9520
-11.8852 -2.4326 -1.9985 0.9520
-10.2883 -6.4344 -1.9991 0.9520
-9.6747 -7.3265 -1.9992 0.9520
-5.1451 -9.9704 -1.8483 0.9555
-1.3370 -11.1463 -1.8494 0.9555
1.6603 -11.1077 -1.8502 0.9555
2.6441 -10.9171 -1.8505 0.9555
3.6072 -10.6394 -1.8507 0.9555
6.2959 -9.3096 -1.8514 0.9555
4.4210 -5.4239 -1.1527 0.9720
8.5373 -7.3144 -1.8520 0.9554
9.1560 -6.5249 -1.8522 0.9554
9.7019 -5.6832 -1.8523 0.9554
6.8256 -1.8314 -1.1642 0.9718
8.3413 -1.4567 -1.3949 0.9663
12.1287 -1.0169 -2.0051 0.9519
12.1711 0.0682 -2.0051 0.9519
11.3781 4.3168 -2.0048 0.9519
10.4293 6.2675 -2.0045 0.9519
9.8283 7.1715 -2.0043 0.9519
6.1254 9.2801 -1.8318 0.9559
2.7284 11.8441 -2.0023 0.9519
1.6616 12.0384 -2.0020 0.9519
-1.5819 12.0437 -2.0011 0.9519
-3.6941 11.5681 -2.0005 0.9520
-5.6880 10.7255 -2.0000 0.9520
-6.6205 10.1746 -1.9998 0.9520
-7.5002 9.5429 -1.9995 0.9520
-6.2166 6.6017 -1.4938 0.9639
-9.0736 8.0579 -1.9991 0.9520
-9.6103 5.8615 -1.8544 0.9554
-10.0939 4.9812 -1.8543 0.9554
7.8103 -6.0051 -1.8518 0.9607
8.3151 -5.2854 -1.8519 0.9607
7.6288 -1.6197 -1.4659 0.9688
10.6604 -0.3274 -2.0047 0.9575
10.1015 3.4184 -2.0045 0.9575
9.7561 4.3049 -2.0043 0.9575
8.2676 6.7311 -2.0039 0.9575
7.0827 6.9032 -1.8590 0.9605
5.7432 8.0494 -1.8586 0.9606
5.0023 8.5283 -1.8584 0.9606
4.2217 8.9392 -1.8582 0.9606
1.8384 10.4917 -2.0021 0.9576
-0.0536 10.6486 -2.0015 0.9576
-1.9430 10.4672 -2.0010 0.9576
-2.8679 10.2511 -2.0008 0.9576
-2.3282 6.1474 -1.2356 0.9736
-3.4589 7.1369 -1.4907 0.9682
-4.2210 7.0329 -1.5417 0.9672
-6.2667 8.5986 -1.9999 0.9576
-7.0075 8.0050 -1.9997 0.9576
-4.4911 4.2900 -1.1674 0.9750
-7.7155 6.1534 -1.8549 0.9606
-6.0785 4.0172 -1.3695 0.9708
-8.6844 4.6851 -1.8547 0.9606
-9.3774 3.0684 -1.8546 0.9606
-10.5337 1.4600 -1.9988 0.9576
-10.3803 -2.3134 -1.9990 0.9576
-9.8055 -4.1201 -1.9991 0.9576
-7.7371 -7.2774 -1.9965 0.9577
-6.5324 -7.3473 -1.8479 0.9608
-5.1251 -8.3922 -1.8483 0.9608
-4.3572 -8.8167 -1.8485 0.9608
-3.5544 -9.1711 -1.8487 0.9608
-2.7232 -9.4526 -1.8490 0.9608
-1.0018 -9.7884 -1.8495 0.9607
-0.1253 -9.8401 -1.8497 0.9607
0.7523 -9.8133 -1.8499 0.9607
1.6242 -9.7085 -1.8502 0.9607
2.4834 -9.5262 -1.8504 0.9607
3.3231 -9.2681 -1.8506 0.9607
4.1364 -8.9360 -1.8508 0.9607
4.9170 -8.5327 -1.8511 0.9607
5.6586 -8.0614 -1.8512 0.9607
7.0013 -6.9298 -1.8516 0.9607
7.5918 -6.2787 -1.8517 0.9607
8.5871 -4.8316 -1.8520 0.9607
6.7469 -3.0394 -1.3909 0.9703
6.6031 -2.2914 -1.3137 0.9720
7.0017 -1.7488 -1.3565 0.9711
8.8990 -1.3951 -1.6931 0.9640
10.6625 0.2453 -2.0047 0.9575
10.5980 1.1947 -2.0046 0.9575
9.9031 3.9555 -2.0044 0.9575
9.5106 4.8222 -2.0043 0.9575
8.5019 6.4333 -2.0040 0.9575
7.3331 6.6558 -1.8614 0.9605
6.7015 7.2730 -1.8589 0.9605
5.0244 6.5374 -1.5498 0.9670
4.5370 8.7839 -1.8583 0.9606
3.7356 9.1522 -1.8580 0.9606
3.1307 10.1830 -2.0024 0.9576
2.2103 10.4202 -2.0022 0.9576
-1.5699 10.5302 -2.0011 0.9576
-1.8225 7.5375 -1.4576 0.9689
-2.0984 6.1971 -1.2298 0.9737
-5.1484 9.3131 -2.0002 0.9576
-6.7188 8.2493 -1.9998 0.9576
-7.4921 6.4240 -1.8550 0.9606
-8.5126 4.9909 -1.8548 0.9606
-9.2626 3.3998 -1.8546 0.9606
-9.9706 2.6794 -1.9406 0.9588
-10.4752 1.8335 -1.9989 0.9576
-10.6342 -0.0556 -1.9988 0.9576
-10.5871 -1.0032 -1.9989 0.9576
-10.4558 -1.9430 -1.9989 0.9576
-10.2414 -2.8673 -1.9990 0.9576
-9.9455 -3.7689 -1.9991 0.9576
-9.1195 -5.4756 -1.9994 0.9576
-5.4199 -8.2044 -1.8482 0.9608
-4.6676 -8.6558 -1.8484 0.9608
-3.8780 -9.0385 -1.8487 0.9608
-1.3490 -9.7461 -1.8494 0.9607
-0.4750 -9.8289 -1.8496 0.9607
1.2781 -9.7596 -1.8501 0.9607
2.1432 -9.6080 -1.8503 0.9607
3.8160 -9.0770 -1.8508 0.9607
4.6104 -8.7017 -1.8510 0.9607
5.3683 -8.2570 -1.8512 0.9607
4.2650 -5.4309 -1.2980 0.9723
6.7504 -7.1740 -1.8515 0.9607
7.9182 -5.8624 -1.8518 0.9607
6.7904 -3.3542 -1.4236 0.9696
6.6659 -2.5821 -1.3436 0.9713
10.6102 -1.0839 -2.0047 0.9575
10.6339 0.8173 -2.0046 0.9575
10.5185 1.7618 -2.0046 0.9575
10.0377 3.6011 -2.0044 0.9575
9.6762 4.4813 -2.0043 0.9575
9.2376 5.3255 -2.0042 0.9575
8.7255 6.1272 -2.0040 0.9575
6.3011 7.6217 -1.8588 0.9606
5.5960 8.1521 -1.8586 0.9606
3.4410 6.1183 -1.3194 0.9718
4.0587 9.0141 -1.8581 0.9606
2.9833 8.6026 -1.7114 0.9636
1.2862 8.2148 -1.5629 0.9667
-1.1947 10.5799 -2.0012 0.9576
-2.1327 10.4299 -2.0010 0.9576
-3.0535 10.1971 -2.0007 0.9576
-3.9497 9.8831 -2.0005 0.9576
-4.8144 9.4906 -2.0003 0.9576
-5.1109 6.7516 -1.5916 0.9661
-7.2593 6.6864 -1.8551 0.9606
-9.1360 3.7269 -1.8546 0.9606
-9.3081 -5.1479 -1.9993 0.9576
-8.8128 -5.9575 -1.9994 0.9576
-7.5937 -7.4069 -1.9938 0.9577
-5.7078 -8.0062 -1.8481 0.9608
-4.9721 -8.4841 -1.8483 0.9608
-2.5512 -9.5007 -1.8490 0.9608
0.0533 -9.8410 -1.8497 0.9607
0.9304 -9.7983 -1.8500 0.9607
2.6560 -9.4798 -1.8504 0.9607
4.2981 -8.8597 -1.8509 0.9607
5.8041 -7.9575 -1.8513 0.9607
6.5927 -2.1544 -1.3037 0.9722
7.3943 -1.7048 -1.4263 0.9696
9.2446 -1.2778 -1.7541 0.9627
10.6531 -0.5128 -2.0047 0.9575
10.6563 0.4388 -2.0047 0.9575
9.4213 4.9940 -2.0042 0.9575
8.3836 6.5864 -2.0039 0.9575
7.2073 6.7843 -1.8605 0.9605
5.8825 7.9484 -1.8586 0.9606
5.1500 8.4402 -1.8584 0.9606
2.0207 10.4584 -2.0021 0.9576
1.0803 10.5955 -2.0019 0.9576
0.1316 10.6482 -2.0016 0.9576
-0.8179 10.6162 -2.0013 0.9576
-1.9568 7.4943 -1.4559 0.9690
-2.2207 6.1863 -1.2354 0.9736
-4.0787 7.0717 -1.5344 0.9673
-6.1163 8.7064 -1.9999 0.9576
-7.5636 7.4807 -1.9995 0.9576
-7.6074 6.2868 -1.8550 0.9606
-8.1369 5.5833 -1.8548 0.9606
-8.6016 4.8355 -1.8547 0.9606
-8.9980 4.0493 -1.8546 0.9606
-10.3186 2.5730 -1.9989 0.9576
-10.5067 1.6430 -1.9988 0.9576
-10.5672 -1.1953 -1.9989 0.9576
-10.4189 -2.1325 -1.9989 0.9576
-10.1877 -3.0528 -1.9990 0.9576
-9.8756 -3.9489 -1.9991 0.9576
-9.4849 -4.8137 -1.9992 0.9576
-8.4807 -6.4223 -1.9995 0.9576
-7.8726 -7.1509 -1.9991 0.9576
-5.9885 -7.7980 -1.8481 0.9608
-2.8871 -9.4036 -1.8489 0.9608
-1.1718 -9.7693 -1.8494 0.9607
-0.2965 -9.8361 -1.8496 0.9607
0.5815 -9.8247 -1.8499 0.9607
2.3173 -9.5678 -1.8504 0.9607
3.1613 -9.3243 -1.8506 0.9607
4.7678 -8.6168 -1.8510 0.9607
4.3898 -5.3855 -1.3059 0.9721
6.8796 -7.0504 -1.8516 0.9607
7.4813 -6.4097 -1.8517 0.9607
8.0234 -5.7178 -1.8519 0.9607
8.5017 -4.9802 -1.8520 0.9607
6.8062 -3.2097 -1.4144 0.9698
6.6218 -2.4277 -1.3256 0.9717
8.4861 -1.4820 -1.6192 0.9655
10.6281 -0.8911 -2.0047 0.9575
10.6652 0.0598 -2.0047 0.9575
10.6173 1.0102 -2.0046 0.9575
10.4847 1.9525 -2.0046 0.9575
9.1393 5.4923 -2.0042 0.9575
6.6245 6.9431 -1.8037 0.9617
5.1522 6.4677 -1.5542 0.9669
5.4470 8.2522 -1.8585 0.9606
4.6892 8.7039 -1.8583 0.9606
1.9164 5.8680 -1.1603 0.9752
1.4563 10.5509 -2.0020 0.9576
0.5100 10.6373 -2.0017 0.9576
-0.3247 7.8496 -1.4767 0.9685
-3.0703 7.2953 -1.4877 0.9683
-4.9858 9.4015 -2.0002 0.9576
-7.2932 7.7451 -1.9996 0.9576
-7.9335 5.8691 -1.8549 0.9606
-6.4403 3.9280 -1.4179 0.9698
5.8849 -6.4863 -1.8513 0.9648
7.3928 -4.6992 -1.8517 0.9648
6.5568 -2.6777 -1.4971 0.9715
9.4778 -0.2911 -2.0044 0.9620
9.2165 2.2267 -2.0042 0.9620
8.9810 3.0392 -2.0042 0.9620
7.3508 5.9847 -2.0037 0.9620
5.7246 6.6740 -1.8586 0.9647
5.1065 7.1570 -1.8584 0.9647
3.7538 7.9483 -1.8581 0.9647
3.0301 8.2503 -1.8579 0.9647
2.2824 8.4866 -1.8576 0.9647
1.5167 8.6553 -1.8574 0.9647
-0.0477 9.4689 -2.0016 0.9620
-0.8914 9.4259 -2.0013 0.9620
-1.7278 9.3079 -2.0011 0.9620
-3.4590 7.1370 -1.6765 0.9681
-2.8571 4.7604 -1.1736 0.9776
-5.7817 6.6048 -1.8555 0.9647
-4.4911 4.2900 -1.3128 0.9749
-6.8616 5.4724 -1.8552 0.9648
-7.7233 4.1667 -1.8550 0.9648
-9.2152 2.1284 -1.9992 0.9621
-9.3681 1.2985 -1.9992 0.9621
-9.4465 0.4583 -1.9992 0.9621
-9.4499 -0.3855 -1.9992 0.9621
-9.0119 -2.8722 -1.9993 0.9621
-7.4417 -5.8419 -1.9998 0.9621
-6.2712 -7.0535 -1.9950 0.9621
-4.5577 -7.4630 -1.8484 0.9649
-3.8747 -7.8404 -1.8486 0.9649
-3.1608 -8.1554 -1.8488 0.9649
-2.4216 -8.4056 -1.8490 0.9649
0.6690 -8.7259 -1.8499 0.9649
2.2082 -8.4704 -1.8503 0.9648
3.6779 -7.9454 -1.8507 0.9648
4.3718 -7.5867 -1.8509 0.9648
5.0311 -7.1675 -1.8511 0.9648
5.6505 -6.6911 -1.8512 0.9648
6.2249 -6.1613 -1.8514 0.9648
7.2209 -4.9588 -1.8516 0.9648
9.4614 -0.6278 -2.0044 0.9620
9.0835 2.7181 -2.0042 0.9620
8.8047 3.5168 -2.0041 0.9620
7.5591 5.7198 -2.0037 0.9620
7.0186 6.3703 -2.0036 0.9620
5.9584 6.4665 -1.8587 0.9647
4.7147 7.4203 -1.8583 0.9647
3.1464 6.0915 -1.4492 0.9724
3.3215 8.1378 -1.8579 0.9647
1.8234 8.5963 -1.8575 0.9647
1.0498 8.7236 -1.8573 0.9647
0.2889 9.4651 -2.0017 0.9620
-1.3960 9.3638 -2.0012 0.9620
-1.8226 7.5376 -1.6392 0.9688
-2.0946 6.1857 -1.3805 0.9737
-3.8224 8.6580 -2.0005 0.9620
-4.5784 8.2820 -2.0003 0.9620
-4.9152 7.2740 -1.8557 0.9647
-6.6629 5.7130 -1.8552 0.9648
-5.7169 4.0773 -1.4843 0.9717
-7.5705 4.4386 -1.8550 0.9648
-8.3448 3.0629 -1.8790 0.9643
-9.1338 2.4545 -1.9992 0.9621
-9.3161 1.6306 -1.9992 0.9621
-9.4243 0.7937 -1.9992 0.9621
-9.4156 -0.8922 -1.9992 0.9621
-9.2988 -1.7280 -1.9992 0.9621
-8.5114 -4.1271 -1.9995 0.9621
-7.6444 -5.5735 -1.9998 0.9621
-7.1177 -6.2332 -1.9999 0.9621
-6.5323 -6.8413 -1.9995 0.9621
-5.6415 -7.0763 -1.9130 0.9637
-1.1995 -8.6665 -1.8494 0.9649
1.1365 -8.6780 -1.8500 0.9649
4.0993 -7.7370 -1.8508 0.9648
4.7730 -7.3415 -1.8510 0.9648
4.2541 -5.4170 -1.4559 0.9722
6.0018 -6.3785 -1.8513 0.9648
6.5469 -5.8186 -1.8514 0.9648
6.7750 -3.3466 -1.5973 0.9696
8.1133 -1.5692 -1.7468 0.9668
9.4331 -0.9636 -2.0044 0.9620
9.4542 0.7266 -2.0043 0.9620
8.9243 3.2017 -2.0041 0.9620
7.7578 5.4477 -2.0038 0.9620
7.2408 6.1170 -2.0036 0.9620
6.3496 6.4176 -1.9083 0.9638
5.6024 6.7767 -1.8586 0.9647
3.4410 6.1183 -1.4838 0.9717
3.6088 8.0150 -1.8580 0.9647
2.1279 8.5265 -1.8576 0.9647
1.2862 8.2148 -1.7576 0.9666
0.3622 5.4751 -1.1599 0.9778
-0.2196 9.4663 -2.0015 0.9620
-1.0623 9.4080 -2.0013 0.9620
-1.8965 9.2748 -2.0011 0.9620
-3.5124 8.7888 -2.0006 0.9620
-2.9064 4.6492 -1.1590 0.9778
-5.9006 6.4986 -1.8554 0.9647
-6.9597 5.3469 -1.8552 0.9648
-7.7976 4.0257 -1.8550 0.9648
-9.0409 2.7777 -1.9992 0.9621
-9.3901 1.1282 -1.9992 0.9621
-9.4413 -0.5570 -1.9992 0.9621
-9.3543 -1.3964 -1.9992 0.9621
-8.9583 -3.0353 -1.9994 0.9621
-6.7732 -6.6066 -2.0000 0.9621
-3.0123 -8.2116 -1.8489 0.9649
-2.2686 -8.4484 -1.8491 0.9649
-0.7327 -8.7190 -1.8495 0.9649
0.8273 -8.7125 -1.8499 0.9649
3.1039 -8.1859 -1.8505 0.9648
5.1605 -7.0751 -1.8511 0.9648
6.3358 -6.0474 -1.8514 0.9648
7.3099 -4.8270 -1.8516 0.9648
7.7114 -4.1564 -1.8517 0.9648
7.3261 -1.6891 -1.5892 0.9697
9.3929 -1.2983 -2.0043 0.9620
8.7393 3.6760 -2.0041 0.9620
7.9467 5.1687 -2.0038 0.9620
7.4539 5.8560 -2.0037 0.9620
6.9017 6.4966 -2.0035 0.9620
5.8399 6.5735 -1.8587 0.9647
5.2303 7.0672 -1.8585 0.9647
4.5791 7.5045 -1.8583 0.9647
3.1732 8.1966 -1.8579 0.9647
2.4297 8.4458 -1.8577 0.9647
0.1170 9.4686 -2.0016 0.9620
-1.5657 9.3367 -2.0012 0.9620
-1.9568 7.4943 -1.6372 0.9688
-3.9788 8.5870 -2.0005 0.9620
-4.7279 8.1974 -2.0003 0.9621
-5.6661 6.7044 -1.8555 0.9647
-6.7655 5.5910 -1.8552 0.9648
-7.2364 4.9654 -1.8551 0.9648
-7.6498 4.3004 -1.8550 0.9648
-7.7856 3.5037 -1.8047 0.9657
-8.6249 2.9893 -1.9295 0.9634
-9.1768 2.2883 -1.9992 0.9621
-9.4371 0.6225 -1.9992 0.9621
-9.4551 -0.2211 -1.9992 0.9621
-9.0604 -2.7150 -1.9993 0.9621
-8.4352 -4.2810 -1.9995 0.9621
-8.0205 -5.0161 -1.9996 0.9621
-7.0035 -6.3615 -1.9999 0.9621
-6.3998 -6.9508 -1.9972 0.9621
-5.3973 -7.0281 -1.8731 0.9644
-4.6867 -7.3825 -1.8484 0.9649
-4.0104 -7.7716 -1.8486 0.9649
-3.3021 -8.0990 -1.8488 0.9649
-2.5673 -8.3620 -1.8490 0.9649
-1.8120 -8.5586 -1.8492 0.9649
-0.2636 -8.7463 -1.8496 0.9649
1.2939 -8.6561 -1.8501 0.9648
2.0605 -8.5073 -1.8503 0.9648
3.5390 -8.0080 -1.8507 0.9648
6.1167 -6.2686 -1.8513 0.9648
6.6516 -5.6988 -1.8515 0.9648
7.5587 -4.4278 -1.8517 0.9648
6.6870 -3.1534 -1.5628 0.9702
6.4617 -2.3690 -1.4548 0.9723
8.4514 -1.4759 -1.8135 0.9655
9.4491 -0.7922 -2.0044 0.9620
9.4394 0.8981 -2.0043 0.9620
9.3216 1.7359 -2.0043 0.9620
9.1295 2.5597 -2.0042 0.9620
8.8646 3.3632 -2.0041 0.9620
8.1256 4.8831 -2.0039 0.9620
7.6575 5.5876 -2.0037 0.9620
6.0766 6.3689 -1.8607 0.9647
5.1522 6.4677 -1.7479 0.9668
4.1694 7.7390 -1.8582 0.9647
1.9727 8.5635 -1.8576 0.9647
1.2014 8.7042 -1.8573 0.9647
0.2628 5.4806 -1.1598 0.9778
-0.3247 7.8496 -1.6607 0.9684
-2.0645 9.2386 -2.0010 0.9620
-3.6713 8.7234 -2.0006 0.9620
-4.7881 7.3585 -1.8557 0.9647
-7.4923 4.5696 -1.8550 0.9648
6.7061 -4.2627 -1.8675 0.9679
7.5547 -3.9039 -1.9986 0.9657
6.6967 -2.7348 -1.7001 0.9707
6.4708 -1.9907 -1.5911 0.9726
8.4340 1.2557 -2.0040 0.9656
8.0765 2.7331 -2.0039 0.9656
7.8004 3.4420 -2.0038 0.9656
7.0646 4.7718 -2.0036 0.9656
6.1042 5.9495 -2.0033 0.9656
2.0527 7.6327 -1.8576 0.9680
1.3641 7.7845 -1.8574 0.9680
-1.4099 5.0394 -1.2299 0.9787
-2.8571 4.7605 -1.3049 0.9774
-4.6507 6.3813 -1.8558 0.9681
-5.2006 5.9409 -1.8556 0.9681
-4.4912 4.2900 -1.4597 0.9748
-6.1720 4.9224 -1.8554 0.9681
-6.0786 4.0173 -1.7124 0.9705
-6.9472 3.7479 -1.8552 0.9681
-7.5412 3.2372 -1.9288 0.9668
-8.2892 1.9145 -1.9994 0.9656
-8.4268 1.1680 -1.9994 0.9656
-8.5003 -0.3468 -1.9994 0.9656
-8.4357 -1.1031 -1.9995 0.9656
-8.1063 -2.5835 -1.9996 0.9656
-7.8441 -3.2959 -1.9997 0.9656
-7.1350 -4.6368 -1.9999 0.9656
-6.1992 -5.8308 -2.0002 0.9656
-3.4851 -7.0520 -1.8487 0.9682
0.6016 -7.8479 -1.8499 0.9682
1.2989 -7.7639 -1.8500 0.9682
3.3077 -7.1456 -1.8506 0.9682
4.5246 -6.4459 -1.8509 0.9682
5.0816 -6.0174 -1.8511 0.9682
5.5981 -5.5409 -1.8512 0.9682
6.4938 -4.4595 -1.8514 0.9681
6.5732 -2.2810 -1.6352 0.9718
8.4243 -1.3207 -2.0041 0.9656
8.5249 0.1961 -2.0041 0.9656
8.4734 0.9552 -2.0041 0.9656
8.3543 1.7066 -2.0040 0.9656
7.9180 3.1626 -2.0039 0.9656
7.6042 3.8556 -2.0038 0.9656
7.2299 4.5178 -2.0036 0.9656
6.3120 5.7289 -2.0034 0.9656
5.7757 6.2683 -2.0032 0.9656
1.6399 7.7314 -1.8575 0.9680
0.9442 7.8460 -1.8573 0.9680
0.1657 5.4281 -1.2763 0.9779
-1.8131 7.4983 -1.8131 0.9688
-3.8207 6.9113 -1.8560 0.9681
-4.9863 6.1221 -1.8557 0.9681
-5.5117 5.6529 -1.8556 0.9681
-5.9933 5.1388 -1.8554 0.9681
-6.4271 4.5839 -1.8553 0.9681
-6.8097 3.9925 -1.8552 0.9681
-7.9867 2.9315 -1.9995 0.9656
-8.2160 2.2079 -1.9995 0.9656
-8.3800 1.4668 -1.9994 0.9656
-8.4773 0.7140 -1.9994 0.9656
-8.3644 -1.5543 -1.9995 0.9656
-8.1929 -2.2938 -1.9996 0.9656
-7.9561 -3.0150 -1.9996 0.9656
-7.6561 -3.7123 -1.9997 0.9656
-6.8761 -5.0133 -2.0000 0.9656
-6.4023 -5.6067 -2.0001 0.9656
-5.3004 -6.6485 -1.9983 0.9657
-4.5018 -6.8146 -1.9195 0.9670
-3.1017 -7.2293 -1.8488 0.9682
-1.7692 -7.6667 -1.8492 0.9682
-0.3799 -7.8606 -1.8496 0.9682
0.3223 -7.8640 -1.8498 0.9682
1.0221 -7.8048 -1.8500 0.9682
1.7139 -7.6834 -1.8502 0.9682
2.3922 -7.5008 -1.8503 0.9682
4.2926 -6.6024 -1.8508 0.9682
5.8877 -5.2327 -1.8513 0.9682
6.3311 -4.6873 -1.8514 0.9682
6.9002 -4.2121 -1.9000 0.9673
6.6690 -2.5833 -1.6809 0.9710
6.6548 -1.9158 -1.6275 0.9719
8.3720 -1.6192 -2.0041 0.9656
8.4831 -0.8666 -2.0041 0.9656
8.5020 0.6534 -2.0041 0.9656
8.2505 2.1525 -2.0040 0.9656
8.0255 2.8793 -2.0039 0.9656
6.9767 4.8992 -2.0036 0.9656
5.9951 6.0592 -2.0033 0.9656
5.0696 6.1321 -1.8699 0.9678
2.5899 7.4682 -1.8577 0.9680
1.9138 7.6685 -1.8576 0.9680
0.3576 5.4053 -1.2732 0.9780
-0.8865 7.8506 -1.8568 0.9681
-2.2659 7.5669 -1.8564 0.9681
-2.9310 7.3341 -1.8562 0.9681
-3.5728 7.0430 -1.8561 0.9681
-2.9011 4.6406 -1.2862 0.9778
-4.7657 6.2957 -1.8558 0.9681
-5.8070 5.3487 -1.8555 0.9681
-7.0140 3.6212 -1.8552 0.9681
-8.1324 2.4985 -1.9995 0.9656
-8.3226 1.7637 -1.9994 0.9656
-8.5034 0.2579 -1.9994 0.9656
-8.4926 -0.5010 -1.9994 0.9656
-8.4143 -1.2561 -1.9995 0.9656
-8.2691 -2.0011 -1.9995 0.9656
-7.7830 -3.4378 -1.9997 0.9656
-7.4460 -4.1181 -1.9998 0.9656
-5.5389 -6.4624 -2.0004 0.9656
-4.9162 -6.8958 -1.9904 0.9658
-3.9769 -6.7861 -1.8486 0.9682
-2.7094 -7.3858 -1.8489 0.9682
-1.3552 -7.7511 -1.8493 0.9682
-0.6590 -7.8419 -1.8495 0.9682
0.0426 -7.8702 -1.8497 0.9682
1.4397 -7.7392 -1.8501 0.9682
2.1240 -7.5808 -1.8503 0.9682
2.7915 -7.3620 -1.8504 0.9682
3.4369 -7.0845 -1.8506 0.9682
4.0550 -6.7506 -1.8508 0.9682
4.6410 -6.3628 -1.8509 0.9682
5.1901 -5.9243 -1.8511 0.9682
6.5737 -4.3409 -1.8514 0.9681
7.4788 -4.0310 -1.9968 0.9657
6.8467 -2.9360 -1.7508 0.9699
8.4469 -1.1675 -2.0041 0.9656
8.5199 0.3509 -2.0041 0.9656
8.4546 1.1089 -2.0040 0.9656
8.3219 1.8580 -2.0040 0.9656
8.1229 2.5923 -2.0039 0.9656
7.5329 3.9930 -2.0037 0.9656
6.7034 5.2664 -2.0035 0.9656
6.2068 5.8425 -2.0033 0.9656
5.5261 6.2203 -1.9555 0.9664
4.7038 6.3558 -1.8583 0.9680
4.1182 6.7492 -1.8582 0.9680
1.4993 7.7597 -1.8574 0.9680
0.8016 7.8617 -1.8572 0.9681
-1.3065 7.7912 -1.8567 0.9681
-1.3057 5.0009 -1.2147 0.9790
-3.3203 7.1658 -1.8561 0.9681
-4.5391 6.4613 -1.8558 0.9681
-5.0966 6.0305 -1.8557 0.9681
-5.6134 5.5518 -1.8555 0.9681
-6.5092 4.4664 -1.8553 0.9681
-6.8810 3.8682 -1.8552 0.9681
-8.2547 2.0584 -1.9995 0.9656
-8.4052 1.3144 -1.9994 0.9656
-8.4889 0.5600 -1.9994 0.9656
-8.0509 -2.4125 -1.9753 0.9661
-6.7840 -5.1374 -2.0000 0.9656
-6.2995 -5.7221 -2.0001 0.9656
-5.1739 -6.7372 -1.9964 0.9657
-4.3011 -6.7751 -1.8861 0.9676
-3.6071 -6.9902 -1.8487 0.9682
-2.3091 -7.5211 -1.8491 0.9682
-0.9372 -7.8132 -1.8494 0.9682
-0.2371 -7.8664 -1.8496 0.9682
1.8531 -7.6512 -1.8502 0.9682
3.8124 -6.8902 -1.8507 0.9682
4.3729 -5.3648 -1.6267 0.9720
5.9818 -5.1250 -1.8513 0.9682
6.4152 -4.5717 -1.8514 0.9681
8.4000 -1.4670 -2.0041 0.9656
8.5271 0.0478 -2.0041 0.9656
8.3828 1.5610 -2.0040 0.9656
7.3074 4.3914 -2.0037 0.9656
6.8865 5.0250 -2.0035 0.9656
6.4107 5.6184 -2.0034 0.9656
5.8840 6.1670 -2.0033 0.9656
2.5605 5.9741 -1.5276 0.9736
1.8718 5.7316 -1.4171 0.9755
1.7742 7.7018 -1.8575 0.9680
1.0805 7.8285 -1.8573 0.9680
0.2573 5.3659 -1.2626 0.9782
-0.3235 7.8200 -1.8394 0.9684
-1.7228 7.7093 -1.8566 0.9681
-4.3067 6.6187 -1.8559 0.9681
-4.8792 6.2080 -1.8557 0.9681
-5.9031 5.2423 -1.8555 0.9681
-6.3465 4.6950 -1.8554 0.9681
-6.7393 4.1104 -1.8553 0.9681
-7.0786 3.4932 -1.8552 0.9681
5.8050 -4.4633 -1.8959 0.9702
6.8750 -3.5527 -2.0037 0.9685
7.1646 -2.9259 -2.0038 0.9685
7.3971 -2.2757 -2.0038 0.9685
7.7261 0.4529 -2.0039 0.9685
7.5226 1.8174 -2.0038 0.9685
7.0799 3.1240 -2.0036 0.9685
6.7729 3.7425 -2.0035 0.9685
6.4120 4.3310 -2.0034 0.9685
6.0001 4.8850 -2.0033 0.9685
5.5404 5.4000 -2.0032 0.9685
4.2369 5.9381 -1.8887 0.9703
2.4736 6.7351 -1.8577 0.9708
1.2382 7.0660 -1.8574 0.9708
0.6034 7.1475 -1.8572 0.9708
-0.0361 7.1722 -1.8570 0.9708
-0.6752 7.1398 -1.8569 0.9708
-2.3118 6.1040 -1.6900 0.9734
-3.1267 6.4513 -1.8562 0.9708
-3.3620 4.6130 -1.4779 0.9767
-3.9311 4.4907 -1.5453 0.9756
-4.4912 4.2900 -1.6081 0.9747
-5.6029 4.4685 -1.8556 0.9708
-6.4657 3.4882 -1.9022 0.9701
-7.0972 3.0467 -1.9998 0.9686
-7.3403 2.4019 -1.9997 0.9686
-7.6499 1.0603 -1.9996 0.9686
-7.7167 -0.3148 -1.9996 0.9686
-7.5384 -1.6800 -1.9997 0.9686
-7.1208 -2.9921 -1.9999 0.9686
-6.8261 -3.6150 -1.9999 0.9686
-6.0765 -4.7701 -2.0002 0.9686
-5.1337 -5.7741 -2.0005 0.9686
-4.5989 -6.2091 -2.0006 0.9686
-3.2269 -6.5296 -1.8858 0.9704
-1.9771 -6.8627 -1.8491 0.9709
-1.3576 -7.0122 -1.8493 0.9709
-0.7273 -7.1060 -1.8495 0.9709
2.4120 -6.7271 -1.8503 0.9709
3.0022 -6.4859 -1.8505 0.9709
3.5687 -6.1929 -1.8506 0.9709
4.6123 -5.4617 -1.8509 0.9709
5.0811 -5.0292 -1.8510 0.9709
7.3114 -2.5371 -2.0038 0.9685
7.6460 -1.1987 -2.0039 0.9685
7.6906 0.8669 -2.0038 0.9685
6.5621 4.1005 -2.0035 0.9685
6.1701 4.6688 -2.0034 0.9685
3.8486 6.0572 -1.8581 0.9708
3.2931 6.3756 -1.8580 0.9708
1.4886 7.0178 -1.8575 0.9708
0.2188 7.1692 -1.8571 0.9708
-1.0574 7.0928 -1.8568 0.9708
-2.0876 6.1651 -1.6853 0.9735
-2.8955 6.5586 -1.8563 0.9708
-2.6411 4.7775 -1.4134 0.9777
-4.5265 5.5575 -1.8558 0.9708
-5.0035 5.1316 -1.8557 0.9708
-6.1819 3.6244 -1.8554 0.9708
-6.9846 3.2970 -1.9998 0.9686
-7.4586 2.0044 -1.9997 0.9686
-7.6074 1.3315 -1.9996 0.9686
-7.6958 0.6482 -1.9996 0.9686
-7.7230 -0.0404 -1.9996 0.9686
-6.6224 -3.9763 -2.0000 0.9686
-5.8119 -5.0896 -2.0003 0.9686
-5.3355 -5.5878 -2.0004 0.9686
-4.8165 -6.0416 -2.0005 0.9686
-4.2537 -6.4390 -1.9981 0.9686
-3.5561 -6.5946 -1.9399 0.9695
-1.6059 -6.9593 -1.8492 0.9709
-0.3448 -7.1352 -1.8496 0.9709
0.2926 -7.1382 -1.8498 0.9709
1.5557 -6.9741 -1.8501 0.9709
2.1713 -6.8083 -1.8503 0.9709
3.8961 -5.9927 -1.8507 0.9709
5.3439 -4.7494 -1.8511 0.9709
5.9703 -4.4202 -1.9234 0.9698
6.9385 -3.4274 -2.0037 0.9685
7.7388 -0.0971 -2.0039 0.9685
7.7166 0.5931 -2.0039 0.9685
7.6329 1.2785 -2.0038 0.9685
7.2842 2.6133 -2.0037 0.9685
6.7038 3.8648 -2.0035 0.9685
6.3323 4.4467 -2.0034 0.9685
5.4414 5.4996 -2.0031 0.9685
4.9292 5.9623 -2.0030 0.9685
4.0616 5.9168 -1.8582 0.9708
3.4267 6.0929 -1.8099 0.9715
2.9460 6.5428 -1.8579 0.9708
2.3508 6.7788 -1.8577 0.9708
-1.4365 7.0255 -1.8567 0.9708
-2.0568 6.8688 -1.8565 0.9708
-2.9011 4.6406 -1.4170 0.9776
-4.8181 5.3063 -1.8558 0.9708
-5.2715 4.8555 -1.8556 0.9708
-5.6830 4.3660 -1.8555 0.9708
-6.0493 3.8419 -1.8554 0.9708
-6.6576 3.4372 -1.9399 0.9695
-7.6679 0.9213 -1.9996 0.9686
-7.7195 0.2341 -1.9996 0.9686
-7.7097 -0.4549 -1.9997 0.9686
-7.6386 -1.1403 -1.9997 0.9686
-7.5067 -1.8166 -1.9997 0.9686
-7.3152 -2.4786 -1.9998 0.9686
-7.0654 -3.1209 -1.9999 0.9686
-6.3997 -4.3262 -2.0001 0.9686
-5.9890 -4.8797 -2.0002 0.9686
-4.4855 -6.2917 -2.0006 0.9686
-3.0656 -6.4976 -1.8602 0.9708
-2.4594 -6.7044 -1.8490 0.9709
-0.5981 -7.1182 -1.8495 0.9709
0.0387 -7.1438 -1.8497 0.9709
1.3068 -7.0248 -1.8500 0.9709
1.9279 -6.8809 -1.8502 0.9709
2.5338 -6.6823 -1.8504 0.9709
3.1196 -6.4304 -1.8505 0.9709
3.6806 -6.1272 -1.8507 0.9709
4.7107 -5.3771 -1.8509 0.9709
5.6508 -4.5033 -1.8709 0.9706
6.4356 -4.2497 -1.9968 0.9686
7.1126 -3.0500 -2.0038 0.9685
7.3563 -2.4040 -2.0038 0.9685
7.5415 -1.7387 -2.0038 0.9685
7.7305 -0.3721 -2.0039 0.9685
7.7328 0.3184 -2.0039 0.9685
7.1332 3.0004 -2.0037 0.9685
6.8371 3.6241 -2.0036 0.9685
6.4865 4.2189 -2.0035 0.9685
5.6336 5.3029 -2.0032 0.9685
5.1381 5.7835 -2.0031 0.9685
4.4209 5.9735 -1.9241 0.9698
3.1767 6.4342 -1.8579 0.9708
2.5904 6.6912 -1.8578 0.9708
-0.5509 7.1506 -1.8569 0.9708
-1.1860 7.0723 -1.8567 0.9708
-3.0140 6.5048 -1.8562 0.9708
-3.5815 6.2098 -1.8561 0.9708
-4.1205 5.8654 -1.8559 0.9708
-3.8185 4.5183 -1.5317 0.9759
-5.0958 5.0399 -1.8557 0.9708
-5.9090 4.0546 -1.8555 0.9708
-6.2886 3.5352 -1.8679 0.9706
-7.0432 3.1696 -1.9998 0.9686
-7.2975 2.5292 -1.9997 0.9686
-7.7063 0.5084 -1.9996 0.9686
-7.7210 -0.1806 -1.9996 0.9686
-7.6742 -0.8681 -1.9997 0.9686
-7.5665 -1.5487 -1.9997 0.9686
-6.8879 -3.4957 -1.9999 0.9686
-6.1584 -4.6637 -2.0002 0.9686
-5.7186 -5.1944 -2.0003 0.9686
-4.7061 -6.1281 -2.0006 0.9686
-4.1328 -6.5100 -1.9965 0.9686
-2.6960 -6.6125 -1.8489 0.9709
-2.0961 -6.8271 -1.8491 0.9709
-1.4793 -6.9874 -1.8493 0.9709
-0.2152 -7.1404 -1.8496 0.9709
0.4221 -7.1319 -1.8498 0.9709
2.2946 -6.7679 -1.8503 0.9709
2.8889 -6.5370 -1.8505 0.9709
4.3659 -5.3562 -1.7892 0.9719
6.1404 -4.3759 -1.9523 0.9693
6.9996 -3.3008 -2.0037 0.9685
7.2662 -2.6639 -2.0038 0.9685
7.6240 -1.3314 -2.0039 0.9685
7.7124 -0.6466 -2.0039 0.9685
7.7045 0.7330 -2.0038 0.9685
7.6084 1.4168 -2.0038 0.9685
7.2355 2.7451 -2.0037 0.9685
6.9617 3.3789 -2.0036 0.9685
6.6325 3.9858 -2.0035 0.9685
6.2504 4.5608 -2.0034 0.9685
4.8192 6.0497 -2.0026 0.9685
2.8267 6.5951 -1.8578 0.9708
1.3111 5.6916 -1.5122 0.9762
0.9808 7.1060 -1.8573 0.9708
0.2573 5.3659 -1.3909 0.9780
-1.5638 6.9981 -1.8566 0.9708
-1.9846 6.2147 -1.6891 0.9734
-4.4292 5.6355 -1.8559 0.9708
-5.7613 4.2621 -1.8555 0.9708
-6.1248 3.7356 -1.8575 0.9708
5.0268 -4.6336 -1.9354 0.9720
5.5975 -4.3037 -1.9988 0.9711
5.9726 -3.7964 -2.0035 0.9710
6.2874 -3.2491 -2.0035 0.9710
6.7648 -2.0812 -2.0036 0.9710
6.9235 -1.4699 -2.0037 0.9710
7.0270 -0.8470 -2.0037 0.9710
7.0745 -0.2173 -2.0037 0.9710
7.0005 1.0423 -2.0036 0.9710
6.8796 1.6621 -2.0036 0.9710
6.7039 2.2686 -2.0035 0.9710
5.8641 3.9609 -2.0033 0.9710
5.4874 4.4676 -2.0032 0.9710
5.0670 4.9386 -2.0030 0.9710
4.1090 5.7590 -2.0028 0.9710
1.1324 6.4625 -1.8574 0.9731
-0.0330 6.5598 -1.8570 0.9731
-0.6175 6.5301 -1.8569 0.9731
-1.1970 6.4486 -1.8567 0.9731
-2.3478 4.8442 -1.5239 0.9779
-3.8615 5.2984 -1.8560 0.9731
-4.3181 4.9328 -1.8559 0.9731
-4.4912 4.2900 -1.7583 0.9745
-5.1248 4.0872 -1.8557 0.9731
-6.2177 3.3544 -2.0000 0.9711
-6.7141 2.1969 -1.9999 0.9711
-6.8831 1.5897 -1.9998 0.9711
-6.9973 0.9699 -1.9998 0.9711
-7.0559 0.3423 -1.9998 0.9711
-7.0047 -0.9160 -1.9999 0.9711
-6.8953 -1.5367 -1.9999 0.9711
-6.5133 -2.7368 -2.0000 0.9711
-6.2437 -3.3066 -2.0001 0.9711
-5.5579 -4.3631 -2.0003 0.9711
-5.1472 -4.8414 -2.0004 0.9711
-4.6955 -5.2813 -2.0006 0.9710
-3.6837 -6.0320 -2.0009 0.9710
-1.8082 -6.2767 -1.8492 0.9732
-1.2417 -6.4135 -1.8493 0.9732
-0.6652 -6.4992 -1.8495 0.9732
1.0783 -6.4452 -1.8500 0.9732
2.2059 -6.1524 -1.8503 0.9732
2.7457 -5.9317 -1.8504 0.9732
5.8324 -4.0053 -2.0030 0.9710
6.1679 -3.4704 -2.0035 0.9710
6.4529 -2.9069 -2.0036 0.9710
6.6865 -2.3203 -2.0036 0.9710
6.9924 -1.0962 -2.0037 0.9710
7.0332 0.7928 -2.0037 0.9710
6.9344 1.4165 -2.0036 0.9710
6.7804 2.0289 -2.0036 0.9710
6.3119 3.2004 -2.0034 0.9710
4.7944 5.2032 -2.0030 0.9710
3.0118 5.8310 -1.8579 0.9731
2.4799 6.0757 -1.8577 0.9731
1.9283 6.2720 -1.8576 0.9731
1.3614 6.4184 -1.8574 0.9731
0.7839 6.5136 -1.8573 0.9731
0.2001 6.5570 -1.8571 0.9731
-0.9671 6.4873 -1.8568 0.9731
-2.0843 6.1554 -1.8398 0.9733
-2.6483 5.9988 -1.8563 0.9731
-3.1723 5.7384 -1.8562 0.9731
-3.6708 5.4324 -1.8561 0.9731
-4.1402 5.0833 -1.8559 0.9731
-4.5765 4.6937 -1.8558 0.9731
-6.3886 3.0157 -1.9999 0.9711
-6.6318 2.4342 -1.9999 0.9711
-6.8222 1.8334 -1.9999 0.9711
-6.9584 1.2179 -1.9998 0.9711
-7.0392 0.5929 -1.9998 0.9711
-7.0327 -0.6664 -1.9998 0.9711
-6.9455 -1.2907 -1.9999 0.9711
-6.8030 -1.9046 -1.9999 0.9711
-6.6063 -2.5035 -2.0000 0.9711
-5.3159 -4.6553 -2.0004 0.9711
-4.4054 -5.5259 -2.0006 0.9710
-3.8956 -5.8970 -2.0008 0.9710
-2.7474 -6.4035 -1.9726 0.9714
-2.0484 -6.2640 -1.8657 0.9730
-1.4688 -6.3651 -1.8493 0.9732
-0.3154 -6.5259 -1.8496 0.9732
0.2676 -6.5286 -1.8497 0.9732
1.4228 -6.3784 -1.8501 0.9732
2.5331 -6.0254 -1.8504 0.9732
3.0603 -5.7761 -1.8505 0.9732
4.4917 -4.7736 -1.8555 0.9731
5.1715 -4.5961 -1.9586 0.9716
5.6786 -4.2043 -2.0002 0.9711
6.3454 -3.1344 -2.0035 0.9710
6.9490 -1.3440 -2.0037 0.9710
7.0773 -0.0888 -2.0037 0.9710
7.0570 0.5424 -2.0037 0.9710
6.9804 1.1692 -2.0036 0.9710
6.8483 1.7867 -2.0036 0.9710
6.1308 3.5345 -2.0034 0.9710
5.7911 4.0667 -2.0033 0.9710
4.9764 5.0297 -2.0030 0.9710
4.0037 5.8326 -2.0027 0.9710
3.2172 5.7204 -1.8579 0.9731
2.1500 6.1997 -1.8576 0.9731
1.5887 6.3662 -1.8575 0.9731
-1.8812 6.2825 -1.8565 0.9731
-2.4335 6.0893 -1.8564 0.9731
-2.9664 5.8477 -1.8563 0.9731
-2.9011 4.6407 -1.5493 0.9775
-3.9570 5.2273 -1.8560 0.9731
-5.1981 3.9935 -1.8557 0.9731
-6.9108 1.4645 -1.9998 0.9711
-7.0609 0.2142 -1.9998 0.9711
-7.0520 -0.4161 -1.9998 0.9711
-6.9869 -1.0430 -1.9999 0.9711
-6.8663 -1.6616 -1.9999 0.9711
-6.6910 -2.2671 -2.0000 0.9711
-5.4779 -4.4633 -2.0003 0.9711
-4.1027 -5.7547 -2.0007 0.9710
-2.3177 -6.3181 -1.9052 0.9724
-1.1251 -6.4351 -1.8494 0.9732
-0.5471 -6.5103 -1.8495 0.9732
0.0354 -6.5337 -1.8497 0.9732
0.6177 -6.5051 -1.8498 0.9732
1.1952 -6.4247 -1.8500 0.9732
1.7632 -6.2931 -1.8501 0.9732
3.3661 -5.6037 -1.8506 0.9732
3.8524 -5.2817 -1.8507 0.9732
4.3082 -4.9176 -1.8508 0.9732
6.5046 -2.7893 -2.0036 0.9710
6.7275 -2.1985 -2.0036 0.9710
6.8968 -1.5901 -2.0037 0.9710
7.0112 -0.9691 -2.0037 0.9710
7.0697 -0.3403 -2.0037 0.9710
6.9075 1.5422 -2.0036 0.9710
6.7424 2.1517 -2.0036 0.9710
5.9321 3.8583 -2.0033 0.9710
5.5643 4.3715 -2.0032 0.9710
5.1522 4.8498 -2.0031 0.9710
4.2086 5.6867 -2.0028 0.9710
3.5205 5.7696 -1.9134 0.9723
2.9054 5.8846 -1.8579 0.9731
2.3691 6.1196 -1.8577 0.9731
0.6655 6.5267 -1.8572 0.9731
-0.5039 6.5400 -1.8569 0.9731
-1.3057 5.0009 -1.4632 0.9787
-2.7568 5.9496 -1.8563 0.9731
-4.6609 4.6098 -1.8558 0.9731
-5.0530 4.1758 -1.8557 0.9731
-6.4423 2.8992 -1.9999 0.9711
-6.8544 1.7092 -1.9998 0.9711
-7.0623 -0.1652 -1.9998 0.9711
-6.9209 -1.4165 -1.9999 0.9711
-6.7673 -2.0278 -1.9999 0.9711
-6.5598 -2.6231 -2.0000 0.9711
-6.3002 -3.1974 -2.0001 0.9711
-5.2306 -4.7511 -2.0004 0.9711
-4.7866 -5.1987 -2.0005 0.9710
-3.2354 -6.2699 -1.9973 0.9711
-2.5988 -6.3741 -1.9487 0.9718
-1.9171 -6.2442 -1.8491 0.9732
-1.3530 -6.3908 -1.8493 0.9732
-0.1968 -6.5306 -1.8496 0.9732
0.9660 -6.4629 -1.8499 0.9732
1.5384 -6.3516 -1.8501 0.9732
3.1647 -5.7196 -1.8505 0.9732
3.6622 -5.4152 -1.8507 0.9732
4.1306 -5.0675 -1.8508 0.9732
4.6229 -4.7376 -1.8739 0.9729
5.3196 -4.5576 -1.9831 0.9713
5.7580 -4.1033 -2.0016 0.9710
6.8359 -1.8342 -2.0037 0.9710
6.9723 -1.2176 -2.0037 0.9710
7.0531 -0.5913 -2.0037 0.9710
7.0460 0.6704 -2.0037 0.9710
6.0656 3.6451 -2.0033 0.9710
5.3214 4.6637 -2.0031 0.9710
4.8842 5.1191 -2.0030 0.9710
4.4082 5.5337 -2.0029 0.9710
3.8499 5.8326 -1.9784 0.9714
3.1128 5.7778 -1.8579 0.9731
1.4729 6.3939 -1.8575 0.9731
0.2573 5.3659 -1.5208 0.9779
-0.2204 5.3277 -1.5095 0.9781
-0.8542 6.5032 -1.8568 0.9731
-1.4303 6.4006 -1.8567 0.9731
-4.0512 5.1546 -1.8560 0.9731
-6.3353 3.1264 -2.0000 0.9711
4.3381 -4.7815 -1.9858 0.9733
4.7811 -4.4071 -2.0000 0.9732
5.7865 -2.9902 -2.0034 0.9731
6.0302 -2.4626 -2.0034 0.9731
6.2258 -1.9154 -2.0035 0.9731
6.3718 -1.3528 -2.0035 0.9731
6.4671 -0.7795 -2.0035 0.9731
6.5108 -0.2000 -2.0035 0.9731
6.5027 0.3812 -2.0035 0.9731
6.4428 0.9592 -2.0035 0.9731
6.3315 1.5297 -2.0035 0.9731
6.1698 2.0879 -2.0034 0.9731
5.9589 2.6294 -2.0033 0.9731
5.7006 3.1499 -2.0033 0.9731
5.3969 3.6454 -2.0032 0.9731
5.0502 4.1117 -2.0031 0.9731
4.2394 4.9425 -2.0028 0.9731
3.7817 5.3003 -2.0027 0.9731
1.0423 5.9480 -1.8574 0.9750
0.5079 6.0167 -1.8572 0.9750
-0.5684 6.0104 -1.8569 0.9751
-1.1018 5.9353 -1.8568 0.9751
-3.5543 4.8768 -1.8561 0.9751
-3.9746 4.5404 -1.8560 0.9751
-5.4253 3.5855 -2.0002 0.9732
-5.7231 3.0875 -2.0001 0.9732
-5.9753 2.5651 -2.0001 0.9732
-6.4969 -0.2651 -2.0000 0.9732
-6.4475 -0.8431 -2.0000 0.9732
-5.7470 -3.0435 -2.0002 0.9732
-5.4531 -3.5438 -2.0003 0.9732
-5.1158 -4.0160 -2.0004 0.9731
-4.7377 -4.4562 -2.0005 0.9731
-2.8824 -5.8325 -2.0011 0.9731
-2.3472 -6.0562 -1.9978 0.9732
0.9924 -5.9321 -1.8499 0.9751
2.5271 -5.4593 -1.8503 0.9751
3.0038 -5.2127 -1.8505 0.9751
5.0188 -4.1507 -2.0032 0.9731
5.3690 -3.6870 -2.0033 0.9731
5.9388 -2.6753 -2.0034 0.9731
6.1537 -2.1354 -2.0035 0.9731
6.4353 -1.0089 -2.0035 0.9731
6.0487 2.4160 -2.0034 0.9731
5.8091 2.9454 -2.0033 0.9731
5.1933 3.9297 -2.0031 0.9731
3.9679 5.1627 -2.0027 0.9731
3.4917 5.4954 -2.0026 0.9731
2.9041 5.6224 -1.9464 0.9739
0.7214 5.9951 -1.8573 0.9750
-1.4187 5.8674 -1.8567 0.9751
-1.9359 5.7171 -1.8565 0.9751
-3.3788 5.0002 -1.8562 0.9751
-4.5852 3.9315 -1.8577 0.9750
-5.6098 3.2890 -2.0002 0.9732
-6.1043 2.2406 -2.0000 0.9732
-6.2796 1.6875 -2.0000 0.9732
-6.3930 -1.1880 -2.0000 0.9732
-6.0808 -2.3044 -2.0001 0.9732
-5.5755 -3.3477 -2.0003 0.9732
-3.5857 -5.4278 -2.0009 0.9731
-2.5636 -5.9752 -1.9999 0.9732
-1.4091 -6.1062 -1.9275 0.9741
-0.8286 -5.9865 -1.8589 0.9750
0.2463 -6.0088 -1.8497 0.9751
1.3095 -5.8705 -1.8500 0.9751
2.3314 -5.5455 -1.8503 0.9751
2.8171 -5.3171 -1.8508 0.9751
3.2843 -5.0516 -1.8533 0.9751
4.4468 -4.7259 -1.9959 0.9732
4.8630 -4.3220 -2.0011 0.9731
5.5593 -3.3936 -2.0033 0.9731
5.8399 -2.8847 -2.0034 0.9731
6.2596 -1.8020 -2.0035 0.9731
6.4802 -0.6620 -2.0035 0.9731
6.4947 0.4992 -2.0035 0.9731
6.4243 1.0760 -2.0035 0.9731
6.1308 2.1995 -2.0034 0.9731
5.3298 3.7427 -2.0031 0.9731
4.5800 4.6291 -2.0029 0.9731
4.1490 5.0186 -2.0028 0.9731
3.6849 5.3680 -2.0027 0.9731
3.1915 5.6747 -2.0025 0.9731
1.9788 5.7061 -1.8576 0.9750
1.4622 5.8593 -1.8575 0.9750
0.9341 5.9658 -1.8573 0.9750
0.3576 5.4055 -1.6663 0.9776
-0.1400 6.0359 -1.8570 0.9750
-0.6774 5.9990 -1.8569 0.9751
-2.2399 5.6047 -1.8565 0.9751
-2.7304 5.3824 -1.8563 0.9751
-3.6422 4.8114 -1.8561 0.9751
-4.4381 4.0878 -1.8559 0.9751
-4.9767 3.8234 -1.9303 0.9741
-5.4895 3.4864 -2.0002 0.9732
-6.4993 0.1971 -2.0000 0.9732
-6.4911 -0.3830 -2.0000 0.9732
-6.4312 -0.9600 -2.0000 0.9732
-6.3201 -1.5295 -2.0000 0.9732
-6.1588 -2.0868 -2.0001 0.9732
-5.6908 -3.1474 -2.0003 0.9732
-5.3879 -3.6423 -2.0003 0.9732
-4.2330 -4.9388 -2.0007 0.9731
-1.0549 -6.0335 -1.8839 0.9747
-0.5035 -5.9921 -1.8495 0.9751
0.5685 -5.9872 -1.8498 0.9751
2.1328 -5.6247 -1.8502 0.9751
2.6258 -5.4126 -1.8504 0.9751
3.6205 -4.9637 -1.8897 0.9746
6.1915 -2.0233 -2.0035 0.9731
6.3473 -1.4634 -2.0035 0.9731
6.4526 -0.8919 -2.0035 0.9731
6.5064 -0.3132 -2.0035 0.9731
6.3572 1.4193 -2.0035 0.9731
6.2052 1.9802 -2.0034 0.9731
5.7546 3.0503 -2.0033 0.9731
5.1210 4.0233 -2.0031 0.9731
4.3248 4.8680 -2.0028 0.9731
3.3913 5.5579 -2.0026 0.9731
0.6125 6.0071 -1.8572 0.9750
-2.5374 5.4762 -1.8564 0.9751
-3.4690 4.9380 -1.8561 0.9751
-4.7115 3.8936 -1.8800 0.9747
-5.3622 3.6793 -2.0002 0.9732
-5.6686 3.1866 -2.0001 0.9732
-5.9299 2.6686 -2.0001 0.9732
-6.3092 1.5732 -2.0000 0.9732
-6.4882 0.4280 -2.0000 0.9732
-6.5006 -0.1520 -2.0000 0.9732
-6.2290 -1.8665 -2.0001 0.9732
-6.0380 -2.4144 -2.0001 0.9732
-5.1848 -3.9264 -2.0004 0.9731
-4.8145 -4.3731 -2.0005 0.9731
-4.4058 -4.7851 -2.0006 0.9731
-3.9620 -5.1591 -2.0008 0.9731
-3.4866 -5.4921 -2.0009 0.9731
-2.4534 -6.0175 -1.9988 0.9732
-1.2875 -6.0813 -1.9120 0.9743
-0.7161 -5.9702 -1.8495 0.9752
-0.1812 -6.0107 -1.8496 0.9751
1.4159 -5.8458 -1.8500 0.9751
1.9314 -5.6968 -1.8502 0.9751
2.4317 -5.5024 -1.8503 0.9751
2.9127 -5.2641 -1.8504 0.9751
3.9733 -4.8746 -1.9343 0.9740
4.5342 -4.6467 -1.9969 0.9732
4.9435 -4.2354 -2.0023 0.9731
5.6200 -3.2921 -2.0033 0.9731
5.8913 -2.7782 -2.0034 0.9731
6.1156 -2.2421 -2.0035 0.9731
6.4168 -1.1206 -2.0035 0.9731
6.4911 -0.5442 -2.0035 0.9731
6.5138 0.0365 -2.0035 0.9731
6.4036 1.1925 -2.0035 0.9731
5.8594 2.8439 -2.0033 0.9731
4.8975 4.2922 -2.0030 0.9731
4.4952 4.7114 -2.0029 0.9731
3.0435 5.6491 -1.9737 0.9735
-0.2496 6.0323 -1.8570 0.9751
-1.3165 5.8912 -1.8567 0.9751
-1.8362 5.7500 -1.8566 0.9751
-2.3412 5.5630 -1.8564 0.9751
-3.2914 5.0583 -1.8562 0.9751
-3.7289 4.7445 -1.8561 0.9751
-4.5116 4.0066 -1.8559 0.9751
-5.1176 3.7859 -1.9580 0.9737
-5.8313 2.8777 -2.0001 0.9732
5.5794 -2.2785 -2.0033 0.9749
5.7604 -1.7722 -2.0034 0.9749
5.8955 -1.2517 -2.0034 0.9749
5.9837 -0.7212 -2.0034 0.9749
6.0242 -0.1850 -2.0034 0.9749
6.0166 0.3527 -2.0034 0.9749
5.9612 0.8875 -2.0034 0.9749
5.7086 1.9318 -2.0033 0.9749
4.6728 3.8044 -2.0030 0.9749
3.9226 4.5731 -2.0027 0.9749
3.4992 4.9043 -2.0026 0.9749
2.5725 5.4469 -2.0024 0.9749
1.4512 5.3962 -1.8575 0.9767
-1.9782 5.2231 -1.8565 0.9767
-4.1914 4.0036 -1.9267 0.9759
-4.7049 3.7523 -2.0004 0.9750
-5.8628 1.3541 -2.0001 0.9750
-5.9601 0.8261 -2.0001 0.9750
-6.0100 0.2916 -2.0001 0.9750
-6.0121 -0.2453 -2.0001 0.9750
-5.7333 -1.8272 -2.0002 0.9750
-5.3181 -2.8164 -2.0003 0.9750
-5.0461 -3.2793 -2.0004 0.9750
-2.6672 -5.3970 -2.0011 0.9749
1.4254 -5.4677 -1.8782 0.9765
2.9421 -5.1057 -1.9588 0.9755
3.8820 -4.5969 -2.0000 0.9750
5.6937 -1.9758 -2.0033 0.9749
5.8473 -1.4604 -2.0034 0.9749
5.9542 -0.9334 -2.0034 0.9749
6.0138 -0.3990 -2.0034 0.9749
6.0254 0.1386 -2.0034 0.9749
5.9049 1.2062 -2.0033 0.9749
5.7737 1.7277 -2.0033 0.9749
4.0828 4.4309 -2.0028 0.9749
3.6714 4.7769 -2.0027 0.9749
2.2308 5.4655 -1.9622 0.9754
1.6459 5.3536 -1.8618 0.9767
0.1655 5.4230 -1.8035 0.9774
-0.8237 5.5250 -1.8568 0.9767
-1.3128 5.4292 -1.8567 0.9767
-2.2556 5.1092 -1.8565 0.9767
-3.1266 4.6269 -1.8562 0.9767
-4.8994 3.4943 -2.0003 0.9750
-5.6488 2.0734 -2.0002 0.9750
-5.8110 1.5616 -2.0001 0.9750
-5.9270 1.0374 -2.0001 0.9750
-5.9958 0.5050 -2.0001 0.9750
-5.9159 -1.0993 -2.0002 0.9750
-5.4147 -2.6255 -2.0003 0.9750
-5.1593 -3.0979 -2.0004 0.9750
-4.1565 -4.3531 -2.0007 0.9749
-2.3738 -5.5326 -2.0012 0.9749
-1.8713 -5.7226 -2.0013 0.9749
-0.8226 -5.9429 -1.9943 0.9750
-0.2825 -5.8453 -1.9453 0.9756
0.2350 -5.7341 -1.9077 0.9761
2.2202 -5.2810 -1.9043 0.9761
3.2670 -5.0250 -1.9923 0.9751
4.8433 -3.5858 -2.0031 0.9749
5.1438 -3.1400 -2.0032 0.9749
5.6199 -2.1769 -2.0033 0.9749
5.7917 -1.6673 -2.0034 0.9749
5.9173 -1.1445 -2.0034 0.9749
6.0265 -0.0756 -2.0034 0.9749
6.0092 0.4618 -2.0034 0.9749
5.6726 2.0351 -2.0033 0.9749
5.2207 3.0098 -2.0031 0.9749
4.9314 3.4630 -2.0030 0.9749
4.2378 4.2831 -2.0028 0.9749
3.8389 4.6435 -2.0027 0.9749
3.4095 4.9669 -2.0026 0.9749
2.4731 5.4927 -2.0023 0.9749
1.8711 5.3954 -1.8982 0.9762
0.3574 5.4021 -1.7996 0.9774
-0.1295 5.5852 -1.8570 0.9767
-1.1190 5.4726 -1.8568 0.9767
-2.8857 4.6161 -1.8096 0.9773
-3.3703 4.4523 -1.8562 0.9767
-3.7535 4.1339 -1.8561 0.9767
-4.3122 3.9718 -1.9488 0.9756
-5.0798 3.2262 -2.0003 0.9750
-5.3469 2.7605 -2.0002 0.9750
-5.5715 2.2728 -2.0002 0.9750
-5.9512 -0.8884 -2.0001 0.9750
-5.2661 -2.9125 -2.0004 0.9750
-4.9858 -3.3704 -2.0004 0.9750
-4.3085 -4.2025 -2.0006 0.9749
-3.4943 -4.9013 -2.0009 0.9749
-2.5688 -5.4446 -2.0011 0.9749
-2.0735 -5.6523 -2.0013 0.9749
-1.5597 -5.8083 -1.9991 0.9750
-0.4950 -5.8901 -1.9648 0.9754
1.0337 -5.5571 -1.8789 0.9765
1.5254 -5.4446 -1.8795 0.9764
2.0205 -5.3286 -1.8943 0.9763
2.5262 -5.2074 -1.9239 0.9759
3.5403 -4.8537 -1.9970 0.9750
3.9665 -4.5276 -2.0009 0.9749
5.5389 -2.3752 -2.0033 0.9749
6.0200 -0.2898 -2.0034 0.9749
6.0219 0.2480 -2.0034 0.9749
5.9757 0.7837 -2.0034 0.9749
5.8820 1.3132 -2.0033 0.9749
5.7414 1.8322 -2.0033 0.9749
5.0515 3.2856 -2.0031 0.9749
4.7383 3.7226 -2.0030 0.9749
4.3874 4.1299 -2.0029 0.9749
3.5840 4.8427 -2.0026 0.9749
2.6668 5.4014 -2.0024 0.9749
1.5449 5.3702 -1.8575 0.9767
1.0600 5.4862 -1.8574 0.9767
0.5667 5.5584 -1.8572 0.9767
0.0690 5.5864 -1.8571 0.9767
-0.4291 5.5699 -1.8570 0.9767
-0.9238 5.5091 -1.8568 0.9767
