ply
format ascii 1.0
element vertex 1593
property float32 x
property float32 y
property float32 z
property float32 I
end_header
-4.9828 -10.0391 -1.8463 0.9556
-3.1195 -10.7678 -1.8468 0.9556
-2.1464 -11.0049 -1.8471 0.9556
-1.1560 -11.1543 -1.8474 0.9556
-0.1559 -11.2149 -1.8477 0.9555
0.8457 -11.1860 -1.8480 0.9555
1.8409 -11.0679 -1.8484 0.9555
3.7807 -10.5682 -1.8491 0.9555
4.7096 -10.1907 -1.8494 0.9555
6.4487 -9.1946 -1.8501 0.9555
7.2449 -8.5841 -1.8505 0.9555
10.0273 -6.8853 -2.0038 0.9519
11.4981 -3.9850 -2.0047 0.9519
12.1708 0.2900 -2.0056 0.9518
12.0973 1.3751 -2.0057 0.9518
11.6793 2.3985 -1.9642 0.9528
10.8188 3.2510 -1.8610 0.9552
10.3774 4.1602 -1.8418 0.9557
10.0688 5.1227 -1.8611 0.9552
9.6978 7.3625 -2.0059 0.9518
8.2335 8.9682 -2.0056 0.9518
7.3997 9.6665 -2.0055 0.9518
2.4949 11.9075 -2.0042 0.9519
0.3382 12.1574 -2.0036 0.9519
-0.7480 12.1369 -2.0032 0.9519
-2.8926 11.8063 -2.0025 0.9519
-3.9340 11.4989 -2.0021 0.9519
-4.9435 11.0998 -2.0017 0.9519
-5.9132 10.6123 -2.0013 0.9519
-6.8354 10.0403 -2.0010 0.9520
-11.4066 4.1319 -1.9986 0.9520
-11.7283 3.0971 -1.9983 0.9520
-12.0894 0.9625 -1.9979 0.9520
-12.1260 -0.1202 -1.9977 0.9520
-12.0661 -1.2018 -1.9976 0.9520
-11.9100 -2.2737 -1.9975 0.9520
-11.6591 -3.3274 -1.9974 0.9520
-10.3611 -6.2968 -1.9974 0.9520
-9.0773 -8.0390 -1.9975 0.9520
-7.5046 -9.5261 -1.9978 0.9520
-6.6252 -10.1587 -1.9980 0.9520
-2.4516 -10.9404 -1.8470 0.9556
-0.4678 -11.2056 -1.8476 0.9556
1.5323 -11.1142 -1.8483 0.9555
7.0029 -8.7818 -1.8504 0.9555
7.7601 -8.1233 -1.8507 0.9555
9.1240 -7.9846 -1.9974 0.9520
10.4329 -6.2562 -2.0040 0.9519
10.9513 -5.3010 -2.0044 0.9519
11.3823 -4.3031 -2.0046 0.9519
11.9690 -2.2117 -2.0051 0.9519
12.1199 -1.1348 -2.0054 0.9518
12.1306 1.0381 -2.0057 0.9518
10.2074 4.8406 -1.8611 0.9552
9.1839 6.5779 -1.8610 0.9552
7.6659 9.4571 -2.0055 0.9518
6.7907 10.1026 -2.0053 0.9519
5.8614 10.6672 -2.0051 0.9519
3.8707 11.5364 -2.0046 0.9519
0.6763 12.1439 -2.0037 0.9519
-0.4101 12.1537 -2.0033 0.9519
-2.5632 11.8829 -2.0026 0.9519
-3.6128 11.6045 -2.0022 0.9519
10.2357 3.0100 -2.0054 0.9575
8.8488 4.4364 -1.8606 0.9605
8.4175 5.2084 -1.8605 0.9605
8.5354 6.4010 -2.0053 0.9575
7.9298 7.1369 -2.0053 0.9575
7.2608 7.8156 -2.0051 0.9575
4.9300 9.4574 -2.0046 0.9575
4.0658 9.8585 -2.0044 0.9575
3.1694 10.1809 -2.0042 0.9575
1.3087 10.5793 -2.0036 0.9575
0.3593 10.6523 -2.0034 0.9575
-0.5927 10.6402 -2.0030 0.9576
-1.5397 10.5432 -2.0027 0.9576
-2.4740 10.3620 -2.0024 0.9576
-3.3883 10.0982 -2.0021 0.9576
-4.2753 9.7539 -2.0017 0.9576
-5.1279 9.3319 -2.0014 0.9576
-5.9392 8.8355 -2.0011 0.9576
-8.0636 6.9433 -2.0001 0.9576
-8.6498 6.1951 -1.9998 0.9576
-9.1668 5.3977 -1.9995 0.9576
-9.9778 3.6811 -1.9990 0.9576
-10.2653 2.7756 -1.9988 0.9576
-10.5932 0.9063 -1.9984 0.9577
-10.6310 -0.0426 -1.9982 0.9577
-10.5841 -0.9912 -1.9981 0.9577
-9.9424 -3.7589 -1.9979 0.9577
-9.5672 -4.6312 -1.9979 0.9577
-8.5918 -6.2585 -1.9979 0.9577
-7.9993 -7.0005 -1.9980 0.9577
-3.8722 -9.0305 -1.8468 0.9608
-3.0512 -9.3411 -1.8471 0.9608
-2.2056 -9.5774 -1.8473 0.9608
-0.4680 -9.8197 -1.8478 0.9608
0.4103 -9.8238 -1.8481 0.9608
1.2855 -9.7495 -1.8484 0.9608
2.1508 -9.5974 -1.8487 0.9608
3.8240 -9.0652 -1.8493 0.9607
5.3765 -8.2438 -1.8499 0.9607
8.5784 -6.3263 -2.0034 0.9575
9.1100 -5.5363 -2.0037 0.9575
9.5691 -4.7018 -2.0040 0.9575
10.2550 -2.9265 -2.0045 0.9575
10.4763 -1.9999 -2.0047 0.9575
10.6140 -1.0570 -2.0049 0.9575
8.9688 4.1886 -1.8606 0.9605
8.3799 5.9274 -1.9293 0.9591
7.4756 7.6108 -2.0052 0.9575
6.7661 8.2470 -2.0050 0.9575
6.0026 8.8172 -2.0049 0.9575
4.3386 9.7420 -2.0045 0.9575
1.6025 10.5393 -2.0037 0.9575
0.6555 10.6387 -2.0034 0.9575
-0.2965 10.6531 -2.0031 0.9576
-2.1850 10.4274 -2.0025 0.9576
-3.1063 10.1891 -2.0022 0.9576
-4.0025 9.8696 -2.0018 0.9576
-5.6914 8.9978 -2.0012 0.9576
-6.4706 8.4526 -2.0008 0.9576
-10.1845 3.0602 -1.9988 0.9576
-10.5642 1.2007 -1.9984 0.9576
-10.6077 -0.6964 -1.9981 0.9577
-10.3140 -2.5708 -1.9979 0.9577
-9.6924 -4.3633 -1.9979 0.9577
-9.2643 -5.2109 -1.9979 0.9577
-8.1908 -6.7752 -1.9980 0.9577
-7.5539 -7.4795 -1.9981 0.9577
-6.8567 -8.1243 -1.9982 0.9577
-6.1047 -8.7045 -1.9984 0.9577
-2.4711 -9.5119 -1.8472 0.9608
-1.6126 -9.6958 -1.8475 0.9608
0.0833 -5.9826 -1.1246 0.9759
1.0138 -9.7810 -1.8483 0.9608
1.8829 -9.6531 -1.8486 0.9608
3.5702 -9.1676 -1.8492 0.9607
5.1448 -8.3897 -1.8498 0.9607
5.8740 -7.8984 -1.8501 0.9607
6.5565 -7.3439 -1.8504 0.9607
9.8410 -4.1048 -2.0042 0.9575
10.4163 -2.2904 -2.0046 0.9575
10.5802 -1.3518 -2.0048 0.9575
10.6595 -0.4023 -2.0050 0.9575
10.5626 1.4993 -2.0053 0.9575
10.3871 2.4361 -2.0053 0.9575
9.0819 3.9375 -1.8606 0.9605
8.6942 4.7322 -1.8606 0.9605
8.2525 5.4995 -1.8640 0.9604
7.6845 7.4000 -2.0052 0.9575
5.4486 9.1692 -2.0048 0.9575
4.6081 9.6178 -2.0046 0.9575
3.7310 9.9896 -2.0043 0.9575
1.8952 10.4910 -2.0038 0.9575
0.9512 10.6168 -2.0035 0.9575
-0.9511 10.6136 -2.0029 0.9576
-1.8942 10.4846 -2.0026 0.9576
-2.8218 10.2721 -2.0023 0.9576
-3.7267 9.9776 -2.0019 0.9576
-4.6014 9.6036 -2.0016 0.9576
-5.4392 9.1531 -2.0013 0.9576
-6.2334 8.6297 -2.0009 0.9576
-7.6657 7.3817 -2.0003 0.9576
-8.2926 6.6671 -2.0000 0.9576
-9.3431 5.0853 -1.9994 0.9576
-9.7584 4.2306 -1.9991 0.9576
-10.6232 -0.4010 -1.9982 0.9577
-10.5444 -1.3474 -1.9981 0.9577
-10.1362 -3.2003 -1.9979 0.9577
-9.4057 -4.9512 -1.9979 0.9577
-5.5499 -9.0505 -1.9955 0.9577
-4.3681 -8.8006 -1.8467 0.9608
-2.7346 -9.4391 -1.8471 0.9608
-1.8816 -9.6468 -1.8474 0.9608
0.7413 -9.8049 -1.8482 0.9608
4.9092 -8.5291 -1.8497 0.9607
6.3494 -7.5230 -1.8503 0.9607
7.1116 -7.0414 -1.8811 0.9601
9.2920 -5.2263 -2.0038 0.9575
9.7226 -4.3768 -2.0041 0.9575
10.0757 -3.4920 -2.0043 0.9575
10.3483 -2.5792 -2.0046 0.9575
10.5382 -1.6456 -2.0048 0.9575
10.6439 -0.6986 -2.0049 0.9575
10.6000 1.2049 -2.0052 0.9575
10.2178 3.0704 -2.0054 0.9575
8.4975 6.4512 -2.0053 0.9575
6.4840 8.4702 -2.0050 0.9575
5.7017 9.0143 -2.0048 0.9575
4.8740 9.4862 -2.0046 0.9575
3.1092 10.1993 -2.0042 0.9575
2.1863 10.4347 -2.0039 0.9575
1.2462 10.5867 -2.0036 0.9575
0.2964 10.6541 -2.0033 0.9575
-0.6555 10.6364 -2.0030 0.9576
-3.4479 10.0779 -2.0020 0.9576
-4.3328 9.7284 -2.0017 0.9576
-5.1828 9.3014 -2.0014 0.9576
-7.4578 7.5925 -2.0004 0.9576
-8.1043 6.8956 -2.0001 0.9576
-9.6373 4.5006 -1.9992 0.9576
-9.9993 3.6221 -1.9990 0.9576
-10.4816 1.7864 -1.9985 0.9576
-10.5780 -1.0536 -1.9981 0.9577
-10.4413 -1.9933 -1.9980 0.9577
-9.5397 -4.6876 -1.9979 0.9577
-8.5547 -6.3091 -1.9979 0.9577
-7.9579 -7.0477 -1.9980 0.9577
-7.2976 -7.7302 -1.9981 0.9577
-3.8189 -9.0533 -1.8469 0.9608
-2.9960 -9.3591 -1.8471 0.9608
-1.2848 -9.7452 -1.8476 0.9608
1.3431 -9.7419 -1.8484 0.9608
2.2075 -9.5847 -1.8487 0.9608
3.8775 -9.0426 -1.8493 0.9607
8.6156 -6.2756 -2.0035 0.9575
9.5967 -4.6453 -2.0040 0.9575
9.9742 -3.7708 -2.0043 0.9575
10.2722 -2.8660 -2.0045 0.9575
10.4880 -1.9380 -2.0047 0.9575
10.6201 -0.9944 -2.0049 0.9575
10.6673 -0.0426 -2.0051 0.9575
10.2991 2.7850 -2.0054 0.9575
9.5753 3.5328 -1.9184 0.9593
8.5297 5.0227 -1.8605 0.9605
7.4305 7.6547 -2.0052 0.9575
5.1362 9.3473 -2.0047 0.9575
1.5403 10.5484 -2.0037 0.9575
-1.3083 10.5748 -2.0028 0.9576
9.0998 2.6760 -2.0050 0.9620
7.5882 5.6906 -2.0049 0.9620
7.0498 6.3449 -2.0049 0.9620
6.4551 6.9484 -2.0048 0.9620
5.8089 7.4963 -2.0046 0.9620
1.1636 9.4061 -2.0034 0.9620
0.3195 9.4712 -2.0032 0.9620
-0.5270 9.4606 -2.0029 0.9620
-2.1998 9.2136 -2.0023 0.9620
-3.0129 8.9792 -2.0020 0.9620
-3.8016 8.6732 -2.0017 0.9620
-5.2814 7.8569 -2.0011 0.9620
-7.6922 5.5093 -2.0000 0.9621
-9.3125 1.6438 -1.9989 0.9621
-9.4212 0.8061 -1.9987 0.9621
-9.4550 -0.0379 -1.9986 0.9621
-9.2967 -1.7180 -1.9984 0.9621
-9.1060 -2.5407 -1.9983 0.9621
-8.5090 -4.1190 -1.9983 0.9621
-6.5308 -6.8366 -1.9985 0.9621
-5.8949 -7.3926 -1.9986 0.9621
-5.2121 -7.8897 -1.9988 0.9621
-4.1463 -7.6912 -1.8470 0.9649
-3.4437 -8.0313 -1.8471 0.9649
-2.7135 -8.3074 -1.8473 0.9649
4.1068 -7.7265 -1.8496 0.9649
4.7807 -7.3302 -1.8499 0.9649
7.6272 -5.6249 -2.0032 0.9620
8.0998 -4.9224 -2.0035 0.9620
9.4832 -0.0939 -2.0047 0.9620
8.9181 3.2306 -2.0050 0.9620
7.2237 6.1464 -2.0049 0.9620
6.6460 6.7662 -2.0048 0.9620
5.3366 7.8389 -2.0045 0.9620
2.2557 9.2071 -2.0037 0.9620
-1.1078 9.4094 -2.0027 0.9620
-1.9428 9.2717 -2.0024 0.9620
-2.7621 9.0600 -2.0021 0.9620
-3.5591 8.7760 -2.0018 0.9620
-4.3274 8.4221 -2.0015 0.9620
-5.0610 8.0011 -2.0012 0.9620
-6.9966 6.3720 -2.0004 0.9620
-7.5363 5.7214 -2.0001 0.9621
-8.4313 4.2894 -1.9996 0.9621
-8.7794 3.5194 -1.9994 0.9621
-9.0575 2.7216 -1.9991 0.9621
-9.2634 1.9022 -1.9990 0.9621
-9.3954 1.0678 -1.9988 0.9621
-9.4343 -0.6194 -1.9985 0.9621
-9.3410 -1.4588 -1.9984 0.9621
-9.1732 -2.2865 -1.9984 0.9621
-8.9323 -3.0959 -1.9983 0.9621
-8.2396 -4.6345 -1.9983 0.9621
-7.2848 -6.0258 -1.9984 0.9621
-6.7183 -6.6522 -1.9985 0.9621
-6.0982 -7.2256 -1.9986 0.9621
0.0823 -5.9159 -1.2506 0.9761
0.9015 -8.6979 -1.8484 0.9649
1.6744 -8.5840 -1.8487 0.9649
2.4342 -8.4016 -1.8490 0.9649
3.1747 -8.1520 -1.8492 0.9649
4.5747 -7.4600 -1.8498 0.9649
6.9123 -6.4734 -2.0018 0.9620
7.4675 -5.8346 -2.0032 0.9620
8.7495 -3.6495 -2.0039 0.9620
9.2608 -2.0363 -2.0043 0.9620
9.4768 -0.3576 -2.0046 0.9620
9.4715 0.4896 -2.0048 0.9620
9.2344 2.1658 -2.0049 0.9620
9.0045 2.9813 -2.0050 0.9620
8.7026 3.7730 -2.0050 0.9620
8.3311 4.5346 -2.0050 0.9620
7.3919 5.9432 -2.0049 0.9620
6.8318 6.5789 -2.0048 0.9620
2.5110 9.1411 -2.0038 0.9620
1.6850 9.3276 -2.0036 0.9620
0.8457 9.4396 -2.0033 0.9620
-0.8456 9.4370 -2.0028 0.9620
-1.6842 9.3226 -2.0025 0.9620
-3.3137 8.8720 -2.0019 0.9620
-4.0917 8.5396 -2.0016 0.9620
-5.5430 7.6739 -2.0010 0.9620
-6.2048 7.1476 -2.0007 0.9620
-6.8169 6.5644 -2.0004 0.9620
-7.3745 5.9290 -2.0002 0.9621
-8.3090 4.5224 -1.9997 0.9621
-8.6784 3.7624 -1.9994 0.9621
-8.9786 2.9726 -1.9992 0.9621
-9.3623 1.3288 -1.9988 0.9621
-9.4428 0.4880 -1.9987 0.9621
-9.2333 -2.0304 -1.9984 0.9621
-9.0150 -2.8463 -1.9983 0.9621
-8.7249 -3.6394 -1.9983 0.9621
-8.3653 -4.4035 -1.9983 0.9621
-7.9391 -5.1326 -1.9983 0.9621
-7.4496 -5.8208 -1.9984 0.9621
-6.2967 -7.0530 -1.9986 0.9621
-5.6425 -7.5873 -1.9987 0.9621
-4.9381 -8.0528 -1.9968 0.9621
-3.1711 -8.1431 -1.8472 0.9649
-0.0833 -5.9905 -1.2664 0.9758
2.1994 -8.4656 -1.8489 0.9649
3.6704 -7.9422 -1.8494 0.9649
7.8129 -5.3647 -2.0033 0.9620
8.6443 -3.8913 -2.0038 0.9620
8.9580 -3.1047 -2.0040 0.9620
9.3690 -1.4630 -2.0044 0.9620
9.4238 1.0712 -2.0048 0.9620
9.2909 1.9080 -2.0049 0.9620
9.0839 2.7296 -2.0050 0.9620
8.8041 3.5295 -2.0050 0.9620
5.7645 7.5304 -2.0046 0.9620
4.3333 8.4339 -2.0043 0.9620
1.1080 9.4128 -2.0034 0.9620
-0.5828 9.4573 -2.0029 0.9620
-2.2542 9.2004 -2.0023 0.9620
-3.0658 8.9612 -2.0020 0.9620
-6.0038 7.3177 -2.0008 0.9620
-6.6320 6.7518 -2.0005 0.9620
-7.2071 6.1321 -2.0002 0.9621
-8.1803 4.7520 -1.9997 0.9621
-8.8927 3.2213 -1.9993 0.9621
-9.4545 -0.0937 -1.9986 0.9621
-9.4079 -0.9371 -1.9985 0.9621
-9.2863 -1.7728 -1.9984 0.9621
-8.8228 -3.3953 -1.9983 0.9621
-8.4846 -4.1691 -1.9983 0.9621
-7.6085 -5.6113 -1.9984 0.9621
-7.0776 -6.2681 -1.9984 0.9621
-6.4903 -6.8750 -1.9985 0.9621
-5.1654 -7.9204 -1.9988 0.9621
-4.1009 -7.7155 -1.8470 0.9649
-1.9112 -8.5289 -1.8475 0.9649
-1.1426 -8.6665 -1.8478 0.9649
-0.3647 -8.7350 -1.8480 0.9649
1.1943 -8.6631 -1.8485 0.9649
2.7162 -8.3152 -1.8491 0.9649
4.1524 -7.7022 -1.8496 0.9649
4.8239 -7.3019 -1.8499 0.9649
7.6603 -5.5798 -2.0033 0.9620
8.1288 -4.8745 -2.0035 0.9620
8.5324 -4.1301 -2.0038 0.9620
8.8679 -3.3525 -2.0040 0.9620
9.3245 -1.7230 -2.0044 0.9620
9.4418 -0.8840 -2.0045 0.9620
9.4837 -0.0379 -2.0047 0.9620
9.1562 2.4759 -2.0049 0.9620
8.5704 4.0643 -2.0050 0.9620
7.7111 5.5230 -2.0049 0.9620
7.1873 6.1889 -2.0049 0.9620
6.6059 6.8053 -2.0048 0.9620
5.9719 7.3673 -2.0047 0.9620
4.5664 8.3103 -2.0044 0.9620
3.0157 8.9879 -2.0040 0.9620
0.5270 9.4623 -2.0032 0.9620
-2.8155 9.0434 -2.0021 0.9620
5.8048 6.2484 -2.0044 0.9656
3.9416 7.5613 -2.0040 0.9656
2.5341 8.1401 -2.0037 0.9656
1.7974 8.3329 -2.0035 0.9656
1.0464 8.4591 -2.0032 0.9656
-0.4740 8.5084 -2.0028 0.9656
-1.2312 8.4311 -2.0025 0.9656
-1.9785 8.2865 -2.0022 0.9656
-4.1011 7.4634 -2.0014 0.9656
-4.7502 7.0667 -2.0012 0.9656
-5.9292 6.1080 -2.0007 0.9656
-6.4499 5.5538 -2.0004 0.9656
-6.9190 4.9555 -2.0002 0.9656
-7.3328 4.3177 -1.9999 0.9656
-7.6880 3.6457 -1.9997 0.9656
-8.2121 2.2205 -1.9993 0.9656
-8.4747 0.7251 -1.9990 0.9657
-8.5051 -0.0341 -1.9989 0.9657
-8.1913 -2.2855 -1.9987 0.9657
-7.9545 -3.0074 -1.9986 0.9657
-7.6543 -3.7052 -1.9986 0.9657
-6.3998 -5.6007 -1.9987 0.9657
-5.8747 -6.1498 -1.9988 0.9657
-4.6884 -7.0971 -1.9991 0.9657
-4.0226 -7.4617 -1.9923 0.9658
-1.0737 -7.7891 -1.8479 0.9682
1.0282 -7.7981 -1.8486 0.9682
3.0583 -7.2501 -1.8493 0.9682
3.6936 -6.9491 -1.8496 0.9682
4.2996 -6.5926 -1.8498 0.9682
4.8715 -6.1834 -1.8501 0.9682
7.9569 -3.0619 -2.0037 0.9656
8.4858 -0.8451 -2.0042 0.9656
8.5019 0.6770 -2.0045 0.9656
8.2467 2.1778 -2.0046 0.9656
7.7284 3.6093 -2.0047 0.9656
6.9635 4.9256 -2.0046 0.9656
6.4959 5.5272 -2.0046 0.9656
5.9765 6.0846 -2.0045 0.9656
4.7990 7.0493 -2.0042 0.9656
4.1505 7.4489 -2.0041 0.9656
2.0285 8.2800 -2.0035 0.9656
-0.9963 8.4624 -2.0026 0.9656
-1.7473 8.3386 -2.0023 0.9656
-3.8921 7.5749 -2.0015 0.9656
-5.7573 6.2709 -2.0007 0.9656
-6.7787 5.1462 -2.0002 0.9656
-7.5839 3.8583 -1.9998 0.9656
-8.1474 2.4481 -1.9994 0.9656
-8.3326 1.7111 -1.9992 0.9657
-8.4514 0.9606 -1.9991 0.9657
-8.2517 -2.0568 -1.9987 0.9657
-7.7544 -3.4909 -1.9986 0.9657
-7.0105 -4.8139 -1.9987 0.9657
-6.5531 -5.4205 -1.9987 0.9657
-4.8839 -6.9638 -1.9990 0.9657
-3.2973 -7.1351 -1.8473 0.9682
-1.9767 -7.6091 -1.8477 0.9682
0.8109 -7.8234 -1.8485 0.9682
3.4988 -7.0489 -1.8495 0.9682
4.1144 -6.7094 -1.8498 0.9682
4.6974 -6.3163 -1.8500 0.9682
5.5112 -6.1730 -1.9449 0.9666
6.2199 -5.8249 -2.0028 0.9656
6.7157 -5.2472 -2.0030 0.9656
7.8684 -3.2820 -2.0037 0.9656
8.1307 -2.5669 -2.0039 0.9656
8.3280 -1.8312 -2.0040 0.9656
8.4589 -1.0808 -2.0042 0.9656
8.5221 -0.3216 -2.0043 0.9656
8.5173 0.4403 -2.0044 0.9656
7.8258 3.3929 -2.0047 0.9656
6.6472 5.3444 -2.0046 0.9656
6.1435 5.9161 -2.0045 0.9656
4.3562 7.3308 -2.0041 0.9656
2.9831 7.9871 -2.0038 0.9656
2.2581 8.2206 -2.0036 0.9656
1.5153 8.3884 -2.0034 0.9656
0.7606 8.4892 -2.0032 0.9656
-0.0001 8.5222 -2.0029 0.9656
-2.9803 7.9794 -2.0019 0.9656
-4.3502 7.3205 -2.0013 0.9656
-4.9855 6.9021 -2.0011 0.9656
-5.5808 6.4288 -2.0008 0.9656
-6.1315 5.9044 -2.0006 0.9656
-7.4739 4.0679 -1.9999 0.9656
-7.8063 3.3843 -1.9996 0.9656
-8.0764 2.6739 -1.9995 0.9656
-8.2820 1.9423 -1.9993 0.9656
-8.1095 -2.5604 -1.9987 0.9657
-7.8485 -3.2738 -1.9986 0.9657
-7.5251 -3.9612 -1.9986 0.9657
-7.1416 -4.6170 -1.9987 0.9657
-5.6641 -6.3445 -1.9989 0.9657
-5.0756 -6.8251 -1.9990 0.9657
-2.8524 -7.3248 -1.8474 0.9682
-1.5051 -7.7168 -1.8478 0.9682
-0.8105 -7.8212 -1.8480 0.9682
1.2906 -7.7594 -1.8487 0.9682
1.9782 -7.6142 -1.8489 0.9682
2.6502 -7.4083 -1.8492 0.9682
3.3012 -7.1432 -1.8494 0.9682
4.5197 -6.4443 -1.8499 0.9682
6.0529 -5.9931 -2.0019 0.9656
7.0263 -4.8246 -2.0032 0.9656
7.4297 -4.1788 -2.0034 0.9656
8.0559 -2.7920 -2.0038 0.9656
8.2736 -2.0621 -2.0040 0.9656
8.5261 0.2032 -2.0044 0.9656
8.1687 2.4546 -2.0046 0.9656
7.6023 3.8678 -2.0047 0.9656
7.2267 4.5308 -2.0046 0.9656
5.7678 6.2825 -2.0044 0.9656
5.1838 6.7718 -2.0043 0.9656
3.8969 7.5844 -2.0040 0.9656
3.2042 7.9012 -2.0039 0.9656
2.4860 8.1549 -2.0037 0.9656
-4.1451 7.4390 -2.0014 0.9656
-5.9652 6.0729 -2.0006 0.9656
-7.3581 4.2743 -1.9999 0.9656
-7.9991 2.8976 -1.9995 0.9656
-8.2250 2.1719 -1.9993 0.9656
-8.3853 1.4291 -1.9992 0.9657
-7.2672 -4.4166 -1.9986 0.9657
-6.3667 -5.6384 -1.9988 0.9657
-5.2634 -6.6811 -1.9989 0.9657
-4.6464 -7.1246 -1.9991 0.9657
-3.0550 -7.2424 -1.8474 0.9682
-2.3967 -7.4869 -1.8475 0.9682
-1.7191 -7.6717 -1.8477 0.9682
0.3745 -7.8558 -1.8484 0.9682
1.7656 -7.6660 -1.8489 0.9682
4.3385 -6.5672 -1.8498 0.9682
4.9079 -6.1546 -1.8501 0.9682
5.8726 -6.1474 -1.9981 0.9657
6.4130 -5.6122 -2.0029 0.9656
7.3103 -4.3837 -2.0033 0.9656
8.2129 -2.2914 -2.0039 0.9656
8.4907 -0.7950 -2.0042 0.9656
8.5283 -0.0341 -2.0044 0.9656
8.0023 2.9524 -2.0046 0.9656
7.7069 3.6548 -2.0047 0.9656
6.9343 4.9666 -2.0046 0.9656
5.9405 6.1198 -2.0045 0.9656
5.3703 6.6251 -2.0044 0.9656
4.7573 7.0775 -2.0042 0.9656
2.7120 8.0828 -2.0037 0.9656
1.2316 8.4344 -2.0033 0.9656
0.4739 8.5097 -2.0031 0.9656
-2.5322 8.1335 -2.0020 0.9656
7.2023 2.8381 -2.0044 0.9685
6.9203 3.4696 -2.0044 0.9685
4.7411 6.1183 -2.0041 0.9685
4.1759 6.5166 -2.0040 0.9685
3.5774 6.8627 -2.0038 0.9685
2.3000 7.3882 -2.0035 0.9685
-1.1176 7.6527 -2.0024 0.9685
-1.7958 7.5215 -2.0022 0.9686
-3.1036 7.0807 -2.0017 0.9686
-3.7227 6.7747 -2.0015 0.9686
-4.3119 6.4146 -2.0012 0.9686
-4.8666 6.0035 -2.0010 0.9686
-5.3823 5.5446 -2.0007 0.9686
-5.8550 5.0416 -2.0005 0.9686
-6.2809 4.4984 -2.0003 0.9686
-6.6566 3.9196 -2.0001 0.9686
-6.9791 3.3096 -1.9999 0.9686
-7.4550 2.0158 -1.9996 0.9686
-7.6935 0.6583 -1.9993 0.9686
-7.6872 -0.7199 -1.9991 0.9686
-7.4363 -2.0749 -1.9989 0.9686
-6.6210 -3.9705 -1.9989 0.9686
-5.8100 -5.0845 -1.9990 0.9686
-4.8139 -6.0370 -1.9992 0.9686
-2.2158 -6.7836 -1.8477 0.9709
-1.6017 -6.9549 -1.8479 0.9709
-0.9747 -7.0708 -1.8481 0.9709
-0.3398 -7.1303 -1.8483 0.9709
0.2520 -6.0341 -1.5637 0.9754
1.5616 -6.9680 -1.8489 0.9709
2.1774 -6.8017 -1.8491 0.9709
2.7761 -6.5810 -1.8493 0.9709
4.5257 -5.7446 -1.8935 0.9702
5.3070 -5.6214 -2.0016 0.9686
6.6115 -4.0179 -2.0032 0.9685
7.2219 -2.7791 -2.0035 0.9685
7.7399 -0.0766 -2.0041 0.9685
7.4846 1.9766 -2.0043 0.9685
7.0142 3.2757 -2.0044 0.9685
6.3200 4.4704 -2.0043 0.9685
4.3556 6.3980 -2.0040 0.9685
3.1484 7.0694 -2.0037 0.9685
-0.2152 7.7320 -2.0027 0.9685
-1.5860 7.5688 -2.0023 0.9686
-2.2549 7.3962 -2.0020 0.9686
-3.5329 6.8759 -2.0015 0.9686
-4.1320 6.5323 -2.0013 0.9686
-5.2262 5.6924 -2.0008 0.9686
-5.7127 5.2027 -2.0006 0.9686
-6.5452 4.1033 -2.0002 0.9686
-6.8846 3.5025 -2.0000 0.9686
-7.1690 2.8739 -1.9998 0.9686
-7.3962 2.2224 -1.9996 0.9686
-7.5645 1.5534 -1.9994 0.9686
-7.6724 0.8720 -1.9993 0.9686
-7.7044 -0.5058 -1.9991 0.9686
-6.7289 -3.7848 -1.9989 0.9686
-4.9799 -5.9006 -1.9992 0.9686
-4.4337 -6.3218 -1.9993 0.9686
-3.1291 -6.7710 -1.9313 0.9697
-1.7945 -6.9074 -1.8478 0.9709
-1.1710 -7.0407 -1.8480 0.9709
0.0819 -5.8865 -1.5243 0.9760
0.7361 -7.1017 -1.8486 0.9709
1.3671 -7.0085 -1.8488 0.9709
1.9873 -6.8594 -1.8490 0.9709
2.5919 -6.6554 -1.8493 0.9709
3.1759 -6.3983 -1.8495 0.9709
3.7347 -6.0901 -1.8497 0.9709
4.2638 -5.7332 -1.8499 0.9709
6.0955 -4.7628 -2.0029 0.9685
6.8466 -3.6039 -2.0033 0.9685
7.1416 -2.9788 -2.0035 0.9685
7.3795 -2.3298 -2.0037 0.9685
7.5586 -1.6620 -2.0038 0.9685
7.7303 0.3996 -2.0042 0.9685
7.5366 1.7676 -2.0043 0.9685
7.3490 2.4332 -2.0044 0.9685
6.7994 3.7009 -2.0044 0.9685
6.0329 4.8505 -2.0043 0.9685
5.0742 5.8453 -2.0041 0.9685
4.5320 6.2745 -2.0040 0.9685
3.9537 6.6535 -2.0039 0.9685
1.3754 7.6137 -2.0032 0.9685
-0.6903 7.7035 -2.0026 0.9685
-1.3749 7.6103 -2.0023 0.9686
-2.0483 7.4564 -2.0021 0.9686
-2.7052 7.2429 -2.0019 0.9686
-4.5255 6.2653 -2.0011 0.9686
-5.5659 5.3598 -2.0007 0.9686
-6.7847 3.6928 -2.0000 0.9686
-7.5185 1.7632 -1.9995 0.9686
-7.6453 1.0851 -1.9994 0.9686
-7.7112 0.3985 -1.9992 0.9686
-7.6585 -0.9786 -1.9990 0.9686
-7.3621 -2.3244 -1.9989 0.9686
-7.1252 -2.9721 -1.9989 0.9686
-6.8315 -3.5961 -1.9989 0.9686
-6.0836 -4.7535 -1.9990 0.9686
-5.6353 -5.2776 -1.9990 0.9686
-5.1421 -5.7597 -1.9991 0.9686
-3.4222 -6.8949 -1.9930 0.9687
-2.5894 -6.6495 -1.8476 0.9709
-1.9859 -6.8547 -1.8478 0.9709
-1.3663 -7.0052 -1.8479 0.9709
-0.7358 -7.0999 -1.8481 0.9709
1.1716 -7.0436 -1.8488 0.9709
2.9965 -6.4840 -1.8494 0.9709
3.5637 -6.1914 -1.8497 0.9709
5.4961 -5.4419 -2.0026 0.9685
5.9605 -4.9302 -2.0028 0.9685
6.3774 -4.3791 -2.0030 0.9685
7.5093 -1.8716 -2.0038 0.9685
7.6469 -1.1941 -2.0039 0.9685
7.7234 -0.5069 -2.0040 0.9685
7.7383 0.1844 -2.0041 0.9685
7.6913 0.8743 -2.0042 0.9685
7.5828 1.5572 -2.0043 0.9685
7.1855 2.8806 -2.0044 0.9685
6.8997 3.5103 -2.0044 0.9685
5.7231 5.2123 -2.0043 0.9685
4.7049 6.1461 -2.0041 0.9685
4.1373 6.5411 -2.0039 0.9685
2.9082 7.1713 -2.0036 0.9685
1.5867 7.5727 -2.0033 0.9685
0.9044 7.6833 -2.0031 0.9685
-1.1627 7.6459 -2.0024 0.9685
-3.1453 7.0622 -2.0017 0.9686
-4.3497 6.3890 -2.0012 0.9686
-4.9019 5.9746 -2.0010 0.9686
-5.4149 5.5127 -2.0007 0.9686
-6.3073 4.4613 -2.0003 0.9686
-6.6795 3.8802 -2.0001 0.9686
-7.2616 2.6304 -1.9997 0.9686
-7.6123 1.2974 -1.9994 0.9686
-7.6972 0.6128 -1.9993 0.9686
-7.7208 -0.0765 -1.9992 0.9686
-7.6828 -0.7652 -1.9991 0.9686
-7.2051 -2.7728 -1.9989 0.9686
-6.5975 -4.0095 -1.9989 0.9686
-6.2134 -4.5824 -1.9990 0.9686
-5.7799 -5.1188 -1.9990 0.9686
-5.3002 -5.6144 -1.9991 0.9686
-4.2181 -6.4679 -1.9993 0.9686
-3.6185 -6.8079 -1.9962 0.9686
-2.7733 -6.5747 -1.8476 0.9709
-2.1757 -6.7966 -1.8477 0.9709
-0.2978 -7.1322 -1.8483 0.9709
0.2896 -6.0738 -1.5744 0.9752
2.2176 -6.7888 -1.8491 0.9709
2.8149 -6.5646 -1.8494 0.9709
3.9381 -5.9610 -1.8498 0.9709
4.6019 -5.7709 -1.9111 0.9700
5.8209 -5.0939 -2.0027 0.9685
6.2529 -4.5546 -2.0030 0.9685
6.6352 -3.9788 -2.0032 0.9685
7.2382 -2.7364 -2.0035 0.9685
7.4541 -2.0797 -2.0037 0.9685
7.7062 -0.7215 -2.0040 0.9685
7.7125 0.6600 -2.0042 0.9685
7.6231 1.3457 -2.0043 0.9685
7.4728 2.0207 -2.0043 0.9685
6.6707 3.9280 -2.0044 0.9685
3.1066 7.0878 -2.0037 0.9685
1.1178 7.6554 -2.0031 0.9685
-2.2984 7.3827 -2.0020 0.9686
6.0202 3.7250 -2.0041 0.9710
3.8189 5.9595 -2.0038 0.9710
3.2716 6.2761 -2.0036 0.9710
2.6983 6.5426 -2.0035 0.9710
2.1034 6.7567 -2.0033 0.9710
-0.3934 7.0630 -2.0026 0.9710
-2.2495 6.7043 -2.0019 0.9710
-2.8386 6.4760 -2.0017 0.9710
-3.4048 6.1962 -2.0015 0.9710
-4.4511 5.4910 -2.0010 0.9710
-5.7448 4.1145 -2.0004 0.9711
-6.6277 2.4452 -1.9999 0.9711
-6.8190 1.8438 -1.9997 0.9711
-6.9558 1.2278 -1.9996 0.9711
-7.0315 -0.6585 -1.9993 0.9711
-6.8021 -1.8979 -1.9992 0.9711
-6.0563 -3.6319 -1.9992 0.9711
-5.7081 -4.1579 -1.9992 0.9711
-5.3144 -4.6509 -1.9992 0.9711
-4.8783 -5.1068 -1.9993 0.9711
-4.4033 -5.5220 -1.9994 0.9711
-2.7740 -6.4695 -1.9927 0.9712
-2.0267 -6.2048 -1.8479 0.9732
-0.8915 -6.4674 -1.8482 0.9732
-0.3108 -6.5218 -1.8484 0.9732
0.8537 -6.4745 -1.8487 0.9732
1.9915 -6.2209 -1.8491 0.9732
3.0664 -5.7691 -1.8496 0.9732
4.3644 -5.5399 -1.9965 0.9711
6.9522 -1.3271 -2.0037 0.9710
7.0434 -0.7014 -2.0038 0.9710
6.8447 1.8076 -2.0041 0.9710
6.6561 2.4112 -2.0041 0.9710
6.4144 2.9956 -2.0041 0.9710
5.7796 4.0882 -2.0041 0.9710
1.0636 6.9951 -2.0030 0.9710
0.4351 7.0615 -2.0028 0.9710
-0.1968 7.0714 -2.0026 0.9710
-0.8270 7.0249 -2.0024 0.9710
-2.0623 6.7645 -2.0020 0.9710
-2.6574 6.5527 -2.0018 0.9710
-3.2312 6.2887 -2.0015 0.9710
-5.2251 4.7586 -2.0007 0.9710
-5.6283 4.2729 -2.0005 0.9711
-5.9866 3.7532 -2.0003 0.9711
-6.2971 3.2036 -2.0001 0.9711
-6.5573 2.6286 -1.9999 0.9711
-6.7652 2.0328 -1.9998 0.9711
-7.0179 0.7976 -1.9995 0.9711
-7.0607 0.1681 -1.9994 0.9711
-7.0472 -0.4626 -1.9993 0.9711
-6.8523 -1.7080 -1.9992 0.9711
-6.1550 -3.4620 -1.9991 0.9711
-5.8215 -3.9975 -1.9992 0.9711
-4.5551 -5.3973 -1.9994 0.9711
-4.0555 -5.7826 -1.9995 0.9711
-2.2209 -6.2087 -1.8667 0.9730
-1.6413 -6.3180 -1.8480 0.9732
-0.4921 -6.5104 -1.8483 0.9732
0.6733 -6.4955 -1.8487 0.9732
1.2504 -6.4102 -1.8489 0.9732
1.8177 -6.2737 -1.8491 0.9732
2.3706 -6.0871 -1.8493 0.9732
2.9047 -5.8519 -1.8495 0.9732
3.4157 -5.5700 -1.8497 0.9732
4.1670 -5.6031 -1.9768 0.9714
5.5747 -4.3557 -2.0028 0.9710
5.9418 -3.8412 -2.0030 0.9710
6.2615 -3.2959 -2.0032 0.9710
6.5312 -2.7242 -2.0033 0.9710
7.0694 0.3654 -2.0040 0.9710
6.7206 2.2251 -2.0041 0.9710
6.4953 2.8161 -2.0041 0.9710
6.2180 3.3845 -2.0041 0.9710
5.0991 4.9103 -2.0040 0.9710
4.6403 5.3456 -2.0039 0.9710
2.4761 6.6296 -2.0034 0.9710
1.8744 6.8236 -2.0033 0.9710
0.6314 7.0468 -2.0029 0.9710
-0.6313 7.0454 -2.0025 0.9710
-2.4742 6.6243 -2.0018 0.9710
-3.0552 6.3764 -2.0016 0.9710
-4.1392 5.7304 -2.0012 0.9710
-5.0908 4.9023 -2.0007 0.9710
-5.8801 3.9184 -2.0003 0.9711
-6.7062 2.2202 -1.9998 0.9711
-6.9931 0.9926 -1.9995 0.9711
-7.0534 0.3645 -1.9994 0.9711
-7.0574 -0.2664 -1.9993 0.9711
-7.0052 -0.8952 -1.9993 0.9711
-6.8972 -1.5167 -1.9992 0.9711
-5.9304 -3.8340 -1.9992 0.9711
-5.5647 -4.3480 -1.9992 0.9711
-5.1546 -4.8275 -1.9993 0.9711
-4.7034 -5.2684 -1.9993 0.9711
-4.2147 -5.6674 -1.9994 0.9711
-2.4683 -6.3384 -1.9256 0.9721
-1.8164 -6.2698 -1.8479 0.9732
-0.6730 -6.4940 -1.8482 0.9732
-0.0823 -5.9166 -1.6751 0.9757
0.4923 -6.5115 -1.8486 0.9732
1.6424 -6.3216 -1.8490 0.9732
2.2002 -6.1505 -1.8492 0.9732
3.2593 -5.6627 -1.8496 0.9732
3.8772 -5.5281 -1.9115 0.9723
4.5567 -5.3989 -2.0000 0.9711
5.4513 -4.5090 -2.0027 0.9710
5.8325 -4.0049 -2.0029 0.9710
6.4527 -2.9048 -2.0033 0.9710
6.6867 -2.3175 -2.0034 0.9710
6.8674 -1.7116 -2.0036 0.9710
7.0632 -0.4636 -2.0038 0.9710
6.3098 3.2102 -2.0041 0.9710
5.9981 3.7605 -2.0041 0.9710
5.6384 4.2807 -2.0041 0.9710
5.2338 4.7666 -2.0040 0.9710
3.2345 6.2953 -2.0036 0.9710
2.6596 6.5583 -2.0035 0.9710
1.4511 6.9255 -2.0031 0.9710
0.1967 7.0718 -2.0028 0.9710
-1.0634 6.9927 -2.0023 0.9710
-2.2891 6.6908 -2.0019 0.9710
-3.4413 6.1759 -2.0015 0.9710
-5.7690 4.0805 -2.0004 0.9711
-6.1095 3.5491 -2.0002 0.9711
-6.4013 2.9894 -2.0000 0.9711
-6.6420 2.4060 -1.9999 0.9711
-6.8297 1.8035 -1.9997 0.9711
-7.0407 0.5605 -1.9995 0.9711
-7.0275 -0.7000 -1.9993 0.9711
-6.9368 -1.3243 -1.9992 0.9711
-6.7908 -1.9380 -1.9992 0.9711
-6.5906 -2.5363 -1.9991 0.9711
-6.3379 -3.1143 -1.9991 0.9711
-6.0348 -3.6676 -1.9992 0.9711
-5.6835 -4.1916 -1.9992 0.9711
-5.2869 -4.6822 -1.9992 0.9711
-4.3707 -5.5479 -1.9994 0.9711
-3.3151 -6.2373 -1.9996 0.9711
-1.9901 -6.2167 -1.8479 0.9732
-1.4274 -6.3700 -1.8480 0.9732
-0.8534 -6.4726 -1.8482 0.9732
0.2887 -6.0548 -1.7160 0.9751
0.8919 -6.4694 -1.8488 0.9732
1.4658 -6.3646 -1.8490 0.9732
2.5746 -6.0040 -1.8494 0.9732
3.6130 -5.4690 -1.8556 0.9731
4.8860 -5.1147 -2.0024 0.9710
6.0681 -3.6388 -2.0030 0.9710
6.6195 -2.5025 -2.0034 0.9710
6.8170 -1.9020 -2.0035 0.9710
7.0474 -0.6599 -2.0038 0.9710
7.0531 0.6036 -2.0040 0.9710
6.8339 1.8479 -2.0041 0.9710
6.6418 2.4505 -2.0041 0.9710
6.3966 3.0334 -2.0041 0.9710
5.3644 4.6193 -2.0041 0.9710
4.9306 5.0794 -2.0040 0.9710
4.4574 5.4989 -2.0039 0.9710
3.4084 6.2030 -2.0037 0.9710
2.2511 6.7091 -2.0034 0.9710
1.6432 6.8827 -2.0032 0.9710
1.0223 7.0012 -2.0030 0.9710
-1.4913 6.9136 -2.0022 0.9710
-2.1021 6.7521 -2.0020 0.9710
5.8242 2.9200 -2.0039 0.9731
5.2122 3.9088 -2.0039 0.9731
4.8425 4.3583 -2.0038 0.9731
3.5146 5.4846 -2.0036 0.9731
2.4833 6.0213 -2.0033 0.9731
1.9359 6.2184 -2.0032 0.9731
1.3731 6.3659 -2.0030 0.9731
0.7994 6.4625 -2.0029 0.9731
-0.9407 6.4416 -2.0023 0.9731
-2.0704 6.1705 -2.0019 0.9731
-3.1338 5.7030 -2.0015 0.9731
-4.0969 5.0540 -2.0011 0.9731
-5.2878 3.7872 -2.0005 0.9731
-5.8758 2.7863 -2.0002 0.9732
-6.2766 1.6971 -1.9999 0.9732
-6.4026 1.1301 -1.9998 0.9732
-6.5009 -0.0261 -1.9996 0.9732
-6.3923 -1.1813 -1.9994 0.9732
-6.2612 -1.7470 -1.9994 0.9732
-6.0802 -2.2988 -1.9993 0.9732
-5.5747 -3.3431 -1.9993 0.9732
-4.8918 -4.2810 -1.9994 0.9732
-4.4904 -4.7007 -1.9995 0.9732
-4.0531 -5.0829 -1.9996 0.9732
-3.5835 -5.4246 -1.9997 0.9732
-3.0853 -5.7231 -1.9998 0.9732
-2.5603 -5.9710 -1.9983 0.9732
-0.8206 -5.9528 -1.8483 0.9752
0.7858 -5.9592 -1.8488 0.9752
1.8330 -5.7258 -1.8492 0.9752
2.3369 -5.5399 -1.8494 0.9752
2.8280 -5.3205 -1.8533 0.9751
3.5383 -5.4253 -1.9922 0.9733
4.8741 -4.3165 -2.0026 0.9731
5.2404 -3.8646 -2.0027 0.9731
5.5649 -3.3819 -2.0029 0.9731
5.8450 -2.8720 -2.0031 0.9731
6.2633 -1.7874 -2.0034 0.9731
6.3983 -1.2214 -2.0035 0.9731
6.4821 -0.6455 -2.0036 0.9731
6.5142 -0.0645 -2.0037 0.9731
6.4942 0.5171 -2.0038 0.9731
6.4223 1.0947 -2.0039 0.9731
6.2992 1.6635 -2.0039 0.9731
6.1257 2.2191 -2.0039 0.9731
5.9032 2.7569 -2.0039 0.9731
4.5652 4.6477 -2.0038 0.9731
3.6659 5.3848 -2.0036 0.9731
1.5497 6.3254 -2.0031 0.9731
0.4004 6.4990 -2.0027 0.9731
-1.3350 6.3711 -2.0022 0.9731
-2.9740 5.7881 -2.0016 0.9731
-3.9548 5.1662 -2.0011 0.9731
-4.3997 4.7921 -2.0009 0.9731
-4.8093 4.3799 -2.0008 0.9731
-5.7962 2.9488 -2.0002 0.9732
-6.0357 2.4196 -2.0001 0.9732
-6.2271 1.8711 -1.9999 0.9732
-6.3688 1.3078 -1.9998 0.9732
-6.4598 0.7342 -1.9997 0.9732
-6.4868 -0.4259 -1.9995 0.9732
-6.3074 -1.5722 -1.9994 0.9732
-5.9273 -2.6684 -1.9993 0.9732
-5.6656 -3.1867 -1.9993 0.9732
-5.0090 -4.1433 -1.9994 0.9732
-4.6194 -4.5739 -1.9995 0.9732
-3.7330 -5.3227 -1.9996 0.9732
-3.2432 -5.6349 -1.9998 0.9732
-2.1827 -6.1018 -1.9933 0.9732
-1.5249 -5.8698 -1.8654 0.9749
-0.9858 -5.9276 -1.8482 0.9752
0.0815 -5.8565 -1.8015 0.9758
0.6197 -5.9786 -1.8487 0.9752
1.1509 -5.9000 -1.8489 0.9752
1.6730 -5.7744 -1.8491 0.9752
2.1819 -5.6026 -1.8493 0.9752
2.6734 -5.3861 -1.8495 0.9751
3.3011 -5.3831 -1.9422 0.9739
3.8790 -5.2158 -1.9993 0.9732
4.3355 -4.8561 -2.0023 0.9731
5.4685 -3.5352 -2.0029 0.9731
5.7627 -3.0334 -2.0030 0.9731
6.0108 -2.5072 -2.0032 0.9731
6.3617 -1.3989 -2.0035 0.9731
6.3430 1.4876 -2.0039 0.9731
6.1850 2.0478 -2.0039 0.9731
5.9776 2.5916 -2.0039 0.9731
5.7225 3.1147 -2.0039 0.9731
5.0774 4.0823 -2.0039 0.9731
4.2705 4.9196 -2.0037 0.9731
3.8143 5.2808 -2.0037 0.9731
3.3276 5.5999 -2.0035 0.9731
1.1576 6.4084 -2.0030 0.9731
-0.5811 6.4843 -2.0024 0.9731
-2.2772 6.0969 -2.0018 0.9731
-3.8097 5.2743 -2.0012 0.9731
-4.2648 4.9128 -2.0010 0.9731
-5.0693 4.0756 -2.0006 0.9731
-5.4123 3.6066 -2.0004 0.9731
-5.7120 3.1090 -2.0003 0.9732
-5.9662 2.5866 -2.0001 0.9732
-6.3487 -1.3961 -1.9994 0.9732
-5.9993 -2.5025 -1.9993 0.9732
-5.7520 -3.0279 -1.9993 0.9732
-5.4589 -3.5291 -1.9994 0.9732
-5.1222 -4.0023 -1.9994 0.9732
-4.3294 -4.8495 -1.9995 0.9732
-3.8795 -5.2167 -1.9996 0.9732
-3.3987 -5.5424 -1.9997 0.9732
-2.8907 -5.8240 -1.9998 0.9732
-2.3542 -6.0455 -1.9955 0.9732
-1.7251 -5.9547 -1.9069 0.9744
-0.0821 -5.9042 -1.8162 0.9756
0.4531 -5.9933 -1.8487 0.9752
1.5117 -5.8185 -1.8491 0.9752
2.0251 -5.6609 -1.8492 0.9752
3.0754 -5.3431 -1.8962 0.9745
3.7280 -5.3154 -1.9969 0.9732
4.1986 -4.9747 -2.0022 0.9731
4.6263 -4.5806 -2.0024 0.9731
5.0171 -4.1499 -2.0026 0.9731
6.4360 -1.0050 -2.0036 0.9731
6.5128 0.1552 -2.0038 0.9731
6.3818 1.3106 -2.0039 0.9731
6.2395 1.8749 -2.0039 0.9731
5.8069 2.9544 -2.0039 0.9731
5.1891 3.9395 -2.0039 0.9731
4.8167 4.3868 -2.0038 0.9731
4.4058 4.7990 -2.0038 0.9731
3.9598 5.1728 -2.0037 0.9731
3.4822 5.5052 -2.0036 0.9731
2.4477 6.0358 -2.0033 0.9731
1.3355 6.3738 -2.0030 0.9731
0.1811 6.5086 -2.0027 0.9731
-0.9787 6.4359 -2.0023 0.9731
-2.1068 6.1581 -2.0019 0.9731
-3.1674 5.6843 -2.0015 0.9731
-5.6235 3.2667 -2.0003 0.9732
-6.1137 2.2146 -2.0000 0.9732
-6.4092 1.0923 -1.9997 0.9732
-6.4807 0.5160 -1.9996 0.9732
-6.4687 -0.6443 -1.9995 0.9732
-6.2508 -1.7839 -1.9994 0.9732
-6.0666 -2.3346 -1.9993 0.9732
-5.5549 -3.3759 -1.9994 0.9732
-4.8665 -4.3098 -1.9994 0.9732
-4.0231 -5.1067 -1.9996 0.9732
-3.5515 -5.4456 -1.9997 0.9732
-2.5244 -5.9846 -1.9978 0.9732
-1.3139 -5.8633 -1.8481 0.9752
-0.7855 -5.9576 -1.8483 0.9752
-0.2507 -6.0045 -1.8485 0.9752
1.3492 -5.8581 -1.8490 0.9752
1.8668 -5.7149 -1.8492 0.9752
2.3696 -5.5261 -1.8494 0.9752
2.8691 -5.3218 -1.8596 0.9750
3.5747 -5.4110 -1.9947 0.9732
4.0585 -5.0894 -2.0022 0.9731
4.4969 -4.7074 -2.0024 0.9731
6.0921 -2.3032 -2.0032 0.9731
6.2738 -1.7504 -2.0034 0.9731
6.5145 -0.0260 -2.0037 0.9731
6.4911 0.5555 -2.0038 0.9731
6.4158 1.1326 -2.0039 0.9731
6.2892 1.7007 -2.0039 0.9731
6.1125 2.2552 -2.0039 0.9731
4.1022 5.0607 -2.0037 0.9731
2.6147 5.9655 -2.0034 0.9731
2.0717 6.1746 -2.0032 0.9731
0.9409 6.4435 -2.0029 0.9731
0.3621 6.5012 -2.0027 0.9731
-0.2196 6.5070 -2.0025 0.9731
-0.7993 6.4608 -2.0024 0.9731
-1.3726 6.3631 -2.0022 0.9731
-1.9348 6.2145 -2.0020 0.9731
4.8225 3.6166 -2.0037 0.9749
4.1026 4.4160 -2.0036 0.9749
3.6919 4.7644 -2.0035 0.9749
3.2519 5.0746 -2.0034 0.9749
2.7859 5.3443 -2.0033 0.9749
2.2977 5.5712 -2.0032 0.9749
1.7912 5.7536 -2.0031 0.9749
0.2031 6.0212 -2.0026 0.9749
-0.3351 6.0148 -2.0024 0.9749
-1.9158 5.7096 -2.0019 0.9749
-2.4175 5.5153 -2.0017 0.9749
-3.3588 4.9967 -2.0013 0.9749
-4.5611 3.9275 -2.0008 0.9749
-5.1858 3.0536 -2.0004 0.9750
-5.4372 2.5784 -2.0003 0.9750
-5.6452 2.0827 -2.0001 0.9750
-5.9942 0.5129 -1.9998 0.9750
-6.0158 -0.0241 -1.9997 0.9750
-5.9153 -1.0931 -1.9996 0.9750
-5.7940 -1.6167 -1.9995 0.9750
-5.6266 -2.1273 -1.9995 0.9750
-5.4143 -2.6209 -1.9995 0.9750
-4.1553 -4.3499 -1.9997 0.9750
-2.8551 -5.2960 -1.9999 0.9750
-2.3712 -5.5300 -2.0000 0.9750
-1.3291 -5.7715 -1.9687 0.9753
-0.2647 -5.5547 -1.8485 0.9768
0.2321 -5.5567 -1.8487 0.9768
0.7271 -5.5143 -1.8488 0.9768
1.2164 -5.4279 -1.8490 0.9768
2.2122 -5.2443 -1.8920 0.9763
3.2865 -5.0392 -1.9998 0.9750
3.7274 -4.7312 -2.0021 0.9749
4.1351 -4.3801 -2.0023 0.9749
4.5099 -3.9940 -2.0025 0.9749
5.1490 -3.1291 -2.0028 0.9749
5.4081 -2.6573 -2.0030 0.9749
5.6241 -2.1642 -2.0031 0.9749
5.9200 -1.1301 -2.0034 0.9749
5.9975 -0.5973 -2.0035 0.9749
6.0272 -0.0597 -2.0036 0.9749
5.9422 1.0128 -2.0037 0.9749
5.4618 2.5508 -2.0038 0.9749
5.2124 3.0280 -2.0038 0.9749
4.2238 4.3003 -2.0036 0.9749
3.8231 4.6599 -2.0036 0.9749
3.3918 4.9823 -2.0035 0.9749
1.9506 5.7017 -2.0031 0.9749
0.9057 5.9568 -2.0028 0.9749
-0.1676 6.0219 -2.0025 0.9749
-2.2632 5.5806 -2.0018 0.9749
-2.7519 5.3558 -2.0016 0.9749
-3.6595 4.7804 -2.0012 0.9749
-4.7938 3.6393 -2.0006 0.9749
-5.7624 1.7315 -2.0001 0.9750
-5.9777 0.6794 -1.9998 0.9750
-6.0028 -0.3941 -1.9997 0.9750
-5.9435 -0.9282 -1.9996 0.9750
-5.8368 -1.4549 -1.9995 0.9750
-5.6836 -1.9699 -1.9995 0.9750
-5.4851 -2.4693 -1.9995 0.9750
-5.2428 -2.9489 -1.9995 0.9750
-4.9588 -3.4051 -1.9995 0.9750
-4.2747 -4.2326 -1.9996 0.9750
-3.4544 -4.9255 -1.9998 0.9750
-0.9384 -5.6424 -1.9013 0.9762
-0.4191 -5.5451 -1.8485 0.9768
1.5481 -5.3431 -1.8491 0.9768
2.0402 -5.2388 -1.8688 0.9766
2.6155 -5.2693 -1.9554 0.9755
3.1419 -5.1235 -1.9978 0.9750
3.5943 -4.8330 -2.0021 0.9749
4.3970 -4.1178 -2.0024 0.9749
4.7473 -3.7092 -2.0026 0.9749
5.0598 -3.2710 -2.0028 0.9749
5.5616 -2.3198 -2.0031 0.9749
5.7468 -1.8143 -2.0032 0.9749
5.8862 -1.2943 -2.0033 0.9749
6.0231 -0.2273 -2.0035 0.9749
5.8687 1.3764 -2.0037 0.9749
5.5307 2.3978 -2.0038 0.9749
4.6978 3.7771 -2.0037 0.9749
3.9513 4.5518 -2.0036 0.9749
3.5291 4.8860 -2.0035 0.9749
2.1085 5.6454 -2.0032 0.9749
1.0711 5.9294 -2.0029 0.9749
-0.5376 5.9998 -2.0024 0.9749
-1.0708 5.9274 -2.0022 0.9749
-1.5954 5.8076 -2.0020 0.9749
-2.1071 5.6415 -2.0018 0.9749
-3.0759 5.1761 -2.0014 0.9749
-3.5252 4.8805 -2.0012 0.9749
-3.9463 4.5460 -2.0011 0.9749
-5.0082 3.3374 -2.0005 0.9750
-5.5209 2.3935 -2.0002 0.9750
-5.7121 1.8911 -2.0001 0.9750
-5.8577 1.3737 -2.0000 0.9750
-5.9566 0.8454 -1.9999 0.9750
-6.0080 0.3105 -1.9998 0.9750
-5.9671 -0.7625 -1.9996 0.9750
-5.8751 -1.2919 -1.9996 0.9750
-5.7362 -1.8111 -1.9995 0.9750
-4.7401 -3.7037 -1.9996 0.9750
-3.5900 -4.8274 -1.9998 0.9750
-2.6749 -5.3893 -2.0000 0.9750
-1.1117 -5.6998 -1.9303 0.9758
-0.5742 -5.5404 -1.8515 0.9768
0.9126 -5.4868 -1.8489 0.9768
1.8741 -5.2389 -1.8495 0.9768
2.4266 -5.2507 -1.9227 0.9759
2.9955 -5.2043 -1.9960 0.9750
3.4583 -4.9309 -2.0020 0.9749
4.2806 -4.2384 -2.0024 0.9749
4.6422 -3.8398 -2.0026 0.9749
4.9668 -3.4104 -2.0027 0.9749
5.2517 -2.9538 -2.0029 0.9749
5.4948 -2.4735 -2.0030 0.9749
5.8478 -1.4575 -2.0033 0.9749
5.9548 -0.9299 -2.0034 0.9749
6.0144 -0.3947 -2.0035 0.9749
5.9892 0.6808 -2.0037 0.9749
5.7730 1.7348 -2.0038 0.9749
5.5952 2.2431 -2.0038 0.9749
5.3727 2.7335 -2.0038 0.9749
5.1073 3.2020 -2.0038 0.9749
4.8011 3.6450 -2.0037 0.9749
4.0764 4.4402 -2.0036 0.9749
3.2218 5.0937 -2.0034 0.9749
2.2647 5.5847 -2.0032 0.9749
1.7572 5.7641 -2.0031 0.9749
1.2357 5.8975 -2.0029 0.9749
0.7044 5.9837 -2.0028 0.9749
0.1675 6.0222 -2.0026 0.9749
-0.3706 6.0126 -2.0024 0.9749
-2.4500 5.5009 -2.0017 0.9749
-3.8185 4.6541 -2.0011 0.9749
-4.2182 4.2944 -2.0009 0.9749
-5.4523 2.5462 -2.0003 0.9750
-5.6574 2.0493 -2.0001 0.9750
-5.8173 1.5362 -2.0000 0.9750
-5.9971 0.4775 -1.9998 0.9750
-5.9860 -0.5962 -1.9996 0.9750
-5.7844 -1.6508 -1.9995 0.9750
-5.6139 -2.1604 -1.9995 0.9750
-5.1405 -3.1240 -1.9995 0.9750
-4.5034 -3.9883 -1.9996 0.9750
-2.3385 -5.5439 -2.0001 0.9750
-1.8313 -5.7207 -1.9967 0.9750
0.2649 -5.5552 -1.8487 0.9768
1.2484 -5.4206 -1.8490 0.9768
1.7274 -5.2881 -1.8492 0.9768
2.2493 -5.2454 -1.8971 0.9762
3.3169 -5.0207 -2.0002 0.9750
3.7553 -4.7092 -2.0021 0.9749
4.1609 -4.3557 -2.0023 0.9749
4.5335 -3.9673 -2.0025 0.9749
5.1674 -3.0987 -2.0028 0.9749
5.4237 -2.6254 -2.0030 0.9749
5.6368 -2.1310 -2.0031 0.9749
5.9266 -1.0951 -2.0034 0.9749
6.0010 -0.5619 -2.0035 0.9749
5.9361 1.0479 -2.0037 0.9749
5.6554 2.0866 -2.0038 0.9749
5.1944 3.0587 -2.0038 0.9749
4.9006 3.5100 -2.0037 0.9749
4.5678 3.9333 -2.0037 0.9749
4.1984 4.3251 -2.0036 0.9749
3.3623 5.0022 -2.0035 0.9749
0.8706 5.9620 -2.0028 0.9749
-0.7396 5.9781 -2.0023 0.9749
-1.7902 5.7503 -2.0019 0.9749
5.2127 2.0541 -2.0036 0.9765
4.7645 2.9481 -2.0036 0.9765
4.4823 3.3615 -2.0036 0.9765
3.8132 4.1045 -2.0035 0.9765
3.4315 4.4283 -2.0034 0.9765
3.0225 4.7167 -2.0033 0.9765
1.6649 5.3479 -2.0030 0.9765
0.1888 5.5966 -2.0025 0.9765
-0.8091 5.5402 -2.0022 0.9765
-1.3001 5.4454 -2.0020 0.9765
-1.7807 5.3072 -2.0019 0.9765
-2.6954 4.9052 -2.0015 0.9765
-5.2477 1.9360 -2.0002 0.9765
-5.3992 1.4599 -2.0001 0.9765
-5.5076 0.9722 -2.0000 0.9765
-5.5722 0.4768 -1.9999 0.9765
-5.0331 -2.4364 -1.9997 0.9765
-4.7956 -2.8758 -1.9997 0.9765
-4.5199 -3.2924 -1.9997 0.9765
-4.2081 -3.6827 -1.9997 0.9765
-3.4866 -4.3724 -1.9999 0.9765
-3.0826 -4.6663 -1.9999 0.9765
-2.2042 -5.1405 -2.0002 0.9765
-1.7368 -5.3171 -2.0003 0.9765
-0.7613 -5.5226 -1.9936 0.9766
-0.2592 -5.4392 -1.9473 0.9771
0.2232 -5.3459 -1.9134 0.9775
0.6960 -5.2784 -1.9039 0.9776
2.1686 -5.1410 -1.9953 0.9766
3.0581 -4.6890 -2.0019 0.9765
3.8436 -4.0713 -2.0023 0.9765
4.1920 -3.7124 -2.0024 0.9765
5.2275 -2.0116 -2.0030 0.9765
5.5745 -0.5552 -2.0033 0.9765
5.5230 0.9414 -2.0036 0.9765
4.8447 2.8144 -2.0036 0.9765
4.5741 3.2355 -2.0036 0.9765
4.2671 3.6307 -2.0036 0.9765
3.9259 3.9969 -2.0035 0.9765
3.5534 4.3312 -2.0034 0.9765
3.1526 4.6308 -2.0033 0.9765
2.2789 5.1170 -2.0031 0.9765
0.8419 5.5368 -2.0027 0.9765
0.3444 5.5894 -2.0026 0.9765
-0.1558 5.5974 -2.0024 0.9765
-0.6547 5.5607 -2.0023 0.9765
-1.1482 5.4796 -2.0021 0.9765
-1.6325 5.3548 -2.0019 0.9765
-2.1037 5.1873 -2.0017 0.9765
-2.5580 4.9784 -2.0016 0.9765
-4.1367 3.7674 -2.0009 0.9765
-4.4561 3.3829 -2.0007 0.9765
-5.1919 2.0813 -2.0003 0.9765
-5.3566 1.6095 -2.0002 0.9765
-5.5568 0.6316 -2.0000 0.9765
-5.5908 0.1331 -1.9999 0.9765
-5.5250 -0.8628 -1.9997 0.9765
-5.2834 -1.8312 -1.9997 0.9765
-5.0989 -2.2954 -1.9997 0.9765
-4.8737 -2.7413 -1.9997 0.9765
-4.6097 -3.1654 -1.9997 0.9765
-3.6068 -4.2737 -1.9998 0.9765
-1.8839 -5.2666 -2.0002 0.9765
-1.4055 -5.4100 -1.9989 0.9765
-0.9151 -5.5023 -1.9947 0.9766
-0.4138 -5.4750 -1.9635 0.9769
0.5487 -5.2935 -1.9031 0.9776
1.0229 -5.2439 -1.9106 0.9776
2.0237 -5.1964 -1.9942 0.9766
2.4842 -5.0048 -1.9981 0.9765
2.9264 -4.7721 -2.0019 0.9765
3.3409 -4.4923 -2.0020 0.9765
3.7288 -4.1766 -2.0022 0.9765
4.0870 -3.8275 -2.0024 0.9765
5.1694 -2.1562 -2.0030 0.9765
5.3415 -1.6864 -2.0031 0.9765
5.4547 1.2793 -2.0036 0.9765
5.3189 1.7610 -2.0036 0.9765
5.1405 2.2287 -2.0036 0.9765
4.9211 2.6785 -2.0036 0.9765
4.3664 3.5106 -2.0036 0.9765
4.0356 3.8862 -2.0035 0.9765
3.2802 4.5414 -2.0034 0.9765
2.8617 4.8158 -2.0033 0.9765
2.4204 5.0517 -2.0032 0.9765
-0.0000 5.5997 -2.0025 0.9765
-0.9954 5.5095 -2.0021 0.9765
-1.9586 5.2439 -2.0018 0.9765
-2.8591 4.8114 -2.0014 0.9765
-3.6683 4.2257 -2.0011 0.9765
-4.0304 3.8811 -2.0009 0.9765
-4.3604 3.5057 -2.0008 0.9765
-5.4452 1.2770 -2.0001 0.9765
-5.5372 0.7859 -2.0000 0.9765
-5.5882 -0.2110 -1.9998 0.9765
-5.5469 -0.7088 -1.9998 0.9765
-5.4614 -1.2010 -1.9997 0.9765
-5.3324 -1.6836 -1.9997 0.9765
-5.1608 -2.1527 -1.9997 0.9765
-4.9481 -2.6047 -1.9997 0.9765
-4.6959 -3.0359 -1.9997 0.9765
-4.4063 -3.4429 -1.9997 0.9765
-3.3373 -4.4875 -1.9999 0.9765
-2.4866 -5.0098 -2.0001 0.9765
-2.0297 -5.2120 -2.0002 0.9765
-1.5565 -5.3727 -2.0003 0.9765
-1.0685 -5.4781 -1.9959 0.9766
-0.5711 -5.5111 -1.9814 0.9767
-0.0750 -5.3963 -1.9299 0.9773
0.4019 -5.3154 -1.9063 0.9776
1.3570 -5.2232 -1.9299 0.9773
2.7920 -4.8508 -2.0015 0.9765
3.2146 -4.5834 -2.0020 0.9765
5.2924 -1.8343 -2.0031 0.9765
5.5901 -0.3669 -2.0034 0.9765
5.6008 0.1335 -2.0035 0.9765
5.4882 1.1271 -2.0036 0.9765
5.3658 1.6124 -2.0036 0.9765
5.2005 2.0848 -2.0036 0.9765
4.7470 2.9761 -2.0036 0.9765
4.4624 3.3878 -2.0036 0.9765
4.1422 3.7725 -2.0035 0.9765
2.5600 4.9825 -2.0032 0.9765
2.1050 5.1908 -2.0031 0.9765
1.6333 5.3576 -2.0030 0.9765
0.1557 5.5976 -2.0025 0.9765
-0.3444 5.5887 -2.0024 0.9765
-1.3322 5.4376 -2.0020 0.9765
-2.7243 4.8892 -2.0015 0.9765
-3.1495 4.6261 -2.0013 0.9765
-3.5494 4.3262 -2.0012 0.9765
-4.2613 3.6257 -2.0008 0.9765
-4.5675 3.2307 -2.0007 0.9765
-5.0683 2.3669 -2.0004 0.9765
-5.2590 1.9050 -2.0002 0.9765
-5.5133 0.9396 -2.0000 0.9765
-5.5749 0.4438 -1.9999 0.9765
-5.5920 -0.0554 -1.9998 0.9765
-5.3772 -1.5346 -1.9997 0.9765
-4.7785 -2.9041 -1.9997 0.9765
-4.5004 -3.3190 -1.9997 0.9765
-4.1863 -3.7075 -1.9997 0.9765
-3.4607 -4.3929 -1.9999 0.9765
-3.0550 -4.6844 -2.0000 0.9765
-1.7053 -5.3272 -2.0003 0.9765
-1.2213 -5.4498 -1.9972 0.9766
0.7273 -5.2752 -1.9043 0.9776
1.7018 -5.2099 -1.9600 0.9770
2.1992 -5.1287 -1.9956 0.9766
3.0857 -4.6709 -2.0019 0.9765
3.4906 -4.3772 -2.0021 0.9765
3.8676 -4.0486 -2.0023 0.9765
4.5265 -3.2971 -2.0026 0.9765
5.5086 -1.0179 -2.0033 0.9765
5.5777 -0.5222 -2.0033 0.9765
5.6023 -0.0224 -2.0034 0.9765
5.5821 0.4777 -2.0035 0.9765
5.4085 1.4625 -2.0036 0.9765
5.2565 1.9394 -2.0036 0.9765
5.0625 2.4007 -2.0036 0.9765
4.8280 2.8429 -2.0036 0.9765
3.9022 4.0200 -2.0035 0.9765
3.1252 4.6494 -2.0033 0.9765
1.7817 5.3102 -2.0030 0.9765
1.3006 5.4477 -2.0029 0.9765
0.3114 5.5913 -2.0026 0.9765
-0.6875 5.5567 -2.0023 0.9765
5.0156 1.4749 -2.0035 0.9779
4.4458 2.7509 -2.0035 0.9779
3.5581 3.8300 -2.0034 0.9779
3.2020 4.1321 -2.0033 0.9779
2.8203 4.4012 -2.0032 0.9779
2.4162 4.6351 -2.0031 0.9779
1.1019 5.1087 -2.0028 0.9779
0.6416 5.1863 -2.0026 0.9779
0.1761 5.2225 -2.0025 0.9779
-0.2906 5.2170 -2.0023 0.9779
-0.7550 5.1698 -2.0022 0.9779
-1.2132 5.0814 -2.0020 0.9779
-1.6617 4.9524 -2.0019 0.9779
-2.0969 4.7840 -2.0017 0.9779
-2.5153 4.5774 -2.0015 0.9779
-3.2884 4.0567 -2.0012 0.9779
-3.6370 3.7467 -2.0010 0.9779
-3.9566 3.4069 -2.0009 0.9779
-4.4986 2.6489 -2.0006 0.9779
-4.7167 2.2367 -2.0005 0.9779
-5.1398 0.9072 -2.0001 0.9779
-5.2001 0.4449 -2.0000 0.9779
-5.2188 -0.0209 -2.0000 0.9779
-5.0265 -1.4025 -1.9998 0.9779
-3.9271 -3.4368 -1.9999 0.9779
-3.6048 -3.7736 -1.9999 0.9779
-3.2538 -4.0804 -2.0000 0.9779
-2.4768 -4.5943 -2.0002 0.9779
-2.0570 -4.7972 -2.0003 0.9779
-1.6208 -4.9619 -2.0004 0.9779
-1.1715 -5.0871 -2.0005 0.9779
0.2173 -5.2026 -1.9955 0.9779
1.1389 -5.0822 -1.9959 0.9779
1.5895 -4.9652 -1.9979 0.9779
2.0293 -4.8105 -2.0008 0.9779
2.8537 -4.3756 -2.0019 0.9779
4.2056 -3.1015 -2.0025 0.9779
5.0262 -1.4344 -2.0030 0.9779
5.2017 -0.5180 -2.0032 0.9779
5.2273 -0.0517 -2.0033 0.9779
4.7370 2.2122 -2.0035 0.9779
4.2682 3.0191 -2.0035 0.9779
3.9816 3.3879 -2.0034 0.9779
3.6633 3.7296 -2.0034 0.9779
2.9417 4.3211 -2.0032 0.9779
2.5442 4.5662 -2.0031 0.9779
1.2436 5.0761 -2.0028 0.9779
-2.3870 4.6457 -2.0016 0.9779
-2.7919 4.4138 -2.0014 0.9779
-3.1744 4.1467 -2.0012 0.9779
-4.4232 2.7731 -2.0006 0.9779
-4.6528 2.3671 -2.0005 0.9779
-4.8451 1.9423 -2.0004 0.9779
-4.9988 1.5021 -2.0003 0.9779
-5.1857 0.5894 -2.0001 0.9779
-5.2075 -0.3419 -1.9999 0.9779
-5.1561 -0.8052 -1.9999 0.9779
-5.0636 -1.2621 -1.9998 0.9779
-4.9307 -1.7090 -1.9998 0.9779
-4.7585 -2.1422 -1.9998 0.9779
-4.5483 -2.5583 -1.9998 0.9779
-4.3019 -2.9540 -1.9998 0.9779
-2.1896 -4.7381 -2.0002 0.9779
-1.7581 -4.9148 -2.0003 0.9779
-0.8563 -5.1487 -2.0002 0.9779
-0.3929 -5.1976 -1.9975 0.9779
0.5367 -5.1784 -1.9951 0.9779
1.4503 -5.0057 -1.9972 0.9779
1.8937 -4.8625 -1.9997 0.9779
2.3223 -4.6787 -2.0017 0.9779
2.7308 -4.4531 -2.0018 0.9779
3.1176 -4.1920 -2.0020 0.9779
3.4795 -3.8974 -2.0022 0.9779
3.8138 -3.5716 -2.0023 0.9779
4.3886 -2.8371 -2.0026 0.9779
4.6246 -2.4343 -2.0028 0.9779
4.8237 -2.0120 -2.0029 0.9779
4.9843 -1.5736 -2.0030 0.9779
5.1051 -1.1226 -2.0031 0.9779
5.2238 -0.1971 -2.0033 0.9779
5.2207 0.2699 -2.0034 0.9779
5.1760 0.7347 -2.0034 0.9779
5.0899 1.1937 -2.0035 0.9779
4.9631 1.6432 -2.0035 0.9779
4.5919 2.4994 -2.0035 0.9779
4.0743 3.2758 -2.0034 0.9779
3.7657 3.6263 -2.0034 0.9779
3.0608 4.2377 -2.0033 0.9779
0.4663 5.2048 -2.0026 0.9779
-1.8277 4.8934 -2.0018 0.9779
-2.2569 4.7104 -2.0016 0.9779
-2.6681 4.4898 -2.0015 0.9779
-3.0579 4.2335 -2.0013 0.9779
-3.4232 3.9434 -2.0011 0.9779
-3.7612 3.6218 -2.0010 0.9779
-4.0691 3.2715 -2.0008 0.9779
-4.3445 2.8951 -2.0007 0.9779
-4.5852 2.4956 -2.0005 0.9779
-5.0816 1.1917 -2.0002 0.9779
-5.1674 0.7334 -2.0001 0.9779
-5.2151 -0.1969 -1.9999 0.9779
-5.1766 -0.6615 -1.9999 0.9779
-5.0968 -1.1208 -1.9998 0.9779
-4.8162 -2.0090 -1.9998 0.9779
-4.1121 -3.2130 -1.9998 0.9779
-3.1144 -4.1879 -2.0000 0.9779
-2.7284 -4.4493 -2.0001 0.9779
-1.8941 -4.8640 -2.0003 0.9779
-1.4526 -5.0139 -2.0004 0.9779
-0.9994 -5.1238 -2.0005 0.9779
-0.5375 -5.1866 -1.9982 0.9779
0.3925 -5.1916 -1.9952 0.9779
0.8543 -5.1363 -1.9954 0.9779
1.3101 -5.0426 -1.9966 0.9779
1.7568 -4.9110 -1.9988 0.9779
2.6058 -4.5273 -2.0018 0.9779
3.7128 -3.6762 -2.0023 0.9779
4.0264 -3.3304 -2.0024 0.9779
4.3079 -2.9580 -2.0026 0.9779
4.7658 -2.1454 -2.0028 0.9779
5.0718 -1.2641 -2.0031 0.9779
5.1647 -0.8065 -2.0032 0.9779
5.2162 -0.3424 -2.0033 0.9779
5.2262 0.1245 -2.0033 0.9779
5.1944 0.5905 -2.0034 0.9779
4.8526 1.9454 -2.0035 0.9779
4.6597 2.3707 -2.0035 0.9779
4.1639 3.1612 -2.0034 0.9779
3.5354 3.8509 -2.0034 0.9779
2.7943 4.4178 -2.0032 0.9779
2.3888 4.6493 -2.0031 0.9779
1.9642 4.8437 -2.0030 0.9779
1.5240 4.9993 -2.0029 0.9779
1.0717 5.1151 -2.0028 0.9779
0.6109 5.1899 -2.0026 0.9779
-0.3214 5.2151 -2.0023 0.9779
-2.1251 4.7715 -2.0017 0.9779
-2.5422 4.5624 -2.0015 0.9779
-2.9390 4.3170 -2.0013 0.9779
-3.3123 4.0372 -2.0012 0.9779
-3.6591 3.7251 -2.0010 0.9779
-4.9078 1.7778 -2.0003 0.9779
-5.0466 1.3326 -2.0002 0.9779
-5.1451 0.8769 -2.0001 0.9779
-5.2026 0.4142 -2.0000 0.9779
-5.2186 -0.0517 -2.0000 0.9779
-5.1930 -0.5172 -1.9999 0.9779
-5.1260 -0.9786 -1.9998 0.9779
-4.4595 -2.7102 -1.9998 0.9779
-4.1999 -3.0974 -1.9998 0.9779
-3.5825 -3.7949 -1.9999 0.9779
-2.4496 -4.6088 -2.0002 0.9779
-2.0286 -4.8093 -2.0003 0.9779
-0.6818 -5.1717 -1.9990 0.9779
0.2480 -5.2011 -1.9954 0.9779
0.7111 -5.1577 -1.9952 0.9779
1.1690 -5.0757 -1.9960 0.9779
2.4788 -4.5979 -2.0017 0.9779
4.2238 -3.0766 -2.0025 0.9779
4.4819 -2.6876 -2.0027 0.9779
4.8889 -1.8483 -2.0029 0.9779
5.2046 -0.4873 -2.0032 0.9779
4.9049 1.8096 -2.0035 0.9779
4.7238 2.2401 -2.0035 0.9779
4.5050 2.6528 -2.0035 0.9779
3.9616 3.4113 -2.0034 0.9779
3.6412 3.7511 -2.0034 0.9779
3.2918 4.0610 -2.0033 0.9779
2.9162 4.3384 -2.0032 0.9779
2.0982 4.7872 -2.0030 0.9779
1.2136 5.0834 -2.0028 0.9779
0.2906 5.2174 -2.0025 0.9779
-0.1762 5.2222 -2.0024 0.9779
-0.6415 5.1852 -2.0022 0.9779
4.6960 1.3810 -2.0034 0.9791
4.5541 1.7946 -2.0034 0.9791
4.3758 2.1938 -2.0034 0.9791
4.1625 2.5756 -2.0034 0.9791
3.3314 3.5860 -2.0032 0.9791
2.2623 4.3398 -2.0030 0.9791
1.8658 4.5242 -2.0029 0.9791
-0.2721 4.8847 -2.0023 0.9791
-0.7069 4.8406 -2.0021 0.9791
-1.5559 4.6371 -2.0018 0.9791
-2.3551 4.2860 -2.0015 0.9791
-2.7280 4.0584 -2.0014 0.9791
-3.4055 3.5082 -2.0011 0.9791
-3.7048 3.1901 -2.0009 0.9791
-4.4166 2.0944 -2.0005 0.9791
-4.5856 1.6918 -2.0004 0.9791
-2.1546 0.3803 -0.8955 0.9906
-1.9020 -0.0076 -0.7784 0.9918
-1.9579 -0.1834 -0.8048 0.9915
-2.1880 -0.4043 -0.9106 0.9904
-4.5707 -1.7281 -1.9999 0.9791
-4.3983 -2.1291 -1.9999 0.9791
-4.1907 -2.5131 -1.9999 0.9791
-3.6773 -3.2182 -2.0000 0.9791
-3.3755 -3.5336 -2.0000 0.9791
-2.3192 -4.3020 -2.0002 0.9791
-1.5176 -4.6462 -2.0005 0.9791
-1.0970 -4.7634 -2.0006 0.9791
1.4910 -4.6573 -2.0014 0.9791
2.2955 -4.3187 -2.0017 0.9791
3.0272 -3.8425 -2.0020 0.9791
3.3583 -3.5572 -2.0022 0.9791
3.6626 -3.2436 -2.0023 0.9791
4.8073 -0.9177 -2.0030 0.9791
4.8702 -0.4850 -2.0031 0.9791
4.8943 -0.0484 -2.0032 0.9791
4.8792 0.3885 -2.0033 0.9791
4.6022 1.6672 -2.0034 0.9791
4.2326 2.4588 -2.0034 0.9791
