ply
format ascii 1.0
element vertex 1581
property float32 x
property float32 y
property float32 z
property float32 I
end_header
-4.4297 18.7347 -1.8482 0.9256
-6.0830 18.2630 -1.8480 0.9256
-14.5001 -12.6217 -1.8456 0.9257
-12.0305 -15.0037 -1.8463 0.9256
-10.6461 -16.0206 -1.8467 0.9256
-9.1763 -16.9100 -1.8471 0.9256
-7.5960 -17.5809 -1.8387 0.9259
-5.4014 -16.3820 -1.6560 0.9330
1.8734 -14.5309 -1.4066 0.9428
3.1941 -14.4489 -1.4207 0.9423
7.0517 -13.3622 -1.4505 0.9411
8.5768 -13.2370 -1.5143 0.9386
11.7436 -12.5149 -1.6476 0.9334
6.9148 -1.7915 -0.8485 0.9716
16.8217 -1.2611 -2.0038 0.9343
16.8894 0.2451 -2.0064 0.9342
16.7999 1.7511 -2.0064 0.9342
15.7338 6.1367 -2.0061 0.9342
15.1222 7.5153 -2.0059 0.9342
13.8234 8.4860 -1.9267 0.9368
12.5645 9.3530 -1.8606 0.9389
11.6783 10.4353 -1.8604 0.9389
10.3847 13.3017 -2.0046 0.9343
7.8524 14.9304 -2.0038 0.9343
5.0717 16.0821 -2.0031 0.9343
3.6159 16.4671 -2.0027 0.9343
2.1318 16.7206 -2.0022 0.9344
-0.8736 16.8262 -2.0014 0.9344
-3.8488 16.3963 -2.0006 0.9344
-8.0489 14.7831 -1.9994 0.9344
-11.6707 12.1177 -1.9984 0.9345
-12.7036 11.0265 -1.9982 0.9345
-13.6350 9.8478 -1.9979 0.9345
-10.1938 6.0574 -1.4085 0.9534
-11.8480 4.4255 -1.5023 0.9503
-12.6251 3.4687 -1.5553 0.9486
-16.5450 2.9900 -1.9971 0.9345
-16.7458 -1.4983 -1.9971 0.9345
-15.1673 -7.2632 -1.9976 0.9345
-10.7865 -11.1948 -1.8466 0.9393
-9.7462 -12.1145 -1.8469 0.9393
-8.6279 -12.9380 -1.8472 0.9393
-7.4404 -13.6586 -1.8476 0.9393
-6.1933 -14.2707 -1.8479 0.9393
-4.8962 -14.7693 -1.8483 0.9392
-3.5116 -14.9458 -1.8237 0.9400
-0.8106 -15.5482 -1.8494 0.9392
0.5605 -15.0376 -1.7875 0.9412
5.9919 -14.3873 -1.8513 0.9392
7.0269 -13.3678 -1.7939 0.9410
8.4567 -13.0980 -1.8520 0.9391
10.6534 -11.3901 -1.8526 0.9391
12.5116 -9.3178 -1.8531 0.9391
7.4255 -1.4543 -0.8988 0.9700
16.6640 2.7570 -2.0064 0.9342
15.3359 7.0702 -2.0060 0.9342
14.6424 8.4095 -2.0058 0.9342
11.9789 10.0899 -1.8604 0.9389
5.6171 8.1621 -1.1769 0.9609
1.1234 16.8161 -2.0020 0.9344
-0.3814 16.8457 -2.0016 0.9344
-1.8825 16.7411 -2.0011 0.9344
-4.8260 16.1334 -2.0003 0.9344
-11.3120 12.4543 -1.9985 0.9345
-9.6975 6.1530 -1.3642 0.9548
-14.9466 7.7066 -1.9976 0.9345
-15.2625 3.2217 -1.8529 0.9391
-16.7824 -1.0081 -1.9971 0.9345
-16.3371 -3.9751 -1.9972 0.9345
-14.7046 -8.1617 -1.9977 0.9345
-13.9193 -9.4422 -1.9979 0.9345
-11.1086 -10.8741 -1.8465 0.9393
-9.0019 -12.6795 -1.8471 0.9393
-7.8361 -13.4345 -1.8475 0.9393
-6.6074 -14.0827 -1.8478 0.9393
-5.3256 -14.6189 -1.8482 0.9393
-4.0008 -15.0387 -1.8485 0.9392
-1.2647 -15.5168 -1.8493 0.9392
1.4290 -14.6312 -1.7463 0.9425
2.7496 -14.5558 -1.7596 0.9421
4.2466 -14.9912 -1.8508 0.9392
2.6943 -5.5109 -0.7287 0.9756
9.2292 -12.5678 -1.8522 0.9391
10.3154 -11.6961 -1.8525 0.9391
12.2334 -9.6792 -1.8530 0.9391
13.0497 -8.5501 -1.8532 0.9391
13.7620 -7.3525 -1.8534 0.9391
7.1308 -3.0261 -0.9201 0.9693
15.4682 -2.0743 -1.8539 0.9391
16.4678 3.7528 -2.0063 0.9342
15.5365 6.6190 -2.0060 0.9342
11.3501 10.7902 -1.8603 0.9389
7.3383 10.0226 -1.4755 0.9512
6.0038 15.7602 -2.0033 0.9343
4.5728 16.2298 -2.0029 0.9343
-7.1720 15.2301 -1.9997 0.9344
-12.0385 11.7512 -1.9983 0.9345
-13.0372 10.6288 -1.9981 0.9345
-13.9319 9.4221 -1.9978 0.9345
-14.7154 8.1406 -1.9976 0.9345
-15.3817 6.7946 -1.9974 0.9345
-11.7529 3.9812 -1.4740 0.9512
-16.6292 2.4780 -1.9971 0.9345
-16.8046 -0.5170 -1.9971 0.9345
-16.6918 -2.0143 -1.9971 0.9345
-16.4461 -3.4957 -1.9972 0.9345
-15.5650 -6.3639 -1.9975 0.9345
-14.9364 -7.7280 -1.9977 0.9345
-14.1889 -9.0309 -1.9979 0.9345
-12.3147 -9.4818 -1.8462 0.9393
-11.4212 -10.5442 -1.8464 0.9393
-10.4364 -11.5229 -1.8467 0.9393
-8.2250 -13.1988 -1.8473 0.9393
-7.0159 -13.8826 -1.8477 0.9393
-4.4385 -14.9144 -1.8484 0.9392
-0.3305 -15.5669 -1.8495 0.9392
1.0194 -14.9419 -1.7790 0.9415
8.8573 -12.8316 -1.8521 0.9391
9.9685 -11.9921 -1.8524 0.9391
11.9447 -10.0323 -1.8529 0.9391
12.7937 -8.9277 -1.8531 0.9391
13.5407 -7.7514 -1.8533 0.9391
14.1796 -6.5129 -1.8535 0.9391
6.9885 -2.4818 -0.8809 0.9706
6.9143 -1.7794 -0.8481 0.9717
16.5707 3.2698 -2.0063 0.9342
16.2120 4.7350 -2.0062 0.9342
7.8285 10.0612 -1.5143 0.9499
7.8281 14.9430 -2.0038 0.9343
2.1046 16.7240 -2.0022 0.9344
-0.9009 16.8248 -2.0014 0.9344
-2.3980 16.6738 -2.0010 0.9344
-5.3212 15.9757 -2.0002 0.9344
-6.7241 15.4342 -1.9998 0.9344
-9.3568 13.9883 -1.9991 0.9345
-10.5658 13.0955 -1.9987 0.9345
-11.6903 12.0987 -1.9984 0.9345
-10.2006 6.0390 -1.4081 0.9534
-11.8429 4.4017 -1.5008 0.9504
-12.6703 3.4591 -1.5601 0.9485
-16.8125 -0.0254 -1.9971 0.9345
-16.7434 -1.5255 -1.9971 0.9345
-16.5410 -3.0134 -1.9972 0.9345
-15.7440 -5.9060 -1.9974 0.9345
-15.1555 -7.2878 -1.9976 0.9345
-14.4463 -8.6119 -1.9978 0.9345
-12.5862 -9.1173 -1.8461 0.9393
-7.4183 -13.6707 -1.8476 0.9393
-3.4900 -14.9629 -1.8251 0.9400
1.8734 -14.5309 -1.7404 0.9427
3.1939 -14.4479 -1.7576 0.9421
4.7075 -14.8540 -1.8509 0.9392
8.4779 -13.0843 -1.8520 0.9391
9.6131 -12.2778 -1.8523 0.9391
12.5268 -9.2975 -1.8531 0.9391
6.7414 -1.7466 -0.9867 0.9723
7.7698 -1.2872 -1.1159 0.9687
13.8915 2.7177 -2.0056 0.9444
12.6735 6.2984 -2.0052 0.9444
10.5303 7.8388 -1.8600 0.9483
9.7878 8.7461 -1.8598 0.9484
6.7333 7.1959 -1.3963 0.9610
7.8373 10.0388 -1.8045 0.9498
5.4767 8.4785 -1.4301 0.9600
6.5820 12.5148 -2.0035 0.9445
5.4382 13.0501 -2.0032 0.9445
2.8475 9.0293 -1.3415 0.9625
3.0312 13.8043 -2.0025 0.9445
1.7871 14.0172 -2.0022 0.9445
-4.4399 13.4023 -2.0004 0.9446
-5.6171 12.9506 -2.0001 0.9446
-7.8270 11.7425 -1.9995 0.9446
-8.8423 10.9958 -1.9992 0.9446
-6.6322 6.8862 -1.3546 0.9621
-12.1247 7.2047 -1.9983 0.9446
-11.7807 4.4004 -1.7818 0.9505
-13.0303 2.3548 -1.8762 0.9479
-14.0439 1.2596 -1.9978 0.9446
-14.1002 0.0015 -1.9978 0.9446
-14.0442 -1.2566 -1.9979 0.9446
-13.8764 -2.5047 -1.9979 0.9446
-13.5982 -3.7330 -1.9980 0.9446
-12.7198 -6.0912 -1.9983 0.9446
-12.1267 -7.2024 -1.9984 0.9446
-11.3939 -8.2255 -1.9911 0.9448
-9.8455 -8.5421 -1.8469 0.9487
-9.0452 -9.3876 -1.8471 0.9487
-7.2347 -10.8488 -1.8476 0.9487
-2.9845 -12.7023 -1.8488 0.9487
0.4863 -13.0460 -1.8498 0.9486
1.6486 -12.9528 -1.8501 0.9486
3.9259 -12.4578 -1.8507 0.9486
5.0225 -12.0598 -1.8510 0.9486
8.0406 -10.3037 -1.8518 0.9486
10.4860 -7.8092 -1.8525 0.9486
11.7091 -5.8222 -1.8528 0.9485
6.7495 -1.9610 -0.9959 0.9720
8.9364 -0.9334 -1.2731 0.9644
13.9652 2.3105 -2.0056 0.9444
13.7028 3.5471 -2.0055 0.9444
13.3309 4.7553 -2.0054 0.9444
12.8526 5.9254 -2.0053 0.9444
12.2716 7.0479 -2.0051 0.9444
10.0397 8.4565 -1.8599 0.9484
5.4036 9.5834 -1.5588 0.9565
3.1539 9.0675 -1.3603 0.9620
1.3498 8.5795 -1.2306 0.9655
0.9418 14.0976 -2.0019 0.9445
-0.1875 8.2822 -1.1738 0.9671
-1.5783 14.0356 -2.0012 0.9445
-2.8238 13.8365 -2.0009 0.9445
-5.2363 13.1099 -2.0002 0.9446
-6.3842 12.5885 -1.9999 0.9446
-8.5174 11.2501 -1.9993 0.9446
-10.3787 9.5547 -1.9988 0.9446
-8.3158 6.3842 -1.4854 0.9585
-11.9092 7.5563 -1.9984 0.9446
-14.0941 0.4137 -1.9978 0.9446
-14.0749 -0.8454 -1.9979 0.9446
-13.9436 -2.0979 -1.9979 0.9446
-13.7013 -3.3338 -1.9980 0.9446
-12.3317 -6.8446 -1.9984 0.9446
-11.6685 -7.9153 -1.9978 0.9446
-10.0907 -8.2503 -1.8468 0.9487
-5.5402 -11.8081 -1.8481 0.9487
-2.2164 -12.8601 -1.8490 0.9486
-1.0603 -13.0089 -1.8493 0.9486
1.2691 -12.9947 -1.8500 0.9486
2.4239 -12.8319 -1.8503 0.9486
3.5598 -12.5666 -1.8506 0.9486
4.6676 -12.2008 -1.8509 0.9486
2.6939 -5.5103 -0.8691 0.9755
6.7639 -11.1805 -1.8515 0.9486
9.4871 -8.9936 -1.8522 0.9486
10.2528 -8.1122 -1.8524 0.9486
10.9368 -7.1658 -1.8526 0.9485
11.5335 -6.1619 -1.8528 0.9485
6.8443 -1.5496 -0.9943 0.9720
14.1408 0.6421 -2.0057 0.9444
14.0269 1.9012 -2.0056 0.9444
13.8008 3.1450 -2.0056 0.9444
13.4645 4.3636 -2.0055 0.9444
13.0206 5.5472 -2.0053 0.9444
12.4728 6.6863 -2.0052 0.9444
11.8254 7.7718 -2.0050 0.9444
9.9779 7.9175 -1.8048 0.9498
9.5129 9.0436 -1.8598 0.9484
8.6669 9.8550 -1.8595 0.9484
7.3029 12.1100 -2.0037 0.9445
4.5354 9.3100 -1.4673 0.9590
5.0327 13.2110 -2.0031 0.9445
3.8332 13.6050 -2.0027 0.9445
1.3536 14.0649 -2.0020 0.9445
-2.4182 13.9139 -2.0010 0.9445
-7.1280 12.1810 -1.9997 0.9446
-5.0709 7.1212 -1.2387 0.9653
-9.1770 10.7172 -1.9991 0.9446
-10.9330 8.9134 -1.9987 0.9446
-11.6835 7.9015 -1.9985 0.9446
-11.9681 5.2867 -1.8538 0.9485
-14.0760 0.8256 -1.9978 0.9446
-14.0935 -0.4336 -1.9978 0.9446
-13.4768 -4.1509 -1.9980 0.9446
-13.0535 -5.3371 -1.9982 0.9446
-12.5262 -6.4810 -1.9983 0.9446
-10.3272 -7.9515 -1.8467 0.9487
-9.5776 -8.8422 -1.8469 0.9487
-8.7516 -9.6627 -1.8472 0.9487
-2.5913 -12.7891 -1.8489 0.9486
0.8886 -13.0255 -1.8499 0.9486
4.3086 -12.3314 -1.8508 0.9486
6.4338 -11.3729 -1.8514 0.9486
7.4239 -10.7551 -1.8517 0.9486
10.0109 -8.4082 -1.8524 0.9486
10.7223 -7.4822 -1.8526 0.9485
11.3482 -6.4963 -1.8527 0.9485
11.8835 -5.4583 -1.8529 0.9485
6.7412 -1.7349 -0.9863 0.9723
14.1536 0.2284 -2.0057 0.9444
13.5866 3.9682 -2.0055 0.9444
13.1775 5.1643 -2.0054 0.9444
12.0479 7.4230 -2.0050 0.9444
9.7736 8.7619 -1.8598 0.9484
6.7156 7.2003 -1.3951 0.9610
6.5616 12.5255 -2.0035 0.9445
5.4170 13.0589 -2.0032 0.9445
1.7644 14.0201 -2.0022 0.9445
-5.6381 12.9414 -2.0001 0.9446
-7.8460 11.7297 -1.9995 0.9446
-8.8601 10.9814 -1.9992 0.9446
-10.6682 9.2295 -1.9987 0.9446
-11.7756 4.3767 -1.7800 0.9505
-13.0807 2.3420 -1.8829 0.9477
-14.0459 1.2368 -1.9978 0.9446
-14.0422 -1.2794 -1.9979 0.9446
-13.5921 -3.7550 -1.9980 0.9446
-12.7100 -6.1118 -1.9983 0.9446
-12.1150 -7.2221 -1.9984 0.9446
-9.8317 -8.5581 -1.8469 0.9487
-9.0300 -9.4023 -1.8471 0.9487
-8.1562 -10.1719 -1.8473 0.9487
-5.1735 -11.9741 -1.8482 0.9487
-2.9639 -12.7072 -1.8488 0.9487
-1.8186 -12.9232 -1.8491 0.9486
1.6696 -12.9502 -1.8501 0.9486
3.9461 -12.4515 -1.8507 0.9486
8.0573 -10.2907 -1.8518 0.9486
8.9445 -9.5320 -1.8521 0.9486
9.7605 -8.6969 -1.8523 0.9486
10.4986 -7.7922 -1.8525 0.9486
7.5869 -1.2569 -1.2669 0.9693
12.1374 -0.9099 -2.0051 0.9519
12.1058 1.2618 -2.0051 0.9519
11.6880 3.3931 -2.0050 0.9519
6.1884 7.9267 -1.6567 0.9601
2.8475 9.0292 -1.5597 0.9623
0.4552 12.1429 -2.0018 0.9519
-0.6300 12.1332 -2.0015 0.9519
-1.8441 7.8562 -1.3294 0.9678
-3.8190 11.5281 -2.0006 0.9520
-6.7329 10.1011 -1.9998 0.9520
-9.1646 7.9547 -1.9992 0.9520
-6.0507 4.3701 -1.2296 0.9702
-10.1511 4.8637 -1.8543 0.9554
-10.5440 3.9384 -1.8542 0.9554
-12.0822 1.0836 -1.9984 0.9520
-12.1306 0.0013 -1.9984 0.9520
-12.0825 -1.0811 -1.9984 0.9520
-11.9381 -2.1548 -1.9985 0.9520
-11.3660 -4.2427 -1.9986 0.9520
-10.9428 -5.2402 -1.9987 0.9520
-9.8388 -7.1028 -1.9991 0.9520
-8.5049 -7.3790 -1.8549 0.9554
-7.0303 -8.7387 -1.8476 0.9556
-6.2233 -9.3322 -1.8479 0.9555
-3.5311 -10.6515 -1.8486 0.9555
-2.5671 -10.9257 -1.8489 0.9555
-1.5822 -11.1128 -1.8492 0.9555
-0.5845 -11.2113 -1.8495 0.9555
0.4182 -11.2204 -1.8497 0.9555
3.3763 -10.7138 -1.8505 0.9555
6.0955 -9.4409 -1.8513 0.9555
6.5790 -1.9114 -1.1286 0.9726
7.0805 -1.3868 -1.1886 0.9712
12.1702 -0.1792 -2.0051 0.9519
12.0079 1.9866 -2.0051 0.9519
11.7824 3.0500 -2.0050 0.9519
9.9685 6.9771 -2.0045 0.9519
8.6945 7.3234 -1.8727 0.9550
7.9491 8.0123 -1.8593 0.9553
5.3248 7.7374 -1.5473 0.9626
5.5414 9.8278 -1.8587 0.9553
5.0032 11.0820 -2.0031 0.9519
3.9939 11.4826 -2.0028 0.9519
2.9530 11.7915 -2.0025 0.9519
0.8100 12.1250 -2.0019 0.9519
-0.1875 8.2824 -1.3648 0.9670
-4.5041 11.2768 -2.0004 0.9520
-5.4916 10.8285 -2.0002 0.9520
-7.3269 9.6776 -1.9997 0.9520
-8.1602 8.9843 -1.9994 0.9520
-8.9284 8.2195 -1.9992 0.9520
-9.5053 6.0311 -1.8545 0.9554
-11.8694 2.5054 -1.9984 0.9520
-12.0454 1.4364 -1.9984 0.9520
-12.1254 0.3560 -1.9984 0.9520
-11.0911 -4.9180 -1.9987 0.9520
-10.6088 -5.8883 -1.9988 0.9520
-9.1941 -7.5172 -1.9564 0.9530
-8.0136 -7.8444 -1.8474 0.9556
-7.2825 -8.5291 -1.8476 0.9556
-5.6521 -9.6900 -1.8480 0.9555
-4.7656 -10.1571 -1.8483 0.9555
-0.9120 -11.1889 -1.8494 0.9555
2.0847 -11.0359 -1.8502 0.9555
3.0614 -10.8074 -1.8505 0.9555
4.0141 -10.4926 -1.8507 0.9555
5.8166 -9.6147 -1.8512 0.9555
7.4347 -8.4298 -1.8517 0.9555
8.1580 -7.7337 -1.8519 0.9555
8.8164 -6.9756 -1.8520 0.9554
9.4044 -6.1617 -1.8522 0.9554
6.5177 -2.1021 -1.1282 0.9726
8.1521 -1.0932 -1.3550 0.9672
12.1598 -0.5350 -2.0051 0.9519
12.1589 0.5521 -2.0051 0.9519
11.8667 2.7043 -2.0050 0.9519
11.5776 3.7521 -2.0049 0.9519
10.7250 5.7494 -2.0047 0.9519
9.4099 7.4668 -1.9789 0.9525
8.1803 7.7767 -1.8594 0.9553
7.4530 8.4746 -1.8592 0.9553
5.0506 6.8980 -1.4084 0.9659
4.5354 9.3100 -1.7060 0.9589
1.1642 12.0967 -2.0020 0.9519
0.0803 12.1505 -2.0017 0.9519
-1.0040 12.1074 -2.0014 0.9519
-2.0800 11.9677 -2.0011 0.9519
-3.1390 11.7327 -2.0008 0.9520
-4.1727 11.4042 -2.0005 0.9520
-3.5246 7.4847 -1.3629 0.9670
-3.6410 6.2221 -1.1876 0.9712
-5.0709 7.1212 -1.4402 0.9652
-9.4053 7.6679 -1.9991 0.9520
-9.3252 6.3066 -1.8545 0.9554
-11.3208 2.7377 -1.9187 0.9539
-11.9983 1.7879 -1.9984 0.9520
-12.1098 0.7103 -1.9984 0.9520
-12.1249 -0.3730 -1.9984 0.9520
-11.8661 -2.5222 -1.9985 0.9520
-11.2299 -4.5915 -1.9987 0.9520
-8.2392 -7.6065 -1.8473 0.9556
-5.0603 -10.0129 -1.8482 0.9555
4.6375 -10.2335 -1.8509 0.9555
5.5328 -9.7802 -1.8511 0.9555
6.3842 -9.2487 -1.8514 0.9555
7.9282 -7.9686 -1.8518 0.9555
8.6084 -7.2302 -1.8520 0.9554
9.2200 -6.4338 -1.8521 0.9554
6.0028 -2.7572 -1.0882 0.9736
6.5762 -1.6924 -1.1187 0.9728
7.6173 -1.2492 -1.2716 0.9692
12.1389 -0.8902 -2.0051 0.9519
12.1037 1.2814 -2.0051 0.9519
11.9408 2.3562 -2.0050 0.9519
11.6825 3.4120 -2.0050 0.9519
10.8888 5.4335 -2.0047 0.9519
8.4044 7.5345 -1.8595 0.9553
6.7156 7.2003 -1.6220 0.9609
3.4351 6.5573 -1.2195 0.9704
3.6375 11.5998 -2.0027 0.9519
2.5876 11.8763 -2.0024 0.9519
-0.6497 12.1321 -2.0015 0.9519
-1.8564 7.8513 -1.3291 0.9678
-3.8377 11.5219 -2.0006 0.9520
-5.8229 10.6534 -2.0001 0.9520
-9.1774 7.9398 -1.9992 0.9520
-6.0494 4.3543 -1.2279 0.9702
-9.6866 5.7348 -1.8545 0.9554
-10.5504 3.9213 -1.8542 0.9554
-10.8577 2.9642 -1.8541 0.9554
-11.9410 2.1380 -1.9984 0.9520
-12.0839 1.0640 -1.9984 0.9520
-10.9343 -5.2580 -1.9987 0.9520
-10.4223 -6.2130 -1.9989 0.9520
-8.4738 -7.3761 -1.8508 0.9555
-7.7680 -8.0882 -1.8474 0.9556
-7.0161 -8.7501 -1.8477 0.9556
-6.2082 -9.3423 -1.8479 0.9555
-5.3506 -9.8603 -1.8481 0.9555
-3.5139 -10.6572 -1.8486 0.9555
0.4364 -11.2198 -1.8497 0.9555
1.4359 -11.1378 -1.8500 0.9555
2.4243 -10.9668 -1.8503 0.9555
9.0277 -6.7005 -1.8521 0.9554
9.5903 -5.8687 -1.8522 0.9554
7.6733 -1.2712 -1.4619 0.9688
10.6357 -0.7973 -2.0047 0.9575
10.4668 2.0477 -2.0046 0.9575
9.0874 5.5786 -2.0042 0.9575
8.5527 6.3667 -2.0041 0.9575
6.0857 7.7951 -1.8588 0.9605
5.2018 8.0530 -1.8020 0.9617
3.4376 6.5363 -1.3881 0.9704
3.8027 9.1253 -1.8582 0.9606
1.9220 6.0945 -1.2011 0.9743
-5.9018 8.8542 -2.0001 0.9576
-4.4770 4.6485 -1.2131 0.9741
-6.0507 4.3701 -1.4029 0.9701
-7.0067 4.1635 -1.5320 0.9674
-8.8987 4.2637 -1.8547 0.9606
-10.2546 2.8174 -1.9989 0.9576
-10.5917 0.9499 -1.9988 0.9576
-10.5919 -0.9477 -1.9988 0.9576
-10.4653 -1.8890 -1.9989 0.9576
-9.9637 -3.7193 -1.9990 0.9576
-9.5926 -4.5937 -1.9991 0.9576
-6.8207 -7.0789 -1.8477 0.9608
-3.9152 -9.0216 -1.8485 0.9608
-3.0951 -9.3361 -1.8487 0.9608
-2.2500 -9.5763 -1.8490 0.9608
0.3665 -9.8341 -1.8497 0.9607
1.2427 -9.7634 -1.8499 0.9607
2.1091 -9.6149 -1.8502 0.9607
2.9589 -9.3895 -1.8504 0.9607
3.7854 -9.0892 -1.8507 0.9607
6.0593 -7.7648 -1.8513 0.9607
6.7286 -7.1939 -1.8515 0.9607
5.2490 -3.2238 -1.1578 0.9752
7.0932 -1.3893 -1.3586 0.9710
10.6078 -1.1079 -2.0047 0.9575
10.6358 0.7951 -2.0047 0.9575
10.3247 2.6727 -2.0046 0.9575
10.0446 3.5830 -2.0045 0.9575
9.6844 4.4647 -2.0044 0.9575
6.9661 7.0214 -1.8591 0.9605
6.3112 7.6142 -1.8589 0.9605
4.0680 9.0106 -1.8582 0.9606
0.7099 10.6269 -2.0019 0.9576
-0.1875 8.2827 -1.5572 0.9668
-2.1289 10.4314 -2.0011 0.9576
-7.8281 6.0097 -1.8550 0.9606
-8.3324 5.2869 -1.8548 0.9606
-9.1384 3.7213 -1.8546 0.9606
-9.9409 3.0465 -1.9543 0.9586
-10.4051 2.1964 -1.9989 0.9576
-10.3332 -2.5143 -1.9989 0.9576
-9.7227 -4.3112 -1.9991 0.9576
-9.2998 -5.1618 -1.9992 0.9576
-8.8028 -5.9714 -1.9993 0.9576
-8.2355 -6.7335 -1.9995 0.9576
-6.3836 -7.4763 -1.8478 0.9608
-5.6917 -8.0169 -1.8480 0.9608
-4.9543 -8.4937 -1.8482 0.9608
-3.3666 -9.2413 -1.8487 0.9608
-2.5289 -9.5060 -1.8489 0.9608
0.0789 -9.8402 -1.8496 0.9607
0.9567 -9.7952 -1.8499 0.9607
2.6863 -5.4946 -1.1496 0.9754
5.0975 -8.4259 -1.8510 0.9607
5.8295 -7.9384 -1.8512 0.9607
6.5152 -7.3873 -1.8514 0.9607
7.7259 -6.1128 -1.8517 0.9607
5.3438 -3.5013 -1.2008 0.9743
5.2923 -2.8275 -1.1278 0.9759
10.6553 -0.4688 -2.0047 0.9575
10.6546 0.4838 -2.0047 0.9575
10.3985 2.3697 -2.0046 0.9575
10.1452 3.2879 -2.0045 0.9575
9.8109 4.1798 -2.0044 0.9575
5.0505 6.8979 -1.6069 0.9658
1.0204 10.6020 -2.0020 0.9576
0.0703 10.6494 -2.0017 0.9576
-1.8231 10.4896 -2.0012 0.9576
-2.8218 7.7120 -1.5435 0.9671
-3.5246 7.4847 -1.5550 0.9669
-3.6303 6.2038 -1.3510 0.9712
-6.9200 8.0814 -1.9998 0.9576
-8.6346 4.7767 -1.8547 0.9606
-9.0258 3.9870 -1.8546 0.9606
-9.4047 3.1858 -1.8664 0.9604
-10.3366 2.4997 -1.9989 0.9576
-10.5181 1.5674 -1.9988 0.9576
-10.6291 -0.3270 -1.9988 0.9576
-10.5577 -1.2741 -1.9988 0.9576
-10.4022 -2.2110 -1.9989 0.9576
-10.1638 -3.1305 -1.9989 0.9576
-9.8444 -4.0250 -1.9990 0.9576
-9.4465 -4.8876 -1.9992 0.9576
-7.7867 -7.1888 -1.9920 0.9578
-6.5993 -7.2863 -1.8478 0.9608
-4.4355 -8.7767 -1.8484 0.9608
-1.9535 -9.6416 -1.8491 0.9608
-1.0856 -9.7787 -1.8493 0.9607
-0.2088 -9.8379 -1.8495 0.9607
0.6698 -9.8185 -1.8498 0.9607
3.2474 -9.2942 -1.8505 0.9607
4.0642 -8.9684 -1.8507 0.9607
6.2963 -7.5744 -1.8513 0.9607
6.9476 -6.9831 -1.8515 0.9607
7.5436 -6.3359 -1.8517 0.9607
8.0795 -5.6380 -1.8518 0.9607
5.2666 -3.0149 -1.1406 0.9756
5.6177 -1.9950 -1.1205 0.9760
6.1808 -1.5907 -1.1996 0.9744
7.7121 -1.2648 -1.4689 0.9687
10.6370 -0.7801 -2.0047 0.9575
10.6642 0.1721 -2.0047 0.9575
10.4634 2.0647 -2.0046 0.9575
9.9291 3.8912 -2.0045 0.9575
7.9383 7.1166 -2.0039 0.9575
6.0730 7.8050 -1.8588 0.9605
5.1974 8.0749 -1.8050 0.9617
3.4350 6.5571 -1.3914 0.9703
1.9113 6.0952 -1.2007 0.9743
2.2679 10.4087 -2.0023 0.9576
1.3300 10.5681 -2.0021 0.9576
-0.5694 10.6334 -2.0015 0.9576
-2.5869 7.7665 -1.5387 0.9672
-4.2510 9.7575 -2.0005 0.9576
-5.1040 9.3382 -2.0003 0.9576
-5.9162 8.8446 -2.0001 0.9576
-4.4857 4.6424 -1.2134 0.9741
-9.2487 3.4375 -1.8546 0.9606
-10.6341 -0.0161 -1.9988 0.9576
-10.5904 -0.9649 -1.9988 0.9576
-10.4623 -1.9060 -1.9989 0.9576
-9.9577 -3.7354 -1.9990 0.9576
-9.5852 -4.6092 -1.9991 0.9576
-6.8093 -7.0900 -1.8477 0.9608
-6.1501 -7.6700 -1.8479 0.9608
-4.6900 -8.6429 -1.8483 0.9608
-2.2345 -9.5799 -1.8490 0.9608
-1.3710 -9.7424 -1.8492 0.9607
-0.4964 -9.8271 -1.8495 0.9607
0.3825 -9.8335 -1.8497 0.9607
1.2585 -9.7614 -1.8500 0.9607
2.9742 -9.3847 -1.8504 0.9607
4.5959 -8.7088 -1.8509 0.9607
5.3552 -8.2649 -1.8511 0.9607
6.0719 -7.7550 -1.8513 0.9607
7.9110 -5.8717 -1.8518 0.9607
5.2484 -3.2117 -1.1565 0.9753
6.1312 -1.5885 -1.3388 0.9744
9.4558 -0.7089 -2.0044 0.9620
9.4814 0.1376 -2.0044 0.9620
8.8333 3.4453 -2.0042 0.9620
8.0794 4.9599 -2.0040 0.9620
7.0683 6.3160 -2.0037 0.9620
1.1113 8.7166 -1.8574 0.9647
0.2170 5.7898 -1.2247 0.9766
-1.3326 9.3737 -2.0013 0.9620
-4.8694 7.3052 -1.8558 0.9647
-9.1199 2.5057 -1.9992 0.9621
-9.3074 -1.6800 -1.9992 0.9621
-8.1330 -4.8305 -1.9995 0.9621
-7.6701 -5.5372 -1.9997 0.9621
-7.1460 -6.2000 -1.9998 0.9621
-5.4803 -6.8120 -1.8481 0.9649
-4.8511 -7.2745 -1.8482 0.9649
-4.1832 -7.6791 -1.8484 0.9649
-3.4817 -8.0226 -1.8486 0.9649
-2.7523 -8.3022 -1.8488 0.9649
-2.0008 -8.5156 -1.8490 0.9649
-1.2332 -8.6611 -1.8493 0.9649
-0.4555 -8.7376 -1.8495 0.9649
0.3259 -8.7445 -1.8497 0.9649
1.8754 -8.5493 -1.8501 0.9648
3.3658 -8.0817 -1.8505 0.9648
4.7495 -7.3563 -1.8509 0.9648
5.9825 -6.3962 -1.8512 0.9648
6.5298 -5.8373 -1.8514 0.9648
7.0251 -5.2318 -1.8515 0.9648
5.0676 -2.5198 -1.1963 0.9771
5.0648 -1.9767 -1.1492 0.9780
5.7601 -1.6735 -1.2679 0.9758
7.1403 -1.3985 -1.5380 0.9707
9.3550 1.5477 -2.0043 0.9620
8.6102 3.9695 -2.0041 0.9620
8.2212 4.7216 -2.0040 0.9620
7.7666 5.4360 -2.0039 0.9620
3.6171 8.0118 -1.8581 0.9647
2.1680 6.2332 -1.3950 0.9734
2.1350 8.5252 -1.8577 0.9647
1.3449 8.5487 -1.8292 0.9652
0.3859 5.7770 -1.2239 0.9766
-0.1875 8.2830 -1.7513 0.9667
-2.7129 9.0691 -2.0009 0.9620
-3.5108 8.7899 -2.0007 0.9620
-3.9715 7.8310 -1.8560 0.9647
-5.2990 6.9991 -1.8557 0.9647
-4.3194 4.7556 -1.3580 0.9741
-6.4576 5.9449 -1.8553 0.9648
-6.9617 5.3446 -1.8552 0.9648
-7.4103 4.7018 -1.8551 0.9648
-8.3783 3.4118 -1.9122 0.9637
-9.0429 2.7713 -1.9992 0.9621
-9.3910 1.1199 -1.9991 0.9621
-9.4534 0.2775 -1.9991 0.9621
-9.4405 -0.5671 -1.9991 0.9621
-8.2706 -4.5906 -1.9995 0.9621
-7.3240 -5.9882 -1.9998 0.9621
-4.4057 -7.5533 -1.8484 0.9649
-2.2488 -8.4531 -1.8490 0.9649
-1.4858 -8.6211 -1.8492 0.9649
0.0701 -8.7499 -1.8496 0.9649
0.8506 -8.7098 -1.8498 0.9649
1.6246 -8.6001 -1.8500 0.9649
2.3857 -8.4219 -1.8503 0.9648
3.1279 -8.1763 -1.8505 0.9648
2.6545 -5.4295 -1.2775 0.9756
4.5323 -7.4917 -1.8508 0.9648
5.7928 -6.5681 -1.8512 0.9648
6.3562 -6.0256 -1.8513 0.9648
6.8690 -5.4348 -1.8515 0.9648
5.3392 -3.4982 -1.3493 0.9742
5.1158 -2.7331 -1.2260 0.9766
5.4532 -1.7588 -1.2112 0.9768
9.4732 -0.4168 -2.0044 0.9620
9.4726 0.4301 -2.0044 0.9620
8.3559 4.4793 -2.0040 0.9620
7.9224 5.2067 -2.0039 0.9620
7.4257 5.8924 -2.0038 0.9620
5.8717 6.6766 -1.8794 0.9643
3.1291 8.2140 -1.8580 0.9647
0.8418 8.7464 -1.8574 0.9647
0.0580 8.7856 -1.8571 0.9647
-0.7825 9.4363 -2.0015 0.9620
-2.4466 9.1448 -2.0010 0.9620
-3.5246 7.4846 -1.7487 0.9667
-2.9240 4.9968 -1.2238 0.9766
-5.0532 7.0964 -1.8415 0.9650
-5.7095 6.6678 -1.8556 0.9647
-7.6790 4.2481 -1.8550 0.9648
-8.9581 3.0345 -1.9992 0.9621
-9.4413 0.5538 -1.9991 0.9621
-9.3895 -1.1331 -1.9992 0.9621
-9.2512 -1.9664 -1.9992 0.9621
-9.0391 -2.7841 -1.9993 0.9621
-8.7550 -3.5796 -1.9993 0.9621
-8.4011 -4.3467 -1.9994 0.9621
-7.9803 -5.0792 -1.9996 0.9621
-6.9515 -6.4177 -1.9999 0.9621
-6.1874 -6.8315 -1.9483 0.9630
-5.2677 -6.9781 -1.8481 0.9649
-4.6245 -7.4210 -1.8483 0.9649
-3.9444 -7.8048 -1.8485 0.9649
-2.4949 -8.3835 -1.8489 0.9649
-1.7371 -8.5736 -1.8491 0.9649
-0.1857 -8.7479 -1.8495 0.9649
1.3724 -8.6436 -1.8500 0.9649
2.1384 -8.4877 -1.8502 0.9648
2.8874 -8.2640 -1.8504 0.9648
3.6137 -7.9742 -1.8506 0.9648
4.3112 -7.6208 -1.8508 0.9648
4.9744 -7.2065 -1.8510 0.9648
5.5981 -6.7345 -1.8511 0.9648
6.1772 -6.2087 -1.8513 0.9648
6.7070 -5.6332 -1.8514 0.9648
7.7936 -1.2781 -1.6694 0.9682
9.4569 -0.6936 -2.0044 0.9620
9.4811 0.1530 -2.0044 0.9620
9.4296 0.9983 -2.0044 0.9620
9.3027 1.8356 -2.0043 0.9620
9.1015 2.6582 -2.0043 0.9620
6.3066 6.7618 -1.9545 0.9629
5.3996 6.9396 -1.8586 0.9647
3.4350 6.5570 -1.5647 0.9702
1.9113 6.0952 -1.3503 0.9742
1.0972 8.7184 -1.8574 0.9647
-2.9913 8.9807 -2.0009 0.9620
-3.5072 8.0503 -1.8562 0.9647
-5.5123 6.8321 -1.8556 0.9647
-4.4857 4.6424 -1.3646 0.9740
-6.0495 4.3543 -1.5756 0.9700
-7.5517 4.4708 -1.8551 0.9648
-7.9201 3.7790 -1.8550 0.9648
-8.8480 3.2886 -1.9953 0.9621
-9.1240 2.4909 -1.9992 0.9621
-9.4211 0.8296 -1.9991 0.9621
-9.4575 -0.0143 -1.9991 0.9621
-9.3046 -1.6951 -1.9992 0.9621
-9.1165 -2.5186 -1.9992 0.9621
-8.1252 -4.8437 -1.9995 0.9621
-7.1360 -6.2115 -1.9998 0.9621
-6.5342 -6.8036 -1.9940 0.9622
-4.8393 -7.2824 -1.8482 0.9649
-4.1707 -7.6859 -1.8484 0.9649
-2.7388 -8.3066 -1.8488 0.9649
-1.9870 -8.5188 -1.8490 0.9649
-1.2191 -8.6632 -1.8493 0.9649
-0.4414 -8.7384 -1.8495 0.9649
0.3401 -8.7440 -1.8497 0.9649
2.8463 -5.3934 -1.2891 0.9754
4.7615 -7.3486 -1.8509 0.9648
5.3987 -6.8951 -1.8511 0.9648
5.9928 -6.3865 -1.8512 0.9648
7.0336 -5.2204 -1.8515 0.9648
5.2198 -3.1942 -1.2936 0.9753
6.1611 -1.5963 -1.4958 0.9742
8.5034 -0.6375 -2.0041 0.9656
8.4813 0.8840 -2.0041 0.9656
8.1888 2.3773 -2.0040 0.9656
7.9437 3.0983 -2.0039 0.9656
7.2659 4.4604 -2.0037 0.9656
6.8385 5.0906 -2.0036 0.9656
6.3566 5.6800 -2.0035 0.9656
0.9995 7.8396 -1.8574 0.9680
-1.1120 7.8219 -1.8568 0.9681
-3.1428 7.2460 -1.8563 0.9681
-3.7764 6.9360 -1.8561 0.9681
-4.3798 6.5708 -1.8559 0.9681
-4.4771 4.6485 -1.5168 0.9738
-6.0508 4.3702 -1.7542 0.9698
-7.5147 3.6005 -1.9584 0.9663
-7.9699 2.9770 -1.9995 0.9656
-8.2035 2.2539 -1.9995 0.9656
-8.3717 1.5129 -1.9994 0.9656
-8.5072 0.0009 -1.9994 0.9656
-8.3721 -1.5112 -1.9994 0.9656
-6.8992 -4.9807 -1.9999 0.9656
-6.4278 -5.5768 -2.0000 0.9656
-5.9050 -6.1285 -2.0001 0.9656
-5.3155 -6.6071 -1.9930 0.9658
-4.3634 -6.5432 -1.8484 0.9682
-3.7626 -6.9070 -1.8485 0.9682
-1.7996 -7.6591 -1.8491 0.9682
0.2931 -7.8647 -1.8497 0.9682
3.0270 -7.2683 -1.8504 0.9682
2.8219 -5.3684 -1.4254 0.9754
4.8451 -6.2088 -1.8509 0.9682
5.8723 -5.2496 -1.8512 0.9682
6.3177 -4.7050 -1.8513 0.9682
5.1669 -3.1734 -1.4251 0.9754
5.7953 -1.6838 -1.4184 0.9755
7.2236 -1.4148 -1.7300 0.9702
8.5264 -0.1256 -2.0041 0.9656
8.2549 2.1369 -2.0040 0.9656
8.0310 2.8648 -2.0040 0.9656
7.7430 3.5697 -2.0039 0.9656
7.3933 4.2461 -2.0038 0.9656
6.9845 4.8886 -2.0037 0.9656
6.5201 5.4919 -2.0035 0.9656
6.0036 6.0513 -2.0034 0.9656
4.4900 6.5243 -1.8614 0.9680
3.8833 6.8871 -1.8582 0.9680
2.5969 7.4662 -1.8578 0.9680
1.5243 6.0864 -1.4746 0.9745
0.3859 5.7771 -1.3608 0.9765
-0.8829 7.8514 -1.8569 0.9681
-3.5722 7.0437 -1.8561 0.9681
-4.7663 6.2955 -1.8558 0.9681
-5.8085 5.3473 -1.8555 0.9681
-6.6656 4.2293 -1.8553 0.9681
-7.1628 3.6932 -1.8940 0.9674
-7.8796 3.2087 -1.9995 0.9656
-8.5036 0.2496 -1.9994 0.9656
-8.2664 -2.0114 -1.9995 0.9656
-7.7778 -3.4488 -1.9996 0.9656
-7.4394 -4.1292 -1.9997 0.9656
-6.5879 -5.3864 -2.0000 0.9656
-6.0815 -5.9531 -2.0001 0.9656
-5.5151 -6.4591 -1.9961 0.9657
-4.6038 -6.4846 -1.8691 0.9679
-2.6927 -7.3915 -1.8488 0.9682
-1.3364 -7.7539 -1.8492 0.9682
0.0631 -7.8697 -1.8496 0.9682
0.7651 -7.8335 -1.8498 0.9682
2.1456 -7.5743 -1.8502 0.9682
2.8131 -7.3534 -1.8504 0.9682
4.0761 -6.7376 -1.8507 0.9682
4.6614 -6.3476 -1.8509 0.9682
5.2095 -5.9069 -1.8510 0.9682
6.1773 -4.8876 -1.8513 0.9682
5.1250 -3.3579 -1.4400 0.9751
5.0128 -2.1273 -1.2798 0.9779
6.7224 -1.5220 -1.6199 0.9721
8.2880 -1.1115 -1.9653 0.9662
8.3139 1.8946 -2.0040 0.9656
8.1114 2.6288 -2.0040 0.9656
7.8442 3.3419 -2.0039 0.9656
7.5144 4.0283 -2.0038 0.9656
2.8142 7.3873 -1.8579 0.9680
0.5647 5.8671 -1.3853 0.9761
-0.6530 7.8741 -1.8569 0.9681
-1.3528 7.7836 -1.8568 0.9681
-2.7141 7.4178 -1.8564 0.9681
-3.3648 7.1453 -1.8562 0.9681
-4.5804 6.4324 -1.8559 0.9681
-5.6498 5.5150 -1.8556 0.9681
-6.1189 4.9886 -1.8554 0.9681
-6.9073 3.8212 -1.8552 0.9681
-7.7825 3.4378 -1.9996 0.9656
-8.0579 2.7296 -1.9995 0.9656
-8.2691 1.9997 -1.9994 0.9656
-8.4144 1.2539 -1.9994 0.9656
-8.1308 -2.5043 -1.9995 0.9656
-7.8752 -3.2199 -1.9996 0.9656
-7.5569 -3.9099 -1.9997 0.9656
-7.1783 -4.5688 -1.9998 0.9656
-6.2528 -5.7726 -2.0000 0.9656
-4.9455 -6.5513 -1.9292 0.9668
-4.1596 -6.6749 -1.8484 0.9682
-3.5478 -7.0201 -1.8486 0.9682
-2.9075 -7.3093 -1.8488 0.9682
-0.8683 -7.8208 -1.8494 0.9682
1.2343 -7.7739 -1.8499 0.9682
1.9232 -7.6336 -1.8501 0.9682
2.5969 -7.4323 -1.8503 0.9682
3.2500 -7.1716 -1.8505 0.9682
3.8772 -6.8537 -1.8507 0.9682
5.0345 -6.0565 -1.8510 0.9682
5.5552 -5.5836 -1.8511 0.9682
5.0192 -2.3054 -1.2981 0.9776
5.1427 -1.8263 -1.2826 0.9778
6.1852 -1.5918 -1.5010 0.9741
8.5262 0.1376 -2.0041 0.9656
8.4798 0.8978 -2.0041 0.9656
8.3658 1.6508 -2.0041 0.9656
6.3474 5.6903 -2.0035 0.9656
4.2795 6.6488 -1.8583 0.9680
0.9868 7.8412 -1.8574 0.9680
-2.4962 7.4942 -1.8564 0.9681
-4.3905 6.5637 -1.8559 0.9681
-4.4857 4.6424 -1.5172 0.9738
-6.7928 4.0215 -1.8553 0.9681
-7.5348 3.5952 -1.9621 0.9663
-7.9748 2.9640 -1.9995 0.9656
-8.5072 -0.0129 -1.9994 0.9656
-8.4722 -0.7719 -1.9994 0.9656
-8.3697 -1.5247 -1.9994 0.9656
-7.9659 -2.9882 -1.9996 0.9656
-7.6678 -3.6872 -1.9996 0.9656
-6.8912 -4.9919 -1.9999 0.9656
-5.8950 -6.1381 -2.0002 0.9656
-5.3043 -6.6152 -1.9928 0.9658
-3.1199 -7.2210 -1.8487 0.9682
-2.4634 -7.4713 -1.8489 0.9682
0.3059 -7.8643 -1.8497 0.9682
1.0065 -7.8064 -1.8499 0.9682
1.6991 -7.6863 -1.8501 0.9682
2.3784 -7.5048 -1.8503 0.9682
3.0388 -7.2634 -1.8504 0.9682
2.8329 -5.3680 -1.4265 0.9754
4.2822 -6.6088 -1.8508 0.9682
4.8551 -6.2009 -1.8509 0.9682
5.3895 -5.7435 -1.8511 0.9682
7.7178 -0.5786 -2.0039 0.9685
7.6977 0.8023 -2.0039 0.9685
7.2099 2.8121 -2.0037 0.9685
6.9299 3.4440 -2.0037 0.9685
6.5947 4.0484 -2.0036 0.9685
6.2069 4.6204 -2.0034 0.9685
5.2861 5.6493 -2.0032 0.9685
4.7607 6.0979 -2.0030 0.9685
4.0359 6.2480 -1.9259 0.9697
2.7602 6.6235 -1.8579 0.9708
1.9220 6.0945 -1.6546 0.9739
1.5387 7.0074 -1.8576 0.9708
0.9072 7.1160 -1.8574 0.9708
0.2170 5.7895 -1.5001 0.9763
-1.2616 5.3748 -1.4294 0.9774
-2.2549 6.8065 -1.8565 0.9708
-3.4281 6.2963 -1.8562 0.9708
-4.4771 4.6485 -1.6710 0.9737
-5.4124 4.6979 -1.8556 0.9708
-6.4662 3.8423 -1.9475 0.9694
-7.7230 0.0008 -1.9996 0.9686
-7.6923 -0.6882 -1.9996 0.9686
-7.4477 -2.0446 -1.9997 0.9686
-6.9663 -3.3360 -1.9998 0.9686
-5.8350 -5.0625 -2.0002 0.9686
-5.3604 -5.5633 -2.0003 0.9686
-4.8430 -6.0199 -2.0004 0.9686
-4.2566 -6.3830 -1.9864 0.9688
-3.4155 -6.2699 -1.8486 0.9709
-2.2471 -6.7784 -1.8490 0.9709
-1.6335 -6.9525 -1.8491 0.9709
-1.0068 -7.0711 -1.8493 0.9709
0.2661 -7.1389 -1.8497 0.9709
0.9021 -7.0873 -1.8498 0.9709
2.1478 -6.8154 -1.8502 0.9709
2.8141 -5.3534 -1.5659 0.9753
3.8770 -6.0048 -1.8507 0.9709
4.3976 -5.6354 -1.8508 0.9709
4.8833 -5.2209 -1.8509 0.9709
5.3300 -4.7647 -1.8511 0.9709
5.0747 -3.1168 -1.5420 0.9757
4.9083 -2.4406 -1.4193 0.9776
4.9629 -1.9369 -1.3794 0.9782
5.7692 -1.6762 -1.5555 0.9755
7.4922 1.9394 -2.0038 0.9685
5.4492 5.4924 -2.0032 0.9685
4.9370 5.9563 -2.0031 0.9685
4.3404 6.3069 -1.9823 0.9689
2.9527 6.5402 -1.8580 0.9708
1.1149 7.0867 -1.8574 0.9708
0.3859 5.7772 -1.4991 0.9764
-0.8014 7.1269 -1.8569 0.9708
-1.4340 7.0263 -1.8567 0.9708
-2.0550 6.8697 -1.8566 0.9708
-3.7999 6.0786 -1.8561 0.9708
-4.8191 5.3057 -1.8558 0.9708
-5.2729 4.8542 -1.8557 0.9708
-6.1763 3.9188 -1.8939 0.9702
-6.8650 3.5396 -1.9998 0.9686
-7.1531 2.9129 -1.9998 0.9686
-7.3843 2.2630 -1.9997 0.9686
-7.5566 1.5951 -1.9996 0.9686
-7.6687 0.9145 -1.9996 0.9686
-7.7196 0.2266 -1.9996 0.9686
-7.6371 -1.1491 -1.9996 0.9686
-7.3116 -2.4883 -1.9997 0.9686
-7.0607 -3.1308 -1.9998 0.9686
-6.7535 -3.7485 -1.9999 0.9686
-6.3925 -4.3363 -2.0000 0.9686
-3.6549 -6.2660 -1.8782 0.9705
-3.0329 -6.4641 -1.8487 0.9709
-2.4443 -6.7096 -1.8489 0.9709
-1.8360 -6.9015 -1.8491 0.9709
-1.2131 -7.0385 -1.8493 0.9709
-0.5803 -7.1193 -1.8494 0.9709
0.6945 -7.1105 -1.8498 0.9709
1.3262 -7.0208 -1.8500 0.9709
1.9475 -6.8751 -1.8501 0.9709
2.5534 -6.6745 -1.8503 0.9709
2.6435 -5.4071 -1.5584 0.9754
3.6997 -6.1155 -1.8506 0.9709
4.9090 -2.6227 -1.4410 0.9773
5.0204 -2.1305 -1.4121 0.9777
5.4324 -1.7521 -1.4779 0.9767
6.6755 -1.5114 -1.7722 0.9721
7.6708 -1.0287 -2.0039 0.9685
7.7315 0.3511 -2.0039 0.9685
7.1196 3.0332 -2.0037 0.9685
6.8203 3.6561 -2.0036 0.9685
4.5701 6.2418 -2.0030 0.9685
3.7322 6.1889 -1.8713 0.9706
1.9457 6.9059 -1.8577 0.9708
0.0474 7.1726 -1.8571 0.9708
-2.4637 6.7335 -1.8564 0.9708
-2.4428 5.1873 -1.4846 0.9766
-2.9240 4.9968 -1.4990 0.9764
-4.6620 5.4444 -1.8558 0.9708
-5.5547 4.5286 -1.8556 0.9708
-5.9363 4.0147 -1.8555 0.9708
-6.7586 3.7389 -1.9999 0.9686
-7.3150 2.4779 -1.9997 0.9686
-7.6387 1.1383 -1.9996 0.9686
-7.7193 -0.2375 -1.9996 0.9686
-5.6762 -5.2403 -2.0002 0.9686
-3.2205 -6.3725 -1.8487 0.9709
-2.0370 -6.8447 -1.8490 0.9709
0.4863 -7.1275 -1.8497 0.9709
1.1204 -7.0564 -1.8499 0.9709
1.7456 -6.9289 -1.8501 0.9709
2.3571 -6.7461 -1.8502 0.9709
3.5192 -6.2208 -1.8506 0.9709
5.0422 -5.0679 -1.8510 0.9709
5.4746 -4.5981 -1.8511 0.9709
5.8717 -4.0973 -1.8538 0.9708
5.0138 -2.8702 -1.4958 0.9764
5.0100 -2.3012 -1.4275 0.9775
7.7188 -0.5661 -2.0039 0.9685
7.7385 0.1249 -2.0039 0.9685
7.4288 2.1697 -2.0038 0.9685
6.9243 3.4552 -2.0037 0.9685
6.5881 4.0591 -2.0036 0.9685
5.7611 5.1648 -2.0033 0.9685
4.7508 6.1056 -2.0030 0.9685
3.3301 6.3568 -1.8581 0.9708
1.5273 7.0098 -1.8576 0.9708
-0.3835 7.1620 -1.8570 0.9708
-1.0209 7.0985 -1.8568 0.9708
-2.8636 6.5729 -1.8563 0.9708
-3.9855 5.9583 -1.8560 0.9708
-6.4827 3.8380 -1.9506 0.9694
-6.9708 3.3261 -1.9998 0.9686
-7.2395 2.6908 -1.9997 0.9686
-7.6022 1.3611 -1.9996 0.9686
-7.7229 -0.0117 -1.9996 0.9686
-7.5981 -1.3842 -1.9997 0.9686
-7.2315 -2.7127 -1.9998 0.9686
-6.2557 -4.5316 -2.0000 0.9686
-4.8333 -6.0277 -2.0004 0.9686
-4.2394 -6.3796 -1.9833 0.9688
-3.4053 -6.2755 -1.8486 0.9709
-2.2361 -6.7820 -1.8490 0.9709
-0.9953 -7.0728 -1.8493 0.9709
-0.3603 -7.1341 -1.8495 0.9709
0.2777 -7.1384 -1.8497 0.9709
0.9136 -7.0859 -1.8498 0.9709
1.5423 -6.9768 -1.8500 0.9709
2.8235 -5.3503 -1.5663 0.9753
3.8867 -5.9986 -1.8507 0.9709
4.4068 -5.6283 -1.8508 0.9709
5.3377 -4.7561 -1.8511 0.9709
5.7411 -4.2611 -1.8512 0.9709
5.0703 -3.1028 -1.5391 0.9757
6.2978 -1.6317 -1.8417 0.9733
6.9827 -1.1568 -2.0037 0.9710
7.0397 0.7338 -2.0037 0.9710
6.9461 1.3589 -2.0037 0.9710
6.5936 2.5717 -2.0036 0.9710
5.6764 4.2255 -2.0033 0.9710
5.2764 4.7149 -2.0032 0.9710
4.3539 5.5769 -2.0029 0.9710
2.5244 6.0577 -1.8578 0.9731
-0.9232 6.4940 -1.8569 0.9731
-1.2616 5.3748 -1.5629 0.9773
-2.0624 6.2254 -1.8566 0.9731
-3.1355 5.7588 -1.8563 0.9731
-4.1085 5.1091 -1.8560 0.9731
-4.9506 4.2970 -1.8558 0.9731
-6.0736 3.6091 -2.0000 0.9711
-6.3711 3.0526 -2.0000 0.9711
-6.6179 2.4719 -1.9999 0.9711
-6.9516 1.2563 -1.9998 0.9711
-7.0641 0.0008 -1.9998 0.9711
-6.8123 -1.8701 -1.9999 0.9711
-6.0745 -3.6078 -2.0001 0.9711
-4.9030 -5.0886 -2.0004 0.9711
-2.6179 -6.0321 -1.8615 0.9730
-1.4941 -6.3589 -1.8492 0.9732
-0.9208 -6.4674 -1.8493 0.9732
-0.3401 -6.5243 -1.8495 0.9732
0.8250 -6.4820 -1.8498 0.9732
1.9643 -6.2332 -1.8501 0.9732
2.5128 -6.0336 -1.8503 0.9732
4.0219 -5.1539 -1.8507 0.9732
4.4660 -4.7748 -1.8508 0.9732
5.5629 -4.1429 -1.9636 0.9716
4.9385 -2.4556 -1.5613 0.9773
7.0772 -0.1042 -2.0037 0.9710
6.8518 1.7737 -2.0036 0.9710
6.6661 2.3779 -2.0036 0.9710
6.4271 2.9631 -2.0035 0.9710
6.1368 3.5245 -2.0034 0.9710
4.5152 5.4473 -2.0030 0.9710
4.0108 5.8281 -2.0028 0.9710
3.4400 6.1010 -1.9828 0.9713
2.7005 5.9815 -1.8579 0.9731
1.0197 6.4814 -1.8574 0.9731
0.3860 5.7772 -1.6391 0.9762
-2.9659 5.8482 -1.8563 0.9731
-3.4756 5.5598 -1.8562 0.9731
-4.4078 4.8529 -1.8559 0.9731
-4.8229 4.4400 -1.8558 0.9731
-6.2792 3.2376 -2.0000 0.9711
-7.0144 0.8365 -1.9998 0.9711
-7.0610 0.2073 -1.9998 0.9711
-7.0514 -0.4236 -1.9998 0.9711
-6.8640 -1.6701 -1.9999 0.9711
-6.6878 -2.2760 -1.9999 0.9711
-6.1773 -3.4287 -2.0001 0.9711
-5.4701 -4.4724 -2.0003 0.9711
-5.0495 -4.9429 -2.0004 0.9711
-4.5887 -5.3741 -2.0005 0.9711
-4.0912 -5.7625 -2.0006 0.9710
-3.5513 -6.0884 -1.9954 0.9711
-1.1095 -6.4375 -1.8493 0.9732
0.0524 -6.5333 -1.8496 0.9732
0.6351 -6.5032 -1.8498 0.9732
4.7449 -4.4981 -1.8509 0.9732
5.0414 -2.6934 -1.6181 0.9765
4.8485 -2.0576 -1.4911 0.9783
5.4727 -1.7651 -1.6279 0.9764
6.9031 -1.5629 -2.0037 0.9710
7.0151 -0.9407 -2.0037 0.9710
7.0706 0.3211 -2.0037 0.9710
7.0137 0.9506 -2.0037 0.9710
6.7328 2.1820 -2.0036 0.9710
6.5111 2.7739 -2.0035 0.9710
5.1283 4.8753 -2.0031 0.9710
4.1796 5.7084 -2.0029 0.9710
2.3362 6.1325 -1.8578 0.9731
1.7795 6.3160 -1.8576 0.9731
0.6285 6.5306 -1.8573 0.9731
0.0433 6.5601 -1.8571 0.9731
-0.5421 6.5372 -1.8570 0.9731
-1.1231 6.4622 -1.8568 0.9731
-2.2534 6.1587 -1.8565 0.9731
-2.7937 5.9326 -1.8564 0.9731
-2.9240 4.9967 -1.6389 0.9762
-4.2641 4.9798 -1.8560 0.9731
-5.1117 4.1674 -1.8670 0.9730
-5.8525 3.9580 -2.0001 0.9711
-6.6909 2.2665 -1.9999 0.9711
-6.9870 1.0412 -1.9998 0.9711
-7.0607 -0.2172 -1.9998 0.9711
-7.0133 -0.8463 -1.9998 0.9711
-6.2748 -3.2465 -2.0000 0.9711
-5.9604 -3.7936 -2.0001 0.9711
-5.1918 -4.7931 -2.0003 0.9711
-4.7437 -5.2376 -2.0005 0.9711
-4.2578 -5.6403 -2.0006 0.9710
-3.0959 -6.1259 -1.9431 0.9719
-1.8631 -6.2603 -1.8491 0.9732
-1.2972 -6.4021 -1.8492 0.9732
-0.7208 -6.4929 -1.8494 0.9732
-0.1387 -6.5319 -1.8495 0.9732
0.4447 -6.5188 -1.8497 0.9732
1.5965 -6.3370 -1.8500 0.9732
2.1558 -6.1698 -1.8502 0.9732
2.5749 -5.6820 -1.7660 0.9744
3.7136 -5.3799 -1.8506 0.9732
4.1791 -5.0274 -1.8507 0.9732
4.6113 -4.6348 -1.8509 0.9732
5.0825 -4.2688 -1.8790 0.9728
5.1736 -2.9616 -1.6876 0.9755
4.8791 -2.2410 -1.5200 0.9779
6.9846 -1.1454 -2.0037 0.9710
7.0385 0.7452 -2.0037 0.9710
6.7938 1.9842 -2.0036 0.9710
6.5894 2.5824 -2.0036 0.9710
6.3325 3.1599 -2.0035 0.9710
6.0251 3.7122 -2.0034 0.9710
5.6695 4.2347 -2.0033 0.9710
4.8260 5.1744 -2.0031 0.9710
4.3448 5.5839 -2.0029 0.9710
3.8290 5.9489 -2.0028 0.9710
3.1685 6.0483 -1.9330 0.9720
2.5193 6.0732 -1.8613 0.9730
0.8192 6.5096 -1.8574 0.9731
-0.3508 6.5504 -1.8570 0.9731
-0.9337 6.4924 -1.8569 0.9731
-2.6191 6.0118 -1.8564 0.9731
-3.1448 5.7537 -1.8563 0.9731
-4.9575 4.2890 -1.8558 0.9731
-6.0794 3.5992 -2.0000 0.9711
-6.6219 2.4612 -1.9999 0.9711
-6.8149 1.8605 -1.9999 0.9711
-7.0369 0.6196 -1.9998 0.9711
-7.0641 -0.0107 -1.9998 0.9711
-7.0350 -0.6409 -1.9998 0.9711
-6.9498 -1.2661 -1.9998 0.9711
-6.8093 -1.8812 -1.9999 0.9711
-6.3669 -3.0617 -2.0000 0.9711
-6.0686 -3.6177 -2.0001 0.9711
-5.7219 -4.1449 -2.0002 0.9711
-4.8947 -5.0965 -2.0004 0.9711
-3.9101 -5.8841 -2.0000 0.9711
-3.3511 -6.1755 -1.9890 0.9712
-0.9103 -6.4689 -1.8493 0.9732
-0.3296 -6.5249 -1.8495 0.9732
0.8355 -6.4807 -1.8498 0.9732
1.4105 -6.3808 -1.8500 0.9732
2.5226 -6.0295 -1.8503 0.9732
3.5546 -5.4860 -1.8506 0.9732
4.8815 -4.3496 -1.8509 0.9732
5.7119 -3.4954 -1.8957 0.9725
6.4263 -1.0646 -2.0035 0.9731
6.4957 -0.4870 -2.0036 0.9731
6.5133 0.0945 -2.0036 0.9731
6.4788 0.6753 -2.0035 0.9731
6.2554 1.8160 -2.0035 0.9731
5.5506 3.4074 -2.0033 0.9731
5.2242 3.8889 -2.0032 0.9731
4.8561 4.3393 -2.0031 0.9731
4.0071 5.1327 -2.0028 0.9731
2.4499 5.8790 -1.9590 0.9737
-0.3131 6.0295 -1.8571 0.9750
-0.8497 5.9771 -1.8569 0.9751
-1.2617 5.3748 -1.6981 0.9772
-3.3472 5.0216 -1.8562 0.9751
-4.8474 4.2074 -1.9743 0.9735
-5.2720 3.8077 -2.0003 0.9732
-5.8644 2.8098 -2.0001 0.9732
-6.2701 1.7227 -2.0000 0.9732
-6.4763 0.5808 -2.0000 0.9732
-6.4764 -0.5795 -2.0000 0.9732
-6.3989 -1.1550 -2.0000 0.9732
-6.2705 -1.7214 -2.0000 0.9732
-4.5129 -4.6837 -2.0005 0.9731
-2.5813 -5.9479 -1.9943 0.9732
-1.3751 -5.8528 -1.8492 0.9752
-0.3131 -6.0049 -1.8495 0.9751
1.8079 -5.7369 -1.8501 0.9751
2.3127 -5.5531 -1.8502 0.9751
2.7991 -5.3250 -1.8504 0.9751
3.7061 -4.7491 -1.8529 0.9751
4.8192 -4.3082 -1.9882 0.9733
5.2178 -3.8859 -2.0010 0.9731
5.8322 -2.9000 -2.0034 0.9731
5.0281 -1.9624 -1.6601 0.9777
5.7777 -1.6786 -1.8506 0.9751
6.3924 -1.2520 -2.0035 0.9731
6.4787 -0.6767 -2.0036 0.9731
6.4958 0.4856 -2.0035 0.9731
6.4265 1.0632 -2.0035 0.9731
6.1350 2.1884 -2.0034 0.9731
5.9150 2.7270 -2.0034 0.9731
5.6479 3.2437 -2.0033 0.9731
5.3357 3.7346 -2.0032 0.9731
4.1555 5.0134 -2.0029 0.9731
3.6914 5.3639 -2.0027 0.9731
2.0151 5.7934 -1.8866 0.9747
1.4672 5.8583 -1.8575 0.9750
0.9385 5.9654 -1.8574 0.9750
0.3860 5.7773 -1.7809 0.9761
-1.7299 5.7832 -1.8567 0.9751
-2.2389 5.6053 -1.8565 0.9751
-2.7299 5.3828 -1.8564 0.9751
-3.6426 4.8113 -1.8561 0.9751
-4.6317 4.2640 -1.9364 0.9740
-5.7798 2.9801 -2.0001 0.9732
-6.0224 2.4524 -2.0001 0.9732
-6.2171 1.9053 -2.0000 0.9732
-6.4565 0.7699 -2.0000 0.9732
-6.4994 0.1908 -1.9999 0.9732
-6.4906 -0.3899 -2.0000 0.9732
-6.1559 -2.0949 -2.0001 0.9732
-5.9446 -2.6359 -2.0001 0.9732
-5.3819 -3.6508 -2.0003 0.9732
-4.6478 -4.5497 -2.0005 0.9731
-3.2776 -5.6192 -2.0009 0.9731
-2.1537 -5.9120 -1.9353 0.9740
-1.5456 -5.8099 -1.8492 0.9752
-1.0212 -5.9251 -1.8493 0.9752
1.1164 -5.9099 -1.8499 0.9751
1.6393 -5.7871 -1.8500 0.9751
2.1493 -5.6182 -1.8502 0.9751
3.1141 -5.1475 -1.8504 0.9751
3.9907 -4.5249 -1.8557 0.9751
5.0969 -4.0327 -1.9990 0.9732
5.4479 -3.5694 -2.0033 0.9731
5.7448 -3.0692 -2.0034 0.9731
5.5438 -1.7880 -1.7916 0.9759
6.4561 -0.8658 -2.0035 0.9731
6.4549 0.8749 -2.0035 0.9731
6.3510 1.4473 -2.0035 0.9731
6.1964 2.0081 -2.0035 0.9731
5.9923 2.5529 -2.0034 0.9731
5.7404 3.0773 -2.0033 0.9731
5.4427 3.5770 -2.0032 0.9731
4.7198 4.4870 -2.0030 0.9731
4.3004 4.8899 -2.0029 0.9731
3.8467 5.2538 -2.0028 0.9731
3.3624 5.5757 -2.0027 0.9731
2.8513 5.8530 -2.0025 0.9731
2.2226 5.8344 -1.9203 0.9742
0.5785 6.0107 -1.8573 0.9750
-0.4990 6.0168 -1.8570 0.9751
-1.0337 5.9478 -1.8569 0.9751
-2.5714 5.4605 -1.8564 0.9751
-3.5005 4.9158 -1.8562 0.9751
-3.9249 4.5836 -1.8561 0.9751
-5.0406 4.1094 -2.0003 0.9732
-5.9482 2.6275 -2.0001 0.9732
-6.1588 2.0862 -2.0000 0.9732
-6.4555 -0.7790 -2.0000 0.9732
-6.3603 -1.3519 -2.0000 0.9732
-6.0191 -2.4610 -2.0001 0.9732
-5.1530 -3.9676 -2.0003 0.9732
-4.7787 -4.4118 -2.0005 0.9731
-4.3663 -4.8209 -2.0006 0.9731
-3.9190 -5.1915 -2.0007 0.9731
-2.3685 -5.9543 -1.9710 0.9735
-1.7346 -5.8285 -1.8704 0.9749
-0.6635 -5.9761 -1.8494 0.9752
0.9431 -5.9398 -1.8498 0.9751
1.4694 -5.8324 -1.8500 0.9751
2.4830 -5.4792 -1.8503 0.9751
2.9622 -5.2362 -1.8504 0.9751
3.8462 -4.6270 -1.8506 0.9751
4.3960 -4.4184 -1.9171 0.9743
5.3411 -3.7271 -2.0032 0.9731
5.2528 -1.8654 -1.7145 0.9769
6.4280 -1.0542 -2.0035 0.9731
6.3906 1.2610 -2.0035 0.9731
6.2525 1.8261 -2.0035 0.9731
5.5451 3.4164 -2.0033 0.9731
4.8491 4.3471 -2.0031 0.9731
4.4416 4.7622 -2.0030 0.9731
3.9988 5.1392 -2.0028 0.9731
1.8071 5.7629 -1.8576 0.9750
1.2856 5.9007 -1.8575 0.9750
0.7540 5.9914 -1.8573 0.9750
0.2100 5.8546 -1.8019 0.9758
-0.3228 6.0290 -1.8570 0.9750
-0.8594 5.9757 -1.8569 0.9751
-1.2696 5.3696 -1.6971 0.9772
-1.9075 5.7269 -1.8566 0.9751
-2.8111 5.1432 -1.8028 0.9758
-3.3553 5.0162 -1.8562 0.9751
-4.2227 4.3702 -1.8692 0.9749
-4.8596 4.2042 -1.9764 0.9735
-5.5959 3.3129 -2.0002 0.9732
-6.0952 2.2654 -2.0000 0.9732
-6.2728 1.7125 -2.0000 0.9732
-6.4005 1.1460 -2.0000 0.9732
-6.4754 -0.5900 -2.0000 0.9732
-5.5859 -3.3299 -2.0002 0.9732
-4.0690 -5.0746 -2.0007 0.9731
-3.6003 -5.4178 -2.0008 0.9731
-3.1012 -5.7150 -2.0000 0.9732
-2.5715 -5.9517 -1.9942 0.9732
-1.9350 -5.8686 -1.9006 0.9745
-0.8379 -5.9539 -1.8494 0.9752
-0.3033 -6.0054 -1.8495 0.9751
0.7690 -5.9647 -1.8498 0.9751
1.8172 -5.7340 -1.8501 0.9751
2.3217 -5.5494 -1.8502 0.9751
2.8078 -5.3205 -1.8504 0.9751
4.1949 -4.4704 -1.8856 0.9747
4.8314 -4.3050 -1.9904 0.9733
5.8343 -1.5116 -2.0034 0.9749
5.9148 1.1572 -2.0034 0.9749
5.6147 2.1899 -2.0033 0.9749
4.8337 3.5982 -2.0031 0.9749
4.1168 4.3996 -2.0029 0.9749
2.8042 5.3318 -2.0025 0.9749
2.3171 5.5604 -2.0024 0.9749
0.2093 5.5832 -1.8572 0.9767
-1.2545 5.3444 -1.8248 0.9771
-1.7565 5.3021 -1.8567 0.9767
-2.6705 4.9049 -1.8564 0.9767
-3.6179 4.4991 -1.9191 0.9760
-4.8785 3.5235 -2.0004 0.9750
-5.1732 3.0740 -2.0003 0.9750
-5.6369 2.1055 -2.0002 0.9750
-5.8021 1.5941 -2.0001 0.9750
-5.8025 -1.5929 -2.0002 0.9750
-5.6374 -2.1043 -2.0002 0.9750
-5.4273 -2.5990 -2.0003 0.9750
-4.8794 -3.5225 -2.0004 0.9750
-4.5458 -3.9440 -2.0005 0.9750
-4.1760 -4.3341 -2.0006 0.9749
-3.7729 -4.6897 -2.0007 0.9749
-3.3396 -5.0079 -2.0009 0.9749
-2.3961 -5.5213 -2.0007 0.9749
-0.7990 -5.6121 -1.8843 0.9764
0.2073 -5.5605 -1.8496 0.9768
0.7026 -5.5203 -1.8498 0.9768
1.1924 -5.4360 -1.8499 0.9768
2.1399 -5.1382 -1.8502 0.9768
2.5900 -4.9271 -1.8503 0.9768
3.5887 -4.5988 -1.9390 0.9757
4.4890 -4.0130 -2.0015 0.9749
5.1352 -3.1539 -2.0032 0.9749
5.6143 -2.1911 -2.0033 0.9749
5.7875 -1.6815 -2.0034 0.9749
5.9146 -1.1584 -2.0034 0.9749
5.9461 0.9838 -2.0034 0.9749
5.8345 1.5103 -2.0034 0.9749
5.6764 2.0248 -2.0033 0.9749
4.9369 3.4554 -2.0031 0.9749
4.2438 4.2775 -2.0029 0.9749
3.8450 4.6388 -2.0028 0.9749
3.4156 4.9631 -2.0027 0.9749
2.9589 5.2477 -2.0025 0.9749
2.4787 5.4904 -2.0024 0.9749
1.9789 5.6892 -2.0023 0.9749
1.4142 5.6468 -1.9350 0.9758
0.8712 5.5376 -1.8634 0.9766
-0.6242 5.5515 -1.8570 0.9767
-2.0717 5.1868 -1.8566 0.9767
-2.9602 4.7354 -1.8563 0.9767
-3.9977 4.4013 -1.9764 0.9752
-4.4277 4.0761 -2.0005 0.9750
-5.0812 3.2240 -2.0003 0.9750
-5.5730 2.2694 -2.0002 0.9750
-5.7531 1.7631 -2.0001 0.9750
-5.8874 1.2427 -2.0001 0.9750
-5.9747 0.7125 -2.0001 0.9750
-6.0144 0.1766 -2.0001 0.9750
-6.0062 -0.3608 -2.0001 0.9750
-5.9501 -0.8952 -2.0001 0.9750
-5.8466 -1.4226 -2.0001 0.9750
-5.2615 -2.9204 -2.0003 0.9750
-4.6591 -3.8094 -2.0005 0.9750
-3.9083 -4.5773 -2.0007 0.9749
-3.0329 -5.1997 -2.0009 0.9749
-2.5570 -5.4499 -2.0011 0.9749
-2.0568 -5.6461 -1.9974 0.9750
-1.5327 -5.7613 -1.9817 0.9752
-0.9734 -5.6480 -1.9051 0.9761
0.0446 -5.5641 -1.8496 0.9768
1.0330 -5.4684 -1.8499 0.9768
1.9887 -5.1985 -1.8501 0.9768
2.8896 -4.7764 -1.8556 0.9767
3.9697 -4.5011 -1.9949 0.9750
4.3662 -4.1391 -1.9998 0.9750
5.0407 -3.3026 -2.0032 0.9749
5.5478 -2.3543 -2.0033 0.9749
5.8782 -1.3308 -2.0034 0.9749
5.9735 -0.8011 -2.0034 0.9749
6.0208 0.2734 -2.0034 0.9749
5.9724 0.8095 -2.0034 0.9749
5.7332 1.8580 -2.0033 0.9749
5.0359 3.3097 -2.0031 0.9749
4.3671 4.1516 -2.0029 0.9749
3.5593 4.8612 -2.0027 0.9749
2.6383 5.4157 -2.0025 0.9749
2.1444 5.6291 -2.0023 0.9749
1.6016 5.6843 -1.9631 0.9754
1.0444 5.5718 -1.8844 0.9764
0.5353 5.5617 -1.8573 0.9767
0.0369 5.5869 -1.8571 0.9767
-1.4437 5.3960 -1.8567 0.9767
-1.9192 5.2453 -1.8566 0.9767
-2.3794 5.0528 -1.8565 0.9767
-2.8206 4.8200 -1.8564 0.9767
-3.2672 4.5882 -1.8723 0.9765
-3.8102 4.4497 -1.9473 0.9756
-4.3067 4.2039 -2.0005 0.9750
-4.6644 3.8027 -2.0004 0.9750
-4.9849 3.3712 -2.0003 0.9750
-5.5043 2.4314 -2.0002 0.9750
-6.0067 0.3523 -2.0001 0.9750
-6.0142 -0.1850 -2.0001 0.9750
-4.4220 -4.0825 -2.0005 0.9750
-3.6264 -4.8040 -2.0008 0.9749
-3.1836 -5.1087 -2.0009 0.9749
-2.7152 -5.3727 -2.0010 0.9749
-2.2227 -5.5878 -1.9990 0.9750
-0.6189 -5.5747 -1.8644 0.9766
-0.1181 -5.5629 -1.8495 0.9768
1.8358 -5.2543 -1.8501 0.9768
2.7409 -4.8450 -1.8503 0.9768
3.2360 -4.6880 -1.8935 0.9763
4.2400 -4.2616 -1.9983 0.9750
4.6143 -3.8756 -2.0031 0.9749
5.2301 -2.9940 -2.0032 0.9749
5.4765 -2.5155 -2.0033 0.9749
5.9475 -0.9754 -2.0034 0.9749
5.9935 0.6345 -2.0034 0.9749
5.3924 2.6908 -2.0032 0.9749
4.8279 3.6061 -2.0031 0.9749
4.4867 4.0223 -2.0030 0.9749
3.6999 4.7551 -2.0028 0.9749
2.7955 5.3364 -2.0025 0.9749
2.3081 5.5641 -2.0024 0.9749
1.2219 5.6079 -1.9078 0.9761
0.6977 5.5438 -1.8573 0.9767
0.2002 5.5835 -1.8572 0.9767
-0.2987 5.5787 -1.8571 0.9767
-1.2629 5.3414 -1.8245 0.9771
-1.7651 5.2993 -1.8567 0.9767
-2.2307 5.1203 -1.8565 0.9767
-3.1048 4.6417 -1.8563 0.9767
-3.6279 4.4965 -1.9205 0.9759
-4.5513 3.9375 -2.0005 0.9750
-4.8842 3.5156 -2.0004 0.9750
-5.1782 3.0656 -2.0003 0.9750
-5.6403 2.0964 -2.0002 0.9750
-5.8047 1.5847 -2.0001 0.9750
-5.9229 1.0605 -2.0001 0.9750
-6.0170 -0.0091 -2.0001 0.9750
-5.9922 -0.5459 -2.0001 0.9750
-5.9197 -1.0784 -2.0001 0.9750
-5.6340 -2.1135 -2.0002 0.9750
-5.4231 -2.6078 -2.0003 0.9750
-5.1690 -3.0814 -2.0003 0.9750
-4.8736 -3.5304 -2.0004 0.9750
-4.5394 -3.9514 -2.0005 0.9750
-3.7653 -4.6958 -2.0007 0.9749
-2.8711 -5.2909 -2.0010 0.9749
-1.3345 -5.7214 -1.9529 0.9755
-0.7895 -5.6101 -1.8832 0.9764
-0.2807 -5.5569 -1.8495 0.9768
0.7116 -5.5191 -1.8498 0.9768
1.2012 -5.4340 -1.8499 0.9768
2.5980 -4.9229 -1.8503 0.9768
3.0653 -4.7308 -1.8738 0.9765
3.5987 -4.5962 -1.9404 0.9757
4.8389 -3.5915 -2.0031 0.9749
5.4228 -1.4050 -2.0033 0.9765
5.5266 -0.9155 -2.0033 0.9765
5.5718 0.5807 -2.0033 0.9765
5.0162 2.4929 -2.0031 0.9765
4.1764 3.7319 -2.0029 0.9765
3.4462 4.4143 -2.0027 0.9765
3.0385 4.7039 -2.0026 0.9765
2.1538 5.1684 -2.0023 0.9765
1.2007 5.4682 -2.0021 0.9765
-0.7347 5.1683 -1.8668 0.9781
-1.6432 4.9602 -1.8686 0.9780
-2.1039 4.8507 -1.8908 0.9778
-3.8809 4.0296 -2.0007 0.9765
-4.2248 3.6671 -2.0006 0.9765
-4.5349 3.2753 -2.0005 0.9765
-4.8089 2.8576 -2.0004 0.9765
-5.0445 2.4170 -2.0003 0.9765
-5.3936 1.4819 -2.0002 0.9765
-5.5709 0.4996 -2.0002 0.9765
-5.3939 -1.4807 -2.0003 0.9765
-5.2404 -1.9561 -2.0003 0.9765
-5.0451 -2.4160 -2.0004 0.9765
-4.5357 -3.2744 -2.0005 0.9765
-4.2257 -3.6662 -2.0006 0.9765
-2.6768 -4.9138 -2.0010 0.9765
-0.7864 -5.5231 -1.9950 0.9766
0.2004 -5.3761 -1.9239 0.9774
0.6711 -5.2729 -1.9008 0.9777
1.1338 -5.1688 -1.8923 0.9778
1.5953 -5.0622 -1.8980 0.9777
2.0622 -4.9516 -1.9182 0.9775
3.4384 -4.4062 -1.9987 0.9765
4.1757 -3.7328 -2.0029 0.9765
4.4923 -3.3455 -2.0030 0.9765
4.7730 -2.9315 -2.0031 0.9765
5.0157 -2.4940 -2.0032 0.9765
5.2184 -2.0366 -2.0032 0.9765
5.4975 -1.0767 -2.0033 0.9765
5.5716 -0.5819 -2.0033 0.9765
5.5864 0.4176 -2.0033 0.9765
5.5268 0.9144 -2.0033 0.9765
5.2761 1.8820 -2.0032 0.9765
4.8573 2.7896 -2.0031 0.9765
4.5888 3.2118 -2.0030 0.9765
4.2838 3.6082 -2.0029 0.9765
3.5739 4.3117 -2.0027 0.9765
3.1747 4.6132 -2.0026 0.9765
1.8394 5.2882 -2.0022 0.9765
1.3601 5.4309 -2.0021 0.9765
0.8669 5.5103 -1.9948 0.9766
-0.5849 5.2016 -1.8719 0.9780
-1.0411 5.1013 -1.8619 0.9781
-2.4210 4.7737 -1.9141 0.9775
-2.9087 4.6530 -1.9623 0.9770
