ply
format ascii 1.0
element vertex 1598
property float32 x
property float32 y
property float32 z
property float32 I
end_header
-1.1026 5.6450 -1.9119 0.9760
-1.6306 5.6252 -1.9468 0.9756
-2.1817 5.6017 -1.9983 0.9750
-2.6805 5.4016 -2.0044 0.9749
-3.1509 5.1406 -2.0042 0.9749
-4.3969 4.1223 -2.0034 0.9749
-5.8794 1.3006 -2.0016 0.9749
-5.9710 0.7713 -2.0013 0.9749
-5.9595 -0.8354 -2.0004 0.9750
-5.8605 -1.3631 -2.0001 0.9750
-5.0123 -3.3235 -1.9991 0.9750
-4.3418 -4.1598 -1.9987 0.9750
-3.9508 -4.5268 -1.9972 0.9750
-3.5215 -4.8470 -1.9915 0.9751
-1.4886 -5.3511 -1.8463 0.9769
-0.3144 -3.3765 -1.1272 0.9858
0.5656 -3.2010 -1.0805 0.9864
0.8911 -3.2946 -1.1345 0.9857
1.3041 -2.7512 -1.0120 0.9872
1.4891 -2.5305 -0.9760 0.9877
1.7893 -2.5004 -1.0220 0.9871
2.1180 -2.4623 -1.0796 0.9864
2.4744 -2.4050 -1.1470 0.9856
3.4577 -2.3286 -1.3857 0.9826
5.8560 -1.4064 -2.0019 0.9749
6.0146 -0.3445 -2.0026 0.9749
6.0223 0.1930 -2.0029 0.9749
5.8941 1.2595 -2.0035 0.9749
5.5783 2.2866 -2.0040 0.9749
5.3530 2.7750 -2.0042 0.9749
4.0473 4.4723 -2.0050 0.9749
2.7204 5.3845 -2.0053 0.9749
2.2297 5.6057 -2.0053 0.9749
1.6978 5.7036 -1.9781 0.9752
1.1556 5.6983 -1.9327 0.9758
0.1226 5.6804 -1.8886 0.9763
-0.3840 5.6676 -1.8883 0.9763
-0.8942 5.6521 -1.9022 0.9762
-1.9560 5.6117 -1.9754 0.9753
-2.9640 5.2509 -2.0043 0.9749
-3.4198 4.9653 -2.0041 0.9749
-4.6096 3.8821 -2.0033 0.9749
-4.9366 3.4553 -2.0030 0.9749
-5.4699 2.5232 -2.0023 0.9749
-5.6721 2.0253 -2.0020 0.9749
-5.9397 0.9857 -2.0014 0.9749
-6.0185 -0.0845 -2.0008 0.9749
-5.9861 -0.6204 -2.0005 0.9750
-5.7792 -1.6729 -1.9999 0.9750
-4.8280 -3.5853 -1.9990 0.9750
-4.1140 -4.3848 -1.9986 0.9750
-3.6978 -4.7224 -1.9937 0.9750
-3.1677 -4.8875 -1.9360 0.9757
-2.5936 -4.9119 -1.8464 0.9769
-2.1454 -5.1233 -1.8463 0.9769
-1.2017 -5.4228 -1.8463 0.9769
-0.4455 -3.4387 -1.1526 0.9855
-0.1310 -3.3080 -1.1004 0.9861
0.1595 -3.2090 -1.0680 0.9865
0.7353 -3.1669 -1.0807 0.9864
1.6660 -2.5146 -1.0027 0.9874
1.9795 -2.4762 -1.0538 0.9867
2.3395 -2.4436 -1.1245 0.9858
2.7235 -2.3787 -1.2020 0.9849
3.1943 -2.3225 -1.3128 0.9835
3.9142 -2.3433 -1.5164 0.9810
5.6332 -2.1264 -2.0015 0.9749
5.8013 -1.6162 -2.0018 0.9749
6.0250 -0.0239 -2.0027 0.9749
5.8192 1.5716 -2.0036 0.9749
5.6567 2.0842 -2.0039 0.9749
5.1980 3.0562 -2.0044 0.9749
4.5738 3.9313 -2.0048 0.9749
4.2055 4.3236 -2.0049 0.9749
3.3715 5.0022 -2.0052 0.9749
2.9124 5.2831 -2.0053 0.9749
2.4300 5.5218 -2.0053 0.9749
-0.6875 5.6587 -1.8948 0.9763
-1.7351 5.6210 -1.9554 0.9755
-2.7732 5.3544 -2.0044 0.9749
-3.2390 5.0854 -2.0042 0.9749
-3.6789 4.7759 -2.0039 0.9749
-4.0894 4.4284 -2.0037 0.9749
-5.3759 2.7186 -2.0025 0.9749
-5.7713 1.7204 -2.0018 0.9749
-5.9008 1.1989 -2.0015 0.9749
-5.9832 0.6681 -2.0012 0.9749
-6.0180 0.1322 -2.0009 0.9749
-5.9441 -0.9381 -2.0003 0.9750
-5.8360 -1.4639 -2.0000 0.9750
-5.6815 -1.9780 -1.9997 0.9750
-5.2388 -2.9546 -1.9993 0.9750
-4.2693 -4.2340 -1.9987 0.9750
-3.4221 -4.8853 -1.9827 0.9752
-1.3961 -5.3760 -1.8463 0.9769
-0.9114 -5.4791 -1.8463 0.9769
0.3314 -3.2086 -1.0722 0.9865
0.6217 -3.1956 -1.0821 0.9864
1.5466 -2.5275 -0.9850 0.9876
1.8497 -2.4928 -1.0318 0.9870
2.1879 -2.4565 -1.0935 0.9862
5.5527 -2.3277 -2.0014 0.9749
5.9735 -0.7761 -2.0023 0.9749
6.0182 0.2968 -2.0029 0.9749
5.9687 0.8322 -2.0032 0.9749
5.7277 1.8792 -2.0038 0.9749
5.3044 2.8670 -2.0043 0.9749
4.7121 3.7640 -2.0047 0.9749
3.5493 4.8776 -2.0051 0.9749
2.1327 5.6433 -2.0054 0.9749
1.0533 5.6970 -1.9258 0.9759
0.5339 5.6888 -1.8993 0.9762
0.0246 5.6781 -1.8874 0.9763
-0.4821 5.6648 -1.8898 0.9763
-0.9938 5.6488 -1.9065 0.9761
5.0835 -2.3403 -2.0013 0.9765
5.2726 -1.8782 -2.0016 0.9765
5.4198 -1.4010 -2.0019 0.9765
5.5239 -0.9125 -2.0022 0.9765
5.5998 0.0828 -2.0027 0.9765
5.4976 1.0760 -2.0033 0.9765
5.2206 2.0355 -2.0038 0.9765
5.0189 2.4930 -2.0040 0.9765
3.8327 4.0911 -2.0047 0.9765
3.4531 4.4167 -2.0049 0.9765
3.0458 4.7071 -2.0050 0.9765
2.1618 5.1734 -2.0051 0.9765
1.6922 5.3456 -2.0051 0.9765
0.7162 5.5610 -2.0051 0.9765
0.2177 5.6026 -2.0050 0.9765
-0.2825 5.5994 -2.0049 0.9765
-1.2720 5.4597 -2.0047 0.9765
-1.7534 5.3242 -2.0045 0.9765
-2.6703 4.9273 -2.0042 0.9765
-3.5019 4.3740 -2.0037 0.9765
-4.2218 3.6818 -2.0032 0.9765
-4.8071 2.8729 -2.0027 0.9765
-5.2393 1.9732 -2.0021 0.9765
-5.3935 1.4982 -2.0018 0.9765
-5.5721 0.5167 -2.0012 0.9765
-5.5952 0.0180 -2.0009 0.9765
-5.5080 -0.9754 -2.0003 0.9765
-5.0518 -2.3969 -1.9996 0.9765
-4.8176 -2.8373 -1.9994 0.9765
-4.5451 -3.2551 -1.9992 0.9765
-4.2365 -3.6469 -1.9990 0.9765
-3.8943 -4.0097 -1.9989 0.9765
-3.5212 -4.3406 -1.9987 0.9765
-2.6776 -4.8659 -1.9861 0.9767
-1.6467 -4.8940 -1.8465 0.9783
-1.2039 -5.0212 -1.8465 0.9783
0.0988 -3.0491 -1.0909 0.9871
0.3684 -3.0132 -1.0856 0.9872
0.9383 -3.0318 -1.1349 0.9866
1.1746 -2.8625 -1.1065 0.9869
1.8940 -2.4549 -1.1088 0.9869
2.2176 -2.3978 -1.1680 0.9862
2.6271 -2.3756 -1.2666 0.9851
4.9956 -2.5216 -2.0012 0.9765
5.2013 -2.0666 -2.0014 0.9765
5.4872 -1.1106 -2.0020 0.9765
5.5651 -0.6172 -2.0023 0.9765
5.5988 -0.1188 -2.0026 0.9765
5.5325 0.8774 -2.0032 0.9765
5.4330 1.3672 -2.0034 0.9765
5.2902 1.8462 -2.0037 0.9765
5.1052 2.3106 -2.0039 0.9765
4.8795 2.7567 -2.0042 0.9765
4.6148 3.1810 -2.0043 0.9765
3.6097 4.2895 -2.0048 0.9765
2.3466 5.0922 -2.0051 0.9765
0.9159 5.5317 -2.0051 0.9765
-0.0808 5.6061 -2.0050 0.9765
-1.0747 5.5021 -2.0048 0.9765
-2.0342 5.2230 -2.0044 0.9765
-2.4914 5.0205 -2.0043 0.9765
-2.9286 4.7779 -2.0040 0.9765
-3.7295 4.1811 -2.0036 0.9765
-4.4114 3.4516 -2.0031 0.9765
-4.7008 3.0443 -2.0028 0.9765
-4.9527 2.6128 -2.0025 0.9765
-5.1651 2.1607 -2.0022 0.9765
-5.3364 1.6915 -2.0019 0.9765
-5.4651 1.2089 -2.0016 0.9765
-5.5503 0.7169 -2.0013 0.9765
-5.5878 -0.2798 -2.0007 0.9765
-5.5398 -0.7766 -2.0005 0.9765
-4.9168 -2.6622 -1.9995 0.9765
-4.6595 -3.0895 -1.9993 0.9765
-4.3652 -3.4922 -1.9991 0.9765
-4.0362 -3.8671 -1.9989 0.9765
-3.2827 -4.5183 -1.9972 0.9766
-1.8354 -4.8678 -1.8604 0.9781
-1.3839 -4.9747 -1.8465 0.9783
-0.9350 -5.0782 -1.8465 0.9783
-0.2916 -3.1323 -1.1250 0.9867
-0.0110 -3.0641 -1.0958 0.9871
1.0886 -2.9512 -1.1249 0.9867
1.4710 -2.4997 -1.0372 0.9878
1.7678 -2.4703 -1.0863 0.9872
2.0811 -2.4194 -1.1412 0.9865
2.8772 -2.3359 -1.3253 0.9844
3.4602 -2.3303 -1.4918 0.9824
5.1232 -2.2523 -2.0013 0.9765
5.3043 -1.7870 -2.0016 0.9765
5.4433 -1.3073 -2.0019 0.9765
5.5390 -0.8171 -2.0022 0.9765
5.5906 -0.3202 -2.0025 0.9765
5.3529 1.6545 -2.0036 0.9765
5.1848 2.1253 -2.0038 0.9765
4.9753 2.5792 -2.0041 0.9765
4.4392 3.4222 -2.0045 0.9765
4.1169 3.8046 -2.0046 0.9765
3.7617 4.1567 -2.0048 0.9765
3.3764 4.4757 -2.0049 0.9765
2.5283 5.0044 -2.0051 0.9765
2.0723 5.2100 -2.0051 0.9765
1.5997 5.3740 -2.0051 0.9765
1.1144 5.4952 -2.0051 0.9765
0.1210 5.6054 -2.0050 0.9765
-0.3790 5.5937 -2.0049 0.9765
-1.3660 5.4368 -2.0047 0.9765
-1.8450 5.2930 -2.0045 0.9765
-2.3091 5.1071 -2.0043 0.9765
-2.7549 4.8804 -2.0041 0.9765
-3.5768 4.3128 -2.0037 0.9765
-4.5885 3.2117 -2.0029 0.9765
-5.4184 1.4049 -2.0017 0.9765
-5.5212 0.9163 -2.0014 0.9765
-5.5801 0.4205 -2.0011 0.9765
-5.5645 -0.5768 -2.0006 0.9765
-5.3723 -1.5551 -2.0000 0.9765
-5.2117 -2.0275 -1.9998 0.9765
-5.0096 -2.4837 -1.9996 0.9765
-4.1729 -3.7194 -1.9990 0.9765
-3.8245 -4.0762 -1.9988 0.9765
-1.5620 -4.9216 -1.8465 0.9783
-1.1172 -5.0413 -1.8465 0.9783
0.1511 -3.0405 -1.0886 0.9872
1.3617 -2.5170 -1.0234 0.9879
2.7063 -2.3637 -1.2850 0.9849
3.2931 -2.3944 -1.4560 0.9829
4.8008 -2.8740 -2.0009 0.9765
5.0385 -2.4351 -2.0012 0.9765
5.2363 -1.9766 -2.0015 0.9765
5.5057 -1.0158 -2.0021 0.9765
5.6002 -0.0222 -2.0027 0.9765
5.5807 0.4771 -2.0030 0.9765
5.5167 0.9727 -2.0032 0.9765
5.2577 1.9372 -2.0037 0.9765
4.2510 3.6538 -2.0046 0.9765
3.9087 4.0185 -2.0047 0.9765
3.1335 4.6492 -2.0049 0.9765
2.7068 4.9101 -2.0050 0.9765
2.2584 5.1320 -2.0051 0.9765
1.7921 5.3129 -2.0051 0.9765
0.3227 5.5975 -2.0050 0.9765
-0.1775 5.6038 -2.0050 0.9765
-1.1694 5.4826 -2.0047 0.9765
-1.6533 5.3562 -2.0046 0.9765
-2.1239 5.1871 -2.0044 0.9765
-2.5775 4.9766 -2.0042 0.9765
-3.0105 4.7266 -2.0040 0.9765
-3.4194 4.4390 -2.0038 0.9765
-3.8010 4.1160 -2.0035 0.9765
-4.4702 3.3749 -2.0030 0.9765
-5.2015 2.0712 -2.0021 0.9765
-5.4850 1.1144 -2.0015 0.9765
-5.5617 0.6211 -2.0012 0.9765
-5.5941 0.1229 -2.0010 0.9765
-5.5820 -0.3761 -2.0007 0.9765
-5.0960 -2.3019 -1.9997 0.9765
-4.8700 -2.7466 -1.9994 0.9765
-4.6054 -3.1694 -1.9992 0.9765
-3.9689 -3.9361 -1.9989 0.9765
-3.6020 -4.2738 -1.9988 0.9765
-3.2027 -4.5720 -1.9962 0.9766
-2.7760 -4.8281 -1.9916 0.9766
-2.2476 -4.8677 -1.9173 0.9775
-1.2979 -4.9978 -1.8465 0.9783
-0.8473 -5.0936 -1.8465 0.9783
-0.2357 -3.1118 -1.1160 0.9868
0.0418 -3.0574 -1.0934 0.9871
0.3120 -3.0216 -1.0863 0.9872
0.8782 -3.0379 -1.1308 0.9867
1.1418 -2.9383 -1.1273 0.9867
1.8277 -2.4631 -1.0968 0.9871
2.5370 -2.3821 -1.2445 0.9853
3.6209 -2.3488 -1.5434 0.9818
5.1615 -2.1636 -2.0014 0.9765
5.3345 -1.6953 -2.0017 0.9765
5.5954 -0.2237 -2.0026 0.9765
5.5939 0.2759 -2.0028 0.9765
5.5478 0.7735 -2.0031 0.9765
5.4575 1.2650 -2.0034 0.9765
5.3237 1.7466 -2.0036 0.9765
5.1475 2.2144 -2.0039 0.9765
3.6894 4.2210 -2.0048 0.9765
2.8817 4.8095 -2.0050 0.9765
2.4417 5.0473 -2.0051 0.9765
0.5239 5.5824 -2.0051 0.9765
-0.9714 5.5213 -2.0048 0.9765
4.9202 -1.7526 -2.0016 0.9779
5.1547 -0.8515 -2.0021 0.9779
5.2108 -0.3887 -2.0024 0.9779
5.2254 0.0773 -2.0027 0.9779
5.1299 1.0040 -2.0032 0.9779
5.0207 1.4574 -2.0034 0.9779
4.6832 2.3262 -2.0039 0.9778
4.1965 3.1213 -2.0042 0.9778
3.9020 3.4832 -2.0044 0.9778
3.5762 3.8173 -2.0045 0.9778
3.2220 4.1211 -2.0047 0.9778
2.0171 4.8272 -2.0049 0.9778
1.1281 5.1087 -2.0049 0.9778
-0.2636 5.2247 -2.0047 0.9778
-0.7282 5.1801 -2.0046 0.9778
-1.1869 5.0943 -2.0045 0.9778
-1.6361 4.9679 -2.0044 0.9778
-2.0722 4.8019 -2.0042 0.9778
-2.4917 4.5977 -2.0040 0.9778
-2.8912 4.3569 -2.0038 0.9779
-3.2677 4.0814 -2.0036 0.9779
-3.6180 3.7735 -2.0034 0.9779
-4.4857 2.6809 -2.0026 0.9779
-5.0330 1.3981 -2.0018 0.9779
-5.1999 0.4822 -2.0012 0.9779
-5.2214 0.0168 -2.0010 0.9779
-5.2015 -0.4486 -2.0007 0.9779
-5.1401 -0.9103 -2.0004 0.9779
-4.8957 -1.8080 -2.0000 0.9779
-4.7146 -2.2369 -1.9998 0.9779
-4.2417 -3.0378 -1.9994 0.9779
-3.9537 -3.4035 -1.9992 0.9779
-3.2862 -4.0509 -1.9989 0.9779
-2.5113 -4.5637 -1.9962 0.9779
-0.1640 -2.8816 -1.1061 0.9877
1.1145 -2.7160 -1.1250 0.9875
1.2940 -2.4938 -1.0767 0.9880
1.5703 -2.4614 -1.1189 0.9876
1.8623 -2.4139 -1.1683 0.9870
2.2074 -2.3868 -1.2459 0.9862
2.6466 -2.3933 -1.3674 0.9848
4.4330 -2.7589 -2.0009 0.9779
4.8537 -1.9285 -2.0015 0.9779
5.0070 -1.4884 -2.0017 0.9779
5.2245 -0.1108 -2.0026 0.9779
5.2143 0.3553 -2.0028 0.9779
5.1625 0.8187 -2.0031 0.9779
5.0696 1.2757 -2.0033 0.9779
4.7637 2.1560 -2.0038 0.9779
4.5530 2.5723 -2.0040 0.9778
4.2750 2.9467 -1.9897 0.9780
3.3681 4.0024 -2.0046 0.9778
2.6043 4.5372 -2.0048 0.9778
2.1896 4.7514 -2.0049 0.9778
1.7574 4.9277 -2.0049 0.9778
1.3112 5.0648 -2.0049 0.9778
0.8546 5.1614 -2.0049 0.9778
0.3911 5.2169 -2.0048 0.9778
-1.0028 5.1338 -2.0046 0.9778
-4.1164 3.2208 -2.0030 0.9779
-4.3865 2.8407 -2.0027 0.9779
-4.6216 2.4381 -2.0024 0.9779
-4.8199 2.0162 -2.0022 0.9779
-4.9797 1.5784 -2.0019 0.9779
-5.0999 1.1281 -2.0016 0.9779
-5.2177 0.2047 -2.0011 0.9779
-5.1698 -0.7247 -2.0005 0.9779
-4.9578 -1.6307 -2.0001 0.9779
-4.5885 -2.4845 -1.9996 0.9779
-4.0738 -3.2591 -1.9993 0.9779
-3.4300 -3.9301 -1.9990 0.9779
-3.0659 -4.2199 -1.9989 0.9779
-2.6761 -4.4740 -1.9978 0.9779
-2.2624 -4.6857 -1.9940 0.9780
-1.8267 -4.8448 -1.9842 0.9781
-0.8910 -4.8394 -1.8857 0.9791
-0.0103 -2.8605 -1.0962 0.9878
0.2428 -2.8272 -1.0874 0.9879
0.4923 -2.7861 -1.0842 0.9880
0.7372 -2.7258 -1.0821 0.9880
1.2242 -2.5828 -1.0953 0.9878
1.4560 -2.4743 -1.1002 0.9878
2.0606 -2.3955 -1.2109 0.9866
4.5739 -2.5192 -2.0011 0.9779
4.9499 -1.6676 -2.0016 0.9779
5.0795 -1.2199 -2.0019 0.9779
5.2168 -0.2988 -2.0025 0.9779
5.1120 1.0924 -2.0032 0.9779
4.9949 1.5438 -2.0035 0.9779
4.8380 1.9831 -2.0037 0.9779
4.4099 2.8111 -2.0041 0.9778
3.8414 3.5500 -2.0044 0.9778
1.9336 4.8613 -2.0049 0.9778
0.1129 5.2303 -2.0048 0.9778
-0.3537 5.2193 -2.0047 0.9778
-1.2746 5.0730 -2.0045 0.9778
-1.7215 4.9388 -2.0043 0.9778
-3.3375 4.0243 -2.0036 0.9779
-3.6825 3.7104 -2.0033 0.9779
-3.9980 3.3670 -2.0031 0.9779
-4.5311 2.6030 -2.0025 0.9779
-4.7445 2.1885 -2.0023 0.9779
-4.9200 1.7567 -2.0020 0.9779
-5.2073 0.3924 -2.0012 0.9779
-5.2208 -0.0733 -2.0009 0.9779
-5.1928 -0.5382 -2.0006 0.9779
-5.1235 -0.9988 -2.0004 0.9779
-5.0135 -1.4513 -2.0002 0.9779
-4.8637 -1.8921 -1.9999 0.9779
-4.6752 -2.3178 -1.9997 0.9779
-4.4496 -2.7250 -1.9995 0.9779
-4.1886 -3.1105 -1.9993 0.9779
-3.8944 -3.4712 -1.9992 0.9779
-3.5693 -3.8042 -1.9990 0.9779
-3.2158 -4.1069 -1.9989 0.9779
-2.8369 -4.3770 -1.9988 0.9779
-2.4313 -4.6046 -1.9955 0.9779
-2.0078 -4.7947 -1.9920 0.9780
-1.5375 -4.8442 -1.9476 0.9785
-0.3827 -2.9539 -1.1415 0.9873
-0.1137 -2.8703 -1.1008 0.9878
0.3922 -2.8053 -1.0855 0.9879
0.6389 -2.7518 -1.0826 0.9880
0.9169 -2.7910 -1.1258 0.9875
1.1612 -2.6964 -1.1251 0.9875
1.6220 -2.4482 -1.1254 0.9875
1.9240 -2.4068 -1.1808 0.9869
4.4801 -2.6820 -2.0010 0.9779
4.7019 -2.2724 -2.0013 0.9779
4.8864 -1.8445 -2.0015 0.9779
5.1377 -0.9479 -2.0021 0.9779
5.2024 -0.4863 -2.0024 0.9779
5.2075 0.4452 -2.0029 0.9779
4.9060 1.8076 -2.0036 0.9779
4.2542 3.0420 -2.0042 0.9778
3.9665 3.4093 -2.0044 0.9778
3.2986 4.0599 -2.0046 0.9778
2.9238 4.3380 -2.0047 0.9778
2.5256 4.5815 -2.0048 0.9778
1.6721 4.9573 -2.0049 0.9778
-0.1656 5.2287 -2.0047 0.9778
-1.5427 4.9977 -2.0044 0.9778
-2.4051 4.6437 -2.0041 0.9778
-2.8091 4.4104 -2.0039 0.9778
-3.5467 3.8407 -2.0034 0.9779
-3.8745 3.5089 -2.0032 0.9779
-5.1184 1.0400 -2.0016 0.9779
-5.1901 0.5796 -2.0013 0.9779
-5.2203 0.1147 -2.0010 0.9779
-4.7558 -2.1482 -1.9998 0.9779
-4.2980 -2.9578 -1.9994 0.9779
-3.3616 -3.9886 -1.9990 0.9779
-2.9926 -4.2721 -1.9989 0.9779
-2.5975 -4.5177 -1.9970 0.9779
-2.1805 -4.7224 -1.9933 0.9780
-1.7319 -4.8447 -1.9716 0.9782
-0.2197 -2.9015 -1.1151 0.9876
0.0390 -2.8546 -1.0940 0.9878
0.5400 -2.7756 -1.0836 0.9880
0.7841 -2.7126 -1.0821 0.9880
1.0634 -2.7364 -1.1250 0.9875
1.2399 -2.5032 -1.0705 0.9881
1.7968 -2.4214 -1.1555 0.9872
2.1299 -2.3914 -1.2272 0.9864
3.0430 -2.3846 -1.4815 0.9836
4.6168 -2.4400 -2.0011 0.9779
4.8166 -2.0191 -2.0014 0.9779
5.2199 0.2575 -2.0028 0.9779
5.1768 0.7218 -2.0030 0.9779
4.9676 1.6298 -2.0035 0.9779
4.6003 2.4864 -2.0040 0.9778
3.7796 3.6158 -2.0045 0.9778
2.2782 4.7095 -2.0048 0.9778
1.8495 4.8939 -2.0049 0.9778
1.4059 5.0393 -2.0049 0.9778
0.9512 5.1445 -2.0049 0.9778
0.4889 5.2087 -2.0048 0.9778
0.0227 5.2314 -2.0048 0.9778
-0.9064 5.1518 -2.0046 0.9778
4.8264 -0.7973 -2.0021 0.9791
4.8789 -0.3640 -2.0024 0.9791
4.8672 0.5082 -2.0029 0.9791
4.8031 0.9401 -2.0031 0.9791
4.1735 2.5603 -2.0039 0.9791
3.9291 2.9223 -2.0041 0.9791
3.6532 3.2611 -2.0042 0.9791
3.3483 3.5740 -2.0044 0.9791
3.0166 3.8584 -2.0045 0.9791
1.8885 4.5194 -2.0047 0.9791
1.4782 4.6698 -2.0047 0.9791
1.0562 4.7829 -2.0047 0.9791
0.6256 4.8580 -2.0047 0.9791
-0.2468 4.8916 -2.0045 0.9791
-0.6817 4.8499 -2.0044 0.9791
-1.5318 4.6512 -2.0042 0.9791
-1.9401 4.4958 -2.0040 0.9791
-2.3329 4.3047 -2.0039 0.9791
-3.3875 3.5331 -2.0033 0.9791
-3.6885 3.2167 -2.0030 0.9791
-3.9600 2.8748 -2.0028 0.9791
-4.4064 2.1255 -2.0023 0.9791
-4.5778 1.7241 -2.0020 0.9791
-4.7126 1.3091 -2.0018 0.9791
-1.9580 0.1816 -0.8048 0.9915
-1.9012 0.0061 -0.7781 0.9918
-1.9577 -0.1688 -0.8042 0.9915
-4.7174 -1.2778 -2.0003 0.9791
-4.5843 -1.6930 -2.0001 0.9791
-4.2100 -2.4795 -1.9997 0.9791
-3.9720 -2.8446 -1.9995 0.9791
-3.7023 -3.1871 -1.9994 0.9791
-3.0773 -3.7933 -1.9991 0.9791
-1.5545 -4.6199 -1.9950 0.9792
-1.1353 -4.7350 -1.9928 0.9792
-0.1568 -2.7554 -1.1295 0.9881
0.5723 -2.6732 -1.1189 0.9883
0.8050 -2.6011 -1.1144 0.9883
1.0340 -2.5200 -1.1148 0.9883
1.5437 -2.4197 -1.1747 0.9877
2.2321 -2.4134 -1.3454 0.9859
4.3652 -2.2033 -2.0012 0.9791
4.6882 -1.3937 -2.0017 0.9791
4.7944 -0.9704 -2.0020 0.9791
4.8917 -0.1038 -2.0025 0.9791
4.8336 0.7666 -2.0030 0.9791
4.7466 1.1944 -2.0032 0.9791
4.4601 2.0186 -2.0037 0.9791
4.0316 2.7789 -2.0040 0.9791
3.4746 3.4511 -2.0043 0.9791
2.8070 4.0136 -2.0045 0.9791
2.0500 4.4485 -2.0047 0.9791
0.8001 4.8323 -2.0047 0.9791
-0.0706 4.8974 -2.0046 0.9791
-0.9389 4.8066 -2.0044 0.9791
-1.3634 4.7035 -2.0043 0.9791
-1.7771 4.5629 -2.0041 0.9791
-2.1765 4.3860 -2.0039 0.9791
-2.5585 4.1742 -2.0038 0.9791
-2.9201 3.9291 -2.0036 0.9791
-3.2583 3.6528 -2.0034 0.9791
-3.5705 3.3475 -2.0031 0.9791
-4.1071 2.6598 -2.0026 0.9791
-4.7752 1.0563 -2.0016 0.9791
-1.9514 0.2521 -0.8053 0.9915
-1.9409 -0.0972 -0.7954 0.9916
-4.4874 -1.9345 -2.0000 0.9791
-3.8147 -3.0519 -1.9994 0.9791
-3.2119 -3.6802 -1.9992 0.9791
-2.8709 -3.9516 -1.9991 0.9791
-1.7206 -4.5633 -1.9960 0.9791
-1.3055 -4.6929 -1.9936 0.9792
-0.8813 -4.7863 -1.9919 0.9792
-0.2579 -2.7703 -1.1387 0.9880
1.1687 -2.4656 -1.1168 0.9883
1.7204 -2.4041 -1.2099 0.9873
2.4790 -2.4095 -1.4149 0.9852
2.9680 -2.4096 -1.5646 0.9836
4.2828 -2.3589 -2.0011 0.9791
4.4766 -1.9680 -2.0014 0.9791
4.5297 1.8567 -2.0036 0.9791
4.1288 2.6320 -2.0040 0.9791
3.8781 2.9897 -2.0041 0.9791
3.5965 3.3237 -2.0043 0.9791
2.2087 4.3718 -2.0046 0.9791
1.8103 4.5513 -2.0047 0.9791
0.9735 4.8004 -2.0047 0.9791
0.5418 4.8680 -2.0047 0.9791
0.1057 4.8968 -2.0046 0.9791
-1.1933 4.7496 -2.0043 0.9791
-1.6118 4.6240 -2.0042 0.9791
-2.0173 4.4616 -2.0040 0.9791
-2.4067 4.2637 -2.0038 0.9791
-2.7769 4.0318 -2.0036 0.9791
-3.1249 3.7679 -2.0034 0.9791
-4.2426 2.4372 -2.0025 0.9791
-4.7344 1.2276 -2.0017 0.9791
-1.9121 -0.0268 -0.7826 0.9918
-1.9574 -0.2029 -0.8054 0.9915
-4.5543 -1.7718 -2.0000 0.9791
-4.3778 -2.1704 -1.9998 0.9791
-4.1666 -2.5517 -1.9997 0.9791
-3.9222 -2.9127 -1.9995 0.9791
-3.3423 -3.5623 -1.9992 0.9791
-3.0114 -3.8458 -1.9991 0.9791
-2.6565 -4.0987 -1.9990 0.9791
-2.2805 -4.3190 -1.9990 0.9791
-0.1088 -2.7479 -1.1255 0.9882
0.1354 -2.7244 -1.1164 0.9883
0.8499 -2.5873 -1.1146 0.9883
1.5991 -2.4136 -1.1849 0.9876
1.9115 -2.3911 -1.2529 0.9869
4.4026 -2.1277 -2.0013 0.9791
4.5753 -1.7271 -2.0015 0.9791
4.8711 -0.4553 -2.0023 0.9791
4.8758 0.4168 -2.0028 0.9791
4.7254 1.2762 -2.0033 0.9791
4.5934 1.6924 -2.0035 0.9791
3.7137 3.1920 -2.0042 0.9791
3.4146 3.5105 -2.0043 0.9791
2.3646 4.2894 -2.0046 0.9791
1.9729 4.4832 -2.0047 0.9791
0.7166 4.8454 -2.0047 0.9791
0.2819 4.8899 -2.0046 0.9791
-0.1550 4.8954 -2.0046 0.9791
-2.2518 4.3477 -2.0039 0.9791
-4.5448 1.8097 -2.0021 0.9791
-1.9506 -0.1314 -0.8001 0.9916
-2.0199 -0.3188 -0.8369 0.9912
-4.7407 -1.1892 -2.0003 0.9791
-4.0247 -2.7697 -1.9996 0.9791
-3.4685 -3.4398 -1.9993 0.9791
-2.4345 -4.2342 -1.9990 0.9791
-2.0468 -4.4329 -1.9984 0.9791
-1.6412 -4.5911 -1.9955 0.9791
-0.4716 -2.8354 -1.1764 0.9877
0.0374 -2.7349 -1.1194 0.9882
0.2798 -2.7090 -1.1146 0.9883
0.5215 -2.6807 -1.1177 0.9883
0.7571 -2.6191 -1.1158 0.9883
1.2186 -2.4603 -1.1237 0.9882
2.1500 -2.4140 -1.3230 0.9861
2.5653 -2.4087 -1.4402 0.9849
4.1016 -2.6606 -2.0009 0.9791
4.3230 -2.2847 -2.0012 0.9791
4.5100 -1.8906 -2.0014 0.9791
4.6611 -1.4813 -2.0017 0.9791
4.8888 -0.1955 -2.0025 0.9791
4.8874 0.2411 -2.0027 0.9791
4.8470 0.6758 -2.0030 0.9791
4.7681 1.1052 -2.0032 0.9791
4.4971 1.9346 -2.0036 0.9791
4.3071 2.3280 -2.0038 0.9791
3.8260 3.0562 -2.0042 0.9791
3.5387 3.3853 -2.0043 0.9791
3.2231 3.6874 -2.0044 0.9791
2.8817 3.9602 -2.0045 0.9791
2.5174 4.2015 -2.0046 0.9791
2.1330 4.4092 -2.0047 0.9791
1.3163 4.7180 -2.0047 0.9791
0.8905 4.8165 -2.0047 0.9791
0.4577 4.8766 -2.0046 0.9791
0.0212 4.8979 -2.0046 0.9791
-0.8486 4.8234 -2.0044 0.9791
4.3265 -1.5411 -2.0016 0.9802
4.4472 -1.1495 -2.0018 0.9802
4.5945 0.0679 -2.0026 0.9802
4.5707 0.4772 -2.0028 0.9801
4.5104 0.8828 -2.0030 0.9801
3.1441 3.3561 -2.0042 0.9801
2.8326 3.6231 -2.0043 0.9801
0.9917 4.4912 -2.0045 0.9801
0.1786 4.5958 -2.0044 0.9801
-1.8218 4.2217 -2.0039 0.9801
-3.1811 3.3177 -2.0032 0.9801
-3.9441 2.3572 -2.0025 0.9802
-4.1380 1.9960 -2.0023 0.9802
-4.2989 1.6191 -2.0020 0.9802
-1.5622 0.4339 -0.7066 0.9930
-1.4986 0.2753 -0.6640 0.9934
-1.5274 0.1416 -0.6685 0.9933
-1.5229 0.0049 -0.6637 0.9934
-1.5977 -0.5900 -0.7423 0.9926
-4.1461 -1.9672 -2.0000 0.9802
-3.1963 -3.2910 -1.9994 0.9802
-2.8901 -3.5626 -1.9993 0.9802
-2.5610 -3.8058 -1.9992 0.9802
-2.2115 -4.0188 -1.9991 0.9802
-1.8445 -4.1998 -1.9991 0.9802
-1.0688 -4.4574 -1.9977 0.9802
0.3112 -2.5453 -1.1176 0.9889
0.5346 -2.4973 -1.1130 0.9889
0.7635 -2.4669 -1.1254 0.9888
1.0026 -2.4434 -1.1510 0.9885
1.2564 -2.4214 -1.1889 0.9882
1.5316 -2.4006 -1.2410 0.9877
1.8628 -2.4144 -1.3290 0.9868
2.2273 -2.4083 -1.4296 0.9858
3.1804 -2.3974 -1.7358 0.9828
4.5024 -0.9113 -2.0020 0.9802
4.5662 -0.5064 -2.0022 0.9802
4.5937 -0.0975 -2.0025 0.9802
4.5847 0.3124 -2.0027 0.9801
4.5391 0.7198 -2.0029 0.9801
4.3401 1.5146 -2.0034 0.9801
4.1882 1.8956 -2.0035 0.9801
4.0030 2.2615 -2.0037 0.9801
3.7858 2.6095 -2.0039 0.9801
3.5384 2.9368 -2.0040 0.9801
3.2628 3.2407 -2.0042 0.9801
2.9611 3.5187 -2.0043 0.9801
2.2895 3.9889 -2.0044 0.9801
1.5450 4.3322 -2.0045 0.9801
1.1527 4.4527 -2.0045 0.9801
0.3439 4.5865 -2.0045 0.9801
-0.4759 4.5743 -2.0043 0.9801
-0.8816 4.5135 -2.0042 0.9801
-1.2803 4.4167 -2.0041 0.9801
-2.0438 4.1186 -2.0038 0.9801
-2.7421 3.6896 -2.0035 0.9801
-3.8569 2.4977 -2.0026 0.9801
-4.0637 2.1438 -2.0024 0.9802
-1.5814 0.5013 -0.7230 0.9928
-1.5197 0.1963 -0.6678 0.9933
-1.5287 0.0600 -0.6668 0.9933
-1.5861 -0.5217 -0.7277 0.9927
-4.2143 -1.8167 -2.0001 0.9802
-3.0165 -3.4563 -1.9993 0.9802
-1.6183 -4.2920 -1.9991 0.9802
-1.2289 -4.4177 -1.9984 0.9802
-0.5886 -3.1970 -1.4167 0.9859
-0.0093 -2.5859 -1.1270 0.9888
0.9051 -2.4535 -1.1397 0.9887
1.4173 -2.4086 -1.2180 0.9879
1.7266 -2.4128 -1.2930 0.9871
2.0746 -2.4118 -1.3865 0.9862
2.4951 -2.4251 -1.5164 0.9849
3.8082 -2.5646 -2.0009 0.9802
4.0221 -2.2153 -2.0012 0.9802
4.2040 -1.8482 -2.0014 0.9802
4.3525 -1.4663 -2.0017 0.9802
4.5927 0.1472 -2.0026 0.9801
4.5619 0.5560 -2.0028 0.9801
4.4946 0.9605 -2.0031 0.9801
4.0816 2.1159 -2.0037 0.9801
3.6417 2.8074 -2.0040 0.9801
2.4316 3.9039 -2.0044 0.9801
1.6999 4.2738 -2.0045 0.9801
1.3122 4.4083 -2.0045 0.9801
0.9141 4.5077 -2.0045 0.9801
0.5087 4.5711 -2.0045 0.9801
-0.7186 4.5424 -2.0043 0.9801
-1.5135 4.3421 -2.0040 0.9801
-2.2600 4.0038 -2.0037 0.9801
-2.9344 3.5383 -2.0033 0.9801
-1.5949 0.5695 -0.7380 0.9926
-1.5067 0.2500 -0.6656 0.9934
-1.5291 0.1152 -0.6683 0.9933
-1.5027 -0.2929 -0.6672 0.9933
-4.2772 -1.6640 -2.0002 0.9802
-4.1114 -2.0384 -2.0000 0.9802
-3.6836 -2.7355 -1.9996 0.9802
-3.1390 -3.3456 -1.9994 0.9802
-2.4949 -3.8494 -1.9992 0.9802
-1.3876 -4.3720 -1.9991 0.9802
-0.9916 -4.4745 -1.9974 0.9802
-0.3380 -2.6090 -1.1466 0.9886
0.1279 -2.5726 -1.1226 0.9888
0.3547 -2.5370 -1.1164 0.9889
0.8090 -2.4628 -1.1298 0.9888
1.0504 -2.4392 -1.1574 0.9885
1.5914 -2.4019 -1.2557 0.9875
2.3104 -2.4133 -1.4561 0.9855
3.2642 -2.3734 -1.7589 0.9825
4.2967 -1.6219 -2.0016 0.9802
4.4247 -1.2327 -2.0018 0.9802
4.5175 -0.8335 -2.0020 0.9802
4.5744 -0.4276 -2.0023 0.9802
4.5948 -0.0182 -2.0025 0.9802
4.3134 1.5893 -2.0034 0.9801
4.1550 1.9676 -2.0036 0.9801
3.4873 2.9974 -2.0041 0.9801
3.2064 3.2965 -2.0042 0.9801
2.9000 3.5693 -2.0043 0.9801
2.5705 3.8138 -2.0044 0.9801
1.8526 4.2098 -2.0045 0.9801
1.4701 4.3582 -2.0045 0.9801
0.2647 4.5917 -2.0045 0.9801
-0.1456 4.5969 -2.0044 0.9801
-0.9593 4.4976 -2.0042 0.9801
-1.3563 4.3939 -2.0041 0.9801
-2.1145 4.0827 -2.0038 0.9801
-2.4698 3.8776 -2.0036 0.9801
-2.8053 3.6417 -2.0034 0.9801
-3.1184 3.3769 -2.0032 0.9801
-4.2679 1.6994 -2.0021 0.9802
-1.5097 0.3067 -0.6714 0.9933
-1.5240 0.1702 -0.6683 0.9933
-1.5295 -0.1031 -0.6681 0.9933
-1.5100 -0.2383 -0.6662 0.9934
-1.5456 -0.3877 -0.6945 0.9931
-1.5924 -0.5544 -0.7349 0.9927
-4.1823 -1.8891 -2.0000 0.9802
-3.7798 -2.6012 -1.9997 0.9802
-3.5327 -2.9275 -1.9995 0.9802
-3.2575 -3.2305 -1.9994 0.9802
-2.9564 -3.5078 -1.9993 0.9802
-2.6319 -3.7572 -1.9992 0.9802
-1.9229 -4.1645 -1.9991 0.9802
-1.5440 -4.3193 -1.9991 0.9802
-1.1523 -4.4374 -1.9980 0.9802
-0.4611 -2.7718 -1.2246 0.9878
-0.1966 -2.5963 -1.1348 0.9887
0.0353 -2.5819 -1.1254 0.9888
0.2637 -2.5536 -1.1188 0.9889
0.4881 -2.5088 -1.1139 0.9889
0.7145 -2.4717 -1.1213 0.9888
1.2020 -2.4268 -1.1803 0.9883
1.4716 -2.4048 -1.2287 0.9878
1.7917 -2.4146 -1.3104 0.9870
2.1466 -2.4101 -1.4066 0.9860
3.8519 -2.4986 -2.0010 0.9802
4.0598 -2.1456 -2.0012 0.9802
4.2354 -1.7754 -2.0015 0.9802
4.3773 -1.3911 -2.0017 0.9802
4.4844 -0.9955 -2.0019 0.9802
4.5558 -0.5919 -2.0022 0.9802
4.5910 -0.1836 -2.0024 0.9802
4.5896 0.2264 -2.0027 0.9801
4.4775 1.0379 -2.0031 0.9801
4.3676 1.4330 -2.0033 0.9801
4.2229 1.8167 -2.0035 0.9801
4.0446 2.1861 -2.0037 0.9801
1.6259 4.3024 -2.0045 0.9801
0.4298 4.5792 -2.0045 0.9801
0.0200 4.5992 -2.0044 0.9801
3.9275 -1.8081 -2.0014 0.9811
4.1871 -1.0823 -2.0018 0.9811
4.2674 -0.7049 -2.0021 0.9811
4.3257 0.0640 -2.0025 0.9811
4.3033 0.4493 -2.0027 0.9811
4.0323 1.5722 -2.0033 0.9811
3.8765 1.9255 -2.0035 0.9811
3.4735 2.5835 -2.0038 0.9811
2.6668 3.4110 -2.0042 0.9811
1.6695 3.9953 -2.0043 0.9811
0.5531 4.2946 -2.0043 0.9811
0.1681 4.3267 -2.0043 0.9811
-0.9824 4.2165 -2.0040 0.9811
-1.3542 4.1119 -2.0039 0.9811
-3.7134 2.2193 -2.0025 0.9811
-1.3321 0.5017 -0.6589 0.9937
-1.3148 0.2416 -0.6188 0.9941
-1.3338 0.0043 -0.6174 0.9941
-1.3378 -0.1154 -0.6215 0.9941
-3.9038 -1.8522 -2.0001 0.9811
-3.7229 -2.1926 -1.9999 0.9811
-2.7213 -3.3545 -1.9994 0.9811
-2.4114 -3.5836 -1.9994 0.9811
-1.3774 -4.0936 -1.9992 0.9811
-1.0070 -4.2000 -1.9992 0.9811
-0.3673 -2.4966 -1.1681 0.9889
0.5253 -2.4535 -1.1614 0.9890
0.7548 -2.4389 -1.1818 0.9888
0.9929 -2.4197 -1.2107 0.9885
1.2512 -2.4113 -1.2575 0.9881
1.8598 -2.4106 -1.4093 0.9867
2.6821 -2.4254 -1.6738 0.9842
3.1681 -2.3881 -1.8364 0.9827
3.6703 -2.2842 -2.0011 0.9811
4.1452 -1.2323 -2.0018 0.9811
4.3250 -0.0918 -2.0024 0.9811
4.3165 0.2941 -2.0027 0.9811
4.2735 0.6777 -2.0029 0.9811
4.0861 1.4260 -2.0033 0.9811
3.9431 1.7846 -2.0034 0.9811
3.7687 2.1292 -2.0036 0.9811
3.0718 3.0509 -2.0040 0.9811
2.4815 3.5482 -2.0042 0.9811
1.8122 3.9326 -2.0043 0.9811
1.4545 4.0785 -2.0044 0.9811
0.3237 4.3179 -2.0043 0.9811
-0.0624 4.3295 -2.0043 0.9811
-0.4480 4.3065 -2.0042 0.9811
-1.5711 4.0339 -2.0038 0.9811
-1.9242 3.8775 -2.0037 0.9811
-1.3296 0.4214 -0.6456 0.9939
-1.3308 0.1719 -0.6211 0.9941
-1.3282 -0.1862 -0.6208 0.9941
-1.3024 -0.3029 -0.6190 0.9941
-3.3734 -2.6988 -1.9997 0.9811
-3.1192 -2.9885 -1.9996 0.9811
-2.8403 -3.2545 -1.9995 0.9811
-2.5388 -3.4945 -1.9994 0.9811
-1.8780 -3.8895 -1.9993 0.9811
-1.1575 -4.1611 -1.9992 0.9811
-0.5549 -3.0137 -1.4184 0.9866
-0.0089 -2.4814 -1.1486 0.9891
0.4344 -2.4584 -1.1556 0.9891
0.6614 -2.4455 -1.1727 0.9889
1.1424 -2.4101 -1.2346 0.9883
1.4213 -2.4153 -1.2972 0.9877
2.5023 -2.4322 -1.6153 0.9847
3.5856 -2.4147 -2.0010 0.9811
4.0980 -1.3806 -2.0017 0.9811
4.1346 1.2780 -2.0032 0.9811
3.8427 1.9921 -2.0035 0.9811
3.4285 2.6431 -2.0039 0.9811
2.9051 3.2102 -2.0041 0.9811
1.6004 4.0235 -2.0043 0.9811
0.8606 4.2437 -2.0044 0.9811
-0.6765 4.2765 -2.0041 0.9811
-1.0549 4.1989 -2.0040 0.9811
-1.7834 3.9444 -2.0038 0.9811
-2.1277 3.7694 -2.0036 0.9811
-2.7627 3.3312 -2.0032 0.9811
-3.0483 3.0714 -2.0031 0.9811
-3.3096 2.7872 -2.0028 0.9811
-3.7510 2.1549 -2.0024 0.9811
-1.3334 0.4761 -0.6554 0.9938
-1.3132 0.3405 -0.6279 0.9940
-1.3383 0.1008 -0.6212 0.9941
-1.3354 -0.0187 -0.6182 0.9941
-1.3357 -0.1384 -0.6216 0.9941
-1.3106 -0.2555 -0.6181 0.9941
-1.3229 -0.3829 -0.6375 0.9939
-1.3306 -0.5177 -0.6609 0.9937
-3.8712 -1.9193 -2.0001 0.9811
-3.4684 -2.5757 -1.9998 0.9811
-2.9557 -3.1502 -1.9995 0.9811
-2.0168 -3.8194 -1.9993 0.9811
-1.6683 -3.9839 -1.9992 0.9811
-1.3066 -4.1167 -1.9992 0.9811
0.1231 -2.4763 -1.1476 0.9891
0.5691 -2.4511 -1.1647 0.9890
0.8001 -2.4356 -1.1867 0.9888
1.3054 -2.4131 -1.2699 0.9880
3.2585 -2.3693 -1.8649 0.9824
3.8928 -1.8814 -2.0013 0.9811
4.0455 -1.5271 -2.0016 0.9811
4.1660 -1.1606 -2.0018 0.9811
4.3068 -0.4026 -2.0023 0.9811
4.3260 -0.0171 -2.0025 0.9811
4.3108 0.3685 -2.0027 0.9811
3.7314 2.1939 -2.0036 0.9811
3.2831 2.8219 -2.0039 0.9811
3.0187 3.1035 -2.0040 0.9811
2.4200 3.5905 -2.0042 0.9811
1.3840 4.1030 -2.0044 0.9811
1.0128 4.2100 -2.0044 0.9811
0.6335 4.2835 -2.0043 0.9811
0.2492 4.3228 -2.0043 0.9811
-0.1371 4.3277 -2.0042 0.9811
-0.5222 4.2981 -2.0042 0.9811
-0.9032 4.2343 -2.0041 0.9811
-2.3252 3.6507 -2.0035 0.9811
-2.6411 3.4286 -2.0033 0.9811
-3.4530 2.6070 -2.0027 0.9811
-3.6712 2.2886 -2.0025 0.9811
-1.3293 0.5293 -0.6623 0.9937
-1.3344 0.1490 -0.6215 0.9941
-1.3364 0.0294 -0.6187 0.9941
-1.3234 -0.2089 -0.6201 0.9941
-1.3100 -0.3286 -0.6251 0.9941
-1.3336 -0.4643 -0.6537 0.9938
-3.7634 -2.1225 -2.0000 0.9811
-3.5590 -2.4493 -1.9998 0.9811
-2.7837 -3.3029 -1.9995 0.9811
-2.1529 -3.7444 -1.9993 0.9811
-1.4539 -4.0670 -1.9992 0.9811
-0.4172 -2.5078 -1.1768 0.9889
-0.1883 -2.4866 -1.1543 0.9891
0.7060 -2.4425 -1.1769 0.9889
1.1936 -2.4098 -1.2448 0.9882
1.4780 -2.4154 -1.3108 0.9876
1.7898 -2.4120 -1.3903 0.9868
3.0649 -2.4017 -1.8024 0.9830
3.6268 -2.3526 -2.0010 0.9811
4.1213 -1.3097 -2.0017 0.9811
4.3211 0.2131 -2.0026 0.9811
3.9758 1.7104 -2.0034 0.9811
3.8079 2.0581 -2.0036 0.9811
3.1284 2.9928 -2.0040 0.9811
2.8494 3.2599 -2.0041 0.9811
2.5476 3.5010 -2.0042 0.9811
2.2255 3.7143 -2.0043 0.9811
1.8856 3.8979 -2.0043 0.9811
1.5307 4.0505 -2.0043 0.9811
1.1636 4.1709 -2.0044 0.9811
0.4046 4.3111 -2.0043 0.9811
0.0188 4.3299 -2.0043 0.9811
-0.3672 4.3142 -2.0042 0.9811
-0.7502 4.2641 -2.0041 0.9811
3.8440 -1.3693 -2.0016 0.9820
3.9512 -1.0213 -2.0018 0.9820
4.0706 -0.3037 -2.0023 0.9820
4.0819 0.0604 -2.0025 0.9820
4.0071 0.7843 -2.0029 0.9820
3.8049 1.4835 -2.0032 0.9820
3.4816 2.1358 -2.0036 0.9820
3.2776 2.4378 -2.0037 0.9820
1.9051 3.6144 -2.0042 0.9820
1.2331 3.8954 -2.0042 0.9820
0.5219 4.0523 -2.0042 0.9820
0.1586 4.0827 -2.0041 0.9820
-0.2059 4.0804 -2.0041 0.9820
-1.2778 3.8800 -2.0038 0.9820
-1.9461 3.5910 -2.0035 0.9820
-2.2583 3.4030 -2.0034 0.9820
-2.5524 3.1879 -2.0032 0.9820
-2.8261 2.9475 -2.0030 0.9820
-3.0772 2.6836 -2.0028 0.9820
-3.5041 2.0942 -2.0024 0.9820
-1.1588 0.3219 -0.5899 0.9947
-1.1586 -0.3138 -0.5888 0.9947
-1.1359 -0.5389 -0.6167 0.9944
-3.3147 -2.3739 -1.9999 0.9820
-3.0897 -2.6597 -1.9998 0.9820
-2.2757 -3.3819 -1.9995 0.9820
-1.9652 -3.5711 -1.9994 0.9820
-1.2999 -3.8632 -1.9994 0.9820
-0.9504 -3.9637 -1.9994 0.9820
-0.3639 -2.4731 -1.2262 0.9889
0.0795 -2.4531 -1.2040 0.9891
0.2987 -2.4430 -1.2073 0.9891
0.5207 -2.4321 -1.2200 0.9890
0.7494 -2.4213 -1.2433 0.9888
1.2536 -2.4160 -1.3351 0.9879
1.5387 -2.4118 -1.4033 0.9873
1.8715 -2.4257 -1.5029 0.9864
2.2737 -2.4585 -1.6426 0.9852
2.7048 -2.4459 -1.7888 0.9839
3.4636 -2.1555 -2.0011 0.9820
3.6423 -1.8385 -2.0013 0.9820
3.7921 -1.5067 -2.0015 0.9820
4.0002 -0.8096 -2.0020 0.9820
4.0569 -0.4499 -2.0022 0.9820
4.0731 0.2775 -2.0026 0.9820
4.0326 0.6395 -2.0028 0.9820
3.7208 1.6840 -2.0034 0.9820
3.1434 2.6089 -2.0038 0.9820
2.6305 3.1259 -2.0040 0.9820
2.0339 3.5435 -2.0041 0.9820
1.7100 3.7108 -2.0042 0.9820
1.3725 3.8484 -2.0042 0.9820
1.0240 3.9555 -2.0042 0.9820
0.6674 4.0310 -2.0042 0.9820
0.3055 4.0743 -2.0042 0.9820
-0.7832 4.0096 -2.0040 0.9820
-1.1374 3.9236 -2.0038 0.9820
-1.8157 3.6589 -2.0036 0.9820
-2.1344 3.4822 -2.0034 0.9820
-2.4361 3.2778 -2.0033 0.9820
-3.2155 2.5159 -2.0027 0.9820
-1.1195 0.5906 -0.6209 0.9944
-1.1477 0.4801 -0.6103 0.9945
-1.1684 0.2585 -0.5870 0.9947
-1.1891 0.1536 -0.5881 0.9947
-1.1964 0.0469 -0.5873 0.9947
-1.1873 -0.1664 -0.5881 0.9947
-1.1650 -0.2710 -0.5867 0.9947
-3.3981 -2.2531 -2.0000 0.9820
-2.9437 -2.8203 -1.9997 0.9820
-2.0924 -3.4981 -1.9995 0.9820
-1.7723 -3.6706 -1.9994 0.9820
-1.4380 -3.8139 -1.9994 0.9820
-1.0924 -3.9269 -1.9994 0.9820
-0.5240 -2.8459 -1.4194 0.9872
-0.2294 -2.4638 -1.2138 0.9890
-0.0088 -2.4571 -1.2053 0.9891
0.2101 -2.4470 -1.2047 0.9891
1.1454 -2.4164 -1.3117 0.9882
1.7296 -2.4169 -1.4579 0.9868
2.1085 -2.4513 -1.5860 0.9857
2.5165 -2.4459 -1.7214 0.9845
3.5736 -1.9683 -2.0012 0.9820
3.8671 -1.3028 -2.0017 0.9820
3.9683 -0.9530 -2.0019 0.9820
4.0379 -0.5956 -2.0021 0.9820
4.0753 -0.2334 -2.0023 0.9820
4.0803 0.1308 -2.0025 0.9820
4.0528 0.4940 -2.0027 0.9820
3.7788 1.5490 -2.0033 0.9820
3.6260 1.8797 -2.0034 0.9820
3.4443 2.1956 -2.0036 0.9820
3.2351 2.4940 -2.0037 0.9820
3.0002 2.7726 -2.0039 0.9820
1.8424 3.6468 -2.0042 0.9820
1.1657 3.9160 -2.0042 0.9820
0.8121 4.0043 -2.0042 0.9820
0.4519 4.0607 -2.0042 0.9820
0.0882 4.0848 -2.0041 0.9820
-1.3445 3.8574 -2.0038 0.9820
-2.0078 3.5569 -2.0035 0.9820
-2.3166 3.3635 -2.0033 0.9820
-2.6069 3.1434 -2.0032 0.9820
-3.3447 2.3411 -2.0026 0.9820
-3.5396 2.0334 -2.0024 0.9820
-1.1390 0.5254 -0.6153 0.9944
-1.1560 0.4128 -0.6021 0.9945
-1.1961 -0.0168 -0.5868 0.9947
-1.1756 -0.2292 -0.5875 0.9947
-1.1590 -0.3355 -0.5918 0.9946
-1.1523 -0.4483 -0.6065 0.9945
-3.0433 -2.7126 -1.9998 0.9820
-2.7893 -2.9729 -1.9996 0.9820
-2.5131 -3.2095 -1.9996 0.9820
-1.5744 -3.7597 -1.9994 0.9820
-1.2330 -3.8850 -1.9994 0.9820
-0.8819 -3.9795 -1.9994 0.9820
-0.3198 -2.4685 -1.2210 0.9890
-0.0974 -2.4598 -1.2075 0.9891
0.1218 -2.4515 -1.2040 0.9891
0.7946 -2.4188 -1.2489 0.9887
1.3069 -2.4158 -1.3473 0.9878
1.5971 -2.4106 -1.4184 0.9872
2.3504 -2.4550 -1.6671 0.9850
4.0136 -0.7405 -2.0020 0.9820
4.0822 -0.0162 -2.0024 0.9820
3.9422 1.0647 -2.0030 0.9820
3.6912 1.7480 -2.0034 0.9820
-0.8522 3.9954 -2.0039 0.9820
-1.2049 3.9033 -2.0038 0.9820
-1.5479 3.7802 -2.0037 0.9820
-1.8785 3.6269 -2.0036 0.9820
-2.1941 3.4448 -2.0034 0.9820
-2.4922 3.2353 -2.0032 0.9820
-2.7704 3.0000 -2.0031 0.9820
-3.2584 2.4600 -2.0027 0.9820
-1.1277 0.5703 -0.6199 0.9944
-1.1510 0.4583 -0.6077 0.9945
-1.1734 0.2384 -0.5874 0.9947
-1.1568 -0.4027 -0.6008 0.9946
-3.1391 -2.6014 -1.9998 0.9820
-2.8946 -2.8706 -1.9997 0.9820
-2.3387 -3.3386 -1.9995 0.9820
-1.3721 -3.8381 -1.9994 0.9820
-0.4137 -2.4874 -1.2369 0.9888
-0.1865 -2.4623 -1.2113 0.9891
0.0335 -2.4552 -1.2044 0.9891
0.2525 -2.4451 -1.2058 0.9891
0.7007 -2.4240 -1.2377 0.9888
0.9388 -2.4159 -1.2714 0.9885
1.4766 -2.4131 -1.3877 0.9875
1.7965 -2.4210 -1.4788 0.9867
2.1838 -2.4519 -1.6106 0.9855
2.5894 -2.4314 -1.7423 0.9843
3.0337 -2.3773 -1.8906 0.9830
3.4225 -2.2200 -2.0011 0.9820
3.6071 -1.9064 -2.0013 0.9820
3.9842 -0.8845 -2.0019 0.9820
4.0476 -0.5259 -2.0021 0.9820
4.0788 -0.1631 -2.0024 0.9820
4.0775 0.2011 -2.0026 0.9820
4.0438 0.5638 -2.0028 0.9820
3.9778 0.9221 -2.0030 0.9820
3.8802 1.2730 -2.0031 0.9820
3.7516 1.6139 -2.0033 0.9820
3.5931 1.9420 -2.0035 0.9820
3.4060 2.2547 -2.0036 0.9820
3.1917 2.5495 -2.0038 0.9820
2.6886 3.0760 -2.0040 0.9820
2.4039 3.3035 -2.0041 0.9820
1.7793 3.6780 -2.0042 0.9820
1.0980 3.9356 -2.0042 0.9820
0.3818 4.0679 -2.0042 0.9820
0.0177 4.0857 -2.0041 0.9820
-0.7079 4.0236 -2.0040 0.9820
3.5044 -1.6133 -2.0014 0.9828
3.6346 -1.2947 -2.0016 0.9828
3.7360 -0.9657 -2.0018 0.9828
3.8075 -0.6289 -2.0020 0.9828
3.8595 0.0571 -2.0024 0.9828
3.8394 0.4009 -2.0026 0.9828
3.7888 0.7415 -2.0028 0.9828
3.7079 1.0764 -2.0030 0.9828
3.5975 1.4027 -2.0032 0.9828
3.4585 1.7179 -2.0033 0.9827
2.0985 3.2431 -2.0040 0.9827
1.8012 3.4174 -2.0040 0.9827
-0.1946 3.8579 -2.0040 0.9827
-1.2081 3.6685 -2.0037 0.9827
-1.5302 3.5460 -2.0036 0.9827
-1.8400 3.3953 -2.0034 0.9827
-3.1238 2.2678 -2.0026 0.9828
-0.9898 0.5916 -0.5982 0.9948
-1.0365 0.5000 -0.5970 0.9948
-1.0572 0.3982 -0.5860 0.9949
-1.0638 0.2955 -0.5728 0.9950
-1.1045 -0.0953 -0.5751 0.9950
-1.0653 -0.2886 -0.5726 0.9950
-0.9936 -0.5852 -0.5982 0.9948
-3.1343 -2.2447 -2.0000 0.9828
-2.9216 -2.5150 -1.9999 0.9828
-2.6857 -2.7652 -1.9998 0.9828
-1.8582 -3.3768 -1.9996 0.9828
-1.5498 -3.5290 -1.9995 0.9828
-1.2291 -3.6530 -1.9995 0.9828
0.2968 -2.4280 -1.2690 0.9890
0.9917 -2.4167 -1.3552 0.9883
1.2516 -2.4121 -1.4098 0.9878
1.5471 -2.4250 -1.4923 0.9871
2.2693 -2.4537 -1.7339 0.9851
2.8606 -2.5868 -2.0008 0.9828
3.4439 -1.7383 -2.0014 0.9828
3.5856 -1.4246 -2.0016 0.9828
3.6986 -1.0995 -2.0018 0.9828
3.8359 -0.4254 -2.0022 0.9828
3.6456 1.2722 -2.0031 0.9828
2.9720 2.4667 -2.0037 0.9827
2.4871 2.9554 -2.0039 0.9827
1.9230 3.3503 -2.0040 0.9827
1.6168 3.5084 -2.0041 0.9827
1.2976 3.6386 -2.0041 0.9827
0.6310 3.8112 -2.0041 0.9827
0.2888 3.8522 -2.0040 0.9827
-0.7405 3.7910 -2.0038 0.9827
-1.4016 3.5989 -2.0036 0.9827
-1.7167 3.4594 -2.0035 0.9827
-2.0181 3.2924 -2.0033 0.9827
-2.3033 3.0992 -2.0032 0.9828
-2.5701 2.8813 -2.0030 0.9828
-3.0403 2.3788 -2.0027 0.9828
-1.0193 0.5377 -0.5979 0.9948
-1.0627 0.3368 -0.5783 0.9950
-1.0804 0.2390 -0.5740 0.9950
-1.1066 0.0434 -0.5745 0.9950
-1.1064 -0.0554 -0.5747 0.9950
-1.0980 -0.1539 -0.5752 0.9950
-1.0620 -0.3493 -0.5800 0.9950
-1.0137 -0.5489 -0.5980 0.9948
-3.2131 -2.1305 -2.0001 0.9828
-3.0103 -2.4083 -1.9999 0.9828
-2.7835 -2.6668 -1.9998 0.9828
-1.3598 -3.6064 -1.9995 0.9828
-0.4960 -2.6937 -1.4209 0.9877
-0.2286 -2.4557 -1.2795 0.9889
0.4290 -2.4276 -1.2789 0.9890
0.8918 -2.4176 -1.3368 0.9885
1.1442 -2.4140 -1.3859 0.9880
1.4232 -2.4185 -1.4558 0.9874
1.7441 -2.4373 -1.5548 0.9866
2.7655 -2.6879 -2.0007 0.9828
2.9943 -2.4310 -2.0009 0.9828
3.1994 -2.1546 -2.0011 0.9828
3.5318 -1.5527 -2.0015 0.9828
3.7521 -0.9011 -2.0019 0.9828
3.8179 -0.5632 -2.0021 0.9828
3.8533 -0.2207 -2.0023 0.9828
3.8580 0.1236 -2.0025 0.9828
3.7755 0.8068 -2.0029 0.9828
3.6889 1.1402 -2.0030 0.9828
3.5729 1.4645 -2.0032 0.9828
3.4284 1.7773 -2.0034 0.9827
3.2566 2.0759 -2.0035 0.9827
3.0588 2.3581 -2.0036 0.9827
2.5918 2.8640 -2.0038 0.9827
2.3263 3.0837 -2.0039 0.9827
1.1022 3.7025 -2.0041 0.9827
0.7678 3.7860 -2.0041 0.9827
0.0834 3.8620 -2.0040 0.9827
-0.2612 3.8540 -2.0039 0.9827
-0.9412 3.7461 -2.0038 0.9827
-1.2712 3.6471 -2.0037 0.9827
-1.8983 3.3630 -2.0034 0.9827
-2.4648 2.9721 -2.0031 0.9828
-2.7197 2.7403 -2.0029 0.9828
-2.9528 2.4868 -2.0027 0.9828
-3.1624 2.2135 -2.0025 0.9828
-0.9999 0.5744 -0.5982 0.9948
-1.0595 0.3783 -0.5836 0.9949
-1.1063 -0.0155 -0.5740 0.9950
-1.1029 -0.1143 -0.5752 0.9950
-1.0637 -0.3079 -0.5745 0.9950
-1.0554 -0.4106 -0.5875 0.9949
-1.0316 -0.5114 -0.5973 0.9948
-0.9832 -0.6022 -0.5981 0.9948
-3.0951 -2.2984 -2.0000 0.9828
-2.8777 -2.5650 -1.9999 0.9828
-2.6375 -2.8111 -1.9998 0.9828
-1.7997 -3.4084 -1.9996 0.9828
-1.1659 -3.6737 -1.9995 0.9828
-0.8339 -3.7630 -1.9995 0.9828
-0.3189 -2.4618 -1.2878 0.9889
-0.0970 -2.4486 -1.2713 0.9890
0.5637 -2.4278 -1.2930 0.9888
1.0403 -2.4157 -1.3645 0.9882
1.3048 -2.4119 -1.4226 0.9877
1.9696 -2.4638 -1.6364 0.9859
2.9048 -2.5371 -2.0008 0.9828
3.1197 -2.2683 -2.0010 0.9828
3.3097 -1.9814 -2.0012 0.9828
3.4735 -1.6787 -2.0014 0.9828
3.6097 -1.3626 -2.0016 0.9828
3.7171 -1.0355 -2.0018 0.9828
3.6231 1.3350 -2.0031 0.9828
3.3291 1.9573 -2.0034 0.9827
2.4358 2.9979 -2.0039 0.9827
1.8649 3.3830 -2.0040 0.9827
1.2347 3.6604 -2.0041 0.9827
0.9035 3.7559 -2.0041 0.9827
0.2223 3.8566 -2.0040 0.9827
-0.1223 3.8609 -2.0040 0.9827
-0.8058 3.7776 -2.0038 0.9827
-2.0745 3.2570 -2.0033 0.9827
-2.3564 3.0589 -2.0032 0.9828
-2.6194 2.8365 -2.0030 0.9828
-2.8615 2.5915 -2.0028 0.9828
-0.9783 0.6099 -0.5981 0.9948
-1.0635 0.3170 -0.5757 0.9950
-1.0852 0.2205 -0.5745 0.9950
-1.1020 0.1231 -0.5752 0.9950
-1.0717 -0.2688 -0.5732 0.9950
-1.6157 -3.4993 -1.9995 0.9828
-1.2974 -3.6293 -1.9995 0.9828
-0.4140 -2.4886 -1.3088 0.9887
0.0333 -2.4408 -1.2663 0.9891
0.4725 -2.4287 -1.2836 0.9889
1.1952 -2.4131 -1.3970 0.9879
1.4817 -2.4214 -1.4727 0.9873
2.1881 -2.4567 -1.7067 0.9853
3.4107 -1.8026 -2.0013 0.9828
3.5581 -1.4916 -2.0015 0.9828
3.6773 -1.1686 -2.0017 0.9828
3.7672 -0.8363 -2.0019 0.9828
3.8554 0.1902 -2.0025 0.9828
3.7611 0.8718 -2.0029 0.9828
3.6687 1.2037 -2.0031 0.9828
3.5471 1.5260 -2.0032 0.9827
3.3973 1.8362 -2.0034 0.9827
2.5420 2.9083 -2.0039 0.9827
2.2728 3.1234 -2.0039 0.9827
1.9854 3.3136 -2.0040 0.9827
1.3656 3.6136 -2.0041 0.9827
1.0381 3.7210 -2.0041 0.9827
0.3610 3.8461 -2.0040 0.9827
-0.3276 3.8489 -2.0039 0.9827
3.4427 -1.2263 -2.0016 0.9835
3.6556 0.0541 -2.0024 0.9835
3.5120 1.0195 -2.0029 0.9835
3.4074 1.3285 -2.0031 0.9835
3.1179 1.9127 -2.0034 0.9835
2.9352 2.1831 -2.0035 0.9835
2.5012 2.6698 -2.0037 0.9835
1.7060 3.2367 -2.0039 0.9835
1.4107 3.3759 -2.0039 0.9835
1.1042 3.4882 -2.0040 0.9835
0.7889 3.5728 -2.0040 0.9835
0.4674 3.6288 -2.0039 0.9835
0.1421 3.6560 -2.0039 0.9835
-0.1843 3.6540 -2.0038 0.9835
-0.5093 3.6229 -2.0038 0.9835
-0.8301 3.5629 -2.0037 0.9835
-1.1443 3.4746 -2.0036 0.9835
-1.7428 3.2158 -2.0033 0.9835
-2.0223 3.0475 -2.0032 0.9835
-2.7558 2.4033 -2.0027 0.9835
-0.9067 0.5419 -0.5785 0.9952
-1.0117 0.1859 -0.5634 0.9953
-1.0250 0.0950 -0.5638 0.9953
-1.0271 0.0033 -0.5625 0.9953
-1.0130 -0.1794 -0.5635 0.9953
-0.8566 -0.6135 -0.5771 0.9952
-2.3003 -2.8355 -1.9998 0.9835
-0.3634 -2.4696 -1.3672 0.9887
-0.1394 -2.4506 -1.3444 0.9889
0.0788 -2.4304 -1.3319 0.9890
0.3055 -2.4991 -1.3790 0.9886
1.2595 -2.4274 -1.4978 0.9876
1.5755 -2.4694 -1.6043 0.9867
1.9020 -2.4653 -1.7054 0.9859
2.4802 -2.6817 -2.0007 0.9835
2.7096 -2.4502 -2.0008 0.9835
2.9174 -2.1992 -2.0010 0.9835
3.5033 -1.0414 -2.0018 0.9835
3.5825 -0.7251 -2.0020 0.9835
3.6333 -0.4030 -2.0021 0.9835
3.6551 -0.0775 -2.0023 0.9835
3.4529 1.2050 -2.0030 0.9835
3.1846 1.7992 -2.0033 0.9835
3.0118 2.0760 -2.0035 0.9835
2.8149 2.3363 -2.0036 0.9835
1.5313 3.3229 -2.0039 0.9835
1.2290 3.4462 -2.0040 0.9835
0.9170 3.5421 -2.0040 0.9835
0.2736 3.6485 -2.0039 0.9835
-0.3785 3.6389 -2.0038 0.9835
-0.7013 3.5906 -2.0037 0.9835
-1.3275 3.4086 -2.0035 0.9835
-1.6260 3.2766 -2.0034 0.9835
-2.1816 2.9354 -2.0031 0.9835
-0.9337 0.4926 -0.5782 0.9952
-0.9670 0.4045 -0.5741 0.9952
-0.9797 0.3105 -0.5629 0.9953
-1.0211 0.1319 -0.5639 0.9953
-1.0276 0.0403 -0.5632 0.9953
-0.9788 -0.3220 -0.5644 0.9953
-0.9286 -0.5028 -0.5784 0.9952
-2.8514 -2.2812 -2.0000 0.9835
-1.8742 -3.1333 -1.9997 0.9835
-0.9785 -3.5174 -1.9996 0.9835
-0.4705 -2.5552 -1.4230 0.9882
-0.0087 -2.4318 -1.3319 0.9890
0.4274 -2.4189 -1.3454 0.9889
0.8911 -2.4157 -1.4102 0.9883
1.1480 -2.4219 -1.4680 0.9879
1.4344 -2.4376 -1.5491 0.9872
2.0863 -2.4255 -1.7523 0.9855
2.6195 -2.5461 -2.0008 0.9835
3.4634 -1.1668 -2.0017 0.9835
3.5540 -0.8535 -2.0019 0.9835
3.6163 -0.5334 -2.0021 0.9835
3.6295 0.4424 -2.0026 0.9835
3.4939 1.0799 -2.0030 0.9835
3.3841 1.3871 -2.0031 0.9835
3.2472 1.6834 -2.0033 0.9835
3.0844 1.9662 -2.0034 0.9835
2.8971 2.2334 -2.0035 0.9835
2.4548 2.7126 -2.0037 0.9835
1.9343 3.1055 -2.0039 0.9835
1.6499 3.2657 -2.0039 0.9835
1.3523 3.3998 -2.0039 0.9835
0.7272 3.5858 -2.0040 0.9835
0.4047 3.6363 -2.0039 0.9835
-0.2473 3.6502 -2.0038 0.9835
-0.5717 3.6135 -2.0038 0.9835
-1.2040 3.4543 -2.0036 0.9835
-1.7980 3.1853 -2.0033 0.9835
-2.0746 3.0121 -2.0032 0.9835
-2.3346 2.8150 -2.0030 0.9835
-2.5760 2.5955 -2.0029 0.9835
-2.7968 2.3554 -2.0027 0.9835
-0.9761 0.3485 -0.5676 0.9953
-0.9926 0.2574 -0.5616 0.9953
-1.0263 0.0773 -0.5637 0.9953
-1.0274 -0.0144 -0.5628 0.9953
-1.0240 -0.1061 -0.5639 0.9953
-0.9834 -0.2847 -0.5607 0.9953
-2.9318 -2.1772 -2.0001 0.9835
-2.7259 -2.4297 -2.0000 0.9835
-2.4984 -2.6628 -1.9999 0.9835
-1.9858 -3.0639 -1.9997 0.9835
-0.3188 -2.4611 -1.3592 0.9887
0.1235 -2.4856 -1.3630 0.9887
0.3386 -2.4217 -1.3393 0.9889
0.5637 -2.4277 -1.3650 0.9887
0.7943 -2.4180 -1.3940 0.9885
1.3148 -2.4304 -1.5134 0.9875
1.6335 -2.4655 -1.6199 0.9866
1.9689 -2.4629 -1.7270 0.9857
2.5261 -2.6386 -2.0007 0.9835
2.9550 -2.1486 -2.0010 0.9835
3.1350 -1.8768 -2.0012 0.9835
3.6397 -0.3402 -2.0022 0.9835
3.6559 -0.0145 -2.0024 0.9835
3.6430 0.3114 -2.0026 0.9835
3.6011 0.6349 -2.0027 0.9835
3.4317 1.2644 -2.0031 0.9835
2.9755 2.1277 -2.0035 0.9835
2.7742 2.3845 -2.0036 0.9835
1.7663 3.2041 -2.0039 0.9835
1.4737 3.3489 -2.0039 0.9835
1.1694 3.4669 -2.0040 0.9835
0.8558 3.5574 -2.0040 0.9835
0.5353 3.6194 -2.0039 0.9835
-0.1158 3.6568 -2.0039 0.9835
-0.4413 3.6318 -2.0038 0.9835
-1.6822 3.2480 -2.0034 0.9835
-2.9181 2.2031 -2.0026 0.9835
-1.0232 0.1143 -0.5639 0.9953
-1.0276 0.0226 -0.5629 0.9953
-0.9951 -0.2496 -0.5619 0.9953
-0.9770 -0.3401 -0.5666 0.9953
-0.9596 -0.4334 -0.5767 0.9952
-0.9200 -0.5189 -0.5785 0.9952
-2.5926 -2.5712 -1.9999 0.9835
-2.3531 -2.7919 -1.9998 0.9835
-1.8199 -3.1652 -1.9997 0.9835
-1.5305 -3.3147 -1.9997 0.9835
-1.2290 -3.4379 -1.9996 0.9835
0.0332 -2.4265 -1.3291 0.9890
0.4714 -2.4232 -1.3521 0.9888
0.6999 -2.4213 -1.3804 0.9886
1.2009 -2.4245 -1.4818 0.9877
1.4971 -2.4466 -1.5710 0.9870
1.8312 -2.4678 -1.6831 0.9861
2.1667 -2.4327 -1.7843 0.9853
2.6631 -2.5005 -2.0008 0.9835
3.0653 -1.9883 -2.0011 0.9835
3.3703 -1.4128 -2.0015 0.9835
3.4831 -1.1069 -2.0017 0.9835
3.6529 -0.1461 -2.0023 0.9835
3.6214 0.5049 -2.0027 0.9835
3.5623 0.8257 -2.0028 0.9835
3.4748 1.1401 -2.0030 0.9835
3.3597 1.4453 -2.0032 0.9835
3.2177 1.7391 -2.0033 0.9835
2.6435 2.5289 -2.0037 0.9835
2.1527 2.9583 -2.0038 0.9835
0.6652 3.5978 -2.0040 0.9835
0.3419 3.6428 -2.0039 0.9835
0.0159 3.6587 -2.0039 0.9835
-0.3103 3.6454 -2.0038 0.9835
-0.6339 3.6031 -2.0037 0.9835
1.8823 -0.6705 -1.1536 0.9908
2.0228 -0.3341 -1.1837 0.9906
2.0361 -0.1519 -1.1788 0.9906
2.0368 0.2127 -1.1824 0.9906
2.0049 0.3924 -1.1795 0.9906
1.9376 0.5625 -1.1649 0.9907
1.8662 0.7276 -1.1565 0.9908
2.9576 1.8144 -2.0033 0.9841
2.5888 2.3109 -2.0035 0.9841
2.1376 2.7341 -2.0037 0.9841
1.8854 2.9138 -2.0038 0.9841
0.1348 3.4681 -2.0038 0.9841
-0.1749 3.4662 -2.0037 0.9841
-0.4831 3.4367 -2.0037 0.9841
-0.7874 3.3798 -2.0036 0.9841
-1.0855 3.2960 -2.0035 0.9841
-2.1683 2.7082 -2.0030 0.9841
-2.4008 2.5040 -2.0028 0.9841
-0.8348 0.4989 -0.5615 0.9955
-0.9197 0.2555 -0.5511 0.9956
-0.9551 0.0886 -0.5538 0.9956
-0.9571 0.0031 -0.5526 0.9956
-0.9217 -0.2497 -0.5513 0.9956
-0.9016 -0.3330 -0.5549 0.9956
-0.8770 -0.4161 -0.5604 0.9955
-0.7943 -0.5689 -0.5641 0.9955
-2.6254 -2.2601 -2.0001 0.9841
-2.4135 -2.4850 -2.0000 0.9841
-2.1823 -2.6901 -1.9999 0.9841
-1.1046 -3.2828 -1.9997 0.9841
-0.8076 -3.3682 -1.9997 0.9841
-0.3648 -2.4792 -1.4468 0.9885
-0.1391 -2.4444 -1.4136 0.9888
0.0792 -2.4440 -1.4118 0.9888
0.5192 -2.4252 -1.4319 0.9886
1.2828 -2.4723 -1.6081 0.9872
1.8823 -2.4398 -1.7791 0.9859
2.3529 -2.5441 -2.0007 0.9841
2.7677 -2.0863 -2.0010 0.9841
3.0946 -1.5620 -2.0014 0.9841
1.9324 -0.5744 -1.1639 0.9907
2.0280 -0.0430 -1.1711 0.9907
2.0359 0.1387 -1.1782 0.9906
1.9638 0.4942 -1.1691 0.9907
1.8889 0.6592 -1.1551 0.9908
1.8520 0.8382 -1.1737 0.9907
3.0209 1.7067 -2.0033 0.9841
2.2345 2.6553 -2.0037 0.9841
1.4526 3.1521 -2.0038 0.9841
0.2595 3.4610 -2.0038 0.9841
-0.0500 3.4703 -2.0038 0.9841
-0.3591 3.4519 -2.0037 0.9841
-0.6653 3.4060 -2.0036 0.9841
-0.9662 3.3330 -2.0035 0.9841
-2.3092 2.5889 -2.0029 0.9841
-2.5306 2.3725 -2.0027 0.9841
-0.8159 0.5284 -0.5612 0.9955
-0.8930 0.3735 -0.5589 0.9955
-0.9344 0.2067 -0.5525 0.9956
-0.9512 0.1229 -0.5537 0.9956
-0.9573 -0.0479 -0.5534 0.9956
-0.9497 -0.1331 -0.5537 0.9956
-0.9061 -0.2980 -0.5507 0.9956
-0.8896 -0.3835 -0.5593 0.9955
-0.7689 -0.6151 -0.5685 0.9955
-2.5014 -2.3965 -2.0000 0.9841
-1.7781 -2.9726 -1.9998 0.9841
-0.4632 -2.5158 -1.4769 0.9883
-0.2286 -2.4559 -1.4240 0.9887
0.4479 -2.5346 -1.4860 0.9882
0.8968 -2.4310 -1.4960 0.9881
1.1572 -2.4412 -1.5598 0.9876
1.4583 -2.4781 -1.6601 0.9868
1.7566 -2.4547 -1.7427 0.9862
2.6907 -2.1845 -2.0010 0.9841
3.0363 -1.6723 -2.0013 0.9841
1.8558 -0.8159 -1.1704 0.9907
1.8998 -0.6400 -1.1574 0.9908
1.9705 -0.4733 -1.1700 0.9907
2.0290 -0.2993 -1.1841 0.9906
2.0354 -0.1166 -1.1771 0.9906
2.0349 0.2480 -1.1835 0.9906
1.9231 0.5944 -1.1622 0.9907
1.8629 0.7636 -1.1624 0.9907
2.9259 1.8652 -2.0033 0.9841
2.0901 2.7706 -2.0037 0.9841
1.8349 2.9459 -2.0038 0.9841
1.5651 3.0978 -2.0038 0.9841
0.9902 3.3265 -2.0038 0.9841
0.3839 3.4494 -2.0038 0.9841
-0.5423 3.4278 -2.0037 0.9841
-1.4296 3.1618 -2.0034 0.9841
-1.7056 3.0216 -2.0032 0.9841
-2.2146 2.6704 -2.0030 0.9841
-2.4436 2.4622 -2.0028 0.9841
-0.7991 0.5593 -0.5632 0.9955
-0.8433 0.4845 -0.5615 0.9955
-0.9032 0.3225 -0.5537 0.9956
-0.9248 0.2398 -0.5516 0.9956
-0.9456 0.1569 -0.5534 0.9956
-0.9563 0.0721 -0.5537 0.9956
-0.9574 -0.0134 -0.5528 0.9956
-0.9402 -0.1833 -0.5530 0.9956
-0.9163 -0.2652 -0.5507 0.9956
-0.8293 -0.5079 -0.5615 0.9955
-2.3702 -2.5262 -2.0000 0.9841
-2.1355 -2.7273 -1.9999 0.9841
-1.8839 -2.9067 -1.9998 0.9841
-1.0478 -3.3014 -1.9997 0.9841
-0.3191 -2.4630 -1.4339 0.9886
-0.0964 -2.4329 -1.4058 0.9888
0.3414 -2.4421 -1.4237 0.9887
0.7981 -2.4295 -1.4764 0.9883
