ply
format ascii 1.0
element vertex 1598
property float32 x
property float32 y
property float32 z
property float32 I
end_header
-3.1598 5.6959 -2.0035 0.9731
-4.5581 4.6561 -2.0041 0.9731
-4.9562 4.2308 -2.0043 0.9731
-5.3147 3.7716 -2.0045 0.9731
-5.6307 3.2821 -2.0046 0.9731
-6.1255 2.2283 -2.0048 0.9731
-6.3002 1.6724 -2.0049 0.9731
-6.4246 1.1031 -2.0050 0.9731
-6.4040 -1.2162 -2.0049 0.9731
-5.8517 -2.8698 -2.0046 0.9731
-5.5716 -3.3807 -2.0045 0.9731
-5.2470 -3.8644 -2.0043 0.9731
-4.8805 -4.3172 -2.0041 0.9731
-4.4749 -4.7353 -2.0039 0.9731
-3.5603 -5.4546 -2.0035 0.9731
-2.5325 -5.9995 -2.0030 0.9731
-1.9863 -6.2009 -2.0027 0.9731
-1.4244 -6.3526 -2.0024 0.9731
-0.2715 -6.5029 -2.0019 0.9731
0.3097 -6.4878 -1.9978 0.9732
0.8824 -6.3943 -1.9854 0.9733
1.4117 -6.1239 -1.9330 0.9740
3.0003 -5.5600 -1.9432 0.9739
3.5740 -5.4046 -1.9929 0.9732
4.0509 -5.0745 -1.9971 0.9732
4.4934 -4.6983 -1.9996 0.9732
5.2567 -3.8232 -1.9992 0.9732
5.5767 -3.3382 -1.9991 0.9732
5.8522 -2.8267 -1.9990 0.9732
6.0809 -2.2926 -1.9989 0.9732
6.2611 -1.7403 -1.9988 0.9732
6.3913 -1.1742 -1.9987 0.9732
6.4706 -0.5987 -1.9987 0.9732
5.5958 3.3067 -1.9992 0.9732
5.2785 3.7936 -1.9993 0.9732
4.9191 4.2502 -1.9995 0.9732
4.0853 5.0586 -1.9999 0.9732
3.6176 5.4038 -2.0002 0.9732
2.5992 5.9627 -2.0007 0.9731
2.0566 6.1718 -2.0009 0.9731
0.9261 6.4410 -2.0015 0.9731
0.3472 6.4989 -2.0018 0.9731
-1.9513 6.2125 -2.0029 0.9731
-3.0262 5.7678 -2.0034 0.9731
-3.5296 5.4751 -2.0036 0.9731
-4.0049 5.1386 -2.0039 0.9731
-4.8562 4.3450 -2.0043 0.9731
-5.5526 3.4123 -2.0046 0.9731
-6.0718 2.3703 -2.0048 0.9731
-6.4306 -1.0666 -2.0049 0.9731
-6.3095 -1.6366 -2.0049 0.9731
-6.1378 -2.1935 -2.0048 0.9731
-5.3357 -3.7412 -2.0044 0.9731
-4.5842 -4.6299 -2.0040 0.9731
-3.6866 -5.3704 -2.0036 0.9731
-1.0014 -6.4322 -2.0022 0.9731
-0.4229 -6.4950 -2.0020 0.9731
0.1586 -6.4976 -1.9991 0.9732
0.7365 -6.4420 -1.9943 0.9732
2.8536 -5.5964 -1.9322 0.9741
3.4302 -5.4596 -1.9832 0.9734
4.3829 -4.8018 -1.9997 0.9732
5.1663 -3.9447 -1.9993 0.9732
5.7848 -2.9623 -1.9990 0.9732
6.0259 -2.4337 -1.9989 0.9732
6.4960 -0.1698 -1.9987 0.9732
6.4852 0.4110 -1.9987 0.9732
6.4227 0.9886 -1.9988 0.9732
6.3090 1.5583 -1.9988 0.9732
5.9317 2.6561 -1.9990 0.9732
5.0166 4.1343 -1.9995 0.9732
4.2019 4.9619 -1.9999 0.9732
3.7425 5.3179 -2.0001 0.9732
3.2530 5.6316 -2.0004 0.9732
2.7374 5.9003 -2.0006 0.9731
2.1998 6.1220 -2.0009 0.9731
1.6445 6.2949 -2.0011 0.9731
1.0759 6.4175 -2.0014 0.9731
-0.0830 6.5083 -2.0020 0.9731
-0.6640 6.4758 -2.0023 0.9731
-1.2399 6.3915 -2.0025 0.9731
-1.8060 6.2561 -2.0028 0.9731
-2.3578 6.0706 -2.0031 0.9731
-3.8840 5.2304 -2.0038 0.9731
-4.3361 4.8631 -2.0040 0.9731
-4.7535 4.4569 -2.0042 0.9731
-5.4715 3.5407 -2.0045 0.9731
-5.7662 3.0381 -2.0047 0.9731
-6.3661 1.4012 -2.0050 0.9731
-6.4660 0.8270 -2.0050 0.9731
-6.5140 0.2463 -2.0050 0.9731
-6.5100 -0.3365 -2.0050 0.9731
-6.1873 -2.0499 -2.0048 0.9731
-5.0765 -4.0853 -2.0042 0.9731
-4.2679 -4.9223 -2.0038 0.9731
-3.3234 -5.6017 -2.0034 0.9731
-2.8095 -5.8754 -2.0031 0.9731
-2.2732 -6.1020 -2.0029 0.9731
-1.1511 -6.4073 -2.0023 0.9731
0.0072 -6.5041 -2.0005 0.9731
0.5865 -6.4612 -1.9955 0.9732
1.6618 -6.0190 -1.9206 0.9742
2.1799 -5.8125 -1.9094 0.9744
3.2768 -5.4956 -1.9680 0.9736
3.8057 -5.2516 -1.9948 0.9732
4.2699 -4.9027 -1.9997 0.9732
4.6902 -4.5014 -1.9995 0.9732
5.7143 -3.0963 -1.9990 0.9732
5.9677 -2.5735 -1.9989 0.9732
6.1734 -2.0302 -1.9988 0.9732
6.3298 -1.4707 -1.9988 0.9732
6.4902 -0.3211 -1.9987 0.9732
6.4930 0.2598 -1.9987 0.9732
6.4440 0.8386 -1.9987 0.9732
6.3435 1.4108 -1.9988 0.9732
5.9919 2.5171 -1.9990 0.9732
5.1115 4.0162 -1.9994 0.9732
4.7328 4.4571 -1.9996 0.9732
4.3163 4.8625 -1.9998 0.9732
3.8652 5.2291 -2.0001 0.9732
2.8740 5.8348 -2.0005 0.9731
2.3417 6.0689 -2.0008 0.9731
1.2250 6.3904 -2.0013 0.9731
0.6495 6.4752 -2.0016 0.9731
-1.6597 6.2963 -2.0027 0.9731
-2.7540 5.9021 -2.0033 0.9731
-3.2705 5.6333 -2.0035 0.9731
-5.0380 4.1333 -2.0043 0.9731
-5.3874 3.6672 -2.0045 0.9731
-5.6938 3.1716 -2.0047 0.9731
-6.1678 2.1083 -2.0049 0.9731
-6.3317 1.5491 -2.0049 0.9731
-6.4449 0.9774 -2.0050 0.9731
-6.5065 0.3980 -2.0050 0.9731
-6.4734 -0.7659 -2.0050 0.9731
-6.0381 -2.4542 -2.0047 0.9731
-5.7945 -2.9834 -2.0046 0.9731
-5.5045 -3.4887 -2.0045 0.9731
-5.1705 -3.9660 -2.0043 0.9731
-4.7951 -4.4115 -2.0041 0.9731
-4.3816 -4.8216 -2.0039 0.9731
-1.8648 -6.2383 -2.0027 0.9731
-1.3001 -6.3790 -2.0024 0.9731
-0.7251 -6.4687 -2.0021 0.9731
0.4361 -6.4771 -1.9967 0.9732
2.0430 -5.8590 -1.9085 0.9744
3.1255 -5.5309 -1.9540 0.9738
3.6803 -5.3360 -1.9938 0.9732
4.1516 -4.9973 -1.9983 0.9732
4.9771 -4.1813 -1.9994 0.9732
5.6407 -3.2287 -1.9991 0.9732
6.2938 -1.6178 -1.9988 0.9732
6.4810 -0.4723 -1.9987 0.9732
6.4973 0.1084 -1.9987 0.9732
6.2366 1.8270 -1.9989 0.9732
6.0488 2.3768 -1.9990 0.9732
4.8353 4.3455 -1.9996 0.9732
3.5116 5.4736 -2.0002 0.9732
2.4824 6.0125 -2.0007 0.9731
1.3736 6.3599 -2.0013 0.9731
0.8002 6.4581 -2.0016 0.9731
-0.3616 6.4992 -2.0021 0.9731
-0.9407 6.4419 -2.0024 0.9731
-1.5124 6.3330 -2.0027 0.9731
-2.6157 5.9645 -2.0032 0.9731
-3.1383 5.7078 -2.0034 0.9731
-4.1046 5.0596 -2.0039 0.9731
-4.5405 4.6733 -2.0041 0.9731
6.0123 0.1231 -1.9989 0.9750
5.9774 0.6595 -1.9990 0.9750
5.8947 1.1908 -1.9990 0.9750
5.7650 1.7125 -1.9991 0.9750
5.3689 2.7111 -1.9993 0.9750
5.1057 3.1799 -1.9994 0.9750
4.8017 3.6235 -1.9996 0.9750
3.6705 4.7680 -2.0001 0.9750
3.2303 5.0773 -2.0004 0.9750
1.2488 5.8898 -2.0013 0.9749
0.7179 5.9786 -2.0016 0.9749
-0.8929 5.9573 -2.0024 0.9749
-1.4216 5.8545 -2.0026 0.9749
-1.9390 5.7049 -2.0029 0.9749
-2.4410 5.5096 -2.0031 0.9749
-2.9237 5.2701 -2.0033 0.9749
-3.3830 4.9885 -2.0036 0.9749
-3.8154 4.6669 -2.0038 0.9749
-5.2096 3.0366 -2.0044 0.9749
-5.4603 2.5594 -2.0045 0.9749
-5.8290 1.5473 -2.0047 0.9749
-5.9440 1.0206 -2.0047 0.9749
-6.0115 0.4856 -2.0048 0.9749
-6.0019 -0.5916 -2.0047 0.9749
-5.9250 -1.1252 -2.0047 0.9749
-5.8006 -1.6498 -2.0046 0.9749
-5.4141 -2.6551 -2.0044 0.9749
-5.1550 -3.1278 -2.0043 0.9749
-3.2942 -5.0469 -2.0034 0.9749
-2.8300 -5.3204 -2.0031 0.9749
-1.3180 -5.8780 -2.0024 0.9749
0.8228 -5.9622 -2.0007 0.9749
2.3688 -5.5193 -1.9965 0.9750
2.8539 -5.2887 -1.9976 0.9750
3.3191 -5.0191 -2.0002 0.9750
5.1607 -3.0892 -1.9993 0.9750
5.4156 -2.6158 -1.9992 0.9750
5.7941 -1.6105 -1.9990 0.9750
5.9147 -1.0866 -1.9990 0.9750
5.9880 -0.5540 -1.9989 0.9750
6.0135 -0.0170 -1.9989 0.9750
5.9208 1.0531 -1.9990 0.9750
5.8033 1.5777 -1.9991 0.9750
4.5521 3.9331 -1.9997 0.9750
4.1830 4.3243 -1.9999 0.9750
2.8880 5.2801 -2.0005 0.9750
2.4052 5.5176 -2.0008 0.9749
1.9031 5.7111 -2.0010 0.9749
0.8569 5.9600 -2.0015 0.9749
0.3213 6.0135 -2.0018 0.9749
-1.8055 5.7483 -2.0028 0.9749
-2.3119 5.5648 -2.0030 0.9749
-2.8000 5.3367 -2.0033 0.9749
-3.7055 4.7544 -2.0037 0.9749
-4.1157 4.4049 -2.0039 0.9749
-4.4931 4.0201 -2.0041 0.9749
-5.1374 3.1571 -2.0044 0.9749
-5.7913 1.6827 -2.0047 0.9749
-5.9186 1.1588 -2.0047 0.9749
-6.0141 -0.4516 -2.0048 0.9749
-5.9496 -0.9868 -2.0047 0.9749
-5.6788 -2.0294 -2.0046 0.9749
-5.4745 -2.5283 -2.0045 0.9749
-5.2265 -3.0069 -2.0043 0.9749
-4.9367 -3.4615 -2.0042 0.9749
-4.6075 -3.8882 -2.0040 0.9749
-3.8416 -4.6450 -2.0036 0.9749
-3.4110 -4.9689 -2.0034 0.9749
-2.4720 -5.4952 -2.0030 0.9749
-1.9712 -5.6934 -2.0027 0.9749
-1.4546 -5.8459 -2.0025 0.9749
-0.3913 -6.0099 -2.0020 0.9749
0.1469 -6.0200 -2.0017 0.9749
0.6839 -5.9821 -2.0014 0.9749
1.2136 -5.8884 -1.9985 0.9750
3.2001 -5.0933 -1.9995 0.9750
3.6432 -4.7884 -2.0000 0.9750
4.0558 -4.4435 -1.9998 0.9750
4.7809 -3.6505 -1.9995 0.9750
5.3533 -2.7413 -1.9992 0.9750
5.9735 -0.6934 -1.9989 0.9750
6.0115 -0.1571 -1.9989 0.9750
6.0015 0.3804 -1.9989 0.9750
5.9437 0.9148 -1.9990 0.9750
5.8384 1.4420 -1.9990 0.9750
5.6865 1.9578 -1.9991 0.9750
5.2481 2.9385 -1.9993 0.9750
4.2825 4.2256 -1.9998 0.9750
2.5330 5.4599 -2.0007 0.9749
0.4613 6.0042 -2.0017 0.9749
-0.0768 6.0222 -2.0020 0.9749
-1.1472 5.9140 -2.0025 0.9749
-2.6748 5.4003 -2.0032 0.9749
-3.1468 5.1404 -2.0034 0.9749
-5.3350 2.8109 -2.0045 0.9749
-5.5650 2.3233 -2.0046 0.9749
-5.7505 1.8171 -2.0047 0.9749
-5.8900 1.2964 -2.0047 0.9749
-5.9823 0.7652 -2.0048 0.9749
-6.0230 -0.3113 -2.0048 0.9749
-5.9711 -0.8479 -2.0047 0.9749
-5.7246 -1.8966 -2.0046 0.9749
-5.5320 -2.4001 -2.0045 0.9749
-4.6969 -3.7799 -2.0041 0.9749
-4.3402 -4.1839 -2.0039 0.9749
-3.5260 -4.8883 -2.0035 0.9749
-2.5995 -5.4363 -2.0030 0.9749
-1.5905 -5.8106 -2.0025 0.9749
-0.5313 -5.9993 -2.0020 0.9749
0.5444 -5.9966 -2.0015 0.9749
1.0765 -5.9172 -1.9992 0.9750
1.5990 -5.7914 -1.9971 0.9750
2.1089 -5.6231 -1.9963 0.9750
4.3403 -4.1655 -1.9997 0.9750
4.6946 -3.7609 -1.9995 0.9750
5.0114 -3.3264 -1.9994 0.9750
5.8577 -1.3610 -1.9990 0.9750
6.0062 -0.2972 -1.9989 0.9750
5.9634 0.7761 -1.9990 0.9750
5.8704 1.3056 -1.9990 0.9750
5.7305 1.8247 -1.9991 0.9750
5.0428 3.2791 -1.9995 0.9750
4.7301 3.7166 -1.9996 0.9750
4.3797 4.1245 -1.9998 0.9750
2.6595 5.3992 -2.0006 0.9749
2.1669 5.6158 -2.0009 0.9749
1.6569 5.7876 -2.0011 0.9749
1.1336 5.9132 -2.0014 0.9749
0.6010 5.9916 -2.0016 0.9749
-0.4746 6.0045 -2.0022 0.9749
-1.0091 5.9389 -2.0024 0.9749
-2.0501 5.6661 -2.0029 0.9749
-2.5482 5.4610 -2.0032 0.9749
-3.9059 4.5917 -2.0038 0.9749
-4.3007 4.2249 -2.0040 0.9749
-4.9845 3.3929 -2.0043 0.9749
-5.2680 2.9344 -2.0044 0.9749
-5.7065 1.9506 -2.0046 0.9749
-5.8581 1.4332 -2.0047 0.9749
-6.0198 0.3682 -2.0048 0.9749
-6.0287 -0.1709 -2.0048 0.9749
-5.9892 -0.7086 -2.0047 0.9749
-5.9019 -1.2406 -2.0047 0.9749
-5.5865 -2.2706 -2.0045 0.9749
-5.3611 -2.7603 -2.0044 0.9749
-4.7838 -3.6695 -2.0041 0.9749
-4.0540 -4.4612 -2.0037 0.9749
-0.1337 -6.0208 -2.0018 0.9749
0.4045 -6.0079 -2.0016 0.9749
1.4639 -5.8282 -1.9975 0.9750
1.9774 -5.6707 -1.9963 0.9750
2.4763 -5.4724 -1.9966 0.9750
3.4163 -4.9532 -2.0001 0.9750
3.8446 -4.6279 -1.9999 0.9750
4.2422 -4.2656 -1.9997 0.9750
5.8244 -1.4971 -1.9990 0.9750
6.0127 0.1004 -1.9989 0.9750
5.9798 0.6369 -1.9990 0.9750
5.5976 2.1995 -1.9992 0.9750
5.3791 2.6907 -1.9993 0.9750
4.8153 3.6053 -1.9996 0.9750
4.4745 4.0213 -1.9997 0.9750
4.0979 4.4052 -1.9999 0.9750
3.2495 5.0651 -2.0003 0.9750
2.2971 5.5636 -2.0008 0.9749
1.7913 5.7473 -2.0011 0.9749
1.2710 5.8850 -2.0013 0.9749
-0.3346 6.0138 -2.0021 0.9749
-1.3994 5.8598 -2.0026 0.9749
-1.9174 5.7121 -2.0029 0.9749
-2.9037 5.2811 -2.0033 0.9749
-4.2010 4.3238 -2.0039 0.9749
5.5770 -0.3852 -1.9991 0.9765
5.5892 0.1144 -1.9991 0.9765
5.5567 0.6131 -1.9992 0.9765
5.4798 1.1070 -1.9992 0.9765
5.3593 1.5920 -1.9993 0.9765
5.1959 2.0643 -1.9994 0.9765
4.9910 2.5202 -1.9995 0.9765
4.7463 2.9561 -1.9996 0.9765
4.1453 3.7539 -1.9999 0.9765
2.5696 4.9696 -2.0007 0.9765
2.1157 5.1798 -2.0009 0.9765
0.1683 5.5954 -2.0018 0.9765
-0.8300 5.5374 -2.0023 0.9765
-1.3214 5.4418 -2.0026 0.9765
-1.8023 5.3026 -2.0028 0.9765
-3.9198 4.0041 -2.0038 0.9765
-4.2621 3.6383 -2.0040 0.9765
-4.8420 2.8224 -2.0042 0.9765
-5.2674 1.9161 -2.0044 0.9765
-5.6053 -0.0494 -2.0046 0.9765
-5.3913 -1.5334 -2.0044 0.9765
-5.0321 -2.4678 -2.0042 0.9765
-4.7913 -2.9072 -2.0041 0.9765
-4.5122 -3.3232 -2.0040 0.9765
-3.0619 -4.6910 -2.0033 0.9765
-2.6304 -4.9452 -2.0031 0.9765
-0.7322 -5.5506 -2.0021 0.9765
-0.2335 -5.5931 -2.0019 0.9765
0.7651 -5.5441 -2.0014 0.9765
1.2570 -5.4530 -2.0012 0.9765
2.2065 -5.1412 -2.0007 0.9765
2.6566 -4.9231 -2.0005 0.9765
3.0853 -4.6657 -2.0003 0.9765
3.4893 -4.3710 -2.0001 0.9765
3.8654 -4.0416 -1.9999 0.9765
4.2106 -3.6799 -1.9998 0.9765
4.5221 -3.2890 -1.9996 0.9765
5.2313 -1.9723 -1.9993 0.9765
5.3863 -1.4972 -1.9992 0.9765
5.5666 -0.5150 -1.9991 0.9765
5.5903 -0.0158 -1.9991 0.9765
5.5694 0.4835 -1.9992 0.9765
5.5041 0.9790 -1.9992 0.9765
5.3948 1.4667 -1.9993 0.9765
5.0483 2.4032 -1.9994 0.9765
4.5408 3.2634 -1.9997 0.9765
4.2316 3.6562 -1.9999 0.9765
3.8885 4.0198 -2.0000 0.9765
3.5143 4.3515 -2.0002 0.9765
3.1119 4.6484 -2.0004 0.9765
2.6846 4.9082 -2.0006 0.9765
2.2358 5.1290 -2.0008 0.9765
0.7965 5.5401 -2.0015 0.9765
-1.1942 5.4709 -2.0025 0.9765
-2.1489 5.1724 -2.0030 0.9765
-2.6025 4.9603 -2.0032 0.9765
-3.4442 4.4191 -2.0036 0.9765
-3.8254 4.0942 -2.0038 0.9765
-4.1761 3.7365 -2.0039 0.9765
-5.0181 2.4964 -2.0043 0.9765
-5.3827 1.5639 -2.0045 0.9765
-5.5752 0.5814 -2.0046 0.9765
-5.6049 0.0812 -2.0046 0.9765
-5.5298 -0.9172 -2.0045 0.9765
-5.2781 -1.8862 -2.0044 0.9765
-4.8578 -2.7948 -2.0042 0.9765
-4.5885 -3.2172 -2.0040 0.9765
-4.2825 -3.6139 -2.0039 0.9765
-3.9423 -3.9816 -2.0037 0.9765
-1.8322 -5.2920 -2.0027 0.9765
0.6357 -5.5606 -2.0015 0.9765
1.6144 -5.3575 -2.0010 0.9765
2.0862 -5.1914 -2.0008 0.9765
2.9759 -4.7364 -2.0003 0.9765
3.7703 -4.1307 -2.0000 0.9765
4.4443 -3.3935 -1.9996 0.9765
5.4734 -1.1380 -1.9992 0.9765
5.2863 1.8200 -1.9993 0.9765
5.1029 2.2849 -1.9994 0.9765
3.9810 3.9281 -2.0000 0.9765
2.7982 4.8442 -2.0006 0.9765
2.3546 5.0753 -2.0008 0.9765
1.4145 5.4145 -2.0012 0.9765
0.9254 5.5198 -2.0015 0.9765
0.4288 5.5811 -2.0017 0.9765
-0.0714 5.5978 -2.0020 0.9765
-1.0664 5.4971 -2.0024 0.9765
-4.0878 3.8327 -2.0039 0.9765
-4.7051 3.0448 -2.0042 0.9765
-5.3447 1.6889 -2.0045 0.9765
-5.4743 1.2049 -2.0045 0.9765
-5.5497 -0.7881 -2.0045 0.9765
-5.4570 -1.2806 -2.0045 0.9765
-5.3206 -1.7627 -2.0044 0.9765
-5.1417 -2.2308 -2.0043 0.9765
-4.9217 -2.6809 -2.0042 0.9765
-4.0341 -3.8887 -2.0037 0.9765
-3.6703 -4.2331 -2.0036 0.9765
-2.8581 -4.8175 -2.0032 0.9765
-2.4162 -5.0530 -2.0029 0.9765
-1.9550 -5.2480 -2.0027 0.9765
-1.4784 -5.4010 -2.0025 0.9765
-0.4938 -5.5765 -2.0020 0.9765
0.5060 -5.5741 -2.0015 0.9765
1.0017 -5.5059 -2.0013 0.9765
2.4245 -5.0418 -2.0006 0.9765
4.3641 -3.4962 -1.9997 0.9765
4.6586 -3.0923 -1.9995 0.9765
4.9158 -2.6637 -1.9994 0.9765
5.3108 -1.7465 -1.9993 0.9765
5.4454 -1.2652 -1.9992 0.9765
5.5366 -0.7738 -1.9992 0.9765
5.5835 -0.2763 -1.9991 0.9765
5.5437 0.7215 -1.9992 0.9765
5.3272 1.6963 -1.9993 0.9765
5.1547 2.1654 -1.9994 0.9765
4.9410 2.6172 -1.9995 0.9765
4.3971 3.4549 -1.9998 0.9765
2.0143 5.2202 -2.0009 0.9765
1.5402 5.3799 -2.0012 0.9765
1.0537 5.4966 -2.0014 0.9765
0.5587 5.5694 -2.0017 0.9765
0.0591 5.5977 -2.0019 0.9765
-0.4412 5.5813 -2.0021 0.9765
-0.9380 5.5203 -2.0024 0.9765
-2.3685 5.0759 -2.0031 0.9765
-2.8127 4.8446 -2.0033 0.9765
-3.2344 4.5745 -2.0035 0.9765
-3.9973 3.9269 -2.0038 0.9765
-4.3324 3.5544 -2.0040 0.9765
-4.6328 3.1535 -2.0041 0.9765
-5.4447 1.3321 -2.0045 0.9765
-5.5421 0.8405 -2.0045 0.9765
-5.6032 -0.1588 -2.0046 0.9765
-5.5666 -0.6586 -2.0045 0.9765
-5.4854 -1.1531 -2.0045 0.9765
-5.1923 -2.1104 -2.0043 0.9765
-4.9829 -2.5655 -2.0042 0.9765
-4.7335 -3.0001 -2.0041 0.9765
-4.4464 -3.4106 -2.0040 0.9765
-4.1237 -3.7938 -2.0038 0.9765
-2.9697 -4.7498 -2.0032 0.9765
-2.5333 -4.9955 -2.0030 0.9765
-1.1182 -5.4864 -2.0023 0.9765
-0.6236 -5.5637 -2.0021 0.9765
-0.1243 -5.5965 -2.0018 0.9765
0.3760 -5.5845 -2.0016 0.9765
0.8731 -5.5280 -2.0013 0.9765
1.3632 -5.4273 -2.0011 0.9765
2.3064 -5.0970 -2.0007 0.9765
3.1758 -4.6044 -2.0002 0.9765
3.5739 -4.3020 -2.0001 0.9765
3.9435 -3.9653 -1.9999 0.9765
4.2816 -3.5970 -1.9997 0.9765
4.5854 -3.2000 -1.9996 0.9765
4.8525 -2.7775 -1.9995 0.9765
5.2687 -1.8698 -1.9993 0.9765
5.4145 -1.3917 -1.9992 0.9765
5.5756 -0.4063 -1.9991 0.9765
5.5590 0.5921 -1.9992 0.9765
5.4840 1.0862 -1.9992 0.9765
5.2036 2.0447 -1.9994 0.9765
4.7574 2.9381 -1.9996 0.9765
4.1595 3.7382 -1.9999 0.9765
3.4287 4.4193 -2.0003 0.9765
3.0206 4.7084 -2.0005 0.9765
0.6883 5.5547 -2.0016 0.9765
-0.3110 5.5899 -2.0021 0.9765
-1.3008 5.4467 -2.0026 0.9765
-2.6989 4.9087 -2.0032 0.9765
-3.1269 4.6485 -2.0034 0.9765
5.0015 1.4857 -1.9994 0.9779
4.6578 2.3520 -1.9996 0.9779
3.1841 4.1363 -2.0004 0.9779
2.8023 4.4045 -2.0006 0.9779
2.3980 4.6377 -2.0008 0.9779
1.9744 4.8338 -2.0010 0.9779
1.5350 4.9913 -2.0012 0.9779
1.0832 5.1090 -2.0014 0.9779
0.1571 5.2214 -2.0018 0.9779
-0.3099 5.2152 -2.0021 0.9779
-0.7745 5.1672 -2.0023 0.9779
-1.6818 4.9481 -2.0027 0.9779
-2.1172 4.7786 -2.0029 0.9779
-4.5181 2.6335 -2.0041 0.9778
-5.0551 1.3419 -2.0043 0.9778
-5.2134 0.4212 -2.0044 0.9778
-5.2302 -0.0461 -2.0044 0.9778
-4.8825 -1.8743 -2.0042 0.9778
-4.6954 -2.3027 -2.0041 0.9778
-4.4707 -2.7127 -2.0040 0.9778
-4.2103 -3.1009 -2.0038 0.9778
-3.9163 -3.4643 -2.0037 0.9779
-3.5909 -3.7999 -2.0035 0.9779
-3.2369 -4.1050 -2.0034 0.9779
-2.8571 -4.3773 -2.0032 0.9779
-2.4545 -4.6145 -2.0030 0.9779
-2.0324 -4.8148 -2.0028 0.9779
-0.2179 -5.2193 -2.0019 0.9779
0.2491 -5.2173 -2.0017 0.9779
0.7140 -5.1737 -2.0014 0.9779
1.6226 -4.9630 -2.0010 0.9779
2.4792 -4.5943 -2.0006 0.9779
2.8793 -4.3541 -2.0004 0.9779
3.2563 -4.0792 -2.0002 0.9779
3.9295 -3.4342 -1.9999 0.9779
4.4772 -2.6801 -1.9996 0.9779
4.6984 -2.2694 -1.9995 0.9779
5.0268 -1.3972 -1.9994 0.9779
5.1314 -0.9427 -1.9994 0.9779
5.1950 -0.4807 -1.9993 0.9779
5.2172 -0.0148 -1.9993 0.9779
5.1977 0.4512 -1.9993 0.9779
5.1367 0.9136 -1.9994 0.9779
5.0347 1.3688 -1.9994 0.9779
4.7113 2.2428 -1.9996 0.9779
4.2377 3.0455 -1.9998 0.9779
2.9041 4.3379 -2.0005 0.9779
2.5053 4.5804 -2.0007 0.9779
1.6508 4.9541 -2.0011 0.9779
0.7433 5.1699 -2.0016 0.9779
-2.8324 4.3937 -2.0033 0.9779
-3.8967 3.4866 -2.0038 0.9779
-4.4554 2.7381 -2.0040 0.9778
-4.6824 2.3293 -2.0041 0.9778
-5.1328 1.0049 -2.0043 0.9778
-5.2298 0.0758 -2.0044 0.9778
-5.2157 -0.3916 -2.0044 0.9778
-4.9249 -1.7600 -2.0042 0.9778
-4.2815 -3.0020 -2.0039 0.9778
-3.6786 -3.7152 -2.0036 0.9779
-3.3318 -4.0286 -2.0034 0.9779
-2.9584 -4.3096 -2.0032 0.9779
-1.7097 -4.9382 -2.0026 0.9779
-1.2617 -5.0706 -2.0024 0.9779
2.3715 -4.6509 -2.0006 0.9779
3.5185 -3.8548 -2.0001 0.9779
3.8485 -3.5249 -1.9999 0.9779
4.4136 -2.7837 -1.9997 0.9779
4.6443 -2.3783 -1.9996 0.9779
4.8379 -1.9539 -1.9995 0.9779
5.1824 -0.6016 -1.9993 0.9779
5.2068 0.3300 -1.9993 0.9779
5.0652 1.2511 -1.9994 0.9779
4.5530 2.5493 -1.9997 0.9779
4.0274 3.3191 -1.9999 0.9779
3.7152 3.6658 -2.0001 0.9779
2.1973 4.7363 -2.0009 0.9779
1.7658 4.9141 -2.0011 0.9779
1.3200 5.0527 -2.0013 0.9779
0.4001 5.2081 -2.0017 0.9779
-0.0666 5.2236 -2.0020 0.9779
-1.4494 5.0208 -2.0026 0.9779
-2.3199 4.6838 -2.0030 0.9779
-4.1188 3.2216 -2.0039 0.9778
-4.3904 2.8411 -2.0040 0.9778
-4.8262 2.0149 -2.0042 0.9778
-5.1881 0.6636 -2.0044 0.9778
-5.2267 0.1976 -2.0044 0.9778
-5.2234 -0.2700 -2.0044 0.9778
-4.5924 -2.5015 -2.0040 0.9778
-3.7642 -3.6286 -2.0036 0.9779
-3.0581 -4.2396 -2.0033 0.9779
-2.6670 -4.4954 -2.0031 0.9779
-2.2546 -4.7151 -2.0029 0.9779
-0.4608 -5.2038 -2.0020 0.9779
0.0058 -5.2236 -2.0018 0.9779
0.4722 -5.2016 -2.0015 0.9779
0.9347 -5.1381 -2.0013 0.9779
2.2625 -4.7050 -2.0007 0.9779
2.6735 -4.4837 -2.0005 0.9779
3.4278 -3.9359 -2.0001 0.9779
3.7654 -3.6137 -2.0000 0.9779
4.9563 -1.6299 -1.9994 0.9779
5.0820 -1.1807 -1.9994 0.9779
5.2130 0.2086 -1.9993 0.9779
5.1736 0.6733 -1.9994 0.9779
5.0930 1.1327 -1.9994 0.9779
4.9716 1.5831 -1.9995 0.9779
4.8106 2.0208 -1.9995 0.9779
4.6111 2.4425 -1.9997 0.9779
4.3748 2.8447 -1.9998 0.9779
3.7995 3.5781 -2.0001 0.9779
3.4650 3.9035 -2.0002 0.9779
2.7158 4.4585 -2.0006 0.9779
1.8797 4.8715 -2.0010 0.9779
0.9833 5.1293 -2.0014 0.9779
-1.7781 4.9144 -2.0028 0.9779
-2.6245 4.5206 -2.0032 0.9779
-3.0181 4.2686 -2.0034 0.9779
-3.7299 3.6642 -2.0037 0.9779
-4.3229 2.9426 -2.0040 0.9778
-5.1712 0.7843 -2.0044 0.9778
-5.2283 -0.1482 -2.0044 0.9778
-5.1183 -1.0759 -2.0043 0.9778
-4.6495 -2.3939 -2.0041 0.9778
-3.1561 -4.1673 -2.0033 0.9779
-2.7711 -4.4321 -2.0031 0.9779
-2.3639 -4.6614 -2.0029 0.9779
-1.9380 -4.8534 -2.0027 0.9779
-1.4966 -5.0066 -2.0025 0.9779
-0.5820 -5.1918 -2.0021 0.9779
0.3509 -5.2113 -2.0016 0.9779
2.9637 -4.2969 -2.0004 0.9779
3.3353 -4.0147 -2.0002 0.9779
3.9957 -3.3568 -1.9999 0.9779
4.2792 -2.9864 -1.9997 0.9779
5.0531 -1.2988 -1.9994 0.9779
5.1488 -0.8424 -1.9993 0.9779
5.2034 -0.3792 -1.9993 0.9779
5.2165 0.0871 -1.9993 0.9779
5.1879 0.5526 -1.9993 0.9779
4.8563 1.9082 -1.9995 0.9779
3.8817 3.4886 -2.0000 0.9779
2.8189 4.3939 -2.0005 0.9779
2.4155 4.6285 -2.0007 0.9779
1.1025 5.1049 -2.0014 0.9779
0.6423 5.1835 -2.0016 0.9779
-0.2902 5.2163 -2.0021 0.9779
-0.7550 5.1701 -2.0023 0.9779
-1.6631 4.9544 -2.0027 0.9779
-2.5184 4.5804 -2.0031 0.9779
-3.2937 4.0601 -2.0035 0.9779
4.8844 0.1000 -1.9995 0.9791
4.7888 0.9674 -1.9995 0.9791
4.6835 1.3912 -1.9996 0.9791
3.6225 3.2804 -2.0001 0.9791
2.2454 4.3425 -2.0008 0.9791
1.8488 4.5262 -2.0010 0.9791
1.4373 4.6737 -2.0012 0.9791
1.0143 4.7838 -2.0014 0.9791
-0.2902 4.8831 -2.0021 0.9791
-0.7252 4.8382 -2.0023 0.9791
-1.5747 4.6329 -2.0027 0.9791
-1.9823 4.4742 -2.0029 0.9791
-2.3742 4.2797 -2.0031 0.9791
-3.4246 3.4982 -2.0036 0.9791
-3.7236 3.1786 -2.0037 0.9791
-4.2301 2.4657 -2.0039 0.9791
-4.4336 2.0782 -2.0040 0.9791
-4.6017 1.6740 -2.0041 0.9791
-4.7329 1.2563 -2.0042 0.9791
-2.1354 0.3666 -0.8867 0.9907
-1.9561 0.1580 -0.8032 0.9916
-1.9578 -0.1930 -0.8052 0.9915
-2.2087 -0.4194 -0.9201 0.9903
-4.7099 -1.3396 -2.0041 0.9791
-4.3961 -2.1559 -2.0039 0.9791
-4.1858 -2.5398 -2.0038 0.9791
-3.9420 -2.9033 -2.0037 0.9791
-3.3621 -3.5577 -2.0034 0.9791
-3.0307 -3.8435 -2.0033 0.9791
-2.6751 -4.0984 -2.0031 0.9791
-0.6397 -4.8498 -2.0021 0.9791
-0.2040 -4.8870 -2.0019 0.9791
0.2332 -4.8852 -2.0017 0.9791
1.0984 -4.7648 -2.0012 0.9791
1.5194 -4.6472 -2.0010 0.9791
1.9281 -4.4925 -2.0009 0.9791
3.6795 -3.2158 -2.0000 0.9791
4.1924 -2.5096 -1.9998 0.9791
4.8051 -0.8828 -1.9995 0.9791
4.8647 -0.4501 -1.9995 0.9791
4.8672 0.4225 -1.9995 0.9791
4.8101 0.8555 -1.9995 0.9791
4.4117 2.1002 -1.9997 0.9791
4.2067 2.4859 -1.9998 0.9791
3.9681 2.8518 -2.0000 0.9791
3.6978 3.1950 -2.0001 0.9791
3.3980 3.5128 -2.0003 0.9791
3.0709 3.8025 -2.0004 0.9791
2.7193 4.0619 -2.0006 0.9791
1.9537 4.4817 -2.0010 0.9791
1.5458 4.6388 -2.0012 0.9791
1.1254 4.7588 -2.0014 0.9791
0.2609 4.8841 -2.0018 0.9791
-0.1763 4.8884 -2.0020 0.9791
-2.2738 4.3338 -2.0030 0.9791
-2.6520 4.1138 -2.0032 0.9791
-3.6484 3.2644 -2.0037 0.9791
-3.9256 2.9257 -2.0038 0.9791
-4.1715 2.5636 -2.0039 0.9791
-4.3840 2.1809 -2.0040 0.9791
-4.5614 1.7807 -2.0041 0.9791
-4.7024 1.3663 -2.0041 0.9791
-4.8057 0.9409 -2.0042 0.9791
-1.9573 0.2041 -0.8054 0.9915
-1.9125 0.0277 -0.7828 0.9918
-1.9539 -0.1467 -0.8019 0.9916
-4.6110 -1.6478 -2.0041 0.9791
-2.7699 -4.0351 -2.0031 0.9791
-2.3983 -4.2660 -2.0029 0.9791
-2.0075 -4.4627 -2.0028 0.9791
-1.6008 -4.6237 -2.0026 0.9791
-1.1814 -4.7477 -2.0024 0.9791
0.5555 -4.8587 -2.0015 0.9791
1.4107 -4.6814 -2.0011 0.9791
1.8230 -4.5363 -2.0009 0.9791
2.6004 -4.1389 -2.0005 0.9791
2.9594 -3.8897 -2.0004 0.9791
3.2947 -3.6096 -2.0002 0.9791
3.6037 -3.3007 -2.0001 0.9791
3.8838 -2.9655 -1.9999 0.9791
4.1329 -2.6066 -1.9998 0.9791
4.3489 -2.2270 -1.9997 0.9791
4.5303 -1.8297 -1.9996 0.9791
4.6754 -1.4177 -1.9996 0.9791
4.8838 -0.1277 -1.9995 0.9791
4.6197 1.5905 -1.9996 0.9791
4.2634 2.3872 -1.9998 0.9791
4.0334 2.7586 -1.9999 0.9791
3.7712 3.1080 -2.0001 0.9791
3.4788 3.4326 -2.0002 0.9791
2.8131 3.9974 -2.0005 0.9791
2.0575 4.4349 -2.0009 0.9791
1.2360 4.7311 -2.0013 0.9791
0.3746 4.8766 -2.0017 0.9791
-0.0624 4.8911 -2.0019 0.9791
-0.4990 4.8665 -2.0022 0.9791
-0.9317 4.8029 -2.0024 0.9791
-1.7717 4.5615 -2.0028 0.9791
-4.1106 2.6600 -2.0039 0.9791
-4.3319 2.2824 -2.0040 0.9791
-4.5186 1.8865 -2.0041 0.9791
-4.7824 1.0526 -2.0042 0.9791
-1.9518 0.2497 -0.8053 0.9915
-1.9324 0.0731 -0.7915 0.9917
-1.9458 -0.2763 -0.8044 0.9915
-4.7673 -1.1187 -2.0041 0.9791
-4.0731 -2.7166 -2.0038 0.9791
-3.8140 -3.0693 -2.0037 0.9791
-3.5244 -3.3974 -2.0035 0.9791
-2.4971 -4.2090 -2.0030 0.9791
-0.8650 -4.8150 -2.0022 0.9791
-0.4315 -4.8725 -2.0020 0.9791
0.0054 -4.8910 -2.0018 0.9791
1.3013 -4.7132 -2.0012 0.9791
1.7168 -4.5777 -2.0010 0.9791
2.1186 -4.4056 -2.0008 0.9791
2.5034 -4.1984 -2.0006 0.9791
3.5258 -3.3838 -2.0001 0.9791
3.8137 -3.0552 -2.0000 0.9791
4.0711 -2.7023 -1.9998 0.9791
4.2959 -2.3278 -1.9997 0.9791
4.6411 -1.5263 -1.9996 0.9791
4.8384 -0.6762 -1.9995 0.9791
4.8795 -0.2414 -1.9995 0.9791
4.5046 1.8923 -1.9997 0.9791
4.3178 2.2872 -1.9998 0.9791
3.2446 3.6552 -2.0003 0.9791
2.9054 3.9307 -2.0005 0.9791
1.7601 4.5615 -2.0011 0.9791
1.3458 4.7009 -2.0013 0.9791
0.0516 4.8910 -2.0019 0.9791
-0.8195 4.8232 -2.0023 0.9791
-1.2471 4.7312 -2.0025 0.9791
-1.6648 4.6014 -2.0027 0.9791
-2.4574 4.2326 -2.0031 0.9791
-3.1717 3.7286 -2.0034 0.9791
-3.4923 3.4307 -2.0036 0.9791
-4.2775 2.3827 -2.0040 0.9791
-4.4734 1.9912 -2.0040 0.9791
-4.6335 1.5838 -2.0041 0.9791
-1.9717 0.2990 -0.8162 0.9914
-1.9474 0.1191 -0.7985 0.9916
-1.9548 -0.2313 -0.8056 0.9915
-4.7921 -1.0074 -2.0042 0.9791
-4.6828 -1.4313 -2.0041 0.9791
-4.5361 -1.8437 -2.0040 0.9791
-4.1354 -2.6210 -2.0038 0.9791
-3.6026 -3.3144 -2.0035 0.9791
-2.9551 -3.9018 -2.0032 0.9791
-2.5946 -4.1498 -2.0030 0.9791
-2.2134 -4.3645 -2.0029 0.9791
-1.4013 -4.6877 -2.0025 0.9791
-0.9770 -4.7936 -2.0023 0.9791
-0.5449 -4.8612 -2.0020 0.9791
0.3285 -4.8796 -2.0016 0.9791
0.7629 -4.8303 -2.0014 0.9791
1.6098 -4.6165 -2.0010 0.9791
2.4049 -4.2557 -2.0006 0.9791
3.4461 -3.4651 -2.0001 0.9791
3.7415 -3.1433 -2.0000 0.9791
4.0071 -2.7964 -1.9999 0.9791
4.6044 -1.6340 -1.9996 0.9791
4.8214 -0.7888 -1.9995 0.9791
4.8848 0.0815 -1.9995 0.9791
4.8580 0.5175 -1.9995 0.9791
4.7925 0.9493 -1.9995 0.9791
4.5474 1.7868 -1.9997 0.9791
3.6348 3.2667 -2.0001 0.9791
3.3288 3.5785 -2.0003 0.9791
2.9962 3.8618 -2.0005 0.9791
2.6395 4.1143 -2.0006 0.9791
2.2618 4.3340 -2.0008 0.9791
1.8658 4.5191 -2.0010 0.9791
1.4549 4.6682 -2.0012 0.9791
1.0323 4.7800 -2.0014 0.9791
0.1655 4.8884 -2.0018 0.9791
-0.7069 4.8409 -2.0023 0.9791
-1.1365 4.7589 -2.0025 0.9791
-1.9654 4.4817 -2.0029 0.9791
-2.3580 4.2886 -2.0031 0.9791
-2.7318 4.0613 -2.0032 0.9791
-3.0839 3.8014 -2.0034 0.9791
-3.4113 3.5111 -2.0036 0.9791
4.5873 0.0939 -1.9996 0.9802
4.5606 0.5032 -1.9996 0.9802
4.4975 0.9085 -1.9997 0.9802
4.3985 1.3066 -1.9997 0.9802
4.2644 1.6943 -1.9998 0.9802
4.0962 2.0684 -1.9999 0.9802
3.4020 3.0808 -2.0002 0.9802
3.1135 3.3725 -2.0004 0.9802
2.4643 3.8732 -2.0007 0.9802
2.1087 4.0782 -2.0009 0.9802
1.3498 4.3891 -2.0013 0.9802
0.1381 4.5912 -2.0018 0.9802
-0.6810 4.5435 -2.0022 0.9802
-2.2295 4.0189 -2.0030 0.9801
-2.5798 3.8041 -2.0032 0.9801
-3.2158 3.2849 -2.0035 0.9801
-3.4966 2.9848 -2.0036 0.9801
-3.9723 2.3154 -2.0038 0.9801
-4.1633 1.9515 -2.0039 0.9801
-1.5965 0.5808 -0.7404 0.9926
-1.5548 0.4127 -0.7011 0.9930
-1.5242 -0.0134 -0.6643 0.9934
-1.5265 -0.1505 -0.6685 0.9933
-1.5658 -0.4453 -0.7095 0.9929
-4.2926 -1.6478 -2.0039 0.9801
-3.4432 -3.0458 -2.0035 0.9801
-3.1572 -3.3409 -2.0033 0.9801
-2.8460 -3.6093 -2.0032 0.9801
-2.5121 -3.8487 -2.0030 0.9801
-1.7870 -4.2335 -2.0027 0.9801
-0.6008 -4.5544 -2.0021 0.9802
-0.1916 -4.5894 -2.0019 0.9802
1.8108 -4.2190 -2.0009 0.9802
2.5320 -3.8289 -2.0006 0.9802
3.4556 -3.0201 -2.0001 0.9802
3.9373 -2.3569 -1.9999 0.9802
4.1319 -1.9958 -1.9998 0.9802
4.2935 -1.6187 -1.9997 0.9802
4.5128 -0.8291 -1.9997 0.9802
4.5687 -0.4227 -1.9996 0.9802
4.5882 -0.0130 -1.9996 0.9802
4.5711 0.3968 -1.9996 0.9802
4.4277 1.2037 -1.9997 0.9802
3.7267 2.6783 -2.0001 0.9802
3.4728 3.0006 -2.0002 0.9802
3.1912 3.2990 -2.0004 0.9802
2.8840 3.5711 -2.0005 0.9802
2.5538 3.8147 -2.0007 0.9802
1.8347 4.2089 -2.0010 0.9802
1.4516 4.3564 -2.0012 0.9802
1.0569 4.4690 -2.0014 0.9802
0.6536 4.5460 -2.0016 0.9802
0.2450 4.5867 -2.0018 0.9802
-0.1656 4.5907 -2.0020 0.9802
-1.3769 4.3838 -2.0026 0.9801
-1.7631 4.2437 -2.0028 0.9801
-2.1352 4.0697 -2.0029 0.9801
-2.4904 3.8631 -2.0031 0.9801
-2.8257 3.6255 -2.0033 0.9801
-3.1384 3.3589 -2.0034 0.9801
-3.9172 2.4073 -2.0038 0.9801
-4.1167 2.0479 -2.0039 0.9801
-1.5034 0.2943 -0.6676 0.9933
-1.5255 0.1591 -0.6684 0.9933
-1.5291 -0.1148 -0.6683 0.9933
-1.5949 -0.5700 -0.7382 0.9926
-4.1742 -1.9278 -2.0038 0.9801
-3.9852 -2.2928 -2.0037 0.9801
-2.2522 -4.0060 -2.0029 0.9801
-1.8852 -4.1908 -2.0027 0.9801
-1.5033 -4.3420 -2.0025 0.9802
-0.2985 -4.5838 -2.0019 0.9802
0.5217 -4.5629 -2.0015 0.9802
1.3248 -4.3964 -2.0011 0.9802
1.7120 -4.2602 -2.0010 0.9802
2.4422 -3.8870 -2.0006 0.9802
2.7793 -3.6530 -2.0005 0.9802
4.0843 -2.0915 -1.9998 0.9802
4.2546 -1.7183 -1.9998 0.9802
4.3386 1.4937 -1.9998 0.9802
4.1880 1.8753 -1.9998 0.9802
4.0040 2.2419 -1.9999 0.9802
1.9323 4.1649 -2.0010 0.9802
-0.0586 4.5932 -2.0019 0.9802
-0.4686 4.5700 -2.0021 0.9802
-0.8750 4.5104 -2.0023 0.9802
-1.2744 4.4146 -2.0025 0.9802
-1.6637 4.2836 -2.0027 0.9801
-2.0398 4.1182 -2.0029 0.9801
-2.3996 3.9200 -2.0031 0.9801
-2.7404 3.6903 -2.0032 0.9801
-3.0592 3.4311 -2.0034 0.9801
-3.3536 3.1444 -2.0035 0.9801
-4.0678 2.1433 -2.0038 0.9801
-4.2432 1.7715 -2.0039 0.9801
-1.5810 0.4996 -0.7226 0.9928
-1.5234 0.3353 -0.6798 0.9932
-1.5200 0.1944 -0.6679 0.9933
-1.5286 0.0578 -0.6667 0.9933
-1.5870 -0.5258 -0.7286 0.9927
-4.2181 -1.8300 -2.0039 0.9801
-4.0376 -2.1993 -2.0038 0.9801
-3.8248 -2.5510 -2.0037 0.9801
-3.5815 -2.8822 -2.0035 0.9801
-2.6888 -3.7276 -2.0031 0.9801
-1.6041 -4.3059 -2.0026 0.9802
-0.4052 -4.5757 -2.0020 0.9802
0.0051 -4.5932 -2.0018 0.9802
0.8219 -4.5181 -2.0014 0.9802
1.6123 -4.2990 -2.0010 0.9802
1.9896 -4.1374 -2.0008 0.9802
3.0145 -3.4612 -2.0003 0.9802
3.3113 -3.1779 -2.0002 0.9802
3.8234 -2.5379 -2.0000 0.9802
4.0345 -2.1861 -1.9999 0.9802
4.3588 -1.4334 -1.9997 0.9802
4.4693 -1.0384 -1.9997 0.9802
4.5441 -0.6351 -1.9996 0.9802
4.5846 0.1834 -1.9996 0.9802
4.3722 1.3922 -1.9998 0.9802
4.2306 1.7772 -1.9998 0.9802
3.8473 2.5017 -2.0000 0.9802
3.3413 3.1466 -2.0003 0.9802
3.0471 3.4327 -2.0004 0.9802
2.3882 3.9207 -2.0007 0.9802
2.0287 4.1187 -2.0009 0.9802
1.6529 4.2838 -2.0011 0.9802
0.8646 4.5104 -2.0015 0.9802
0.4584 4.5700 -2.0017 0.9802
-0.7696 4.5294 -2.0023 0.9802
-1.5634 4.3211 -2.0027 0.9801
-2.9784 3.5013 -2.0033 0.9801
-3.2794 3.2216 -2.0035 0.9801
-4.0167 2.2374 -2.0038 0.9801
-4.2007 1.8698 -2.0039 0.9801
-1.5275 -0.0433 -0.6660 0.9934
-1.5225 -0.1801 -0.6682 0.9933
-1.5155 -0.3186 -0.6749 0.9933
-4.0878 -2.1047 -2.0038 0.9801
-3.3831 -3.1124 -2.0034 0.9801
-3.0914 -3.4019 -2.0033 0.9801
-2.7750 -3.6641 -2.0031 0.9801
-2.4364 -3.8969 -2.0030 0.9801
-1.7040 -4.2674 -2.0026 0.9801
-1.3160 -4.4022 -2.0024 0.9802
-0.9175 -4.5017 -2.0022 0.9802
-0.1020 -4.5922 -2.0018 0.9802
0.3085 -4.5825 -2.0016 0.9802
1.8927 -4.1828 -2.0009 0.9802
2.6062 -3.7787 -2.0005 0.9802
3.5139 -2.9521 -2.0001 0.9802
3.9826 -2.2796 -1.9999 0.9802
4.5761 -0.3334 -1.9996 0.9802
4.5876 0.0766 -1.9996 0.9802
4.2708 1.6781 -1.9998 0.9802
3.9045 2.4113 -2.0000 0.9802
2.4789 3.8639 -2.0007 0.9802
2.1241 4.0702 -2.0009 0.9802
1.3664 4.3840 -2.0013 0.9802
0.5648 4.5580 -2.0016 0.9802
0.1555 4.5907 -2.0018 0.9802
-0.2552 4.5867 -2.0020 0.9802
-0.6638 4.5460 -2.0022 0.9802
-1.0673 4.4690 -2.0024 0.9802
-1.4623 4.3562 -2.0026 0.9801
-1.8456 4.2086 -2.0028 0.9801
-2.2143 4.0273 -2.0030 0.9801
-2.5654 3.8138 -2.0031 0.9801
-2.8959 3.5697 -2.0033 0.9801
4.3193 0.0884 -1.9998 0.9811
4.2942 0.4738 -1.9998 0.9811
4.2348 0.8554 -1.9998 0.9811
3.8569 1.9476 -2.0000 0.9811
3.4493 2.6029 -2.0002 0.9811
3.2032 2.9007 -2.0003 0.9811
2.3202 3.6469 -2.0008 0.9811
1.6347 4.0022 -2.0011 0.9811
1.2709 4.1325 -2.0013 0.9811
-0.2566 4.3175 -2.0020 0.9811
-0.6412 4.2777 -2.0022 0.9811
-1.0208 4.2038 -2.0024 0.9811
-1.3922 4.0962 -2.0026 0.9811
-1.7526 3.9558 -2.0028 0.9811
-2.0991 3.7838 -2.0029 0.9811
-3.2920 2.8101 -2.0035 0.9811
-3.7398 2.1799 -2.0037 0.9811
-3.9197 1.8372 -2.0038 0.9811
-1.3331 0.4849 -0.6566 0.9938
-1.3190 0.2265 -0.6195 0.9941
-1.3364 -0.1317 -0.6216 0.9941
-1.3215 -0.3758 -0.6359 0.9940
-3.2417 -2.8676 -2.0034 0.9811
-2.9725 -3.1454 -2.0032 0.9811
-2.3651 -3.6235 -2.0029 0.9811
-1.6825 -3.9858 -2.0026 0.9811
-1.3197 -4.1198 -2.0024 0.9811
-0.1804 -4.3210 -2.0019 0.9811
0.2062 -4.3194 -2.0017 0.9811
0.5911 -4.2834 -2.0015 0.9811
1.3434 -4.1091 -2.0011 0.9811
2.3840 -3.6051 -2.0006 0.9811
2.6963 -3.3776 -2.0005 0.9811
2.9869 -3.1231 -2.0004 0.9811
3.4945 -2.5416 -2.0001 0.9811
4.3202 -0.0122 -1.9998 0.9811
4.3040 0.3736 -1.9998 0.9811
4.1691 1.1334 -1.9998 0.9811
4.0513 1.5013 -1.9999 0.9811
3.5089 2.5218 -2.0002 0.9811
3.2699 2.8253 -2.0003 0.9811
3.0047 3.1062 -2.0004 0.9811
2.7155 3.3624 -2.0006 0.9811
2.4045 3.5918 -2.0007 0.9811
2.0743 3.7924 -2.0009 0.9811
0.9951 4.2077 -2.0014 0.9811
0.6154 4.2802 -2.0016 0.9811
0.2307 4.3185 -2.0018 0.9811
-0.1559 4.3222 -2.0020 0.9811
-0.9225 4.2263 -2.0024 0.9811
-2.0103 3.8316 -2.0029 0.9811
-2.9547 3.1623 -2.0033 0.9811
-3.2255 2.8860 -2.0035 0.9811
-3.6879 2.2664 -2.0037 0.9811
-3.8757 1.9281 -2.0038 0.9811
-1.3103 0.2565 -0.6180 0.9941
-1.3356 0.1393 -0.6216 0.9941
-1.3132 -0.3406 -0.6280 0.9940
-1.3134 -0.6066 -0.6696 0.9936
-3.7519 -2.1586 -2.0036 0.9811
-3.5440 -2.4849 -2.0035 0.9811
-3.3077 -2.7913 -2.0034 0.9811
-3.0450 -3.0754 -2.0033 0.9811
-2.1204 -3.7716 -2.0028 0.9811
-1.7749 -3.9456 -2.0027 0.9811
-1.4153 -4.0880 -2.0025 0.9811
-1.0445 -4.1977 -2.0023 0.9811
-0.6654 -4.2738 -2.0021 0.9811
-0.2810 -4.3157 -2.0019 0.9811
0.1055 -4.3232 -2.0017 0.9811
0.4911 -4.2961 -2.0015 0.9811
0.8728 -4.2347 -2.0014 0.9811
1.2474 -4.1394 -2.0012 0.9811
1.6119 -4.0111 -2.0010 0.9811
2.2994 -3.6598 -2.0007 0.9811
2.6169 -3.4395 -2.0005 0.9811
2.9134 -3.1919 -2.0004 0.9811
3.8457 -1.9693 -2.0000 0.9811
4.0061 -1.6180 -1.9999 0.9811
4.1345 -1.2537 -1.9998 0.9811
4.3116 0.2733 -1.9998 0.9811
3.9434 1.7657 -2.0000 0.9811
2.7930 3.2981 -2.0005 0.9811
2.4875 3.5347 -2.0007 0.9811
1.8193 3.9215 -2.0010 0.9811
0.7149 4.2646 -2.0016 0.9811
-0.8238 4.2466 -2.0023 0.9811
-2.2592 3.6906 -2.0030 0.9811
-2.8802 3.2303 -2.0033 0.9811
-3.1574 2.9603 -2.0034 0.9811
-1.3294 0.4201 -0.6453 0.9939
-1.3001 0.2862 -0.6162 0.9941
-1.3384 -0.0692 -0.6203 0.9941
-1.3277 -0.1885 -0.6208 0.9941
-1.3033 -0.3058 -0.6197 0.9941
-1.3217 -0.5734 -0.6669 0.9937
-2.8350 -3.2697 -2.0032 0.9811
-1.8664 -3.9033 -2.0027 0.9811
-1.1421 -4.1723 -2.0023 0.9811
-0.7648 -4.2572 -2.0022 0.9811
0.0048 -4.3246 -2.0018 0.9811
0.3909 -4.3065 -2.0016 0.9811
0.7739 -4.2540 -2.0014 0.9811
1.1506 -4.1675 -2.0012 0.9811
1.5181 -4.0477 -2.0011 0.9811
1.8733 -3.8956 -2.0009 0.9811
2.2136 -3.7124 -2.0007 0.9811
2.5361 -3.4997 -2.0006 0.9811
2.8383 -3.2589 -2.0004 0.9811
3.3724 -2.7017 -2.0002 0.9811
3.7988 -2.0584 -2.0000 0.9811
3.9673 -1.7109 -1.9999 0.9811
4.1042 -1.3497 -1.9998 0.9811
4.2082 -0.9777 -1.9998 0.9811
4.2786 -0.5980 -1.9998 0.9811
4.3149 -0.2135 -1.9998 0.9811
4.3168 0.1727 -1.9998 0.9811
4.2173 0.9380 -1.9998 0.9811
4.1168 1.3109 -1.9999 0.9811
3.9834 1.6734 -1.9999 0.9811
3.8182 2.0225 -2.0000 0.9811
3.6225 2.3555 -2.0001 0.9811
2.8691 3.2321 -2.0005 0.9811
2.5691 3.4757 -2.0007 0.9811
1.9101 3.8779 -2.0010 0.9811
1.5563 4.0334 -2.0012 0.9811
0.4316 4.3028 -2.0017 0.9811
-0.7246 4.2645 -2.0023 0.9811
-1.8296 3.9209 -2.0028 0.9811
-2.4983 3.5334 -2.0031 0.9811
-2.8041 3.2965 -2.0033 0.9811
-3.0875 3.0331 -2.0034 0.9811
-3.3462 2.7454 -2.0035 0.9811
-3.5782 2.4357 -2.0036 0.9811
-1.3336 0.4559 -0.6524 0.9938
-1.3251 0.2010 -0.6204 0.9941
-1.3385 0.0819 -0.6207 0.9941
-1.3370 -0.0379 -0.6191 0.9941
-1.3331 -0.1577 -0.6214 0.9941
-1.3271 -0.4056 -0.6423 0.9939
-1.3278 -0.5397 -0.6635 0.9937
-3.1851 -2.9303 -2.0033 0.9811
-2.2939 -3.6689 -2.0029 0.9811
-1.2390 -4.1447 -2.0024 0.9811
-0.0960 -4.3236 -2.0018 0.9811
0.2905 -4.3145 -2.0016 0.9811
0.6746 -4.2709 -2.0015 0.9811
1.7821 -3.9383 -2.0009 0.9811
2.4539 -3.5579 -2.0006 0.9811
3.3086 -2.7796 -2.0002 0.9811
3.5434 -2.4728 -2.0001 0.9811
3.7499 -2.1464 -2.0000 0.9811
4.1843 -1.0755 -1.9998 0.9811
4.2636 -0.6975 -1.9998 0.9811
4.3196 0.0721 -1.9998 0.9811
4.2959 0.4576 -1.9998 0.9811
4.2380 0.8394 -1.9998 0.9811
4.1462 1.2146 -1.9999 0.9811
4.0213 1.5801 -1.9999 0.9811
3.8643 1.9330 -2.0000 0.9811
3.4591 2.5899 -2.0002 0.9811
3.2142 2.8886 -2.0003 0.9811
2.9435 3.1643 -2.0005 0.9811
2.3340 3.6381 -2.0008 0.9811
1.9999 3.8323 -2.0009 0.9811
1.6498 3.9959 -2.0011 0.9811
1.2865 4.1277 -2.0013 0.9811
0.5317 4.2915 -2.0017 0.9811
0.1464 4.3222 -2.0018 0.9811
-0.2403 4.3184 -2.0020 0.9811
-0.6250 4.2801 -2.0022 0.9811
-1.0049 4.2076 -2.0024 0.9811
-1.3767 4.1014 -2.0026 0.9811
-1.7377 3.9624 -2.0027 0.9811
-2.0848 3.7917 -2.0029 0.9811
3.9084 1.1610 -2.0000 0.9820
3.7892 1.5055 -2.0000 0.9820
3.6398 1.8379 -2.0001 0.9820
3.2551 2.4564 -2.0003 0.9820
3.0229 2.7374 -2.0004 0.9820
2.1896 3.4415 -2.0008 0.9820
1.8736 3.6236 -2.0010 0.9820
0.4865 4.0516 -2.0017 0.9820
-0.2421 4.0742 -2.0020 0.9820
-0.6051 4.0367 -2.0022 0.9820
-1.3138 3.8653 -2.0025 0.9820
-1.6538 3.7328 -2.0027 0.9820
-1.9808 3.5705 -2.0029 0.9820
-3.1063 2.6517 -2.0034 0.9820
-3.3309 2.3638 -2.0035 0.9820
-1.1947 0.0965 -0.5879 0.9947
-1.1959 -0.0105 -0.5866 0.9947
-1.1931 -0.1176 -0.5881 0.9947
-1.1768 -0.2235 -0.5876 0.9947
-1.1319 -0.5551 -0.6184 0.9944
-3.4919 -2.1188 -2.0035 0.9820
-3.2886 -2.4220 -2.0034 0.9820
-2.8049 -2.9681 -2.0032 0.9820
-2.2318 -3.4192 -2.0029 0.9820
-1.9174 -3.6046 -2.0027 0.9820
-1.5877 -3.7611 -2.0026 0.9820
-0.5337 -4.0464 -2.0020 0.9820
-0.1702 -4.0775 -2.0019 0.9820
0.1946 -4.0761 -2.0017 0.9820
0.5578 -4.0421 -2.0015 0.9820
1.6089 -3.7487 -2.0010 0.9820
2.8188 -2.9472 -2.0004 0.9820
3.2977 -2.3985 -2.0002 0.9820
3.6715 -1.7734 -2.0000 0.9820
3.8151 -1.4384 -2.0000 0.9820
3.9282 -1.0919 -1.9999 0.9820
4.0618 0.3526 -1.9999 0.9820
4.0141 0.7140 -1.9999 0.9820
3.8233 1.4168 -2.0000 0.9820
3.6816 1.7526 -2.0001 0.9820
3.5105 2.0745 -2.0002 0.9820
3.3114 2.3798 -2.0003 0.9820
2.8355 2.9313 -2.0005 0.9820
2.2691 3.3895 -2.0008 0.9820
1.9575 3.5789 -2.0010 0.9820
1.2898 3.8706 -2.0013 0.9820
0.2177 4.0751 -2.0018 0.9820
-0.1471 4.0787 -2.0020 0.9820
-0.8705 3.9881 -2.0023 0.9820
-1.2233 3.8948 -2.0025 0.9820
-1.8970 3.6156 -2.0028 0.9820
-2.5103 3.2209 -2.0031 0.9820
-3.2749 2.4407 -2.0035 0.9820
-3.4799 2.1386 -2.0036 0.9820
-1.1300 0.5621 -0.6191 0.9944
-1.1521 0.4498 -0.6067 0.9945
-1.1961 0.0173 -0.5868 0.9947
-1.1951 -0.0897 -0.5879 0.9947
-1.1581 -0.3004 -0.5869 0.9947
-1.1560 -0.4131 -0.6022 0.9945
-3.5404 -2.0369 -2.0035 0.9820
-2.8733 -2.9020 -2.0032 0.9820
-1.6749 -3.7232 -2.0026 0.9820
-0.2652 -4.0726 -2.0019 0.9820
1.1771 -3.9063 -2.0012 0.9820
1.5211 -3.7852 -2.0011 0.9820
1.8530 -3.6340 -2.0009 0.9820
2.1699 -3.4537 -2.0007 0.9820
3.0072 -2.7544 -2.0004 0.9820
3.2410 -2.4747 -2.0002 0.9820
3.6292 -1.8585 -2.0001 0.9820
3.7806 -1.5269 -2.0000 0.9820
3.9917 -0.8299 -1.9999 0.9820
4.0498 -0.4701 -1.9999 0.9820
4.0689 0.2579 -1.9999 0.9820
4.0296 0.6202 -1.9999 0.9820
3.9582 0.9777 -1.9999 0.9820
3.7214 1.6663 -2.0001 0.9820
3.5578 1.9921 -2.0002 0.9820
3.3659 2.3020 -2.0003 0.9820
3.1470 2.5935 -2.0004 0.9820
2.6358 3.1124 -2.0006 0.9820
2.3474 3.3356 -2.0008 0.9820
2.0403 3.5322 -2.0009 0.9820
1.3796 3.8395 -2.0012 0.9820
0.3126 4.0689 -2.0018 0.9820
-0.4163 4.0603 -2.0021 0.9820
-0.7774 4.0072 -2.0023 0.9820
-1.1322 3.9221 -2.0025 0.9820
-1.4781 3.8057 -2.0026 0.9820
-1.8122 3.6587 -2.0028 0.9820
-2.4345 3.2785 -2.0031 0.9820
-3.2171 2.5163 -2.0034 0.9820
-1.1198 0.5900 -0.6208 0.9944
-1.1586 0.3661 -0.5960 0.9946
-1.1687 0.2572 -0.5870 0.9947
-1.1893 0.1521 -0.5881 0.9947
-1.1962 -0.0618 -0.5876 0.9947
-1.1643 -0.2732 -0.5866 0.9947
-1.1448 -0.4967 -0.6121 0.9945
-3.1818 -2.5605 -2.0034 0.9820
-2.9402 -2.8343 -2.0032 0.9820
-2.0833 -3.5115 -2.0028 0.9820
-1.4251 -3.8255 -2.0025 0.9820
-0.7217 -4.0173 -2.0021 0.9820
0.7303 -4.0143 -2.0014 0.9820
1.0858 -3.9327 -2.0013 0.9820
1.7678 -3.6762 -2.0009 0.9820
2.0889 -3.5034 -2.0008 0.9820
2.3933 -3.3026 -2.0006 0.9820
2.6785 -3.0754 -2.0005 0.9820
2.9423 -2.8238 -2.0004 0.9820
3.1825 -2.5496 -2.0003 0.9820
3.3973 -2.2551 -2.0002 0.9820
3.7440 -1.6146 -2.0000 0.9820
3.9713 -0.9227 -1.9999 0.9820
4.0738 0.1630 -1.9999 0.9820
3.9799 0.8852 -1.9999 0.9820
3.7592 1.5792 -2.0001 0.9820
3.4186 2.2229 -2.0002 0.9820
2.9689 2.7959 -2.0005 0.9820
2.4245 3.2800 -2.0007 0.9820
1.1230 3.9225 -2.0014 0.9820
0.7682 4.0074 -2.0015 0.9820
0.4073 4.0604 -2.0017 0.9820
-0.3216 4.0688 -2.0021 0.9820
-0.6838 4.0242 -2.0022 0.9820
-1.3890 3.8390 -2.0026 0.9820
-1.7264 3.6999 -2.0027 0.9820
-2.6460 3.1106 -2.0032 0.9820
-1.1063 0.6162 -0.6212 0.9944
-1.1425 0.5086 -0.6135 0.9944
-1.1611 0.2841 -0.5863 0.9947
-1.1852 0.1798 -0.5880 0.9947
-1.1959 0.0731 -0.5877 0.9947
-1.1715 -0.2463 -0.5872 0.9947
-1.1497 -0.4673 -0.6088 0.9945
-3.4498 -2.1865 -2.0035 0.9820
-3.2406 -2.4857 -2.0034 0.9820
-3.0055 -2.7651 -2.0033 0.9820
-2.1646 -3.4621 -2.0028 0.9820
-1.1692 -3.9111 -2.0024 0.9820
-0.8151 -3.9995 -2.0022 0.9820
0.2741 -4.0714 -2.0017 0.9820
0.9939 -3.9570 -2.0013 0.9820
2.3157 -3.3575 -2.0007 0.9820
2.8757 -2.8916 -2.0004 0.9820
3.1223 -2.6231 -2.0003 0.9820
3.5388 -2.0256 -2.0001 0.9820
3.7054 -1.7014 -2.0000 0.9820
3.8424 -1.3636 -2.0000 0.9820
3.9488 -1.0150 -1.9999 0.9820
4.0541 0.4318 -1.9999 0.9820
3.9128 1.1462 -2.0000 0.9820
3.7949 1.4911 -2.0000 0.9820
3.6467 1.8242 -2.0001 0.9820
3.4694 2.1426 -2.0002 0.9820
3.0332 2.7260 -2.0004 0.9820
2.2026 3.4332 -2.0008 0.9820
1.2140 3.8952 -2.0013 0.9820
0.8614 3.9884 -2.0015 0.9820
-0.2267 4.0751 -2.0020 0.9820
-0.5898 4.0389 -2.0022 0.9820
-0.9482 3.9704 -2.0024 0.9820
-1.2991 3.8702 -2.0025 0.9820
-1.9672 3.5779 -2.0029 0.9820
-2.2791 3.3882 -2.0030 0.9820
-2.8459 2.9291 -2.0033 0.9820
3.8460 -0.2656 -2.0000 0.9828
3.8544 0.0789 -2.0000 0.9828
3.8320 0.4228 -2.0000 0.9828
3.6957 1.0978 -2.0001 0.9828
3.4417 1.7379 -2.0002 0.9828
3.0779 2.3227 -2.0004 0.9828
2.6159 2.8335 -2.0006 0.9828
2.3526 3.0560 -2.0008 0.9828
2.0704 3.2541 -2.0009 0.9828
1.4586 3.5711 -2.0012 0.9828
1.1340 3.6874 -2.0014 0.9828
0.4600 3.8309 -2.0017 0.9828
-0.2289 3.8523 -2.0020 0.9828
-1.2422 3.6547 -2.0025 0.9828
-1.8728 3.3759 -2.0028 0.9828
-2.1670 3.1954 -2.0029 0.9828
-2.9370 2.5071 -2.0033 0.9827
-3.1493 2.2349 -2.0034 0.9827
-0.9962 0.5807 -0.5982 0.9948
-1.0587 0.3851 -0.5845 0.9949
-1.0671 0.2833 -0.5728 0.9950
-1.1049 0.0893 -0.5751 0.9950
-1.1062 -0.0098 -0.5739 0.9950
-1.0638 -0.3026 -0.5738 0.9950
-1.0562 -0.4054 -0.5869 0.9949
-1.0336 -0.5069 -0.5972 0.9948
-2.6520 -2.8063 -2.0031 0.9828
-2.3906 -3.0318 -2.0030 0.9828
-2.1102 -3.2329 -2.0028 0.9828
-1.8129 -3.4082 -2.0027 0.9828
-1.1775 -3.6758 -2.0024 0.9828
-0.8444 -3.7659 -2.0022 0.9828
-0.5047 -3.8260 -2.0020 0.9828
-0.1609 -3.8554 -2.0019 0.9828
0.1840 -3.8541 -2.0017 0.9828
0.8666 -3.7593 -2.0014 0.9828
1.1987 -3.6666 -2.0012 0.9828
2.6653 -2.7868 -2.0005 0.9828
3.1183 -2.2679 -2.0003 0.9828
3.4717 -1.6769 -2.0001 0.9828
3.1312 2.2503 -2.0004 0.9828
2.9178 2.5211 -2.0005 0.9828
2.4231 3.0003 -2.0007 0.9828
1.8509 3.3840 -2.0010 0.9828
0.8879 3.7545 -2.0015 0.9828
0.2059 3.8532 -2.0018 0.9828
-0.1391 3.8565 -2.0020 0.9828
-1.1567 3.6826 -2.0025 0.9828
-1.4810 3.5648 -2.0026 0.9828
-2.0919 3.2450 -2.0029 0.9828
-0.9823 0.6037 -0.5981 0.9948
-1.0309 0.5129 -0.5973 0.9948
-1.0552 0.4120 -0.5877 0.9949
-1.1028 0.1150 -0.5752 0.9950
-1.0691 -0.2773 -0.5730 0.9950
-1.0594 -0.3786 -0.5837 0.9949
-0.9995 -0.5750 -0.5982 0.9948
-3.1619 -2.2170 -2.0033 0.9827
-2.7167 -2.7438 -2.0031 0.9828
-2.1850 -3.1829 -2.0029 0.9828
-1.8918 -3.3651 -2.0027 0.9828
-1.5836 -3.5203 -2.0026 0.9828
-0.9319 -3.7453 -2.0022 0.9828
-0.5937 -3.8133 -2.0021 0.9828
-0.2507 -3.8507 -2.0019 0.9828
1.1130 -3.6936 -2.0013 0.9828
1.4383 -3.5791 -2.0011 0.9828
1.7521 -3.4361 -2.0010 0.9828
2.3351 -3.0692 -2.0007 0.9828
2.5997 -2.8482 -2.0005 0.9828
2.8435 -2.6045 -2.0004 0.9828
3.0646 -2.3400 -2.0003 0.9828
3.4317 -1.7573 -2.0002 0.9828
3.5748 -1.4438 -2.0001 0.9828
3.6894 -1.1187 -2.0000 0.9828
3.8539 -0.1007 -2.0000 0.9828
3.8475 0.2438 -2.0000 0.9828
3.8104 0.5865 -2.0000 0.9828
3.5189 1.5757 -2.0002 0.9828
3.3642 1.8837 -2.0002 0.9828
3.1827 2.1767 -2.0003 0.9828
2.9757 2.4524 -2.0004 0.9828
2.4923 2.9430 -2.0007 0.9828
2.2196 3.1540 -2.0008 0.9828
0.9751 3.7327 -2.0014 0.9828
0.6379 3.8052 -2.0016 0.9828
-0.0492 3.8586 -2.0019 0.9828
-0.3936 3.8391 -2.0021 0.9828
-1.0705 3.7084 -2.0024 0.9828
-1.7135 3.4594 -2.0027 0.9828
-3.2422 2.0981 -2.0034 0.9827
-1.0807 0.2379 -0.5741 0.9950
-1.0998 0.1407 -0.5752 0.9950
-1.1063 -0.0572 -0.5747 0.9950
-1.0766 -0.2526 -0.5737 0.9950
-1.0618 -0.3518 -0.5803 0.9950
-1.0478 -0.4546 -0.5925 0.9949
-3.2127 -2.1427 -2.0034 0.9827
-3.0083 -2.4210 -2.0033 0.9827
-2.7800 -2.6798 -2.0032 0.9828
-1.9698 -3.3202 -2.0028 0.9828
-1.6653 -3.4826 -2.0026 0.9828
-1.3475 -3.6171 -2.0024 0.9828
-0.3404 -3.8439 -2.0020 0.9828
0.6905 -3.7957 -2.0015 0.9828
1.0267 -3.7186 -2.0013 0.9828
1.3546 -3.6117 -2.0011 0.9828
1.9752 -3.3127 -2.0008 0.9828
2.2630 -3.1228 -2.0007 0.9828
2.5327 -2.9080 -2.0006 0.9828
3.0093 -2.4108 -2.0004 0.9828
3.2124 -2.1323 -2.0003 0.9828
3.7552 -0.8725 -2.0000 0.9828
3.8181 -0.5336 -2.0000 0.9828
3.8521 0.1541 -2.0000 0.9828
3.7633 0.8370 -2.0000 0.9828
3.6736 1.1698 -2.0001 0.9828
3.5546 1.4932 -2.0001 0.9828
3.0320 2.3824 -2.0004 0.9828
2.8073 2.6438 -2.0005 0.9828
2.2925 3.1014 -2.0008 0.9828
2.0065 3.2940 -2.0009 0.9828
1.3887 3.5989 -2.0012 0.9828
1.0618 3.7089 -2.0014 0.9828
0.7264 3.7892 -2.0016 0.9828
-0.3041 3.8472 -2.0021 0.9828
-0.6465 3.8049 -2.0022 0.9828
-2.2290 3.1525 -2.0030 0.9828
-1.0455 0.4654 -0.5937 0.9949
-1.0736 0.2627 -0.5734 0.9950
-1.0961 0.1662 -0.5751 0.9950
-1.1060 0.0676 -0.5748 0.9950
-1.1066 -0.0314 -0.5743 0.9950
-1.0834 -0.2277 -0.5743 0.9950
-1.0632 -0.3250 -0.5768 0.9950
-1.0527 -0.4279 -0.5895 0.9949
-2.8417 -2.6143 -2.0032 0.9828
-2.0466 -3.2734 -2.0028 0.9828
-1.1055 -3.6980 -2.0023 0.9828
-0.0857 -3.8578 -2.0018 0.9828
0.6019 -3.8109 -2.0015 0.9828
1.2701 -3.6424 -2.0012 0.9828
1.5902 -3.5141 -2.0010 0.9828
1.8975 -3.3578 -2.0009 0.9828
2.7192 -2.7342 -2.0005 0.9828
2.9524 -2.4803 -2.0004 0.9828
3.1619 -2.2066 -2.0003 0.9828
3.3462 -1.9153 -2.0002 0.9828
3.5038 -1.6088 -2.0001 0.9828
3.6333 -1.2894 -2.0001 0.9828
3.7339 -0.9597 -2.0000 0.9828
3.8046 -0.6224 -2.0000 0.9828
3.8450 -0.2802 -2.0000 0.9828
3.7818 0.7491 -2.0000 0.9828
3.5884 1.4100 -2.0001 0.9828
3.2806 2.0260 -2.0003 0.9828
3.0867 2.3110 -2.0004 0.9828
2.8681 2.5776 -2.0005 0.9828
2.0826 3.2463 -2.0009 0.9828
1.7845 3.4196 -2.0010 0.9828
1.4721 3.5655 -2.0012 0.9828
-1.5504 3.5353 -2.0027 0.9828
-1.8600 3.3830 -2.0028 0.9828
-2.1549 3.2036 -2.0029 0.9828
-2.4325 2.9985 -2.0031 0.9828
-2.6908 2.7694 -2.0032 0.9828
3.5795 0.7231 -2.0001 0.9835
3.5007 1.0399 -2.0002 0.9835
3.2601 1.6462 -2.0003 0.9835
2.9155 2.2001 -2.0005 0.9835
2.7075 2.4518 -2.0006 0.9835
1.9611 3.0824 -2.0009 0.9835
1.6781 3.2454 -2.0011 0.9835
1.0741 3.4927 -2.0014 0.9835
0.7580 3.5749 -2.0015 0.9835
0.4357 3.6286 -2.0017 0.9835
-0.2168 3.6488 -2.0020 0.9835
-0.5419 3.6152 -2.0022 0.9835
-0.8626 3.5526 -2.0023 0.9835
-1.1766 3.4616 -2.0025 0.9835
-1.7739 3.1976 -2.0028 0.9835
-2.7818 2.3746 -2.0032 0.9835
-0.9126 0.5319 -0.5785 0.9952
-0.9541 0.4472 -0.5771 0.9952
-1.0141 0.1741 -0.5636 0.9953
-1.0259 0.0829 -0.5637 0.9953
-1.0273 -0.0091 -0.5627 0.9953
-1.0245 -0.1010 -0.5638 0.9953
-0.9850 -0.2801 -0.5609 0.9953
-0.9726 -0.3733 -0.5706 0.9953
-0.9469 -0.4644 -0.5776 0.9952
-0.8477 -0.6243 -0.5766 0.9952
-2.7394 -2.4232 -2.0031 0.9835
-2.2643 -2.8716 -2.0029 0.9835
-1.7171 -3.2281 -2.0026 0.9835
-0.7998 -3.5670 -2.0022 0.9835
-0.1525 -3.6518 -2.0019 0.9835
0.1743 -3.6506 -2.0017 0.9835
0.8208 -3.5608 -2.0014 0.9835
1.1355 -3.4730 -2.0012 0.9835
2.2790 -2.8548 -2.0007 0.9835
2.5247 -2.6397 -2.0006 0.9835
2.7502 -2.4036 -2.0005 0.9835
3.1336 -1.8758 -2.0003 0.9835
3.2885 -1.5884 -2.0002 0.9835
3.5185 -0.9780 -2.0001 0.9835
3.6517 -0.0103 -2.0001 0.9835
3.6381 0.3158 -2.0001 0.9835
3.5954 0.6395 -2.0001 0.9835
3.4244 1.2690 -2.0002 0.9835
3.2975 1.5698 -2.0003 0.9835
3.1443 1.8581 -2.0004 0.9835
2.7638 2.3880 -2.0005 0.9835
2.5397 2.6255 -2.0007 0.9835
2.0323 3.0358 -2.0009 0.9835
1.1552 3.4667 -2.0013 0.9835
0.5201 3.6174 -2.0016 0.9835
0.1950 3.6497 -2.0018 0.9835
-1.4028 3.3765 -2.0026 0.9835
-1.6989 3.2380 -2.0027 0.9835
-1.9814 3.0735 -2.0029 0.9835
-2.2481 2.8845 -2.0030 0.9835
-2.4969 2.6723 -2.0031 0.9835
-2.7257 2.4388 -2.0032 0.9835
-2.9327 2.1857 -2.0033 0.9835
-0.9445 0.4698 -0.5778 0.9952
-0.9716 0.3793 -0.5713 0.9953
-1.0091 0.1976 -0.5632 0.9953
-1.0240 0.1068 -0.5639 0.9953
-1.0263 -0.0771 -0.5637 0.9953
-0.9564 -0.4417 -0.5770 0.9952
-0.9156 -0.5267 -0.5785 0.9952
-0.8632 -0.6052 -0.5774 0.9952
-2.3306 -2.8181 -2.0029 0.9835
-1.7919 -3.1873 -2.0027 0.9835
-1.5000 -3.3344 -2.0025 0.9835
-1.1961 -3.4548 -2.0024 0.9835
-0.5623 -3.6119 -2.0021 0.9835
-0.2375 -3.6474 -2.0019 0.9835
0.0892 -3.6537 -2.0018 0.9835
