ply
format ascii 1.0
element vertex 1584
property float32 x
property float32 y
property float32 z
property float32 I
end_header
-16.5732 -3.0528 -2.0018 0.9344
-14.5677 -5.4979 -1.8496 0.9392
-14.0189 -6.7760 -1.8496 0.9392
-9.7148 -12.1678 -1.8495 0.9392
-4.8434 -14.7975 -1.8495 0.9392
-3.2039 -13.8732 -1.6913 0.9443
-0.6676 -13.8265 -1.6443 0.9458
3.0716 -13.7468 -1.6732 0.9448
4.3142 -13.5055 -1.6841 0.9445
7.2986 -13.7526 -1.8494 0.9392
10.6806 -11.3280 -1.8494 0.9392
11.6489 -10.3296 -1.8494 0.9392
12.5242 -9.2488 -1.8494 0.9392
13.9688 -6.8751 -1.8494 0.9392
12.1331 -4.6782 -1.5447 0.9490
16.5492 -3.1706 -2.0016 0.9344
16.7662 -1.6810 -2.0016 0.9344
16.8493 -0.1781 -2.0016 0.9344
16.7980 1.3263 -2.0016 0.9344
16.6126 2.8200 -2.0016 0.9344
12.7694 9.0191 -1.8570 0.9390
8.0718 8.2064 -1.3673 0.9547
10.6971 13.0199 -2.0016 0.9344
9.4925 13.9226 -2.0016 0.9344
5.4657 15.9399 -2.0017 0.9344
4.0215 16.3642 -2.0017 0.9344
2.5451 16.6578 -2.0017 0.9344
-4.9024 16.1227 -2.0017 0.9344
-8.9980 14.2484 -2.0018 0.9344
-11.3877 12.4220 -2.0018 0.9344
-13.4146 10.1998 -2.0018 0.9344
-13.2406 8.3147 -1.8572 0.9390
-13.9298 7.0999 -1.8572 0.9390
-14.7208 5.9141 -1.8845 0.9381
-16.1355 4.8617 -2.0018 0.9344
-16.7428 1.9159 -2.0018 0.9344
-16.8167 -1.0910 -2.0018 0.9344
-16.6522 -2.5874 -2.0018 0.9344
-16.3548 -4.0631 -2.0018 0.9344
-14.7159 -5.0877 -1.8496 0.9392
-13.5770 -7.6227 -1.8496 0.9392
-12.0056 -9.9148 -1.8495 0.9392
-10.0518 -11.8910 -1.8495 0.9392
-8.9505 -12.7405 -1.8495 0.9392
-2.2813 -13.6481 -1.6437 0.9458
-1.0408 -13.6213 -1.6227 0.9465
0.2040 -15.5683 -1.8495 0.9392
1.5925 -15.4880 -1.8495 0.9392
2.6702 -13.7490 -1.6637 0.9451
5.3192 -13.6922 -1.7449 0.9425
6.9106 -13.9517 -1.8494 0.9392
8.1280 -13.2792 -1.8494 0.9392
9.2806 -12.5008 -1.8494 0.9392
10.3591 -11.6227 -1.8494 0.9392
11.3550 -10.6518 -1.8494 0.9392
12.2602 -9.5960 -1.8494 0.9392
14.3640 -6.0057 -1.8494 0.9392
14.8427 -4.6999 -1.8494 0.9392
16.8377 -0.6499 -2.0016 0.9344
16.8285 0.8553 -2.0016 0.9344
16.6851 2.3536 -2.0016 0.9344
16.0010 5.2823 -2.0016 0.9344
13.7377 7.4617 -1.8570 0.9390
10.2004 6.7846 -1.4552 0.9519
8.6211 14.4785 -2.0016 0.9344
7.2947 15.1901 -2.0016 0.9344
3.4388 9.1822 -1.1647 0.9613
4.4782 16.2451 -2.0017 0.9344
1.5190 16.7826 -2.0017 0.9344
-1.4886 16.7855 -2.0017 0.9344
-1.3671 7.6073 -0.9181 0.9693
-4.4489 16.2536 -2.0017 0.9344
-5.8817 15.7918 -2.0017 0.9344
-7.2675 15.2040 -2.0017 0.9344
-8.5954 14.4949 -2.0017 0.9344
-6.4539 8.9526 -1.3110 0.9565
-12.1279 11.7005 -2.0018 0.9344
-7.9252 6.3840 -1.2088 0.9598
-13.7254 7.4873 -1.8572 0.9390
-16.8407 -0.6196 -2.0018 0.9344
-16.7182 -2.1199 -2.0018 0.9344
-16.4622 -3.6034 -2.0018 0.9344
-6.3803 12.6048 -2.0017 0.9445
-7.4798 11.9852 -2.0017 0.9445
-8.0858 8.9151 -1.7053 0.9525
-9.6370 8.8843 -1.8572 0.9484
-13.0813 5.3365 -2.0018 0.9445
-14.1216 0.4224 -2.0018 0.9445
-11.9355 -5.2857 -1.8495 0.9486
-11.4162 -6.3298 -1.8495 0.9486
-7.5427 -5.1119 -1.2910 0.9639
-10.1090 -8.2584 -1.8495 0.9486
-7.5604 -10.6409 -1.8495 0.9486
-5.5483 -11.8154 -1.8495 0.9486
-4.4717 -12.2633 -1.8495 0.9486
-2.2205 -12.8628 -1.8495 0.9486
3.5552 -12.5593 -1.8494 0.9486
4.6618 -12.1919 -1.8494 0.9486
6.7549 -11.1689 -1.8494 0.9486
7.7246 -10.5215 -1.8494 0.9486
9.4719 -8.9807 -1.8494 0.9486
10.2355 -8.0995 -1.8494 0.9486
14.0013 -1.8770 -2.0016 0.9445
14.1130 -0.6200 -2.0016 0.9445
14.1120 0.6419 -2.0016 0.9445
13.9984 1.8987 -2.0016 0.9445
13.7732 3.1404 -2.0016 0.9445
12.9956 5.5388 -2.0016 0.9445
8.5079 6.7539 -1.5391 0.9571
7.1464 6.7968 -1.3974 0.9609
8.6531 9.8440 -1.8571 0.9484
6.7739 9.2566 -1.6252 0.9547
7.2921 12.0995 -2.0016 0.9445
3.4972 9.1888 -1.3931 0.9611
-9.3844 9.1507 -1.8572 0.9484
-11.4731 6.3381 -1.8572 0.9484
-12.9267 5.7007 -2.0018 0.9445
-13.3838 4.5244 -2.0018 0.9445
-13.7342 3.3120 -2.0018 0.9445
-14.1042 0.8177 -2.0018 0.9445
-14.0249 -1.7026 -2.0018 0.9445
-13.4891 -4.1657 -2.0003 0.9446
-11.5890 -6.0075 -1.8495 0.9486
-9.3312 -5.9495 -1.5680 0.9563
-6.1305 -4.7282 -1.0970 0.9692
-6.8938 -11.0844 -1.8495 0.9486
-4.8135 -12.1333 -1.8495 0.9486
-2.5799 -12.7956 -1.8495 0.9486
-1.4277 -12.9747 -1.8495 0.9486
4.3185 -12.3177 -1.8494 0.9486
6.4394 -11.3537 -1.8494 0.9486
8.3551 -10.0281 -1.8494 0.9486
9.2167 -9.2424 -1.8494 0.9486
11.3355 -6.4710 -1.8494 0.9486
11.8678 -5.4336 -1.8494 0.9486
13.6755 -3.5012 -2.0002 0.9446
13.9433 -2.2684 -2.0016 0.9445
14.0901 -1.0151 -2.0016 0.9445
14.1244 0.2464 -2.0016 0.9445
13.8557 2.7534 -2.0016 0.9445
8.9254 9.5978 -1.8571 0.9484
6.5366 12.5238 -2.0017 0.9445
5.3929 13.0572 -2.0017 0.9445
4.2061 13.4865 -2.0017 0.9445
1.9944 9.2231 -1.3370 0.9626
-1.0992 7.5550 -1.0817 0.9696
-5.6645 12.9423 -2.0017 0.9445
-7.8751 11.7292 -2.0017 0.9445
-8.8904 10.9797 -2.0017 0.9445
-9.9278 8.5581 -1.8572 0.9484
-12.5340 5.9523 -1.9660 0.9455
-13.2519 4.8975 -2.0018 0.9445
-13.6360 3.6953 -2.0018 0.9445
-14.0671 -1.3092 -2.0018 0.9445
-13.6103 -3.7890 -2.0018 0.9445
-12.2128 -4.6091 -1.8496 0.9486
-9.7754 -5.8543 -1.6145 0.9550
-6.4046 -4.6594 -1.1222 0.9685
-9.8282 -8.5907 -1.8495 0.9486
-8.1444 -10.2009 -1.8495 0.9486
-6.2012 -11.4862 -1.8495 0.9486
-4.0605 -12.4055 -1.8495 0.9486
-2.9372 -12.7183 -1.8495 0.9486
-0.6295 -13.0378 -1.8495 0.9486
2.8464 -12.7387 -1.8494 0.9486
3.9718 -12.4338 -1.8494 0.9486
8.0710 -10.2582 -1.8494 0.9486
8.9542 -9.4970 -1.8494 0.9486
9.7660 -8.6600 -1.8494 0.9486
10.4998 -7.7539 -1.8494 0.9486
11.7109 -5.7638 -1.8494 0.9486
12.1016 -4.6660 -1.8377 0.9490
13.5300 -3.8708 -1.9940 0.9447
14.1258 -0.1493 -2.0016 0.9445
14.0828 1.1119 -2.0016 0.9445
13.6609 3.5977 -2.0016 0.9445
13.2853 4.8024 -2.0016 0.9445
11.3374 6.5758 -1.8570 0.9484
8.0254 6.8190 -1.4922 0.9583
6.6754 6.7867 -1.3488 0.9623
7.9581 11.6722 -2.0016 0.9445
5.1503 9.2281 -1.4974 0.9582
3.1774 9.2665 -1.3880 0.9612
3.3714 13.7190 -2.0017 0.9445
2.1337 13.9652 -2.0017 0.9445
0.8789 14.0999 -2.0017 0.9445
-0.8968 7.6648 -1.0934 0.9693
-2.8873 13.8293 -2.0017 0.9445
-8.5794 11.2244 -2.0017 0.9445
-9.5469 10.4140 -2.0018 0.9445
-8.4662 6.4373 -1.5069 0.9579
-11.7510 5.9894 -1.8688 0.9481
-13.5272 4.0758 -2.0018 0.9445
-13.8370 2.8524 -2.0018 0.9445
-14.0363 1.6062 -2.0018 0.9445
-13.9604 -2.1691 -2.0018 0.9445
-13.7111 -3.4063 -2.0018 0.9445
-11.3823 -6.3905 -1.8495 0.9486
-7.5558 -5.1796 -1.2980 0.9637
-10.0649 -8.3121 -1.8495 0.9486
-9.2830 -9.1770 -1.8495 0.9486
-8.4269 -9.9688 -1.8495 0.9486
-7.5037 -10.6810 -1.8495 0.9486
-6.5205 -11.3080 -1.8495 0.9486
-5.4853 -11.8447 -1.8495 0.9486
-4.4064 -12.2869 -1.8495 0.9486
-3.2923 -12.6311 -1.8495 0.9486
0.1710 -13.0518 -1.8495 0.9486
1.3351 -12.9845 -1.8495 0.9486
2.4885 -12.8135 -1.8494 0.9486
5.7936 -11.6965 -1.8494 0.9486
6.8142 -11.1328 -1.8494 0.9486
7.7805 -10.4802 -1.8494 0.9486
8.6847 -9.7440 -1.8494 0.9486
10.2785 -8.0449 -1.8494 0.9486
10.9554 -7.0955 -1.8494 0.9486
11.5449 -6.0896 -1.8494 0.9486
13.7944 -3.0456 -2.0016 0.9445
14.1084 0.7170 -2.0016 0.9445
12.9659 5.6079 -2.0016 0.9445
12.0708 6.5564 -1.9463 0.9460
8.3300 8.0074 -1.6372 0.9544
6.7078 9.2694 -1.6212 0.9548
7.2276 12.1381 -2.0016 0.9445
3.7543 13.6192 -2.0017 0.9445
1.2735 14.0698 -2.0017 0.9445
-1.2480 14.0722 -2.0017 0.9445
-1.3608 7.5721 -1.0901 0.9694
-3.7298 13.6263 -2.0017 0.9445
-3.3907 9.1036 -1.3764 0.9615
-6.0927 12.7463 -2.0017 0.9445
-9.2514 10.6773 -2.0017 0.9445
-7.9252 6.3840 -1.4419 0.9597
-13.4077 4.4531 -2.0018 0.9445
-14.1084 0.7426 -2.0018 0.9445
-14.1183 -0.5194 -2.0018 0.9445
-13.8011 -3.0209 -2.0018 0.9445
-4.4982 11.2876 -2.0017 0.9519
-5.4876 10.8411 -2.0017 0.9519
-5.9685 9.5636 -1.8571 0.9553
-7.5736 8.3503 -1.8572 0.9553
-8.2886 7.6412 -1.8572 0.9553
-8.9375 6.8710 -1.8572 0.9553
-9.5224 6.0507 -1.8586 0.9553
-10.7964 5.5755 -2.0018 0.9519
-11.6156 3.5674 -2.0018 0.9519
-12.0648 1.4457 -2.0018 0.9519
-12.1296 -0.7221 -2.0018 0.9519
-11.5050 -3.9091 -2.0017 0.9519
-10.2710 -4.5486 -1.8505 0.9555
-8.6946 -7.1028 -1.8495 0.9555
-7.2934 -8.5353 -1.8495 0.9555
-5.6599 -9.6958 -1.8495 0.9555
-3.8461 -10.5474 -1.8495 0.9555
-1.9098 -11.0631 -1.8495 0.9555
-0.9149 -11.1893 -1.8495 0.9555
3.0578 -10.8021 -1.8494 0.9555
4.0095 -10.4861 -1.8494 0.9555
6.6438 -9.0494 -1.8494 0.9555
7.4249 -8.4204 -1.8494 0.9555
8.1467 -7.7242 -1.8494 0.9555
8.8035 -6.9663 -1.8494 0.9555
9.9016 -5.2903 -1.8494 0.9555
12.0424 -1.6144 -2.0016 0.9519
12.0399 1.6330 -2.0016 0.9519
11.5578 3.7474 -2.0016 0.9519
11.1773 4.7639 -2.0016 0.9519
9.8901 6.5025 -1.9499 0.9531
8.5079 6.7539 -1.7895 0.9569
8.1683 7.7687 -1.8571 0.9553
1.7218 9.2033 -1.5424 0.9628
1.1597 12.0952 -2.0017 0.9519
-1.0089 12.1088 -2.0017 0.9519
-3.0587 6.4875 -1.1816 0.9713
-7.3367 8.5592 -1.8572 0.9553
-8.0713 7.8703 -1.8572 0.9553
-10.6360 5.8757 -2.0018 0.9519
-11.1179 4.9031 -2.0018 0.9519
-11.5111 3.8913 -2.0018 0.9519
-11.8125 2.8486 -2.0018 0.9519
-12.0195 1.7830 -2.0018 0.9519
-12.1307 0.7033 -2.0018 0.9519
-12.1451 -0.3821 -2.0018 0.9519
-11.6100 -3.5854 -2.0017 0.9519
-9.9674 -5.1670 -1.8495 0.9555
-6.7563 -8.9663 -1.8495 0.9555
-5.9292 -9.5335 -1.8495 0.9555
-4.1400 -10.4356 -1.8495 0.9555
-3.1922 -10.7634 -1.8495 0.9555
-1.2279 -11.1593 -1.8495 0.9555
-0.2271 -11.2244 -1.8495 0.9555
2.7540 -10.8835 -1.8494 0.9555
3.7143 -10.5943 -1.8494 0.9555
7.1861 -8.6250 -1.8494 0.9555
8.6049 -7.2102 -1.8494 0.9555
9.2140 -6.4135 -1.8494 0.9555
9.7495 -5.5656 -1.8494 0.9555
12.1187 -0.8730 -2.0016 0.9519
12.1483 0.2119 -2.0016 0.9519
12.0809 1.2952 -2.0016 0.9519
11.3064 4.4489 -2.0016 0.9519
10.8642 5.4402 -2.0016 0.9519
8.3827 7.5369 -1.8571 0.9553
5.1861 6.6856 -1.3939 0.9663
3.4966 6.6993 -1.2449 0.9698
3.6176 11.5995 -2.0017 0.9519
2.5681 11.8761 -2.0017 0.9519
1.1441 9.2092 -1.5288 0.9631
-3.0487 9.1023 -1.5814 0.9618
-5.8459 10.6522 -2.0017 0.9519
-7.0941 8.7613 -1.8572 0.9553
-6.2501 6.4456 -1.4791 0.9643
-11.7281 3.1783 -2.0018 0.9519
-11.9649 2.1190 -2.0018 0.9519
-12.0988 -1.1260 -2.0018 0.9519
-11.7059 -3.2588 -2.0018 0.9519
-11.3440 -4.2813 -1.9975 0.9520
-6.4051 -4.6598 -1.3049 0.9684
-8.4530 -7.3887 -1.8495 0.9555
-7.0048 -8.7736 -1.8495 0.9555
-5.3336 -9.8790 -1.8495 0.9555
-4.4306 -10.3156 -1.8495 0.9555
-2.5263 -10.9388 -1.8495 0.9555
0.4615 -11.2171 -1.8495 0.9555
2.4481 -10.9564 -1.8495 0.9555
3.4161 -10.6942 -1.8494 0.9555
4.3568 -10.3466 -1.8494 0.9555
5.2628 -9.9165 -1.8494 0.9555
6.1267 -9.4072 -1.8494 0.9555
6.9417 -8.8229 -1.8494 0.9555
8.3996 -7.4483 -1.8494 0.9555
10.4746 -4.0387 -1.8494 0.9555
11.4265 4.1305 -2.0016 0.9519
11.0124 5.1338 -2.0016 0.9519
7.9048 8.0367 -1.8571 0.9553
5.1503 9.2281 -1.7410 0.9581
4.9510 11.0960 -2.0017 0.9519
3.9411 11.4936 -2.0017 0.9519
1.8351 12.0112 -2.0017 0.9519
-0.8895 7.6029 -1.2610 0.9694
-2.4833 11.8943 -2.0017 0.9519
-3.5349 11.6253 -2.0017 0.9519
-5.5452 10.8118 -2.0017 0.9519
-6.0193 9.5317 -1.8571 0.9553
-6.8460 8.9565 -1.8572 0.9553
-8.3292 7.5969 -1.8572 0.9553
-9.6198 6.0410 -1.8713 0.9550
-10.8259 5.5179 -2.0018 0.9519
-11.2752 4.5298 -2.0018 0.9519
-11.9008 2.4533 -2.0018 0.9519
-12.0723 1.3814 -2.0018 0.9519
-12.1256 -0.7867 -2.0018 0.9519
-12.0070 -1.8656 -2.0018 0.9519
-11.4841 -3.9704 -2.0017 0.9519
-7.5345 -5.1651 -1.5049 0.9636
-8.6566 -7.1490 -1.8495 0.9555
-5.6082 -9.7258 -1.8495 0.9555
-1.8508 -11.0731 -1.8495 0.9555
4.0653 -10.4646 -1.8494 0.9555
4.9830 -10.0600 -1.8494 0.9555
5.8608 -9.5751 -1.8494 0.9555
6.6919 -9.0139 -1.8494 0.9555
7.4696 -8.3807 -1.8494 0.9555
8.8404 -6.9193 -1.8494 0.9555
9.4226 -6.1028 -1.8494 0.9555
9.9296 -5.2376 -1.8494 0.9555
12.1411 -0.4687 -2.0016 0.9519
12.0310 1.6971 -2.0016 0.9519
11.8316 2.7640 -2.0016 0.9519
10.6769 5.7993 -2.0016 0.9519
9.7765 6.5026 -1.9343 0.9535
8.4635 6.7924 -1.7878 0.9570
8.1268 7.8121 -1.8571 0.9553
-1.0734 12.1032 -2.0017 0.9519
-1.3559 7.5448 -1.2628 0.9694
-5.2402 10.9628 -2.0017 0.9519
-6.1977 10.4515 -2.0017 0.9519
-4.6475 6.4468 -1.3092 0.9683
-7.3822 8.5200 -1.8572 0.9553
-9.3754 6.2603 -1.8572 0.9553
-10.6671 5.8190 -2.0018 0.9519
-11.5317 3.8300 -2.0018 0.9519
-11.8275 2.7856 -2.0018 0.9519
-12.0545 -1.5286 -2.0018 0.9519
-3.6577 9.1784 -1.8571 0.9606
-4.4622 8.8154 -1.8571 0.9606
-5.9583 7.8818 -1.8571 0.9606
-7.2646 6.6971 -1.8572 0.9606
-9.4625 4.8866 -2.0017 0.9576
-9.8609 4.0227 -2.0017 0.9576
-10.1805 3.1267 -2.0017 0.9576
-10.4189 2.2057 -2.0017 0.9576
-10.5742 1.2671 -2.0017 0.9576
-10.6310 -0.6329 -2.0017 0.9576
-10.5321 -1.5791 -2.0017 0.9576
-10.0836 -3.4262 -2.0017 0.9576
-7.0344 -6.8805 -1.8495 0.9607
-6.3923 -7.4808 -1.8495 0.9607
-4.1824 -8.9067 -1.8495 0.9607
-3.3709 -9.2444 -1.8495 0.9607
-2.5325 -9.5083 -1.8495 0.9607
-0.8019 -9.8069 -1.8495 0.9607
0.9543 -9.7932 -1.8495 0.9607
1.8244 -9.6690 -1.8495 0.9607
2.6800 -9.4675 -1.8495 0.9607
4.3203 -8.8403 -1.8494 0.9607
5.8230 -7.9314 -1.8494 0.9607
7.1402 -6.7699 -1.8494 0.9607
7.7159 -6.1057 -1.8494 0.9607
8.6784 -4.6368 -1.8494 0.9607
9.3927 -3.9861 -1.9179 0.9593
10.1350 -3.2687 -2.0016 0.9576
10.3863 -2.3512 -2.0016 0.9576
10.6388 -0.4674 -2.0016 0.9576
10.3827 2.3673 -2.0016 0.9576
10.1300 3.2844 -2.0016 0.9576
8.8982 5.8504 -2.0016 0.9576
8.1367 6.4592 -1.9527 0.9586
4.0539 6.7265 -1.4762 0.9685
4.3244 8.8835 -1.8571 0.9606
1.0164 10.6009 -2.0017 0.9576
-4.6114 6.4691 -1.4932 0.9682
-6.4303 7.5017 -1.8571 0.9606
-7.0741 6.8979 -1.8572 0.9606
-7.6716 6.2473 -1.8596 0.9605
-8.8252 5.9611 -2.0017 0.9576
-9.3219 5.1497 -2.0017 0.9576
-10.0889 3.4106 -2.0017 0.9576
-10.6445 -0.3349 -2.0017 0.9576
-10.4154 -2.2218 -2.0017 0.9576
-7.8482 -5.0040 -1.7495 0.9628
-6.1316 -4.7290 -1.4555 0.9690
-7.2244 -6.6808 -1.8495 0.9607
-6.5993 -7.2988 -1.8495 0.9607
-4.4303 -8.7860 -1.8495 0.9607
-2.7978 -9.4336 -1.8495 0.9607
-0.1991 -9.8376 -1.8495 0.9607
0.6796 -9.8161 -1.8495 0.9607
1.5529 -9.7163 -1.8495 0.9607
2.4138 -9.5389 -1.8495 0.9607
4.8542 -8.5588 -1.8494 0.9607
6.9478 -6.9672 -1.8494 0.9607
7.5418 -6.3194 -1.8494 0.9607
8.0757 -5.6211 -1.8494 0.9607
8.9463 -4.0960 -1.8494 0.9607
10.3163 -2.6412 -2.0016 0.9576
10.5109 -1.7100 -2.0016 0.9576
10.6215 -0.7652 -2.0016 0.9576
10.6475 0.1857 -2.0016 0.9576
10.5884 1.1352 -2.0016 0.9576
10.4449 2.0756 -2.0016 0.9576
9.9096 3.8993 -2.0016 0.9576
9.5221 4.7681 -2.0016 0.9576
7.3564 6.6142 -1.8594 0.9605
6.7282 7.2351 -1.8571 0.9606
5.1861 6.6856 -1.5904 0.9661
5.3349 8.3160 -1.8571 0.9606
3.4966 6.6993 -1.4204 0.9697
3.7717 9.1319 -1.8571 0.9606
2.0813 6.6735 -1.3139 0.9719
2.0882 9.6570 -1.8571 0.9606
0.2252 6.5748 -1.2365 0.9736
-2.2894 9.6115 -1.8571 0.9606
-4.7536 8.6618 -1.8571 0.9606
-5.5076 8.2031 -1.8571 0.9606
-6.2177 7.6789 -1.8571 0.9606
-8.4437 6.0546 -1.9529 0.9586
-9.1740 5.4088 -2.0017 0.9576
-9.6201 4.5686 -2.0017 0.9576
-9.9894 3.6918 -2.0017 0.9576
-10.6105 0.9140 -2.0017 0.9576
-10.6497 -0.0366 -2.0017 0.9576
-10.6040 -0.9869 -2.0017 0.9576
-10.4736 -1.9292 -2.0017 0.9576
-6.4056 -4.6602 -1.4889 0.9683
-6.1394 -7.6897 -1.8495 0.9607
-5.4287 -8.2068 -1.8495 0.9607
-4.6746 -8.6585 -1.8495 0.9607
-3.0609 -9.3516 -1.8495 0.9607
-1.3497 -9.7467 -1.8495 0.9607
0.4044 -9.8313 -1.8495 0.9607
2.9941 -9.3730 -1.8494 0.9607
3.8186 -9.0683 -1.8494 0.9607
8.4051 -5.1155 -1.8494 0.9607
9.9099 -3.8210 -1.9963 0.9577
10.2383 -2.9291 -2.0016 0.9576
10.6485 -0.1126 -2.0016 0.9576
10.4989 1.7822 -2.0016 0.9576
10.2980 2.7120 -2.0016 0.9576
10.0149 3.6202 -2.0016 0.9576
9.2118 5.3429 -2.0016 0.9576
8.6983 6.1437 -2.0016 0.9576
7.6035 6.4605 -1.8754 0.9602
6.9282 7.0438 -1.8571 0.9606
4.5912 6.7340 -1.5319 0.9674
4.8151 8.6274 -1.8571 0.9606
4.0259 9.0227 -1.8571 0.9606
1.6084 10.5273 -2.0017 0.9576
0.6625 10.6289 -2.0017 0.9576
-0.2886 10.6456 -2.0017 0.9576
-1.3610 6.5189 -1.2517 0.9733
-2.8744 9.4530 -1.8571 0.9606
-3.7065 9.1588 -1.8571 0.9606
-5.2757 8.3541 -1.8571 0.9606
-7.3001 6.6583 -1.8572 0.9606
-9.0189 5.6636 -2.0017 0.9576
-9.8821 3.9701 -2.0017 0.9576
-10.1970 3.0724 -2.0017 0.9576
-10.4305 2.1502 -2.0017 0.9576
-10.5808 1.2108 -2.0017 0.9576
-10.6275 -0.6895 -2.0017 0.9576
-10.5235 -1.6351 -2.0017 0.9576
-8.5802 -4.8172 -1.8495 0.9607
-6.9977 -6.9178 -1.8495 0.9607
-4.9153 -8.5242 -1.8495 0.9607
-4.1350 -8.9288 -1.8495 0.9607
-3.3216 -9.2622 -1.8495 0.9607
-1.6222 -9.7051 -1.8495 0.9607
0.1289 -9.8388 -1.8495 0.9607
1.0064 -9.7880 -1.8495 0.9607
1.8759 -9.6591 -1.8495 0.9607
2.7304 -9.4531 -1.8495 0.9607
3.5631 -9.1717 -1.8494 0.9607
4.3673 -8.8171 -1.8494 0.9607
5.8652 -7.9003 -1.8494 0.9607
8.7029 -4.5905 -1.8494 0.9607
9.5171 -3.9791 -1.9389 0.9589
10.1523 -3.2147 -2.0016 0.9576
10.3986 -2.2959 -2.0016 0.9576
10.6412 -0.4108 -2.0016 0.9576
10.5447 1.4875 -2.0016 0.9576
9.7741 4.2274 -2.0016 0.9576
8.8669 5.8977 -2.0016 0.9576
7.1228 6.8470 -1.8571 0.9606
6.4834 7.4553 -1.8571 0.9606
3.4284 9.1544 -1.8374 0.9610
1.7652 9.7213 -1.8571 0.9606
0.9600 10.6061 -2.0017 0.9576
-0.9408 10.6079 -2.0017 0.9576
-2.6085 9.5298 -1.8571 0.9606
-4.2611 8.9144 -1.8571 0.9606
-6.4702 7.4674 -1.8571 0.9606
-7.1108 6.8602 -1.8572 0.9606
-7.6946 6.1982 -1.8572 0.9606
-8.8568 5.9140 -2.0017 0.9576
-10.1069 3.3568 -2.0017 0.9576
-10.3662 2.4415 -2.0017 0.9576
-10.4035 -2.2772 -2.0017 0.9576
-3.9678 7.8387 -1.8571 0.9647
-5.2981 7.0086 -1.8571 0.9647
-5.9025 6.5078 -1.8571 0.9647
-6.6254 6.1079 -1.9048 0.9638
-7.5076 5.7718 -2.0017 0.9620
-7.9928 5.0788 -2.0017 0.9620
-8.4141 4.3452 -2.0017 0.9620
-9.4026 1.1267 -2.0017 0.9620
-9.4656 0.2831 -2.0017 0.9620
-9.3652 -1.4041 -2.0017 0.9620
-8.9664 -3.0466 -2.0017 0.9620
-4.4110 -7.5564 -1.8495 0.9649
-3.7191 -7.9199 -1.8495 0.9649
-2.9974 -8.2202 -1.8495 0.9649
-2.2519 -8.4548 -1.8495 0.9649
-0.7130 -8.7204 -1.8495 0.9649
0.0680 -8.7492 -1.8495 0.9649
0.8486 -8.7082 -1.8495 0.9649
2.3831 -8.4186 -1.8495 0.9649
3.1249 -8.1724 -1.8495 0.9649
3.8417 -7.8609 -1.8494 0.9649
5.1779 -7.0527 -1.8494 0.9649
5.7866 -6.5625 -1.8494 0.9649
6.3492 -6.0199 -1.8494 0.9649
6.8610 -5.4292 -1.8494 0.9649
7.3182 -4.7953 -1.8494 0.9649
9.0122 -2.9066 -2.0016 0.9620
9.2356 -2.0907 -2.0016 0.9620
9.3853 -1.2582 -2.0016 0.9620
9.4602 -0.4156 -2.0016 0.9620
9.0077 2.9205 -2.0016 0.9620
7.9124 5.2022 -2.0016 0.9620
7.4166 5.8876 -2.0016 0.9620
3.8453 7.8993 -1.8571 0.9647
2.5487 6.6966 -1.5146 0.9711
0.8385 8.7455 -1.8571 0.9647
0.0547 8.7855 -1.8571 0.9647
-1.2272 7.0438 -1.5113 0.9712
-2.2743 8.4862 -1.8571 0.9647
-3.0226 8.2494 -1.8571 0.9647
-3.0587 6.4875 -1.5161 0.9711
-4.6114 6.4691 -1.6793 0.9680
-5.7179 6.6706 -1.8571 0.9647
-6.2904 6.1337 -1.8571 0.9647
-7.8474 5.3006 -2.0017 0.9620
-8.2891 4.5792 -2.0017 0.9620
-8.9711 3.0327 -2.0017 0.9620
-9.2060 2.2200 -2.0017 0.9620
-9.0482 -2.7943 -2.0017 0.9620
-8.7627 -3.5906 -2.0017 0.9620
-7.3777 -4.7040 -1.8495 0.9649
-3.9394 -7.8126 -1.8495 0.9649
-3.2265 -8.1330 -1.8495 0.9649
-2.4878 -8.3884 -1.8495 0.9649
-1.7293 -8.5770 -1.8495 0.9649
-0.9570 -8.6970 -1.8495 0.9649
1.3809 -8.6398 -1.8495 0.9649
2.1464 -8.4821 -1.8495 0.9649
2.8947 -8.2567 -1.8495 0.9649
3.6200 -7.9654 -1.8494 0.9649
4.3164 -7.6105 -1.8494 0.9649
5.6005 -6.7220 -1.8494 0.9649
6.7063 -5.6193 -1.8494 0.9649
8.5816 -3.9290 -1.9951 0.9621
8.9272 -3.1579 -2.0016 0.9620
9.4448 -0.6804 -2.0016 0.9620
9.4679 0.1652 -2.0016 0.9620
9.4153 1.0094 -2.0016 0.9620
8.8117 3.4673 -2.0016 0.9620
8.4671 4.2398 -2.0016 0.9620
8.0550 4.9785 -2.0016 0.9620
7.5786 5.6775 -2.0016 0.9620
7.0417 6.3312 -2.0016 0.9620
5.9828 6.4335 -1.8571 0.9647
2.6158 8.3871 -1.8571 0.9647
0.2252 6.5748 -1.3906 0.9735
-0.3935 7.1313 -1.5097 0.9712
-1.6680 7.0026 -1.5216 0.9710
-2.7904 8.3308 -1.8571 0.9647
-3.5227 8.0486 -1.8571 0.9647
-4.8974 7.2942 -1.8571 0.9647
-5.5288 6.8281 -1.8571 0.9647
-6.1161 6.3075 -1.8571 0.9647
-7.0591 6.0852 -1.9700 0.9626
-8.1576 4.8095 -2.0017 0.9620
-8.5543 4.0624 -2.0017 0.9620
-8.8827 3.2828 -2.0017 0.9620
-9.3132 -1.7155 -2.0017 0.9620
-9.1229 -2.5397 -2.0017 0.9620
-8.8599 -3.3437 -2.0017 0.9620
-7.5066 -4.4955 -1.8495 0.9649
-6.5878 -5.7583 -1.8495 0.9649
-6.0476 -6.3232 -1.8495 0.9649
-4.8272 -7.2976 -1.8495 0.9649
-4.1567 -7.6992 -1.8495 0.9649
-3.4530 -8.0394 -1.8495 0.9649
-2.7218 -8.3155 -1.8495 0.9649
-1.2002 -8.6668 -1.8495 0.9649
0.3596 -8.7421 -1.8495 0.9649
1.1383 -8.6751 -1.8495 0.9649
1.9080 -8.5389 -1.8495 0.9649
3.3955 -8.0637 -1.8494 0.9649
4.1016 -7.7285 -1.8494 0.9649
4.7749 -7.3316 -1.8494 0.9649
5.4101 -6.8762 -1.8494 0.9649
6.5463 -5.8049 -1.8494 0.9649
8.1585 -4.0154 -1.9221 0.9635
8.8353 -3.4066 -2.0016 0.9620
9.3001 -1.7817 -2.0016 0.9620
9.4399 0.7453 -2.0016 0.9620
9.1571 2.4116 -2.0016 0.9620
8.9053 3.2191 -2.0016 0.9620
8.1913 4.7510 -2.0016 0.9620
6.3184 6.4237 -1.9046 0.9638
4.9491 7.2589 -1.8571 0.9647
1.3269 8.6848 -1.8571 0.9647
0.5466 8.7686 -1.8571 0.9647
-0.2381 8.7824 -1.8571 0.9647
-1.3610 6.5189 -1.4077 0.9731
-3.2959 8.1441 -1.8571 0.9647
-4.0095 7.8175 -1.8571 0.9647
-4.6912 7.4285 -1.8571 0.9647
-6.6928 6.1044 -1.9148 0.9636
-9.2749 1.9119 -2.0017 0.9620
-9.4085 1.0766 -2.0017 0.9620
-8.9500 -3.0943 -2.0017 0.9620
-7.2168 -4.9473 -1.8495 0.9649
-6.7465 -5.5716 -1.8495 0.9649
-6.2224 -6.1514 -1.8495 0.9649
-5.6486 -6.6821 -1.8495 0.9649
-5.0297 -7.1595 -1.8495 0.9649
-4.3707 -7.5798 -1.8495 0.9649
0.1146 -8.7488 -1.8495 0.9649
1.6680 -8.5890 -1.8495 0.9649
3.1683 -8.1556 -1.8495 0.9649
3.8835 -7.8403 -1.8494 0.9649
4.5677 -7.4624 -1.8494 0.9649
5.8215 -6.5316 -1.8494 0.9649
6.3811 -5.9860 -1.8494 0.9649
6.8898 -5.3926 -1.8494 0.9649
8.7282 -3.6493 -1.9997 0.9621
9.4622 -0.3653 -2.0016 0.9620
9.4571 0.4806 -2.0016 0.9620
8.9920 2.9685 -2.0016 0.9620
8.6912 3.7591 -2.0016 0.9620
7.8846 5.2443 -2.0016 0.9620
6.6812 6.4225 -1.9590 0.9628
5.1505 7.1174 -1.8571 0.9647
4.4948 7.5486 -1.8571 0.9647
3.8032 7.9197 -1.8571 0.9647
2.5053 6.6895 -1.5099 0.9712
0.0060 6.6266 -1.4007 0.9733
-0.6307 7.1120 -1.5092 0.9712
-3.7890 7.9267 -1.8571 0.9647
-4.4813 7.5570 -1.8571 0.9647
-4.6475 6.4468 -1.6799 0.9680
-5.7533 6.6400 -1.8571 0.9647
-7.3748 5.9406 -2.0017 0.9620
-8.3134 4.5350 -2.0017 0.9620
-8.6849 3.7750 -2.0017 0.9620
-9.2177 2.1710 -2.0017 0.9620
-9.3746 1.3397 -2.0017 0.9620
-9.3946 -1.1913 -2.0017 0.9620
-9.2508 -2.0249 -2.0017 0.9620
-3.5687 7.0502 -1.8571 0.9681
-4.1836 6.7036 -1.8571 0.9681
-4.7651 6.3035 -1.8571 0.9681
-6.2621 5.7730 -2.0017 0.9656
-7.5676 3.9081 -2.0017 0.9656
-7.8862 3.2171 -2.0017 0.9656
-8.1418 2.5006 -2.0017 0.9656
-8.4567 1.0134 -2.0017 0.9656
-8.5021 -0.5061 -2.0017 0.9656
-8.2767 -2.0095 -2.0017 0.9656
-8.0644 -2.7401 -2.0017 0.9656
-7.4368 -4.1234 -1.9985 0.9657
-5.6258 -5.5027 -1.8495 0.9682
-5.1123 -5.9828 -1.8495 0.9682
-4.5579 -6.4151 -1.8495 0.9682
-3.9673 -6.7962 -1.8495 0.9682
-2.6959 -7.3932 -1.8495 0.9682
-2.0254 -7.6043 -1.8495 0.9682
-1.3387 -7.7547 -1.8495 0.9682
0.0612 -7.8691 -1.8495 0.9682
0.7632 -7.8322 -1.8495 0.9682
1.4591 -7.7328 -1.8495 0.9682
2.1434 -7.5717 -1.8495 0.9682
4.0724 -6.7335 -1.8494 0.9682
5.7105 -5.4143 -1.8494 0.9682
6.5820 -4.3129 -1.8494 0.9682
8.1056 -2.6142 -2.0016 0.9656
8.3065 -1.8804 -2.0016 0.9656
8.4412 -1.1316 -2.0016 0.9656
8.5079 0.3870 -2.0016 0.9656
8.4394 1.1447 -2.0016 0.9656
8.1015 2.6267 -2.0016 0.9656
7.8348 3.3393 -2.0016 0.9656
7.5056 4.0251 -2.0016 0.9656
6.6705 5.2953 -2.0016 0.9656
6.1713 5.8695 -2.0016 0.9656
5.6162 6.3891 -1.9992 0.9657
4.6789 6.3938 -1.8621 0.9680
3.4585 7.1046 -1.8571 0.9681
2.8107 7.3849 -1.8571 0.9681
1.8644 6.6255 -1.6176 0.9721
1.4531 7.7670 -1.8571 0.9681
0.7542 7.8657 -1.8571 0.9681
0.0492 7.9017 -1.8571 0.9681
-1.2293 7.0560 -1.6833 0.9710
-1.9089 7.1227 -1.7331 0.9702
-2.7185 7.4195 -1.8571 0.9681
-4.5867 6.4345 -1.8571 0.9681
-5.2646 6.1417 -1.9012 0.9673
-6.6043 5.3782 -2.0017 0.9656
-7.4552 4.1185 -2.0017 0.9656
-7.7930 3.4368 -2.0017 0.9656
-8.0686 2.7276 -2.0017 0.9656
-8.5029 0.4930 -2.0017 0.9656
-7.8812 -3.2293 -2.0017 0.9656
-7.5615 -3.9198 -2.0017 0.9656
-5.7777 -5.3429 -1.8495 0.9682
-5.2778 -5.8372 -1.8495 0.9682
-4.7358 -6.2849 -1.8495 0.9682
-4.1561 -6.6825 -1.8495 0.9682
-3.5431 -7.0267 -1.8495 0.9682
-2.2375 -7.5446 -1.8495 0.9682
-0.8607 -7.8221 -1.8495 0.9682
-0.1592 -7.8677 -1.8495 0.9682
1.9304 -7.6288 -1.8495 0.9682
2.6035 -7.4261 -1.8495 0.9682
3.2559 -7.1641 -1.8495 0.9682
4.4775 -6.4712 -1.8494 0.9682
5.5566 -5.5721 -1.8494 0.9682
6.4586 -4.4956 -1.8494 0.9682
7.7437 -3.5454 -2.0016 0.9656
8.2506 -2.1123 -2.0016 0.9656
8.4062 -1.3676 -2.0016 0.9656
8.4947 -0.6120 -2.0016 0.9656
8.5154 0.1485 -2.0016 0.9656
8.3534 1.6600 -2.0016 0.9656
8.1719 2.3988 -2.0016 0.9656
7.9253 3.1185 -2.0016 0.9656
7.2447 4.4777 -2.0016 0.9656
6.8162 5.1064 -2.0016 0.9656
5.7999 6.2368 -2.0016 0.9656
4.9578 6.3912 -1.9010 0.9673
4.2667 6.6507 -1.8571 0.9681
-0.3936 7.1341 -1.6792 0.9711
-2.5096 7.4928 -1.8571 0.9681
-3.1683 7.2389 -1.8571 0.9681
-4.4047 6.5604 -1.8571 0.9681
-4.9861 6.1578 -1.8622 0.9680
-6.4511 5.5611 -2.0017 0.9656
-7.3369 4.3257 -2.0017 0.9656
-7.6937 3.6537 -2.0017 0.9656
-7.9891 2.9525 -2.0017 0.9656
-8.2207 2.2278 -2.0017 0.9656
-8.3867 1.4853 -2.0017 0.9656
-8.5171 -0.0293 -2.0017 0.9656
-8.4805 -0.7892 -2.0017 0.9656
-8.3763 -1.5429 -2.0017 0.9656
-8.2051 -2.2842 -2.0017 0.9656
-7.9685 -3.0074 -2.0017 0.9656
-6.3636 -4.6296 -1.8495 0.9682
-5.9251 -5.1790 -1.8495 0.9682
-5.4392 -5.6871 -1.8495 0.9682
-4.9100 -6.1498 -1.8495 0.9682
-3.7385 -6.9247 -1.8495 0.9682
-3.1056 -7.2307 -1.8495 0.9682
-2.4480 -7.4789 -1.8495 0.9682
0.3235 -7.8627 -1.8495 0.9682
1.0238 -7.8024 -1.8495 0.9682
2.3945 -7.4961 -1.8495 0.9682
3.0539 -7.2525 -1.8495 0.9682
3.6890 -6.9510 -1.8494 0.9682
4.8658 -6.1845 -1.8494 0.9682
5.8877 -5.2209 -1.8494 0.9682
6.3302 -4.6747 -1.8494 0.9682
7.6291 -3.7548 -1.9984 0.9657
7.9465 -3.0639 -2.0016 0.9656
8.5162 -0.0900 -2.0016 0.9656
8.4903 0.6703 -2.0016 0.9656
8.0095 2.8953 -2.0016 0.9656
6.9565 4.9135 -2.0016 0.9656
5.9723 6.0719 -2.0016 0.9656
3.8509 6.8998 -1.8571 0.9681
1.8857 7.6734 -1.8571 0.9681
0.4916 7.8865 -1.8571 0.9681
-0.2142 7.8989 -1.8571 0.9681
-0.8299 7.0933 -1.6785 0.9711
-1.3610 6.5189 -1.5651 0.9730
-2.2988 7.5601 -1.8571 0.9681
-4.2192 6.6812 -1.8571 0.9681
-4.7986 6.2780 -1.8571 0.9681
-7.2129 4.5295 -2.0017 0.9656
-7.5883 3.8677 -2.0017 0.9656
-8.4620 0.9683 -2.0017 0.9656
-8.4993 -0.5514 -2.0017 0.9656
-8.4162 -1.3077 -2.0017 0.9656
-8.2659 -2.0535 -2.0017 0.9656
-8.0497 -2.7830 -2.0017 0.9656
-7.7692 -3.4902 -2.0017 0.9656
-5.0803 -6.0099 -1.8495 0.9682
-4.5237 -6.4393 -1.8495 0.9682
-3.9310 -6.8173 -1.8495 0.9682
-2.6565 -7.4075 -1.8495 0.9682
-1.9848 -7.6149 -1.8495 0.9682
-0.5995 -7.8465 -1.8495 0.9682
0.1031 -7.8686 -1.8495 0.9682
1.5002 -7.7249 -1.8495 0.9682
2.1836 -7.5602 -1.8495 0.9682
2.8496 -7.3352 -1.8495 0.9682
3.4928 -7.0516 -1.8494 0.9682
4.1082 -6.7117 -1.8494 0.9682
4.6907 -6.3183 -1.8494 0.9682
5.7392 -5.3838 -1.8494 0.9682
6.1968 -4.8502 -1.8494 0.9682
7.5080 -3.9602 -1.9950 0.9657
7.8576 -3.2853 -2.0016 0.9656
8.1194 -2.5710 -2.0016 0.9656
8.4332 1.1896 -2.0016 0.9656
8.0874 2.6698 -2.0016 0.9656
7.8169 3.3809 -2.0016 0.9656
7.4840 4.0650 -2.0016 0.9656
7.0914 4.7167 -2.0016 0.9656
6.1400 5.9022 -2.0016 0.9656
5.5564 6.3893 -1.9900 0.9658
4.6324 6.4014 -1.8571 0.9681
4.0426 6.7893 -1.8571 0.9681
2.7713 7.3998 -1.8571 0.9681
1.8414 6.6797 -1.6284 0.9719
0.0071 7.9018 -1.8571 0.9681
-0.5872 6.6206 -1.5621 0.9731
-1.2674 7.0524 -1.6840 0.9710
-2.7580 7.4049 -1.8571 0.9681
-3.4078 7.1293 -1.8571 0.9681
-4.0304 6.7968 -1.8571 0.9681
-4.6209 6.4100 -1.8571 0.9681
-5.3191 6.1389 -1.9090 0.9672
-6.1296 5.9136 -2.0017 0.9656
-7.4770 4.0788 -2.0017 0.9656
-7.8112 3.3952 -2.0017 0.9656
-8.4315 1.2049 -2.0017 0.9656
-8.5054 0.4477 -2.0017 0.9656
-8.5114 -0.3131 -2.0017 0.9656
-8.4495 -1.0714 -2.0017 0.9656
-2.6553 6.6630 -1.8571 0.9708
-3.8562 6.1789 -1.8858 0.9704
-4.6415 6.1399 -1.9929 0.9687
-5.1939 5.7266 -2.0017 0.9686
-5.6842 5.2402 -2.0017 0.9686
-6.5252 4.1463 -2.0017 0.9686
-7.1584 2.9202 -2.0017 0.9686
-7.5635 1.6012 -2.0017 0.9686
-7.6762 0.9198 -2.0017 0.9686
-7.7277 0.2311 -2.0017 0.9686
-7.5129 -1.8240 -2.0017 0.9686
-7.0689 -3.1305 -2.0017 0.9686
-6.7613 -3.7489 -2.0017 0.9686
-6.3773 -4.3221 -1.9947 0.9687
-5.5342 -4.5210 -1.8502 0.9709
-4.6405 -5.4306 -1.8495 0.9709
-4.1373 -5.8231 -1.8495 0.9709
-3.6011 -6.1690 -1.8495 0.9709
-1.8384 -6.9025 -1.8495 0.9709
0.0556 -7.1429 -1.8495 0.9709
0.6928 -7.1094 -1.8495 0.9709
1.9456 -6.8730 -1.8495 0.9709
3.6966 -6.1121 -1.8494 0.9709
4.7242 -5.3576 -1.8494 0.9709
5.6014 -4.4324 -1.8494 0.9709
6.8153 -3.6414 -2.0007 0.9686
7.1164 -3.0201 -2.0016 0.9686
7.3576 -2.3729 -2.0016 0.9686
7.5400 -1.7069 -2.0016 0.9686
7.6622 -1.0272 -2.0016 0.9686
7.7233 -0.3393 -2.0016 0.9686
7.7228 0.3513 -2.0016 0.9686
7.6606 1.0391 -2.0016 0.9686
7.1118 3.0311 -2.0016 0.9686
6.0549 4.8066 -2.0016 0.9686
5.1040 5.8065 -2.0017 0.9686
4.5655 6.2388 -2.0017 0.9686
3.8329 6.3598 -1.9226 0.9698
2.5513 6.7034 -1.8571 0.9708
1.3190 7.0502 -1.8571 0.9708
0.0447 7.1724 -1.8571 0.9708
-1.8568 6.9281 -1.8571 0.9708
-2.4676 6.7348 -1.8571 0.9708
-3.0416 6.4513 -1.8467 0.9710
-3.6288 6.1944 -1.8588 0.9708
-4.3860 6.1529 -1.9564 0.9693
-5.0315 5.8698 -2.0017 0.9686
-5.9948 4.8819 -2.0017 0.9686
-7.3240 2.4759 -2.0017 0.9686
-7.6474 1.1345 -2.0017 0.9686
-7.3869 -2.2812 -2.0017 0.9686
-6.5057 -4.1480 -1.9977 0.9686
-5.6655 -4.3695 -1.8525 0.9709
-5.2445 -4.8499 -1.8495 0.9709
-4.7907 -5.2985 -1.8495 0.9709
-4.2988 -5.7049 -1.8495 0.9709
-3.2161 -6.3782 -1.8495 0.9709
-2.6341 -6.6397 -1.8495 0.9709
-0.7813 -7.1002 -1.8495 0.9709
-0.1445 -7.1416 -1.8495 0.9709
0.4934 -7.1260 -1.8495 0.9709
1.1273 -7.0535 -1.8495 0.9709
2.3633 -6.7408 -1.8495 0.9709
2.9554 -6.5029 -1.8495 0.9709
3.5239 -6.2132 -1.8494 0.9709
4.0643 -5.8740 -1.8494 0.9709
5.0438 -5.0579 -1.8494 0.9709
5.4750 -4.5876 -1.8494 0.9709
5.8726 -4.0877 -1.8526 0.9709
6.7004 -3.8250 -1.9976 0.9686
7.2882 -2.5781 -2.0016 0.9686
7.6304 -1.2414 -2.0016 0.9686
7.6867 0.8241 -2.0016 0.9686
7.4178 2.1774 -2.0016 0.9686
7.1939 2.8307 -2.0016 0.9686
6.5761 4.0645 -2.0016 0.9686
6.1872 4.6351 -2.0016 0.9686
5.2646 5.6612 -2.0017 0.9686
4.7384 6.1085 -2.0017 0.9686
4.0798 6.3595 -1.9563 0.9693
2.7380 6.6293 -1.8571 0.9708
1.5159 7.0105 -1.8571 0.9708
0.8843 7.1178 -1.8571 0.9708
0.2252 6.5748 -1.7033 0.9732
-0.3902 7.0726 -1.8340 0.9712
-1.0204 7.0136 -1.8351 0.9711
-1.6565 6.9542 -1.8509 0.9709
-2.8759 6.5708 -1.8571 0.9708
-4.1394 6.1652 -1.9227 0.9698
-4.8651 6.0084 -2.0017 0.9686
-5.8557 5.0478 -2.0017 0.9686
-6.9836 3.3165 -2.0017 0.9686
-7.2517 2.6800 -2.0017 0.9686
-7.6127 1.3482 -2.0017 0.9686
-7.7026 0.6635 -2.0017 0.9686
-7.7311 -0.0266 -2.0017 0.9686
-7.6979 -0.7164 -2.0017 0.9686
-7.6032 -1.4005 -2.0017 0.9686
-7.2331 -2.7298 -2.0017 0.9686
-5.3783 -4.7011 -1.8495 0.9709
-3.9409 -5.9577 -1.8495 0.9709
-2.8190 -6.5634 -1.8495 0.9709
0.2936 -7.1370 -1.8495 0.9709
0.9293 -7.0823 -1.8495 0.9709
4.4168 -5.6137 -1.8494 0.9709
5.3444 -4.7391 -1.8494 0.9709
5.7460 -4.2433 -1.8494 0.9709
6.9362 -3.4138 -2.0016 0.9686
7.2132 -2.7812 -2.0016 0.9686
7.5927 -1.4546 -2.0016 0.9686
7.6922 -0.7713 -2.0016 0.9686
7.7303 -0.0817 -2.0016 0.9686
7.6217 1.2938 -2.0016 0.9686
7.4759 1.9688 -2.0016 0.9686
7.2703 2.6281 -2.0016 0.9686
7.0068 3.2664 -2.0016 0.9686
6.3145 4.4600 -2.0016 0.9686
4.9077 5.9733 -2.0017 0.9686
3.5494 6.3597 -1.8857 0.9704
2.9226 6.5500 -1.8571 0.9708
2.3264 6.7847 -1.8571 0.9708
1.7117 6.9653 -1.8571 0.9708
1.0833 7.0903 -1.8571 0.9708
0.4462 7.1587 -1.8571 0.9708
-2.6907 6.6488 -1.8571 0.9708
-4.6911 6.1374 -2.0001 0.9686
-6.8880 3.5108 -2.0017 0.9686
-7.6810 0.8789 -2.0017 0.9686
-7.7288 0.1900 -2.0017 0.9686
-7.7149 -0.5005 -2.0017 0.9686
-7.5030 -1.8640 -2.0017 0.9686
-6.3524 -4.3547 -1.9941 0.9687
-5.5078 -4.5486 -1.8495 0.9709
-5.0799 -5.0220 -1.8495 0.9709
-3.5682 -6.1881 -1.8495 0.9709
-3.0018 -6.4818 -1.8495 0.9709
-1.8017 -6.9122 -1.8495 0.9709
-1.1776 -7.0454 -1.8495 0.9709
-0.5442 -7.1223 -1.8495 0.9709
0.0936 -7.1425 -1.8495 0.9709
1.3618 -7.0120 -1.8495 0.9709
2.5866 -6.6582 -1.8495 0.9709
4.2578 -5.7352 -1.8494 0.9709
4.7527 -5.3324 -1.8494 0.9709
5.2096 -4.8870 -1.8494 0.9709
5.6249 -4.4026 -1.8494 0.9709
6.2677 -4.0595 -1.9335 0.9696
6.8366 -3.6061 -2.0013 0.9686
7.3701 -2.3337 -2.0016 0.9686
7.5281 1.7587 -2.0016 0.9686
7.0955 3.0689 -2.0016 0.9686
6.7934 3.6899 -2.0016 0.9686
6.4370 4.2814 -2.0016 0.9686
6.0292 4.8388 -2.0016 0.9686
5.5734 5.3575 -2.0016 0.9686
3.7869 6.3598 -1.9165 0.9699
3.1049 6.4656 -1.8571 0.9708
2.5156 6.7169 -1.8571 0.9708
1.2814 7.0571 -1.8571 0.9708
0.6465 7.1434 -1.8571 0.9708
0.0065 7.1726 -1.8571 0.9708
-0.6253 7.0506 -1.8327 0.9712
-1.8936 6.9181 -1.8571 0.9708
-2.5035 6.7216 -1.8571 0.9708
-3.0933 6.4713 -1.8571 0.9708
-3.6701 6.1891 -1.8630 0.9707
-4.4339 6.1505 -1.9631 0.9692
-5.0626 5.8429 -2.0017 0.9686
-5.5639 5.3678 -2.0017 0.9686
-6.4295 4.2932 -2.0017 0.9686
-6.7870 3.7023 -2.0017 0.9686
-7.7204 0.4064 -2.0017 0.9686
-7.7259 -0.2842 -2.0017 0.9686
-7.5523 -1.6531 -2.0017 0.9686
-2.4753 6.2113 -1.8929 0.9726
-3.1295 6.1826 -1.9617 0.9716
-4.7503 5.2375 -2.0017 0.9710
-5.1988 4.7927 -2.0017 0.9710
-5.6058 4.3096 -2.0017 0.9710
-5.9680 3.7922 -2.0017 0.9710
-6.2826 3.2445 -2.0017 0.9710
-6.5471 2.6709 -2.0017 0.9710
-6.7593 2.0759 -2.0017 0.9710
-7.0207 0.8413 -2.0017 0.9710
-6.1839 -3.4287 -2.0017 0.9710
-5.8498 -3.9645 -2.0005 0.9710
-5.3132 -4.3405 -1.9422 0.9719
-2.7769 -5.9136 -1.8495 0.9732
-2.2381 -6.1378 -1.8495 0.9732
-1.1114 -6.4379 -1.8495 0.9732
0.0508 -6.5329 -1.8495 0.9732
0.6336 -6.5023 -1.8495 0.9732
1.7794 -6.2861 -1.8495 0.9732
2.3333 -6.1022 -1.8495 0.9732
5.1786 -4.0979 -1.8695 0.9729
5.9011 -3.8667 -1.9972 0.9711
6.2363 -3.3320 -2.0016 0.9710
6.7293 -2.1703 -2.0016 0.9710
6.8961 -1.5611 -2.0016 0.9710
7.0079 -0.9395 -2.0016 0.9710
7.0633 0.3213 -2.0016 0.9710
7.0064 0.9503 -2.0016 0.9710
6.7259 2.1807 -2.0016 0.9710
6.5045 2.7722 -2.0016 0.9710
6.2311 3.3417 -2.0016 0.9710
5.5379 4.3961 -2.0016 0.9710
4.6682 5.3106 -2.0017 0.9710
3.6498 6.0559 -2.0017 0.9710
-1.1259 6.4627 -1.8571 0.9731
-1.6982 6.3365 -1.8571 0.9731
-2.9194 6.1921 -1.9380 0.9719
-4.1043 5.7577 -2.0017 0.9710
-4.6018 5.3685 -2.0017 0.9710
-5.0625 4.9364 -2.0017 0.9710
-6.6985 2.2644 -2.0017 0.9710
-7.0674 -0.2223 -2.0017 0.9710
-7.0194 -0.8521 -2.0017 0.9710
-6.9153 -1.4752 -2.0017 0.9710
-6.7561 -2.0864 -2.0017 0.9710
-6.5429 -2.6810 -2.0017 0.9710
-5.9621 -3.8014 -2.0017 0.9710
-5.5794 -4.3031 -1.9947 0.9711
-4.7966 -4.4357 -1.8495 0.9732
-4.3816 -4.8460 -1.8495 0.9732
-2.4091 -6.0727 -1.8495 0.9732
-1.8576 -6.2635 -1.8495 0.9732
-1.2912 -6.4042 -1.8495 0.9732
0.4512 -6.5175 -1.8495 0.9732
1.6027 -6.3334 -1.8495 0.9732
3.2230 -5.6827 -1.8495 0.9732
4.1818 -5.0192 -1.8494 0.9732
6.1405 -3.5054 -2.0016 0.9710
6.4288 -2.9434 -2.0016 0.9710
6.6658 -2.3579 -2.0016 0.9710
6.9788 -1.1354 -2.0016 0.9710
6.9350 1.3781 -2.0016 0.9710
6.7843 1.9915 -2.0016 0.9710
6.0145 3.7174 -2.0016 0.9710
4.3338 5.5868 -2.0017 0.9710
3.8179 5.9513 -2.0017 0.9710
1.9721 6.3232 -1.8751 0.9728
0.8088 6.5100 -1.8571 0.9731
-0.9445 6.4917 -1.8571 0.9731
-1.5201 6.3816 -1.8571 0.9731
-2.0869 6.2306 -1.8602 0.9731
-2.7141 6.2012 -1.9163 0.9723
-3.3864 6.1706 -1.9926 0.9712
-4.9223 5.0763 -2.0017 0.9710
-5.7463 4.1204 -2.0017 0.9710
-6.6325 2.4512 -2.0017 0.9710
-6.8247 1.8495 -2.0017 0.9710
-7.0405 -0.6552 -2.0017 0.9710
-6.9539 -1.2809 -2.0017 0.9710
-6.8119 -1.8964 -2.0017 0.9710
-4.0763 -5.1056 -1.8495 0.9732
-3.6044 -5.4489 -1.8495 0.9732
-3.1037 -5.7488 -1.8495 0.9732
-2.5783 -6.0029 -1.8495 0.9732
-2.0323 -6.2090 -1.8495 0.9732
-1.4701 -6.3656 -1.8495 0.9732
-0.8962 -6.4714 -1.8495 0.9732
0.8500 -6.4775 -1.8495 0.9732
2.5354 -6.0210 -1.8495 0.9732
3.5653 -5.4744 -1.8495 0.9732
4.0396 -5.1344 -1.8494 0.9732
5.5195 -4.0761 -1.9424 0.9719
6.3439 -3.1223 -2.0016 0.9710
6.5972 -2.5437 -2.0016 0.9710
6.7979 -1.9448 -2.0016 0.9710
6.9443 -1.3304 -2.0016 0.9710
7.0487 0.5565 -2.0016 0.9710
6.9709 1.1833 -2.0016 0.9710
6.6495 2.4037 -2.0016 0.9710
6.4085 2.9875 -2.0016 0.9710
6.1163 3.5475 -2.0016 0.9710
5.7753 4.0792 -2.0016 0.9710
5.3883 4.5783 -2.0016 0.9710
4.4886 5.4633 -2.0017 0.9710
3.9831 5.8420 -2.0017 0.9710
-1.3407 6.4216 -1.8571 0.9731
-1.9085 6.2764 -1.8571 0.9731
-2.5130 6.2097 -1.8964 0.9725
-3.1700 6.1807 -1.9664 0.9715
-4.7782 5.2121 -2.0017 0.9710
-5.6286 4.2797 -2.0017 0.9710
-5.9881 3.7604 -2.0017 0.9710
-6.5612 2.6360 -2.0017 0.9710
-7.0688 0.1738 -2.0017 0.9710
-6.9871 -1.0856 -2.0017 0.9710
-6.4499 -2.8976 -2.0017 0.9710
-5.2569 -4.3413 -1.9301 0.9721
-4.2177 -4.9894 -1.8495 0.9732
-3.2635 -5.6597 -1.8495 0.9732
-2.7454 -5.9283 -1.8495 0.9732
-0.4977 -6.5141 -1.8495 0.9732
0.0856 -6.5325 -1.8495 0.9732
0.6682 -6.4988 -1.8495 0.9732
1.2455 -6.4132 -1.8495 0.9732
2.3657 -6.0897 -1.8495 0.9732
3.8942 -5.2455 -1.8494 0.9732
4.3468 -4.8770 -1.8494 0.9732
5.2313 -4.0945 -1.8806 0.9728
5.9231 -3.8362 -1.9978 0.9711
6.2539 -3.2987 -2.0016 0.9710
6.7407 -2.1344 -2.0016 0.9710
6.9043 -1.5244 -2.0016 0.9710
7.0653 -0.2727 -2.0016 0.9710
7.0013 0.9876 -2.0016 0.9710
6.2132 3.3748 -2.0016 0.9710
5.8873 3.9158 -2.0016 0.9710
5.0974 4.9000 -2.0017 0.9710
4.1452 5.7282 -2.0017 0.9710
3.6175 6.0752 -2.0017 0.9710
1.1736 6.4632 -1.8596 0.9731
0.0059 6.5601 -1.8571 0.9731
-2.9590 6.1904 -1.9424 0.9719
-4.1349 5.7358 -2.0017 0.9710
-4.6303 5.3439 -2.0017 0.9710
-5.5065 4.4357 -2.0017 0.9710
-6.2074 3.3862 -2.0017 0.9710
-6.7105 2.2287 -2.0017 0.9710
-6.8826 1.6210 -2.0017 0.9710
-7.0611 0.3717 -2.0017 0.9710
-7.0661 -0.2600 -2.0017 0.9710
-6.9074 -1.5120 -2.0017 0.9710
-2.4092 6.0456 -2.0017 0.9731
-2.9391 5.8065 -2.0017 0.9731
-5.7825 2.9862 -2.0017 0.9731
-6.2212 1.9107 -2.0017 0.9731
-6.3669 1.3479 -2.0017 0.9731
-6.4361 -0.9649 -2.0017 0.9731
-6.1620 -2.0937 -2.0017 0.9731
-5.9506 -2.6353 -2.0017 0.9731
-5.3873 -3.6511 -2.0017 0.9731
-3.9063 -4.5715 -1.8495 0.9751
-3.0314 -5.1930 -1.8495 0.9751
-2.0599 -5.6492 -1.8495 0.9751
-1.0229 -5.9254 -1.8495 0.9751
0.0468 -6.0128 -1.8495 0.9751
0.5832 -5.9847 -1.8495 0.9751
1.1149 -5.9087 -1.8495 0.9752
1.6378 -5.7856 -1.8495 0.9752
2.6402 -5.4023 -1.8495 0.9752
3.5585 -4.8469 -1.8495 0.9752
4.3634 -4.1371 -1.8494 0.9752
5.4433 -3.5667 -2.0016 0.9731
5.7398 -3.0667 -2.0016 0.9731
5.9906 -2.5423 -2.0016 0.9731
6.3471 -1.4368 -2.0016 0.9731
6.4500 -0.8647 -2.0016 0.9731
6.5015 -0.2856 -2.0016 0.9731
6.5010 0.2957 -2.0016 0.9731
6.4487 0.8747 -2.0016 0.9731
5.0970 4.0462 -2.0017 0.9731
4.7156 4.4849 -2.0017 0.9731
2.8484 5.8514 -2.0017 0.9731
1.1761 6.2867 -1.9672 0.9736
0.6019 6.2777 -1.9398 0.9740
-0.5210 6.2522 -1.9297 0.9741
-1.6657 6.2151 -1.9791 0.9734
-2.2389 6.1107 -2.0017 0.9731
-3.7776 5.2994 -2.0017 0.9731
-4.2354 4.9411 -2.0017 0.9731
-5.0464 4.1095 -2.0017 0.9731
-5.3930 3.6428 -2.0017 0.9731
-5.6965 3.1470 -2.0017 0.9731
-5.9547 2.6260 -2.0017 0.9731
-6.3266 1.5257 -2.0017 0.9731
-6.4376 0.9550 -2.0017 0.9731
-6.3648 -1.3577 -2.0017 0.9731
-5.1492 -3.9713 -2.0001 0.9732
-4.6736 -4.3219 -1.9579 0.9737
-3.6187 -4.8023 -1.8495 0.9751
-2.7073 -5.3691 -1.8495 0.9751
-1.7097 -5.7649 -1.8495 0.9751
-1.1884 -5.8944 -1.8495 0.9751
-0.6577 -5.9770 -1.8495 0.9751
-0.1217 -6.0118 -1.8495 0.9751
0.9490 -5.9376 -1.8495 0.9751
2.4878 -5.4742 -1.8495 0.9752
3.4213 -4.9447 -1.8495 0.9752
3.8489 -4.6196 -1.8494 0.9752
4.2458 -4.2577 -1.8494 0.9752
4.8797 -4.0888 -1.9581 0.9737
6.3044 -1.6141 -2.0016 0.9731
6.4233 -1.0450 -2.0016 0.9731
6.4909 -0.4676 -2.0016 0.9731
6.5067 0.1135 -2.0016 0.9731
6.2443 1.8330 -2.0016 0.9731
5.8190 2.9138 -2.0016 0.9731
3.0112 5.7693 -2.0017 0.9731
2.4843 6.0150 -2.0017 0.9731
1.9376 6.2127 -2.0017 0.9731
0.7803 6.2808 -1.9467 0.9739
-0.3452 6.2569 -1.9274 0.9741
-0.9080 6.2409 -1.9398 0.9740
-2.0669 6.1710 -2.0017 0.9731
-3.1310 5.7053 -2.0017 0.9731
-3.6277 5.4031 -2.0017 0.9731
-4.0954 5.0578 -2.0017 0.9731
-4.5304 4.6722 -2.0017 0.9731
-4.9293 4.2492 -2.0017 0.9731
-5.6062 3.3053 -2.0017 0.9731
-6.4083 1.1349 -2.0017 0.9731
-6.4840 0.5585 -2.0017 0.9731
-6.2696 -1.7454 -2.0017 0.9731
-5.8594 -2.8321 -2.0017 0.9731
-5.2626 -3.8286 -2.0017 0.9731
-4.8834 -4.2686 -1.9950 0.9732
-3.7518 -4.6991 -1.8495 0.9751
-2.8566 -5.2912 -1.8495 0.9751
-1.8705 -5.7147 -1.8495 0.9751
-0.8248 -5.9562 -1.8495 0.9751
0.7823 -5.9619 -1.8495 0.9751
1.3112 -5.8683 -1.8495 0.9752
1.8297 -5.7278 -1.8495 0.9752
2.3335 -5.5417 -1.8495 0.9752
2.8188 -5.3113 -1.8495 0.9752
3.2815 -5.0386 -1.8495 0.9752
4.1249 -4.3750 -1.8494 0.9752
4.6293 -4.1051 -1.9031 0.9744
5.2246 -3.8583 -1.9977 0.9732
5.5591 -3.3833 -2.0016 0.9731
5.8389 -2.8737 -2.0016 0.9731
6.0720 -2.3412 -2.0016 0.9731
6.3915 -1.2245 -2.0016 0.9731
6.4753 -0.6492 -2.0016 0.9731
6.4875 0.5122 -2.0016 0.9731
6.4159 1.0891 -2.0016 0.9731
6.1202 2.2123 -2.0016 0.9731
5.8983 2.7497 -2.0016 0.9731
4.9593 4.2138 -2.0017 0.9731
4.5635 4.6396 -2.0017 0.9731
4.1312 5.0283 -2.0017 0.9731
3.1716 5.6827 -2.0017 0.9731
2.6518 5.9430 -2.0017 0.9731
2.1109 6.1560 -2.0017 0.9731
0.9600 6.2836 -1.9551 0.9737
0.3911 6.2738 -1.9334 0.9740
-1.3003 6.2281 -1.9569 0.9737
-1.8873 6.2067 -1.9953 0.9732
-2.4414 6.0327 -2.0017 0.9731
-3.4749 5.5026 -2.0017 0.9731
-3.9521 5.1705 -2.0017 0.9731
-4.8083 4.3856 -2.0017 0.9731
-5.1805 3.9390 -2.0017 0.9731
-6.0389 2.4261 -2.0017 0.9731
-6.2313 1.8775 -2.0017 0.9731
-6.4943 -0.4213 -2.0017 0.9731
-6.4308 -0.9992 -2.0017 0.9731
-6.3160 -1.5691 -2.0017 0.9731
-6.1508 -2.1265 -2.0017 0.9731
-5.6748 -3.1860 -2.0017 0.9731
-5.3678 -3.6797 -2.0017 0.9731
-2.5269 -5.4564 -1.8495 0.9751
-0.4581 -5.9955 -1.8495 0.9751
0.0788 -6.0125 -1.8495 0.9751
0.6150 -5.9815 -1.8495 0.9751
1.1464 -5.9027 -1.8495 0.9752
2.6689 -5.3882 -1.8495 0.9752
3.1391 -5.1285 -1.8495 0.9752
4.0008 -4.4888 -1.8494 0.9752
5.4622 -3.5377 -2.0016 0.9731
5.7561 -3.0361 -2.0016 0.9731
6.0041 -2.5103 -2.0016 0.9731
6.2041 -1.9645 -2.0016 0.9731
6.3547 -1.4030 -2.0016 0.9731
6.4545 -0.8303 -2.0016 0.9731
6.5029 -0.2510 -2.0016 0.9731
6.4993 0.3303 -2.0016 0.9731
6.4439 0.9090 -2.0016 0.9731
5.0754 4.0733 -2.0017 0.9731
4.6916 4.5100 -2.0017 0.9731
4.2705 4.9107 -2.0017 0.9731
3.8152 5.2722 -2.0017 0.9731
2.8172 5.8664 -2.0017 0.9731
1.1414 6.2862 -1.9651 0.9736
0.0057 6.2655 -1.9271 0.9741
-0.5544 6.2513 -1.9303 0.9741
-1.7008 6.2138 -1.9815 0.9734
-2.8066 5.8716 -2.0017 0.9731
-4.2617 4.9185 -2.0017 0.9731
-4.6836 4.5186 -2.0017 0.9731
-5.4123 3.6140 -2.0017 0.9731
-5.7132 3.1166 -2.0017 0.9731
-5.9686 2.5943 -2.0017 0.9731
-6.3347 1.4919 -2.0017 0.9731
-6.4990 0.3421 -2.0017 0.9731
-6.5036 -0.2393 -2.0017 0.9731
-2.7196 5.3728 -2.0017 0.9749
-3.1882 5.1086 -2.0017 0.9749
-3.6314 4.8037 -2.0017 0.9749
-4.0456 4.4605 -2.0017 0.9749
-4.4275 4.0817 -2.0017 0.9749
-4.7741 3.6703 -2.0017 0.9749
-5.7565 1.7680 -2.0017 0.9749
-5.8913 1.2472 -2.0017 0.9749
-6.0192 0.1800 -2.0017 0.9749
-5.8519 -1.4208 -2.0017 0.9749
-5.5061 -2.4384 -2.0017 0.9749
-5.2665 -2.9201 -2.0017 0.9749
-4.6635 -3.8098 -2.0017 0.9749
-4.2925 -4.1985 -1.9959 0.9750
-3.6840 -4.3113 -1.8850 0.9764
-2.3650 -5.0363 -1.8495 0.9768
-0.9465 -5.4828 -1.8495 0.9768
0.5396 -5.5377 -1.8495 0.9768
2.4430 -4.9988 -1.8495 0.9768
2.8793 -4.7609 -1.8495 0.9768
3.2927 -4.4849 -1.8495 0.9768
3.6798 -4.1732 -1.8495 0.9768
4.3225 -4.0983 -1.9800 0.9752
4.7182 -3.7336 -2.0000 0.9750
5.3111 -2.8377 -2.0016 0.9749
5.5432 -2.3524 -2.0016 0.9749
5.7310 -1.8483 -2.0016 0.9749
5.8731 -1.3295 -2.0016 0.9749
6.0159 -0.2643 -2.0016 0.9749
6.0155 0.2736 -2.0016 0.9749
5.9670 0.8093 -2.0016 0.9749
5.8710 1.3386 -2.0016 0.9749
5.7281 1.8572 -2.0016 0.9749
5.5395 2.3610 -2.0016 0.9749
4.3634 4.1499 -2.0017 0.9749
3.9756 4.5228 -2.0017 0.9749
3.5562 4.8595 -2.0017 0.9749
0.5747 5.9943 -2.0017 0.9749
0.0375 6.0217 -2.0017 0.9749
-0.5000 6.0010 -2.0017 0.9749
-1.0336 5.9325 -2.0017 0.9749
-2.5680 5.4468 -2.0017 0.9749
-3.9191 4.5721 -2.0017 0.9749
-4.6695 3.8026 -2.0017 0.9749
-5.7048 1.9285 -2.0017 0.9749
-5.8541 1.4117 -2.0017 0.9749
-6.0189 -0.1894 -2.0017 0.9749
-5.9780 -0.7257 -2.0017 0.9749
-5.8894 -1.2563 -2.0017 0.9749
-5.5723 -2.2833 -2.0017 0.9749
-5.3463 -2.7714 -2.0017 0.9749
-4.4129 -4.0809 -1.9979 0.9750
-2.9385 -4.7247 -1.8495 0.9768
-2.5051 -4.9681 -1.8495 0.9768
-2.0517 -5.1718 -1.8495 0.9768
-0.6086 -5.5305 -1.8495 0.9768
-0.1126 -5.5628 -1.8495 0.9768
2.3020 -5.0653 -1.8495 0.9768
3.1658 -4.5754 -1.8495 0.9768
4.1014 -4.1128 -1.9307 0.9758
4.6069 -3.8602 -1.9979 0.9750
4.9423 -3.4401 -2.0016 0.9749
5.6770 -2.0081 -2.0016 0.9749
5.8335 -1.4935 -2.0016 0.9749
6.0208 0.1050 -2.0016 0.9749
5.9874 0.6419 -2.0016 0.9749
5.6035 2.2049 -2.0016 0.9749
4.8193 3.6104 -2.0017 0.9749
4.4779 4.0261 -2.0017 0.9749
4.1008 4.4097 -2.0017 0.9749
3.6909 4.7580 -2.0017 0.9749
2.2988 5.5657 -2.0017 0.9749
1.7929 5.7487 -2.0017 0.9749
1.2727 5.8858 -2.0017 0.9749
0.7424 5.9759 -2.0017 0.9749
-0.8670 5.9591 -2.0017 0.9749
-1.3953 5.8580 -2.0017 0.9749
-2.8972 5.2791 -2.0017 0.9749
-4.5611 3.9318 -2.0017 0.9749
-4.8938 3.5091 -2.0017 0.9749
-5.1874 3.0584 -2.0017 0.9749
-5.9296 1.0501 -2.0017 0.9749
-5.9997 0.5168 -2.0017 0.9749
-5.9960 -0.5580 -2.0017 0.9749
-5.6340 -2.1263 -2.0017 0.9749
-5.4218 -2.6206 -2.0017 0.9749
-4.8696 -3.5427 -2.0017 0.9749
-4.1167 -4.3043 -1.9798 0.9752
-1.2520 -5.4212 -1.8495 0.9768
-0.7632 -5.5113 -1.8495 0.9768
-0.2683 -5.5574 -1.8495 0.9768
1.6930 -5.3000 -1.8495 0.9768
2.6082 -4.9146 -1.8495 0.9768
3.0364 -4.6623 -1.8495 0.9768
3.4403 -4.3727 -1.8495 0.9768
3.8906 -4.1264 -1.8852 0.9764
4.4924 -3.9836 -1.9959 0.9750
5.1439 -3.1306 -2.0016 0.9749
5.4028 -2.6591 -2.0016 0.9749
5.9141 -1.1330 -2.0016 0.9749
5.9916 -0.6007 -2.0016 0.9749
5.9368 1.0078 -2.0016 0.9749
5.8231 1.5336 -2.0016 0.9749
5.2089 3.0212 -2.0016 0.9749
4.9186 3.4740 -2.0017 0.9749
4.5889 3.8991 -2.0017 0.9749
4.2226 4.2931 -2.0017 0.9749
2.4537 5.4992 -2.0017 0.9749
1.9532 5.6962 -2.0017 0.9749
0.9095 5.9527 -2.0017 0.9749
0.3746 6.0101 -2.0017 0.9749
-0.6998 5.9810 -2.0017 0.9749
-1.2307 5.8947 -2.0017 0.9749
-1.7519 5.7614 -2.0017 0.9749
-3.6569 4.7843 -2.0017 0.9749
-4.4492 4.0580 -2.0017 0.9749
-4.7936 3.6448 -2.0017 0.9749
-5.0997 3.2025 -2.0017 0.9749
-5.7659 1.7373 -2.0017 0.9749
-5.9829 0.6846 -2.0017 0.9749
-6.0201 0.1480 -2.0017 0.9749
-6.0093 -0.3899 -2.0017 0.9749
-5.9505 -0.9246 -2.0017 0.9749
-5.8443 -1.4519 -2.0017 0.9749
-4.9669 -3.4049 -2.0017 0.9749
-3.6449 -4.3119 -1.8768 0.9765
-1.8782 -5.2373 -1.8495 0.9768
-1.4034 -5.3840 -1.8495 0.9768
-0.9173 -5.4878 -1.8495 0.9768
-0.4239 -5.5477 -1.8495 0.9768
2.0148 -5.1863 -1.8495 0.9768
2.4696 -4.9858 -1.8495 0.9768
3.7020 -4.1535 -1.8495 0.9768
4.7390 -3.7092 -2.0004 0.9750
5.0542 -3.2735 -2.0016 0.9749
5.5556 -2.3229 -2.0016 0.9749
5.8801 -1.2982 -2.0016 0.9749
5.9725 -0.7683 -2.0016 0.9749
6.0139 0.3056 -2.0016 0.9749
5.9627 0.8411 -2.0016 0.9749
5.7182 1.8877 -2.0016 0.9749
5.5269 2.3905 -2.0016 0.9749
5.2915 2.8741 -2.0016 0.9749
5.0139 3.3349 -2.0017 0.9749
3.9515 4.5439 -2.0017 0.9749
3.5303 4.8784 -2.0017 0.9749
3.0808 5.1740 -2.0017 0.9749
2.6068 5.4283 -2.0017 0.9749
1.0758 5.9249 -2.0017 0.9749
-1.5898 5.8082 -2.0017 0.9749
-2.1018 5.6432 -2.0017 0.9749
-2.5970 5.4331 -2.0017 0.9749
-3.0715 5.1797 -2.0017 0.9749
-3.9434 4.5511 -2.0017 0.9749
-4.6896 3.7776 -2.0017 0.9749
-5.5228 2.4005 -2.0017 0.9749
-5.7150 1.8981 -2.0017 0.9749
-5.8615 1.3805 -2.0017 0.9749
-5.9614 0.8519 -2.0017 0.9749
-6.0136 0.3165 -2.0017 0.9749
-5.9741 -0.7575 -2.0017 0.9749
-2.5279 4.9941 -2.0017 0.9765
-3.3755 4.4652 -2.0017 0.9765
-3.7605 4.1462 -2.0017 0.9765
-4.9735 2.5684 -2.0017 0.9765
-5.3509 1.6434 -2.0017 0.9765
-5.4762 1.1593 -2.0017 0.9765
-5.5578 0.6660 -2.0017 0.9765
-5.5950 0.1673 -2.0017 0.9765
-5.2999 -1.8008 -2.0017 0.9765
-4.8954 -2.7143 -2.0017 0.9765
-4.6336 -3.1403 -2.0017 0.9765
-4.3349 -3.5413 -2.0017 0.9765
-3.6240 -4.2410 -1.9949 0.9766
-3.0523 -4.2960 -1.8846 0.9779
-2.6073 -4.4665 -1.8495 0.9783
-1.3311 -4.9976 -1.8495 0.9783
-0.8798 -5.0964 -1.8495 0.9783
0.5016 -5.1474 -1.8495 0.9783
3.0607 -4.1689 -1.8495 0.9783
4.0552 -3.8449 -1.9984 0.9765
4.9369 -2.6377 -2.0016 0.9765
5.4592 -1.2358 -2.0016 0.9765
5.5477 -0.7437 -2.0016 0.9765
5.5919 -0.2457 -2.0016 0.9765
5.3245 1.7263 -2.0016 0.9765
5.1492 2.1946 -2.0016 0.9765
4.6770 3.0750 -2.0017 0.9765
4.0559 3.8575 -2.0017 0.9765
3.3056 4.5171 -2.0017 0.9765
2.8893 4.7940 -2.0017 0.9765
2.4499 5.0328 -2.0017 0.9765
1.5162 5.3881 -2.0017 0.9765
1.0293 5.5020 -2.0017 0.9765
0.5342 5.5719 -2.0017 0.9765
-1.4490 5.4067 -2.0017 0.9765
-1.9257 5.2558 -2.0017 0.9765
-2.8294 4.8298 -2.0017 0.9765
-3.2491 4.5580 -2.0017 0.9765
-3.6429 4.2499 -2.0017 0.9765
-4.0076 3.9078 -2.0017 0.9765
