ply
format ascii 1.0
element vertex 1595
property float32 x
property float32 y
property float32 z
property float32 I
end_header
8.4996 7.4048 -1.8570 0.9553
7.0482 8.7975 -1.8571 0.9553
6.2352 9.3913 -1.8571 0.9553
3.5955 6.6324 -1.2428 0.9699
4.8146 11.1559 -2.0017 0.9519
1.6884 12.0327 -2.0017 0.9519
-0.9764 7.5497 -1.2541 0.9696
-2.6274 11.8633 -2.0017 0.9519
-3.6753 11.5816 -2.0017 0.9519
-4.6940 11.2075 -2.0017 0.9519
-4.7503 8.9930 -1.6755 0.9596
-7.7172 8.2178 -1.8572 0.9553
-8.4196 7.4965 -1.8572 0.9553
-9.8599 6.0287 -1.9039 0.9542
-10.8910 5.3884 -2.0018 0.9519
-11.9291 2.3119 -2.0018 0.9519
-12.0878 1.2383 -2.0018 0.9519
-12.1501 0.1549 -2.0018 0.9519
-11.9841 -2.0070 -2.0018 0.9519
-11.7572 -3.0683 -2.0017 0.9519
-11.4297 -4.1025 -2.0005 0.9520
-10.1864 -4.7205 -1.8495 0.9555
-8.5726 -7.2495 -1.8495 0.9555
-7.1476 -8.6577 -1.8495 0.9555
-5.4950 -9.7901 -1.8495 0.9555
-1.7232 -11.0936 -1.8495 0.9555
0.2759 -11.2232 -1.8495 0.9555
1.2761 -11.1538 -1.8495 0.9555
3.2381 -10.7494 -1.8494 0.9555
4.1843 -10.4175 -1.8494 0.9555
5.9692 -9.5080 -1.8494 0.9555
6.7936 -8.9374 -1.8494 0.9555
9.9878 -5.1256 -1.8494 0.9555
11.6169 -3.5359 -2.0005 0.9520
11.8929 -2.4867 -2.0016 0.9519
12.0673 -1.4157 -2.0016 0.9519
12.1455 -0.3334 -2.0016 0.9519
12.1268 0.7516 -2.0016 0.9519
11.8002 2.8949 -2.0016 0.9519
11.4949 3.9362 -2.0016 0.9519
9.5468 6.5025 -1.9029 0.9543
6.5085 9.2040 -1.8571 0.9553
5.1404 11.0095 -2.0017 0.9519
4.1376 11.4243 -2.0017 0.9519
-1.4479 7.5875 -1.2725 0.9692
-3.3334 11.6846 -2.0017 0.9519
-4.3626 11.3406 -2.0017 0.9519
-5.3571 10.9062 -2.0017 0.9519
-6.3088 10.3848 -2.0017 0.9519
-4.8105 6.5254 -1.3355 0.9677
-7.4723 8.4411 -1.8572 0.9553
-8.1957 7.7407 -1.8572 0.9553
-10.7279 5.7061 -2.0018 0.9519
-11.1942 4.7262 -2.0018 0.9519
-12.0462 1.5930 -2.0018 0.9519
-12.1403 0.5119 -2.0018 0.9519
-12.1375 -0.5733 -2.0018 0.9519
-12.0379 -1.6540 -2.0018 0.9519
-11.8423 -2.7214 -2.0017 0.9519
-9.8853 -5.3223 -1.8495 0.9555
-7.6404 -5.0412 -1.5080 0.9636
-6.0846 -4.8462 -1.2815 0.9690
-5.7804 -9.6244 -1.8495 0.9555
-4.8986 -10.1017 -1.8495 0.9555
-3.9778 -10.4985 -1.8495 0.9555
-3.0252 -10.8115 -1.8495 0.9555
-2.0485 -11.0382 -1.8495 0.9555
-0.0541 -11.2265 -1.8495 0.9555
1.9420 -11.0573 -1.8495 0.9555
3.8763 -10.5360 -1.8494 0.9555
5.6871 -9.6793 -1.8494 0.9555
8.7136 -7.0783 -1.8494 0.9555
9.3104 -6.2727 -1.8494 0.9555
9.8329 -5.4170 -1.8494 0.9555
10.2770 -4.5181 -1.8494 0.9555
11.4763 -3.8651 -1.9949 0.9521
12.1305 -0.6902 -2.0016 0.9519
12.1437 0.3948 -2.0016 0.9519
11.8802 2.5469 -2.0016 0.9519
11.6056 3.5967 -2.0016 0.9519
11.2384 4.6178 -2.0016 0.9519
6.7762 9.0088 -1.8571 0.9553
5.9454 9.5775 -1.8571 0.9553
4.4716 11.2977 -2.0017 0.9519
1.8362 9.1428 -1.5362 0.9629
1.3200 12.0787 -2.0017 0.9519
0.1777 9.1047 -1.5002 0.9638
-0.8477 12.1211 -2.0017 0.9519
-3.1770 9.0432 -1.5790 0.9619
-2.9565 6.4947 -1.1756 0.9715
-4.5164 6.5193 -1.3065 0.9684
-7.2210 8.6570 -1.8572 0.9553
-7.9646 7.9782 -1.8572 0.9553
-8.6447 7.2358 -1.8572 0.9553
-11.0505 5.0532 -2.0018 0.9519
-11.4573 4.0471 -2.0018 0.9519
-11.9942 1.9464 -2.0018 0.9519
-11.9172 -2.3722 -2.0017 0.9519
-11.6580 -3.4260 -2.0017 0.9519
-11.2666 -4.4370 -1.9948 0.9521
-10.0375 -5.0295 -1.8495 0.9555
-9.5487 -5.9050 -1.8495 0.9555
-6.2326 -4.6714 -1.2831 0.9689
-7.6439 -8.2228 -1.8495 0.9555
-6.8798 -8.8720 -1.8495 0.9555
-6.0607 -9.4504 -1.8495 0.9555
-4.2846 -10.3770 -1.8495 0.9555
-3.3416 -10.7179 -1.8495 0.9555
-2.3721 -10.9733 -1.8495 0.9555
-1.3835 -11.1411 -1.8495 0.9555
0.6186 -11.2095 -1.8495 0.9555
2.6010 -10.9211 -1.8494 0.9555
3.5650 -10.6454 -1.8494 0.9555
4.5006 -10.2848 -1.8494 0.9555
5.4002 -9.8422 -1.8494 0.9555
6.2568 -9.3212 -1.8494 0.9555
8.5018 -7.3314 -1.8494 0.9555
9.1220 -6.5436 -1.8494 0.9555
10.1398 -4.8181 -1.8494 0.9555
11.7263 -3.1811 -2.0016 0.9519
11.9633 -2.1222 -2.0016 0.9519
12.0982 1.1217 -2.0016 0.9519
11.9499 2.1967 -2.0016 0.9519
11.7063 3.2541 -2.0016 0.9519
10.9416 5.2828 -2.0016 0.9519
8.4910 7.4146 -1.8570 0.9553
7.7956 8.1426 -1.8571 0.9553
7.0380 8.8057 -1.8571 0.9553
6.2243 9.3986 -1.8571 0.9553
4.8016 11.1614 -2.0017 0.9519
3.7867 11.5454 -2.0017 0.9519
10.5337 -1.5633 -2.0016 0.9576
10.6438 0.3337 -2.0016 0.9576
10.5716 1.2820 -2.0016 0.9576
10.1755 3.1405 -2.0016 0.9576
8.9805 5.7231 -2.0016 0.9576
3.6467 9.1825 -1.8571 0.9606
1.9586 6.5948 -1.2931 0.9724
1.8474 9.1439 -1.7534 0.9627
1.1692 10.5851 -2.0017 0.9576
0.1883 9.1049 -1.7117 0.9636
-0.7307 10.6244 -2.0017 0.9576
-1.1881 7.4565 -1.4192 0.9697
-2.4190 9.5797 -1.8571 0.9606
-3.1623 9.0350 -1.7992 0.9618
-2.9498 6.4999 -1.3417 0.9714
-5.6172 8.1284 -1.8571 0.9606
-6.9725 7.0006 -1.8571 0.9606
-7.5693 6.3506 -1.8572 0.9606
-9.2453 5.2861 -2.0017 0.9576
-9.6801 4.4401 -2.0017 0.9576
-10.3151 2.6490 -2.0017 0.9576
-10.5103 1.7181 -2.0017 0.9576
-10.6217 0.7735 -2.0017 0.9576
-10.6483 -0.1773 -2.0017 0.9576
-10.4473 -2.0670 -2.0017 0.9576
-9.9135 -3.8909 -2.0017 0.9576
-8.8915 -4.4424 -1.8682 0.9604
-6.2444 -4.6689 -1.4655 0.9688
-7.3235 -6.5719 -1.8495 0.9607
-6.7079 -7.1991 -1.8495 0.9607
-6.0388 -7.7689 -1.8495 0.9607
-2.0902 -9.6151 -1.8495 0.9607
-0.3480 -9.8335 -1.8495 0.9607
2.2686 -9.5745 -1.8495 0.9607
3.1137 -9.3339 -1.8494 0.9607
3.9341 -9.0188 -1.8494 0.9607
4.7231 -8.6318 -1.8494 0.9607
5.4744 -8.1760 -1.8494 0.9607
6.1820 -7.6549 -1.8494 0.9607
6.8403 -7.0728 -1.8494 0.9607
7.9884 -5.7444 -1.8494 0.9607
8.4691 -5.0088 -1.8494 0.9607
8.8822 -4.2332 -1.8494 0.9607
9.9674 -3.6996 -1.9984 0.9577
10.2743 -2.8001 -2.0016 0.9576
10.4832 -1.8722 -2.0016 0.9576
10.6084 -0.9294 -2.0016 0.9576
10.6491 0.0208 -2.0016 0.9576
10.6047 0.9708 -2.0016 0.9576
10.4758 1.9131 -2.0016 0.9576
10.2634 2.8401 -2.0016 0.9576
9.9691 3.7445 -2.0016 0.9576
9.5952 4.6190 -2.0016 0.9576
8.6215 6.2509 -2.0016 0.9576
7.4495 6.4900 -1.8571 0.9606
6.1775 7.7107 -1.8571 0.9606
5.4649 8.2311 -1.8571 0.9606
3.5955 6.6324 -1.4180 0.9698
1.4798 10.5461 -2.0017 0.9576
-0.9742 7.5329 -1.4277 0.9696
-1.4636 6.6087 -1.2723 0.9728
-2.9886 9.4175 -1.8571 0.9606
-4.2368 6.5334 -1.4636 0.9688
-6.0941 7.7772 -1.8571 0.9606
-8.1815 6.0677 -1.9146 0.9594
-9.5454 4.7227 -2.0017 0.9576
-9.9287 3.8522 -2.0017 0.9576
-10.6186 -0.8149 -2.0017 0.9576
-10.5035 -1.7591 -2.0017 0.9576
-10.0236 -3.5978 -2.0017 0.9576
-6.9166 -6.9989 -1.8495 0.9607
-3.2144 -9.2999 -1.8495 0.9607
-1.5103 -9.7231 -1.8495 0.9607
-0.6368 -9.8190 -1.8495 0.9607
1.9862 -9.6370 -1.8495 0.9607
2.8381 -9.4213 -1.8494 0.9607
5.2317 -8.3333 -1.8494 0.9607
5.9543 -7.8333 -1.8494 0.9607
6.6295 -7.2708 -1.8494 0.9607
7.8161 -5.9767 -1.8494 0.9607
10.1876 -3.1008 -2.0016 0.9576
10.6451 -0.2922 -2.0016 0.9576
9.7268 4.3351 -2.0016 0.9576
9.3013 5.1856 -2.0016 0.9576
7.8701 6.4595 -1.9137 0.9594
6.4014 7.5258 -1.8571 0.9606
5.7044 8.0669 -1.8571 0.9606
4.1799 8.9524 -1.8571 0.9606
1.6599 9.7398 -1.8571 0.9606
0.8453 10.6159 -2.0017 0.9576
-1.2626 6.6166 -1.2661 0.9730
-2.7105 9.5013 -1.8571 0.9606
-3.5475 9.2216 -1.8571 0.9606
-3.2211 6.5576 -1.3732 0.9707
-5.1300 8.4443 -1.8571 0.9606
-7.7598 6.1164 -1.8572 0.9606
-9.4025 5.0011 -2.0017 0.9576
-9.8112 4.1423 -2.0017 0.9576
-10.1417 3.2504 -2.0017 0.9576
-10.3912 2.3326 -2.0017 0.9576
-10.6403 0.4486 -2.0017 0.9576
-10.3792 -2.3852 -2.0017 0.9576
-8.6640 -4.6648 -1.8495 0.9607
-6.0847 -4.8462 -1.4621 0.9688
-7.1193 -6.7926 -1.8495 0.9607
-5.0662 -8.4354 -1.8495 0.9607
-1.7955 -9.6745 -1.8495 0.9607
-0.9251 -9.7961 -1.8495 0.9607
0.8307 -9.8045 -1.8495 0.9607
1.7021 -9.6912 -1.8495 0.9607
4.2078 -8.8944 -1.8494 0.9607
8.1602 -5.4977 -1.8494 0.9607
8.6181 -4.7477 -1.8494 0.9607
9.1043 -4.0025 -1.8693 0.9603
10.0921 -3.3989 -2.0016 0.9576
10.5355 -1.5511 -2.0016 0.9576
10.6434 0.3461 -2.0016 0.9576
10.4125 2.2322 -2.0016 0.9576
9.8500 4.0473 -2.0016 0.9576
8.3577 6.4582 -1.9853 0.9579
7.2478 6.7145 -1.8571 0.9606
6.6198 7.3344 -1.8571 0.9606
5.9390 7.8958 -1.8571 0.9606
5.2109 8.3942 -1.8571 0.9606
1.9502 6.5946 -1.2926 0.9724
1.1569 10.5864 -2.0017 0.9576
0.1777 9.1047 -1.7116 0.9636
-0.7430 10.6236 -2.0017 0.9576
-1.1972 7.4582 -1.4198 0.9697
-3.1753 9.0383 -1.8006 0.9618
-2.9565 6.4947 -1.3413 0.9714
-6.3289 7.5875 -1.8571 0.9606
-6.9806 6.9925 -1.8571 0.9606
-7.5767 6.3418 -1.8572 0.9606
-9.2514 5.2753 -2.0017 0.9576
-10.3182 2.6370 -2.0017 0.9576
-10.5123 1.7059 -2.0017 0.9576
-10.6481 -0.1896 -2.0017 0.9576
-10.2177 -3.0027 -2.0017 0.9576
-9.9090 -3.9024 -2.0017 0.9576
-4.5517 -8.7237 -1.8495 0.9607
-1.2126 -9.7647 -1.8495 0.9607
0.5422 -9.8247 -1.8495 0.9607
2.2797 -9.5718 -1.8495 0.9607
3.1246 -9.3302 -1.8494 0.9607
3.9446 -9.0142 -1.8494 0.9607
4.7331 -8.6263 -1.8494 0.9607
6.8485 -7.0649 -1.8494 0.9607
7.4515 -6.4256 -1.8494 0.9607
7.9951 -5.7352 -1.8494 0.9607
8.4749 -4.9990 -1.8494 0.9607
8.8871 -4.2229 -1.8494 0.9607
9.9726 -3.6884 -1.9986 0.9576
10.4854 -1.8601 -2.0016 0.9576
10.6095 -0.9171 -2.0016 0.9576
10.6490 0.0331 -2.0016 0.9576
10.4736 1.9253 -2.0016 0.9576
9.9647 3.7561 -2.0016 0.9576
8.6143 6.2609 -2.0016 0.9576
6.8325 7.1367 -1.8571 0.9606
6.1685 7.7178 -1.8571 0.9606
5.4553 8.2375 -1.8571 0.9606
2.2314 9.6346 -1.8589 0.9605
9.4646 0.2967 -2.0016 0.9620
9.2612 1.9742 -2.0016 0.9620
8.4078 4.3563 -2.0016 0.9620
5.8940 6.5150 -1.8571 0.9647
4.6422 7.4588 -1.8571 0.9647
3.9583 7.8433 -1.8571 0.9647
3.2427 8.1652 -1.8571 0.9647
1.7399 8.6116 -1.8571 0.9647
-2.9024 8.2924 -1.8571 0.9647
-2.9498 6.4999 -1.5088 0.9712
-4.3301 7.6446 -1.8571 0.9647
-4.9949 7.2278 -1.8571 0.9647
-6.2000 6.2250 -1.8571 0.9647
-8.2210 4.7004 -2.0017 0.9620
-8.9255 3.1644 -2.0017 0.9620
-9.1722 2.3555 -2.0017 0.9620
-9.4449 0.6878 -2.0017 0.9620
-9.4685 -0.1576 -2.0017 0.9620
-9.2898 -1.8380 -2.0017 0.9620
-9.0887 -2.6595 -2.0017 0.9620
-8.8152 -3.4598 -2.0017 0.9620
-8.4523 -4.2230 -1.9972 0.9621
-6.2447 -4.6692 -1.6482 0.9686
-6.5121 -5.8438 -1.8495 0.9649
-5.3697 -6.9081 -1.8495 0.9649
-4.0565 -7.7525 -1.8495 0.9649
-1.8586 -8.5499 -1.8495 0.9649
-1.0883 -8.6816 -1.8495 0.9649
0.4720 -8.7367 -1.8495 0.9649
3.4982 -8.0196 -1.8494 0.9649
4.8679 -7.2702 -1.8494 0.9649
5.4971 -6.8068 -1.8494 0.9649
6.0825 -6.2892 -1.8494 0.9649
7.5308 -4.4539 -1.8494 0.9649
8.3967 -4.0018 -1.9662 0.9627
8.8775 -3.2951 -2.0016 0.9620
9.4693 0.0185 -2.0016 0.9620
9.3152 1.7012 -2.0016 0.9620
8.8646 3.3297 -2.0016 0.9620
8.5322 4.1073 -2.0016 0.9620
8.1317 4.8522 -2.0016 0.9620
5.4931 6.8564 -1.8571 0.9647
4.8594 7.3192 -1.8571 0.9647
3.5955 6.6324 -1.5947 0.9696
2.8889 6.6940 -1.5411 0.9706
2.7477 8.3448 -1.8571 0.9647
-0.2799 7.1247 -1.5072 0.9713
-3.3941 8.1037 -1.8571 0.9647
-4.7803 7.3715 -1.8571 0.9647
-6.8466 6.0960 -1.9378 0.9632
-8.0793 4.9400 -2.0017 0.9620
-8.4878 4.1994 -2.0017 0.9620
-8.8286 3.4254 -2.0017 0.9620
-9.4206 0.9651 -2.0017 0.9620
-9.4691 0.1207 -2.0017 0.9620
-8.5906 -3.9810 -2.0014 0.9620
-6.1503 -6.2234 -1.8495 0.9649
-4.9462 -7.2174 -1.8495 0.9649
-3.5847 -7.9816 -1.8495 0.9649
-2.8583 -8.2695 -1.8495 0.9649
-2.1090 -8.4916 -1.8495 0.9649
0.9945 -8.6928 -1.8495 0.9649
1.7662 -8.5693 -1.8495 0.9649
2.5237 -8.3775 -1.8495 0.9649
4.6521 -7.4101 -1.8494 0.9649
5.2947 -6.9654 -1.8494 0.9649
6.9502 -5.3146 -1.8494 0.9649
8.7756 -3.5540 -2.0013 0.9620
9.4657 -0.2598 -2.0016 0.9620
9.4511 0.5857 -2.0016 0.9620
8.9586 3.0677 -2.0016 0.9620
8.6492 3.8547 -2.0016 0.9620
6.5365 6.4227 -1.9371 0.9632
5.6922 6.6920 -1.8571 0.9647
5.0724 7.1732 -1.8571 0.9647
3.7168 7.9606 -1.8571 0.9647
2.2428 8.4945 -1.8571 0.9647
0.6974 8.7579 -1.8571 0.9647
-0.0868 8.7852 -1.8571 0.9647
-1.2626 6.6166 -1.4239 0.9728
-2.5278 6.5710 -1.4882 0.9716
-5.2134 7.0718 -1.8571 0.9647
-5.8235 6.5785 -1.8571 0.9647
-6.4747 6.1153 -1.8826 0.9642
-7.4372 5.8622 -2.0017 0.9620
-7.9306 5.1753 -2.0017 0.9620
-8.7242 3.6834 -2.0017 0.9620
-9.0180 2.8903 -2.0017 0.9620
-9.2399 2.0742 -2.0017 0.9620
-9.3881 1.2415 -2.0017 0.9620
-9.4593 -0.4468 -2.0017 0.9620
-9.3817 -1.2890 -2.0017 0.9620
-9.0032 -2.9359 -2.0017 0.9620
-8.7054 -3.7275 -2.0017 0.9620
-6.3305 -6.0400 -1.8495 0.9649
-5.7663 -6.5807 -1.8495 0.9649
-5.1562 -7.0689 -1.8495 0.9649
-3.8177 -7.8728 -1.8495 0.9649
-3.1001 -8.1820 -1.8495 0.9649
-1.5965 -8.6026 -1.8495 0.9649
3.0210 -8.2113 -1.8494 0.9649
6.7910 -5.5165 -1.8494 0.9649
7.2561 -4.8886 -1.8494 0.9649
7.6633 -4.2218 -1.8494 0.9649
8.6494 -3.8025 -1.9972 0.9621
9.2079 -2.2096 -2.0016 0.9620
9.3683 -1.3793 -2.0016 0.9620
9.0449 2.8031 -2.0016 0.9620
8.4027 4.3660 -2.0016 0.9620
5.2811 7.0210 -1.8571 0.9647
1.9502 6.5946 -1.4537 0.9723
0.9545 8.7336 -1.8571 0.9647
0.1714 8.7839 -1.8571 0.9647
-1.0600 6.6036 -1.4137 0.9730
-2.9121 8.2891 -1.8571 0.9647
-4.3389 7.6396 -1.8571 0.9647
-5.6277 6.7468 -1.8571 0.9647
-7.2571 6.0743 -2.0004 0.9620
-7.7751 5.4061 -2.0017 0.9620
-8.9292 3.1541 -2.0017 0.9620
-9.1750 2.3448 -2.0017 0.9620
-9.3476 1.5169 -2.0017 0.9620
-9.2876 -1.8488 -2.0017 0.9620
-9.0856 -2.6700 -2.0017 0.9620
-8.4467 -4.2324 -1.9971 0.9621
-7.4417 -4.6021 -1.8495 0.9649
-6.5053 -5.8514 -1.8495 0.9649
-4.0474 -7.7572 -1.8495 0.9649
-3.3392 -8.0874 -1.8495 0.9649
-2.6043 -8.3530 -1.8495 0.9649
-1.0783 -8.6828 -1.8495 0.9649
0.4821 -8.7362 -1.8495 0.9649
1.2596 -8.6583 -1.8495 0.9649
2.7784 -8.2965 -1.8494 0.9649
3.5076 -8.0155 -1.8494 0.9649
4.2087 -7.6706 -1.8494 0.9649
5.5050 -6.8004 -1.8494 0.9649
6.6260 -5.7138 -1.8494 0.9649
7.1093 -5.0998 -1.8494 0.9649
7.5360 -4.4451 -1.8494 0.9649
8.4191 -4.0005 -1.9703 0.9626
8.8813 -3.2847 -2.0016 0.9620
9.4692 0.0295 -2.0016 0.9620
9.3133 1.7120 -2.0016 0.9620
8.8607 3.3400 -2.0016 0.9620
8.5274 4.1172 -2.0016 0.9620
7.6599 5.5673 -2.0016 0.9620
7.1327 6.2285 -2.0016 0.9620
4.8509 7.3248 -1.8571 0.9647
8.4244 -1.2503 -2.0016 0.9656
8.4548 1.0253 -2.0016 0.9656
8.3296 1.7756 -2.0016 0.9656
7.5620 3.9181 -2.0016 0.9656
6.7453 5.1997 -2.0016 0.9656
4.1752 6.7085 -1.8571 0.9681
3.5601 7.0543 -1.8571 0.9681
2.9165 7.3438 -1.8571 0.9681
1.9586 6.5948 -1.6168 0.9721
1.5648 7.7453 -1.8571 0.9681
0.1634 7.9001 -1.8571 0.9681
-1.7686 7.0041 -1.6978 0.9708
-2.9498 6.4999 -1.6776 0.9711
-4.4924 6.5007 -1.8571 0.9681
-6.5248 5.4743 -2.0017 0.9656
-6.9872 4.8703 -2.0017 0.9656
-7.7416 3.5510 -2.0017 0.9656
-8.0276 2.8461 -2.0017 0.9656
-8.2495 2.1185 -2.0017 0.9656
-8.4056 1.3740 -2.0017 0.9656
-7.6191 -3.8067 -2.0017 0.9656
-7.1027 -4.3810 -1.9613 0.9663
-4.2559 -6.6193 -1.8495 0.9682
-1.6716 -7.6898 -1.8495 0.9682
-0.2783 -7.8644 -1.8495 0.9682
1.1239 -7.7886 -1.8495 0.9682
3.1463 -7.2129 -1.8494 0.9682
3.7773 -6.9034 -1.8494 0.9682
5.9534 -5.1459 -1.8494 0.9682
6.8591 -4.0566 -1.8729 0.9678
7.6819 -3.6612 -2.0000 0.9656
7.9844 -2.9636 -2.0016 0.9656
8.5167 0.0166 -2.0016 0.9656
8.4812 0.7764 -2.0016 0.9656
8.2082 2.2714 -2.0016 0.9656
7.9728 2.9947 -2.0016 0.9656
7.3137 4.3641 -2.0016 0.9656
6.8952 4.9992 -2.0016 0.9656
6.4216 5.5945 -2.0016 0.9656
5.1198 6.3904 -1.9245 0.9669
3.5955 6.6324 -1.7731 0.9695
3.1310 7.2549 -1.8571 0.9681
2.4713 7.5053 -1.8571 0.9681
1.7918 7.6959 -1.8571 0.9681
1.0980 7.8251 -1.8571 0.9681
0.3288 6.5620 -1.5441 0.9734
-0.2799 7.1247 -1.6758 0.9711
-0.9161 7.0838 -1.6787 0.9711
-1.5556 7.0240 -1.6908 0.9709
-4.2994 6.6299 -1.8571 0.9681
-6.8411 5.0736 -2.0017 0.9656
-7.2665 4.4430 -2.0017 0.9656
-7.6339 3.7769 -2.0017 0.9656
-7.9405 3.0808 -2.0017 0.9656
-8.4728 0.8680 -2.0017 0.9656
-8.4002 -1.4068 -2.0017 0.9656
-8.2411 -2.1507 -2.0017 0.9656
-7.3578 -4.2450 -1.9964 0.9657
-6.4383 -4.5251 -1.8495 0.9682
-6.0089 -5.0815 -1.8495 0.9682
-5.5315 -5.5974 -1.8495 0.9682
-5.0101 -6.0686 -1.8495 0.9682
-4.4486 -6.4914 -1.8495 0.9682
-3.8517 -6.8624 -1.8495 0.9682
-3.2241 -7.1786 -1.8495 0.9682
0.1934 -7.8669 -1.8495 0.9682
0.8945 -7.8183 -1.8495 0.9682
2.2698 -7.5348 -1.8495 0.9682
2.9330 -7.3022 -1.8494 0.9682
3.5728 -7.0114 -1.8494 0.9682
4.1841 -6.6646 -1.8494 0.9682
4.7620 -6.2647 -1.8494 0.9682
5.7996 -5.3186 -1.8494 0.9682
6.6526 -4.2032 -1.8494 0.9682
7.5572 -3.8783 -1.9964 0.9657
8.5004 0.5268 -2.0016 0.9656
8.4195 1.2831 -2.0016 0.9656
8.0574 2.7591 -2.0016 0.9656
7.0391 4.7944 -2.0016 0.9656
6.0749 5.9692 -2.0016 0.9656
4.5622 6.4516 -1.8571 0.9681
3.9684 6.8329 -1.8571 0.9681
2.6908 7.4295 -1.8571 0.9681
2.0172 7.6399 -1.8571 0.9681
0.6272 7.8768 -1.8571 0.9681
-0.7071 7.1033 -1.6777 0.9711
-1.2626 6.6166 -1.5831 0.9727
-4.1027 6.7534 -1.8571 0.9681
-5.4291 6.1329 -1.9250 0.9669
-7.1328 4.6546 -2.0017 0.9656
-7.8465 3.3128 -2.0017 0.9656
-8.1108 2.5995 -2.0017 0.9656
-8.5096 0.3588 -2.0017 0.9656
-8.5077 -0.4019 -2.0017 0.9656
-8.3008 -1.9075 -2.0017 0.9656
-8.0975 -2.6405 -2.0017 0.9656
-7.8296 -3.3525 -2.0017 0.9656
-7.4929 -4.0342 -2.0000 0.9656
-6.0848 -4.8463 -1.8282 0.9685
-4.6375 -6.3578 -1.8495 0.9682
-4.0517 -6.7462 -1.8495 0.9682
-2.7882 -7.3589 -1.8495 0.9682
-2.1205 -7.5783 -1.8495 0.9682
-0.7399 -7.8345 -1.8495 0.9682
-0.0379 -7.8692 -1.8495 0.9682
0.6643 -7.8412 -1.8495 0.9682
1.3613 -7.7506 -1.8495 0.9682
2.0474 -7.5982 -1.8495 0.9682
3.9864 -6.7847 -1.8494 0.9682
5.6408 -5.4868 -1.8494 0.9682
6.1079 -4.9616 -1.8494 0.9682
7.3134 -4.0290 -1.9624 0.9663
8.2816 -1.9873 -2.0016 0.9656
8.5029 -0.4838 -2.0016 0.9656
8.5122 0.2768 -2.0016 0.9656
8.3275 1.7853 -2.0016 0.9656
7.8776 3.2369 -2.0016 0.9656
7.1769 4.5855 -2.0016 0.9656
6.7392 5.2075 -2.0016 0.9656
6.2477 5.7880 -2.0016 0.9656
5.7064 6.3224 -2.0016 0.9656
4.1674 6.7133 -1.8571 0.9681
2.9079 7.3472 -1.8571 0.9681
1.9502 6.5946 -1.6162 0.9721
1.5559 7.7471 -1.8571 0.9681
0.8584 7.8550 -1.8571 0.9681
0.1542 7.9003 -1.8571 0.9681
-1.7771 7.0033 -1.6981 0.9707
-2.6191 7.4552 -1.8571 0.9681
-5.1284 6.1483 -1.8817 0.9676
-6.0174 6.0276 -2.0017 0.9656
-7.7457 3.5420 -2.0017 0.9656
-8.4954 0.6087 -2.0017 0.9656
-8.5158 -0.1517 -2.0017 0.9656
-8.4683 -0.9109 -2.0017 0.9656
-8.1716 -2.4014 -2.0017 0.9656
-7.9247 -3.1209 -2.0017 0.9656
-7.0846 -4.3812 -1.9577 0.9664
-6.2337 -4.6722 -1.8309 0.9685
-5.8508 -5.2627 -1.8495 0.9682
-5.3580 -5.7637 -1.8495 0.9682
-4.2482 -6.6242 -1.8495 0.9682
-3.0033 -7.2738 -1.8495 0.9682
-1.6627 -7.6917 -1.8495 0.9682
1.8232 -7.6551 -1.8495 0.9682
3.7853 -6.8990 -1.8494 0.9682
4.3857 -6.5337 -1.8494 0.9682
5.4772 -5.6502 -1.8494 0.9682
5.9594 -5.1390 -1.8494 0.9682
6.8756 -4.0556 -1.8761 0.9677
7.6867 -3.6525 -2.0001 0.9656
8.4851 -0.7335 -2.0016 0.9656
8.3764 1.5398 -2.0016 0.9656
7.9694 3.0040 -2.0016 0.9656
7.6696 3.7030 -2.0016 0.9656
6.8893 5.0072 -2.0016 0.9656
5.1076 6.3905 -1.9227 0.9669
2.4626 7.5082 -1.8571 0.9681
1.7829 7.6980 -1.8571 0.9681
7.7177 -0.4481 -2.0016 0.9686
7.7269 0.2423 -2.0016 0.9686
7.6745 0.9307 -2.0016 0.9686
7.1541 2.9299 -2.0016 0.9686
3.9579 6.3593 -1.9394 0.9695
1.9586 6.5948 -1.7812 0.9720
1.4204 7.0305 -1.8571 0.9708
0.7875 7.1292 -1.8571 0.9708
-1.1158 7.0032 -1.8361 0.9711
-1.7534 6.9436 -1.8543 0.9708
-2.3695 6.7699 -1.8571 0.9708
-3.5351 6.2410 -1.8571 0.9708
-4.9452 5.9426 -2.0017 0.9686
-5.4557 5.4777 -2.0017 0.9686
-6.3424 4.4209 -2.0017 0.9686
-7.0272 3.2232 -2.0017 0.9686
-7.2867 2.5834 -2.0017 0.9686
-7.6877 -0.8179 -2.0017 0.9686
-7.5841 -1.5005 -2.0017 0.9686
-7.1967 -2.8245 -2.0017 0.9686
-6.9159 -3.4554 -2.0017 0.9686
-5.8364 -4.3639 -1.8869 0.9703
-5.3164 -4.7709 -1.8495 0.9709
-4.8696 -5.2262 -1.8495 0.9709
-4.3838 -5.6398 -1.8495 0.9709
-3.8632 -6.0084 -1.8495 0.9709
-3.3117 -6.3291 -1.8495 0.9709
-1.5173 -6.9801 -1.8495 0.9709
-0.8885 -7.0876 -1.8495 0.9709
-0.2526 -7.1386 -1.8495 0.9709
0.3853 -7.1327 -1.8495 0.9709
1.0202 -7.0698 -1.8495 0.9709
1.6469 -6.9506 -1.8495 0.9709
2.2604 -6.7759 -1.8495 0.9709
3.4287 -6.2663 -1.8494 0.9709
4.4878 -5.5571 -1.8494 0.9709
5.4040 -4.6710 -1.8494 0.9709
7.2476 -2.6901 -2.0016 0.9686
7.4587 -2.0327 -2.0016 0.9686
7.7012 -0.6747 -2.0016 0.9686
7.7307 0.0151 -2.0016 0.9686
7.6050 1.3888 -2.0016 0.9686
7.2371 2.7184 -2.0016 0.9686
6.9657 3.3532 -2.0016 0.9686
6.6387 3.9613 -2.0016 0.9686
5.8290 5.0782 -2.0016 0.9686
5.3527 5.5780 -2.0016 0.9686
4.8337 6.0334 -2.0017 0.9686
3.4474 6.3592 -1.8729 0.9706
2.2432 6.8127 -1.8571 0.9708
1.6264 6.9857 -1.8571 0.9708
0.9967 7.1029 -1.8571 0.9708
0.3288 6.5620 -1.7011 0.9732
-0.2782 7.0815 -1.8350 0.9711
-1.5422 6.9634 -1.8466 0.9710
-4.0022 6.1715 -1.9045 0.9701
-4.7684 6.0854 -2.0017 0.9686
-5.2923 5.6357 -2.0017 0.9686
-5.7741 5.1410 -2.0017 0.9686
-6.2097 4.6053 -2.0017 0.9686
-7.5899 1.4709 -2.0017 0.9686
-7.6249 -1.2770 -2.0017 0.9686
-7.0145 -3.2506 -2.0017 0.9686
-5.4543 -4.6126 -1.8495 0.9709
-2.3335 -6.7512 -1.8495 0.9709
-1.7218 -6.9325 -1.8495 0.9709
0.1755 -7.1409 -1.8495 0.9709
0.8119 -7.0967 -1.8495 0.9709
1.4419 -6.9960 -1.8495 0.9709
4.8127 -5.2782 -1.8494 0.9709
5.2644 -4.8278 -1.8494 0.9709
5.6742 -4.3388 -1.8494 0.9709
6.8779 -3.5297 -2.0016 0.9686
7.6781 -0.9008 -2.0016 0.9686
7.7278 -0.2121 -2.0016 0.9686
7.7159 0.4782 -2.0016 0.9686
7.5081 1.8420 -2.0016 0.9686
7.3138 2.5045 -2.0016 0.9686
7.0612 3.1471 -2.0016 0.9686
6.3895 4.3520 -2.0016 0.9686
5.5143 5.4183 -2.0016 0.9686
0.5693 7.1499 -1.8571 0.9708
-0.0709 7.1722 -1.8571 0.9708
-0.7010 7.0420 -1.8323 0.9712
-1.2626 6.6166 -1.7441 0.9726
-1.9677 6.8974 -1.8571 0.9708
-2.5753 6.6944 -1.8571 0.9708
-4.5303 6.1453 -1.9767 0.9689
-5.1244 5.7888 -2.0017 0.9686
-6.0717 4.7858 -2.0017 0.9686
-7.5434 1.6933 -2.0017 0.9686
-7.6644 1.0136 -2.0017 0.9686
-7.7243 0.3257 -2.0017 0.9686
-7.3502 -2.3968 -2.0017 0.9686
-6.4346 -4.2456 -1.9960 0.9686
-5.5875 -4.4503 -1.8495 0.9709
-1.9248 -6.8789 -1.8495 0.9709
-0.6716 -7.1114 -1.8495 0.9709
1.2357 -7.0354 -1.8495 0.9709
2.4664 -6.7037 -1.8495 0.9709
4.6555 -5.4174 -1.8494 0.9709
5.1203 -4.9804 -1.8494 0.9709
6.7632 -3.7259 -1.9993 0.9686
7.0770 -3.1113 -2.0016 0.9686
7.5173 -1.8039 -2.0016 0.9686
7.6483 -1.1260 -2.0016 0.9686
7.7183 -0.4391 -2.0016 0.9686
7.1507 2.9382 -2.0016 0.9686
6.8600 3.5644 -2.0016 0.9686
6.5146 4.1623 -2.0016 0.9686
6.1173 4.7269 -2.0016 0.9686
5.1798 5.7389 -2.0016 0.9686
4.6471 6.1782 -2.0017 0.9686
3.2241 6.4070 -1.8571 0.9708
2.6396 6.6691 -1.8571 0.9708
1.9502 6.5946 -1.7806 0.9720
-0.4939 7.0614 -1.8328 0.9712
-1.7617 6.9428 -1.8546 0.9708
-4.2665 6.1585 -1.9398 0.9695
-5.9284 4.9622 -2.0017 0.9686
-6.3475 4.4135 -2.0017 0.9686
-6.7160 3.8296 -2.0017 0.9686
-7.0309 3.2151 -2.0017 0.9686
-7.2897 2.5750 -2.0017 0.9686
-7.4904 1.9143 -2.0017 0.9686
-7.6313 1.2384 -2.0017 0.9686
-7.7113 0.5526 -2.0017 0.9686
-7.6868 -0.8268 -2.0017 0.9686
-7.5824 -1.5093 -2.0017 0.9686
-7.1934 -2.8329 -2.0017 0.9686
-6.9119 -3.4634 -2.0017 0.9686
-5.3109 -4.7770 -1.8495 0.9709
-4.8635 -5.2318 -1.8495 0.9709
-4.3773 -5.6449 -1.8495 0.9709
-2.1262 -6.8194 -1.8495 0.9709
-1.5092 -6.9818 -1.8495 0.9709
-0.8803 -7.0886 -1.8495 0.9709
-0.2443 -7.1389 -1.8495 0.9709
0.3936 -7.1322 -1.8495 0.9709
1.6549 -6.9487 -1.8495 0.9709
2.2683 -6.7733 -1.8495 0.9709
2.8636 -6.5439 -1.8495 0.9709
3.9810 -5.9307 -1.8494 0.9709
4.4943 -5.5519 -1.8494 0.9709
4.9717 -5.1288 -1.8494 0.9709
5.8041 -4.1635 -1.8494 0.9709
7.2507 -2.6817 -2.0016 0.9686
7.7307 0.0240 -2.0016 0.9686
7.6034 1.3977 -2.0016 0.9686
7.4483 2.0705 -2.0016 0.9686
7.2339 2.7268 -2.0016 0.9686
6.9618 3.3613 -2.0016 0.9686
6.6341 3.9690 -2.0016 0.9686
6.2536 4.5451 -2.0016 0.9686
3.4378 6.3592 -1.8717 0.9706
1.6183 6.9876 -1.8571 0.9708
6.9940 -1.0380 -2.0016 0.9710
7.0192 0.8512 -2.0016 0.9710
6.9152 1.4741 -2.0016 0.9710
6.7561 2.0852 -2.0016 0.9710
6.5431 2.6797 -2.0016 0.9710
6.2780 3.2528 -2.0016 0.9710
5.9627 3.7999 -2.0016 0.9710
5.5999 4.3168 -2.0016 0.9710
4.2568 5.6457 -2.0017 0.9710
3.1857 6.3124 -2.0017 0.9710
1.2991 6.4301 -1.8571 0.9731
0.7202 6.5204 -1.8571 0.9731
-0.4501 6.5446 -1.8571 0.9731
-2.1781 6.2231 -1.8665 0.9730
-3.4849 6.1524 -2.0017 0.9710
-4.0199 5.8170 -2.0017 0.9710
-5.4169 4.5448 -2.0017 0.9710
-5.8008 4.0433 -2.0017 0.9710
-6.6644 2.3628 -2.0017 0.9710
-6.8487 1.7588 -2.0017 0.9710
-6.9783 1.1407 -2.0017 0.9710
-7.0522 0.5136 -2.0017 0.9710
-7.0699 -0.1177 -2.0017 0.9710
-7.0312 -0.7480 -2.0017 0.9710
-6.9364 -1.3724 -2.0017 0.9710
-6.7863 -1.9858 -2.0017 0.9710
-6.5821 -2.5833 -2.0017 0.9710
-4.8624 -4.3634 -1.8495 0.9732
-4.4537 -4.7799 -1.8495 0.9732
-4.0095 -5.1582 -1.8495 0.9732
-3.5333 -5.4953 -1.8495 0.9732
-2.5003 -6.0358 -1.8495 0.9732
-1.9518 -6.2347 -1.8495 0.9732
-1.3878 -6.3840 -1.8495 0.9732
-0.8126 -6.4824 -1.8495 0.9732
1.5062 -6.3570 -1.8495 0.9732
2.6121 -5.9881 -1.8495 0.9732
3.1359 -5.7312 -1.8494 0.9732
3.6348 -5.4285 -1.8494 0.9732
4.1046 -5.0826 -1.8494 0.9732
6.3827 -3.0420 -2.0016 0.9710
6.8218 -1.8591 -2.0016 0.9710
7.0436 -0.6171 -2.0016 0.9710
7.0706 0.0138 -2.0016 0.9710
7.0411 0.6446 -2.0016 0.9710
6.9556 1.2702 -2.0016 0.9710
6.8145 1.8857 -2.0016 0.9710
6.3709 3.0669 -2.0016 0.9710
6.0718 3.6231 -2.0016 0.9710
5.7244 4.1504 -2.0016 0.9710
5.3312 4.6445 -2.0016 0.9710
4.4209 5.5181 -2.0017 0.9710
3.3698 6.2160 -2.0017 0.9710
2.7307 6.3272 -1.9509 0.9718
2.0822 6.3237 -1.8847 0.9727
1.4875 6.3891 -1.8571 0.9731
0.9116 6.4964 -1.8571 0.9731
-0.2576 6.5550 -1.8571 0.9731
-0.8414 6.5059 -1.8571 0.9731
-1.4185 6.4049 -1.8571 0.9731
-1.9843 6.2528 -1.8571 0.9731
-3.2624 6.1761 -1.9773 0.9714
-3.8472 5.9326 -2.0017 0.9710
-4.3612 5.5657 -2.0017 0.9710
-4.8404 5.1544 -2.0017 0.9710
-5.2810 4.7020 -2.0017 0.9710
-6.3376 3.1356 -2.0017 0.9710
-6.5921 2.5576 -2.0017 0.9710
-7.0341 0.7206 -2.0017 0.9710
-7.0703 0.0901 -2.0017 0.9710
-7.0502 -0.5411 -2.0017 0.9710
-6.6552 -2.3888 -2.0017 0.9710
-3.1977 -5.6971 -1.8495 0.9732
-2.6766 -5.9597 -1.8495 0.9732
-2.1342 -6.1747 -1.8495 0.9732
-1.0028 -6.4557 -1.8495 0.9732
-0.4228 -6.5194 -1.8495 0.9732
0.1605 -6.5311 -1.8495 0.9732
0.7426 -6.4907 -1.8495 0.9732
5.3456 -4.0876 -1.9050 0.9724
5.9691 -3.7714 -1.9988 0.9711
6.7642 -2.0588 -2.0016 0.9710
7.0679 -0.1940 -2.0016 0.9710
6.9899 1.0653 -2.0016 0.9710
6.8670 1.6847 -2.0016 0.9710
6.6893 2.2906 -2.0016 0.9710
5.8439 3.9803 -2.0016 0.9710
5.4654 4.4858 -2.0016 0.9710
4.5812 5.3858 -2.0017 0.9710
4.0824 5.7731 -2.0017 0.9710
2.9545 6.3279 -1.9770 0.9714
-1.2296 6.4438 -1.8571 0.9731
-2.3906 6.2145 -1.8850 0.9727
-3.6712 6.0431 -2.0017 0.9710
-4.1958 5.6915 -2.0017 0.9710
-5.1405 4.8551 -2.0017 0.9710
-5.9216 3.8642 -2.0017 0.9710
-6.2427 3.3205 -2.0017 0.9710
-6.5141 2.7503 -2.0017 0.9710
-6.7335 2.1581 -2.0017 0.9710
-7.0099 0.9270 -2.0017 0.9710
-7.0051 -0.9625 -2.0017 0.9710
-6.2258 -3.3520 -2.0017 0.9710
-5.9019 -3.8941 -2.0017 0.9710
-5.4475 -4.3387 -1.9715 0.9715
-4.7268 -4.5099 -1.8495 0.9732
-3.3637 -5.6007 -1.8495 0.9732
-2.8506 -5.8784 -1.8495 0.9732
-2.3148 -6.1093 -1.8495 0.9732
-1.1921 -6.4234 -1.8495 0.9732
-0.6142 -6.5042 -1.8495 0.9732
-0.0315 -6.5330 -1.8495 0.9732
0.5515 -6.5097 -1.8495 0.9732
1.6997 -6.3081 -1.8495 0.9732
2.2558 -6.1312 -1.8495 0.9732
2.7938 -5.9055 -1.8495 0.9732
3.7989 -5.3149 -1.8494 0.9732
4.2579 -4.9548 -1.8494 0.9732
4.6830 -4.5551 -1.8494 0.9732
5.0708 -4.1191 -1.8494 0.9732
6.4727 -2.8456 -2.0016 0.9710
6.7008 -2.2567 -2.0016 0.9710
6.8754 -1.6499 -2.0016 0.9710
6.9952 -1.0299 -2.0016 0.9710
7.0592 -0.4016 -2.0016 0.9710
6.5400 2.6873 -2.0016 0.9710
4.7375 5.2489 -2.0017 0.9710
4.2503 5.6506 -2.0017 0.9710
3.7292 6.0073 -2.0017 0.9710
3.1783 6.3161 -2.0017 0.9710
1.8696 6.3219 -1.8663 0.9730
-1.0397 6.4771 -1.8571 0.9731
-2.1862 6.2228 -1.8672 0.9730
-3.4920 6.1484 -2.0017 0.9710
-4.5292 5.4299 -2.0017 0.9710
-4.9956 5.0041 -2.0017 0.9710
-5.8055 4.0366 -2.0017 0.9710
-6.4305 2.9405 -2.0017 0.9710
-6.6672 2.3551 -2.0017 0.9710
-7.0528 0.5054 -2.0017 0.9710
-7.0698 -0.1259 -2.0017 0.9710
-6.9348 -1.3804 -2.0017 0.9710
-6.7840 -1.9937 -2.0017 0.9710
-6.5791 -2.5910 -2.0017 0.9710
-6.3217 -3.1676 -2.0017 0.9710
-4.0035 -5.1628 -1.8495 0.9732
-2.4933 -6.0387 -1.8495 0.9732
-0.2235 -6.5293 -1.8495 0.9732
3.1426 -5.7275 -1.8494 0.9732
3.6410 -5.4243 -1.8494 0.9732
4.1105 -5.0778 -1.8494 0.9732
4.9475 -4.2664 -1.8494 0.9732
6.3863 -3.0346 -2.0016 0.9710
6.6316 -2.4527 -2.0016 0.9710
6.8239 -1.8512 -2.0016 0.9710
7.0443 -0.6089 -2.0016 0.9710
7.0404 0.6528 -2.0016 0.9710
6.9541 1.2783 -2.0016 0.9710
6.8123 1.8937 -2.0016 0.9710
6.3673 3.0743 -2.0016 0.9710
5.3258 4.6507 -2.0016 0.9710
4.8897 5.1074 -2.0016 0.9710
4.4145 5.5233 -2.0017 0.9710
3.9041 5.8951 -2.0017 0.9710
3.3626 6.2199 -2.0017 0.9710
2.7220 6.3272 -1.9499 0.9718
2.0740 6.3236 -1.8840 0.9727
1.4801 6.3909 -1.8571 0.9731
6.4968 -0.3772 -2.0016 0.9731
6.3647 1.3567 -2.0016 0.9731
6.2183 1.9192 -2.0016 0.9731
5.4881 3.4974 -2.0016 0.9731
4.7791 4.4172 -2.0016 0.9731
3.9180 5.1962 -2.0017 0.9731
3.4387 5.5251 -2.0017 0.9731
2.4020 6.0483 -2.0017 0.9731
1.8528 6.2385 -2.0017 0.9731
0.1296 6.2679 -1.9283 0.9741
-0.9939 6.2378 -1.9428 0.9739
-1.5702 6.2183 -1.9726 0.9735
-2.6894 5.9262 -2.0017 0.9731
-3.2074 5.6626 -2.0017 0.9731
-3.6999 5.3539 -2.0017 0.9731
-4.9856 4.1830 -2.0017 0.9731
-5.3390 3.7214 -2.0017 0.9731
-6.1339 2.1747 -2.0017 0.9731
-6.3035 1.6188 -2.0017 0.9731
-6.5071 -0.1083 -2.0017 0.9731
-6.4715 -0.6885 -2.0017 0.9731
-6.3842 -1.2631 -2.0017 0.9731
-6.2461 -1.8277 -2.0017 0.9731
-5.8218 -2.9087 -2.0017 0.9731
-5.5390 -3.4165 -2.0017 0.9731
-5.2113 -3.8965 -2.0014 0.9731
-4.8139 -4.3199 -1.9894 0.9733
-4.0992 -4.3993 -1.8495 0.9751
-3.6903 -4.7475 -1.8495 0.9751
-3.2520 -5.0578 -1.8495 0.9751
-2.7877 -5.3278 -1.8495 0.9751
-1.7964 -5.7384 -1.8495 0.9751
-1.2773 -5.8758 -1.8495 0.9751
-0.7480 -5.9663 -1.8495 0.9751
0.3244 -6.0042 -1.8495 0.9751
0.8588 -5.9513 -1.8495 0.9752
1.3863 -5.8510 -1.8495 0.9752
1.9028 -5.7039 -1.8495 0.9752
2.8863 -5.2749 -1.8495 0.9752
3.7778 -4.6780 -1.8494 0.9752
5.2759 -3.7939 -1.9987 0.9732
5.6014 -3.3128 -2.0016 0.9731
5.8746 -2.7998 -2.0016 0.9731
6.2787 -1.7111 -2.0016 0.9731
6.4806 0.5933 -2.0016 0.9731
6.4018 1.1691 -2.0016 0.9731
6.2720 1.7356 -2.0016 0.9731
5.8637 2.8227 -2.0016 0.9731
5.5885 3.3346 -2.0016 0.9731
5.2687 3.8200 -2.0016 0.9731
4.0690 5.0789 -2.0017 0.9731
3.5996 5.4216 -2.0017 0.9731
3.1015 5.7212 -2.0017 0.9731
2.5787 5.9751 -2.0017 0.9731
0.8815 6.2821 -1.9512 0.9738
0.3143 6.2719 -1.9315 0.9741
-0.2459 6.2591 -1.9266 0.9741
-0.8075 6.2436 -1.9364 0.9740
-1.3787 6.2251 -1.9611 0.9737
-2.5141 6.0027 -2.0017 0.9731
-3.0396 5.7545 -2.0017 0.9731
-3.5409 5.4603 -2.0017 0.9731
-4.4550 4.7441 -2.0017 0.9731
-4.8606 4.3277 -2.0017 0.9731
-5.8331 2.8860 -2.0017 0.9731
-6.2532 1.8033 -2.0017 0.9731
-6.4741 0.6632 -2.0017 0.9731
-6.2971 -1.6433 -2.0017 0.9731
-6.1253 -2.1986 -2.0017 0.9731
-5.9047 -2.7363 -2.0017 0.9731
-5.6371 -3.2523 -2.0017 0.9731
-4.2777 -4.3286 -1.8718 0.9749
-3.3992 -4.9601 -1.8495 0.9751
-1.9643 -5.6831 -1.8495 0.9751
-1.4494 -5.8357 -1.8495 0.9751
3.1971 -5.0925 -1.8494 0.9752
3.6387 -4.7870 -1.8494 0.9752
4.0513 -4.4432 -1.8494 0.9752
4.4867 -4.1146 -1.8725 0.9748
5.1557 -3.9424 -1.9963 0.9732
5.5016 -3.4760 -2.0016 0.9731
6.0318 -2.4428 -2.0016 0.9731
6.4953 0.4026 -2.0016 0.9731
6.4334 0.9805 -2.0016 0.9731
6.3203 1.5506 -2.0016 0.9731
5.9441 2.6492 -2.0016 0.9731
5.6841 3.1690 -2.0016 0.9731
4.6419 4.5611 -2.0017 0.9731
3.7574 5.3135 -2.0017 0.9731
2.2161 6.1189 -2.0017 0.9731
1.6612 6.2918 -2.0015 0.9731
-0.6221 6.2490 -1.9316 0.9741
-1.1891 6.2315 -1.9513 0.9738
-3.8617 5.2384 -2.0017 0.9731
-4.3137 4.8729 -2.0017 0.9731
-4.7313 4.4686 -2.0017 0.9731
-6.1975 1.9863 -2.0017 0.9731
-6.3500 1.4254 -2.0017 0.9731
-6.5022 0.2742 -2.0017 0.9731
-6.5007 -0.3071 -2.0017 0.9731
-5.9826 -2.5616 -2.0017 0.9731
-5.4321 -3.5841 -2.0017 0.9731
-3.9628 -4.5225 -1.8495 0.9751
-3.0960 -5.1548 -1.8495 0.9751
-1.0972 -5.9121 -1.8495 0.9751
1.5644 -5.8059 -1.8495 0.9752
2.0762 -5.6431 -1.8495 0.9752
4.3102 -4.1925 -1.8494 0.9752
5.0223 -4.0797 -1.9902 0.9733
5.3964 -3.6357 -2.0014 0.9731
5.7000 -3.1401 -2.0016 0.9731
5.9574 -2.6191 -2.0016 0.9731
6.1673 -2.0771 -2.0016 0.9731
6.3281 -1.5185 -2.0016 0.9731
6.4972 -0.3697 -2.0016 0.9731
6.5043 0.2115 -2.0016 0.9731
6.0194 2.4733 -2.0016 0.9731
5.7747 3.0005 -2.0016 0.9731
5.4840 3.5038 -2.0016 0.9731
5.1495 3.9791 -2.0016 0.9731
4.7740 4.4227 -2.0016 0.9731
3.9119 5.2008 -2.0017 0.9731
3.4323 5.5291 -2.0017 0.9731
2.3950 6.0511 -2.0017 0.9731
1.8455 6.2407 -2.0017 0.9731
1.2627 6.2874 -1.9725 0.9735
0.1223 6.2678 -1.9282 0.9741
-1.5778 6.2180 -1.9731 0.9735
-2.1571 6.1400 -2.0017 0.9731
-2.6963 5.9231 -2.0017 0.9731
-4.1686 4.9976 -2.0017 0.9731
-4.5979 4.6057 -2.0017 0.9731
-5.9185 2.7064 -2.0017 0.9731
-6.3053 1.6114 -2.0017 0.9731
-6.4240 1.0424 -2.0017 0.9731
-6.4913 0.4651 -2.0017 0.9731
-6.5070 -0.1159 -2.0017 0.9731
-6.3828 -1.2705 -2.0017 0.9731
-6.2439 -1.8349 -2.0017 0.9731
-6.0553 -2.3847 -2.0017 0.9731
-5.2066 -3.9024 -2.0013 0.9731
-4.8029 -4.3201 -1.9869 0.9733
-4.0940 -4.4041 -1.8495 0.9751
-3.6848 -4.7518 -1.8495 0.9751
-3.2461 -5.0616 -1.8495 0.9751
-2.7816 -5.3310 -1.8495 0.9751
-1.7898 -5.7405 -1.8495 0.9751
-0.2057 -6.0095 -1.8495 0.9751
1.9094 -5.7017 -1.8495 0.9752
2.4105 -5.5086 -1.8495 0.9752
3.3512 -4.9925 -1.8494 0.9752
4.1852 -4.3174 -1.8494 0.9752
5.6053 -3.3063 -2.0016 0.9731
5.8779 -2.7930 -2.0016 0.9731
6.1036 -2.2574 -2.0016 0.9731
6.4077 -1.1367 -2.0016 0.9731
6.4835 -0.5605 -2.0016 0.9731
6.4005 1.1765 -2.0016 0.9731
6.2700 1.7429 -2.0016 0.9731
6.0895 2.2954 -2.0016 0.9731
5.8604 2.8295 -2.0016 0.9731
5.5846 3.3411 -2.0016 0.9731
5.2642 3.8261 -2.0016 0.9731
4.0631 5.0836 -2.0017 0.9731
3.5933 5.4258 -2.0017 0.9731
2.5718 5.9781 -2.0017 0.9731
2.0281 6.1837 -2.0017 0.9731
5.7539 1.7759 -2.0016 0.9749
5.5725 2.2821 -2.0016 0.9749
4.4222 4.0873 -2.0017 0.9749
3.1819 5.1124 -2.0017 0.9749
2.7131 5.3759 -2.0017 0.9749
1.7144 5.7726 -2.0017 0.9749
1.1925 5.9025 -2.0017 0.9749
0.1245 6.0205 -2.0017 0.9749
-0.4132 6.0076 -2.0017 0.9749
-0.9475 5.9468 -2.0017 0.9749
-1.4743 5.8386 -2.0017 0.9749
-2.9679 5.2397 -2.0017 0.9749
-3.8519 4.6288 -2.0017 0.9749
-4.2495 4.2667 -2.0017 0.9749
-4.6133 3.8705 -2.0017 0.9749
-4.9402 3.4435 -2.0017 0.9749
-5.2277 2.9890 -2.0017 0.9749
-5.4736 2.5106 -2.0017 0.9749
-5.6757 2.0123 -2.0017 0.9749
-6.0060 0.4374 -2.0017 0.9749
-5.9074 -1.1688 -2.0017 0.9749
-5.7795 -1.6912 -2.0017 0.9749
-4.8228 -3.6060 -2.0017 0.9749
-4.0126 -4.3064 -1.9566 0.9755
-3.4147 -4.3929 -1.8495 0.9768
-2.5795 -4.9299 -1.8495 0.9768
-2.1294 -5.1403 -1.8495 0.9768
-1.6623 -5.3098 -1.8495 0.9768
-1.1819 -5.4369 -1.8495 0.9768
-0.6921 -5.5207 -1.8495 0.9768
-0.1968 -5.5604 -1.8495 0.9768
1.2828 -5.4140 -1.8495 0.9768
1.7607 -5.2779 -1.8495 0.9768
2.6707 -4.8810 -1.8495 0.9768
3.0955 -4.6232 -1.8495 0.9768
3.9853 -4.1207 -1.9055 0.9761
4.5447 -3.9282 -1.9968 0.9750
4.8889 -3.5156 -2.0016 0.9749
5.1831 -3.0654 -2.0016 0.9749
5.6453 -2.0954 -2.0016 0.9749
5.9279 -1.0587 -2.0016 0.9749
5.9987 -0.5256 -2.0016 0.9749
5.9966 0.5490 -2.0016 0.9749
5.6371 2.1174 -2.0016 0.9749
5.1711 3.0856 -2.0016 0.9749
4.8752 3.5347 -2.0016 0.9749
4.1693 4.3448 -2.0017 0.9749
3.3308 5.0167 -2.0017 0.9749
2.8699 5.2939 -2.0017 0.9749
1.8833 5.7197 -2.0017 0.9749
1.3655 5.8649 -2.0017 0.9749
-0.2364 6.0172 -2.0017 0.9749
-0.7723 5.9721 -2.0017 0.9749
-2.3263 5.5544 -2.0017 0.9749
-2.8126 5.3247 -2.0017 0.9749
-3.2765 5.0525 -2.0017 0.9749
-3.7142 4.7400 -2.0017 0.9749
-4.4975 4.0044 -2.0017 0.9749
-5.1376 3.1413 -2.0017 0.9749
-5.3974 2.6704 -2.0017 0.9749
-5.9119 1.1457 -2.0017 0.9749
-6.0214 0.0768 -2.0017 0.9749
-6.0043 -0.4608 -2.0017 0.9749
-5.9392 -0.9947 -2.0017 0.9749
-5.8268 -1.5206 -2.0017 0.9749
-5.2160 -3.0093 -2.0017 0.9749
-4.2180 -4.2682 -1.9947 0.9750
-3.1453 -4.5896 -1.8495 0.9768
-2.7233 -4.8519 -1.8495 0.9768
-1.8176 -5.2587 -1.8495 0.9768
2.0737 -5.1630 -1.8495 0.9768
3.7698 -4.1344 -1.8598 0.9767
4.4226 -4.0558 -1.9947 0.9750
4.7826 -3.6571 -2.0013 0.9749
5.3574 -2.7493 -2.0016 0.9749
5.7607 -1.7534 -2.0016 0.9749
5.9807 -0.7016 -2.0016 0.9749
6.0194 -0.1652 -2.0016 0.9749
6.0101 0.3725 -2.0016 0.9749
5.9529 0.9072 -2.0016 0.9749
5.6969 1.9508 -2.0016 0.9749
5.2595 2.9323 -2.0016 0.9749
4.2952 4.2204 -2.0017 0.9749
3.9016 4.5868 -2.0017 0.9749
3.4768 4.9167 -2.0017 0.9749
3.0242 5.2073 -2.0017 0.9749
2.0506 5.6619 -2.0017 0.9749
1.5373 5.8223 -2.0017 0.9749
1.0117 5.9362 -2.0017 0.9749
0.4780 6.0028 -2.0017 0.9749
-0.0595 6.0215 -2.0017 0.9749
-1.6520 5.7908 -2.0017 0.9749
-3.1266 5.1466 -2.0017 0.9749
-4.7294 3.7278 -2.0017 0.9749
-5.0431 3.2910 -2.0017 0.9749
-5.5477 2.3423 -2.0017 0.9749
-5.7346 1.8379 -2.0017 0.9749
-5.8757 1.3190 -2.0017 0.9749
-6.0166 0.2537 -2.0017 0.9749
-6.0152 -0.2841 -2.0017 0.9749
-5.9659 -0.8197 -2.0017 0.9749
-5.7252 -1.8669 -2.0017 0.9749
-3.2789 -4.4952 -1.8495 0.9768
-2.4277 -5.0064 -1.8495 0.9768
-1.4993 -5.3581 -1.8495 0.9768
-0.0268 -5.5638 -1.8495 0.9768
0.4697 -5.5440 -1.8495 0.9768
0.9625 -5.4800 -1.8495 0.9768
1.4476 -5.3723 -1.8495 0.9768
1.9211 -5.2217 -1.8495 0.9768
2.3793 -5.0294 -1.8495 0.9768
2.8186 -4.7971 -1.8495 0.9768
4.9940 -3.3646 -2.0016 0.9749
5.7067 -1.9219 -2.0016 0.9749
5.9575 -0.8771 -2.0016 0.9749
6.0119 -0.3421 -2.0016 0.9749
6.0185 0.1957 -2.0016 0.9749
5.8879 1.2623 -2.0016 0.9749
5.3434 2.7764 -2.0016 0.9749
5.0744 3.2421 -2.0016 0.9749
4.7649 3.6819 -2.0016 0.9749
4.4174 4.0924 -2.0017 0.9749
4.0347 4.4702 -2.0017 0.9749
3.6197 4.8124 -2.0017 0.9749
3.1759 5.1161 -2.0017 0.9749
2.2161 5.5992 -2.0017 0.9749
1.7077 5.7746 -2.0017 0.9749
1.1857 5.9039 -2.0017 0.9749
0.6542 5.9862 -2.0017 0.9749
-1.9960 5.6814 -2.0017 0.9749
-2.4949 5.4807 -2.0017 0.9749
-2.9740 5.2363 -2.0017 0.9749
-5.6781 2.0057 -2.0017 0.9749
-5.8344 1.4911 -2.0017 0.9749
-5.9442 0.9646 -2.0017 0.9749
-6.0210 -0.1072 -2.0017 0.9749
-5.1216 -3.1673 -2.0017 0.9749
-4.4711 -4.0216 -1.9990 0.9750
-3.4095 -4.3969 -1.8495 0.9768
-1.1756 -5.4383 -1.8495 0.9768
-0.6857 -5.5215 -1.8495 0.9768
0.8010 -5.5059 -1.8495 0.9768
1.7668 -5.2759 -1.8495 0.9768
3.1009 -4.6196 -1.8495 0.9768
3.5007 -4.3245 -1.8494 0.9768
3.9940 -4.1202 -1.9074 0.9761
4.8930 -3.5099 -2.0016 0.9749
5.4389 -2.5844 -2.0016 0.9749
5.6478 -2.0888 -2.0016 0.9749
5.8116 -1.5766 -2.0016 0.9749
5.9291 -1.0518 -2.0016 0.9749
5.9993 -0.5186 -2.0016 0.9749
6.0216 0.0187 -2.0016 0.9749
5.9960 0.5559 -2.0016 0.9749
5.9224 1.0887 -2.0016 0.9749
5.8017 1.6127 -2.0016 0.9749
5.6347 2.1239 -2.0016 0.9749
5.4227 2.6182 -2.0016 0.9749
5.1675 3.0916 -2.0016 0.9749
4.5358 3.9608 -2.0017 0.9749
3.7596 4.7039 -2.0017 0.9749
3.3249 5.0206 -2.0017 0.9749
1.8767 5.7219 -2.0017 0.9749
5.5367 -0.8217 -2.0016 0.9765
5.5566 0.6739 -2.0016 0.9765
5.1798 2.1213 -2.0016 0.9765
4.7203 3.0082 -2.0016 0.9765
4.4331 3.4173 -2.0017 0.9765
3.7552 4.1508 -2.0017 0.9765
3.3698 4.4693 -2.0017 0.9765
2.9577 4.7521 -2.0017 0.9765
2.0660 5.2022 -2.0017 0.9765
1.5936 5.3658 -2.0017 0.9765
1.1085 5.4866 -2.0017 0.9765
0.6146 5.5636 -2.0017 0.9765
-0.3840 5.5842 -2.0017 0.9765
-0.8807 5.5277 -2.0017 0.9765
-1.3704 5.4271 -2.0017 0.9765
-3.1823 4.6049 -2.0017 0.9765
-3.5804 4.3026 -2.0017 0.9765
-3.9500 3.9660 -2.0017 0.9765
-4.2881 3.5978 -2.0017 0.9765
-5.4216 1.3923 -2.0017 0.9765
-5.5242 0.9030 -2.0017 0.9765
-5.5967 -0.0932 -2.0017 0.9765
-5.4911 -1.0864 -2.0017 0.9765
-5.2106 -2.0450 -2.0017 0.9765
-5.0073 -2.5018 -2.0017 0.9765
-4.1660 -3.7385 -2.0017 0.9765
-2.3977 -4.5824 -1.8495 0.9783
-1.9793 -4.7781 -1.8495 0.9783
-1.5451 -4.9356 -1.8495 0.9783
-0.6433 -5.1316 -1.8495 0.9783
2.0678 -4.7404 -1.8495 0.9783
3.3411 -4.1372 -1.9017 0.9777
3.8796 -4.0114 -1.9956 0.9766
4.5444 -3.2678 -2.0016 0.9765
5.2475 -1.9477 -2.0016 0.9765
5.5101 -0.9841 -2.0016 0.9765
5.5760 -0.4885 -2.0016 0.9765
5.5973 0.0109 -2.0016 0.9765
5.5740 0.5103 -2.0016 0.9765
5.3946 1.4928 -2.0016 0.9765
5.0434 2.4278 -2.0016 0.9765
4.8067 2.8681 -2.0016 0.9765
4.2204 3.6768 -2.0017 0.9765
3.8755 4.0387 -2.0017 0.9765
3.4997 4.3683 -2.0017 0.9765
3.0960 4.6632 -2.0017 0.9765
1.7506 5.3166 -2.0017 0.9765
1.2693 5.4516 -2.0017 0.9765
-0.7179 5.5512 -2.0017 0.9765
-1.2103 5.4650 -2.0017 0.9765
-1.6931 5.3353 -2.0017 0.9765
-2.1624 5.1629 -2.0017 0.9765
-3.0456 4.6964 -2.0017 0.9765
-3.4524 4.4060 -2.0017 0.9765
-4.1806 3.7222 -2.0017 0.9765
-5.0170 2.4822 -2.0017 0.9765
-5.2185 2.0247 -2.0017 0.9765
-5.4953 1.0650 -2.0017 0.9765
-5.5971 0.0713 -2.0017 0.9765
-5.4161 -1.4134 -2.0017 0.9765
-4.8484 -2.7973 -2.0017 0.9765
-3.9302 -3.9770 -1.9995 0.9765
-3.5409 -4.2889 -1.9889 0.9767
-2.9453 -4.2977 -1.8632 0.9781
-2.5314 -4.5100 -1.8495 0.9783
-2.1189 -4.7179 -1.8495 0.9783
-1.6895 -4.8881 -1.8495 0.9783
-1.2466 -5.0193 -1.8495 0.9783
-0.7938 -5.1105 -1.8495 0.9783
1.4917 -4.9520 -1.8495 0.9783
1.9276 -4.7991 -1.8495 0.9783
2.3481 -4.6080 -1.8495 0.9783
3.7484 -4.1110 -1.9895 0.9766
4.1208 -3.7790 -1.9995 0.9765
4.7320 -2.9897 -2.0016 0.9765
4.9798 -2.5556 -2.0016 0.9765
5.3548 -1.6298 -2.0016 0.9765
5.4788 -1.1456 -2.0016 0.9765
5.5952 -0.1536 -2.0016 0.9765
5.2955 1.8133 -2.0016 0.9765
4.3266 3.5511 -2.0017 0.9765
3.9925 3.9230 -2.0017 0.9765
3.6266 4.2636 -2.0017 0.9765
2.3680 5.0718 -2.0017 0.9765
0.9404 5.5179 -2.0017 0.9765
-0.0553 5.5972 -2.0017 0.9765
-0.5545 5.5699 -2.0017 0.9765
-1.0492 5.4982 -2.0017 0.9765
-2.0097 5.2242 -2.0017 0.9765
-4.3961 3.4651 -2.0017 0.9765
-4.9419 2.6286 -2.0017 0.9765
-5.3304 1.7084 -2.0017 0.9765
-5.5492 0.7338 -2.0017 0.9765
-5.5925 0.2358 -2.0017 0.9765
-5.5913 -0.2641 -2.0017 0.9765
-5.3217 -1.7354 -2.0017 0.9765
-5.1456 -2.2033 -2.0017 0.9765
-4.9285 -2.6536 -2.0017 0.9765
-4.6721 -3.0827 -2.0017 0.9765
-4.0494 -3.8636 -2.0015 0.9765
-3.6778 -4.1972 -1.9957 0.9766
-2.6628 -4.4337 -1.8495 0.9783
-2.2566 -4.6535 -1.8495 0.9783
-1.3936 -4.9805 -1.8495 0.9783
-0.9437 -5.0850 -1.8495 0.9783
-0.0249 -5.1717 -1.8495 0.9783
0.4366 -5.1533 -1.8495 0.9783
3.5442 -4.1242 -1.9446 0.9772
4.0042 -3.8948 -1.9976 0.9765
4.9026 -2.7008 -2.0016 0.9765
5.1240 -2.2527 -2.0016 0.9765
5.3046 -1.7865 -2.0016 0.9765
5.5883 -0.3180 -2.0016 0.9765
5.5944 0.1819 -2.0016 0.9765
5.4730 1.1733 -2.0016 0.9765
4.4291 3.4225 -2.0017 0.9765
4.1061 3.8040 -2.0017 0.9765
3.7503 4.1552 -2.0017 0.9765
3.3647 4.4732 -2.0017 0.9765
1.5874 5.3676 -2.0017 0.9765
0.1092 5.5964 -2.0017 0.9765
-0.3905 5.5838 -2.0017 0.9765
-0.8872 5.5267 -2.0017 0.9765
-2.3191 5.0945 -2.0017 0.9765
-2.7644 4.8672 -2.0017 0.9765
-3.1876 4.6012 -2.0017 0.9765
-4.2923 3.5928 -2.0017 0.9765
-4.8625 2.7727 -2.0017 0.9765
-5.4232 1.3860 -2.0017 0.9765
-5.5252 0.8966 -2.0017 0.9765
-5.5966 -0.0997 -2.0017 0.9765
-5.5654 -0.5986 -2.0017 0.9765
-5.0044 -2.5076 -2.0017 0.9765
-4.1617 -3.7433 -2.0017 0.9765
-3.8031 -4.0911 -1.9975 0.9766
-3.3285 -4.2924 -1.9424 0.9772
-1.0927 -5.0551 -1.8495 0.9783
-0.1769 -5.1688 -1.8495 0.9783
1.1982 -5.0311 -1.8495 0.9783
2.4878 -4.5341 -1.8495 0.9783
2.8824 -4.2940 -1.8495 0.9783
3.3486 -4.1367 -1.9032 0.9776
3.8844 -4.0071 -1.9957 0.9766
4.2387 -3.6551 -2.0015 0.9765
5.5113 -0.9777 -2.0016 0.9765
5.5765 -0.4821 -2.0016 0.9765
5.5973 0.0174 -2.0016 0.9765
5.5734 0.5167 -2.0016 0.9765
5.5051 1.0120 -2.0016 0.9765
5.3928 1.4991 -2.0016 0.9765
5.2376 1.9743 -2.0016 0.9765
5.0406 2.4337 -2.0016 0.9765
4.8033 2.8737 -2.0016 0.9765
4.5278 3.2908 -2.0017 0.9765
3.8708 4.0432 -2.0017 0.9765
2.6619 4.9239 -2.0017 0.9765
2.2120 5.1418 -2.0017 0.9765
1.7444 5.3186 -2.0017 0.9765
5.1667 -0.7668 -2.0016 0.9779
5.1085 1.0890 -2.0016 0.9779
4.9909 1.5404 -2.0016 0.9779
4.8336 1.9796 -2.0016 0.9779
4.1368 3.1889 -2.0017 0.9779
3.5042 3.8734 -2.0017 0.9779
3.1446 4.1706 -2.0017 0.9779
2.3533 4.6631 -2.0017 0.9779
0.5735 5.1918 -2.0017 0.9779
0.1080 5.2222 -2.0017 0.9779
-0.3584 5.2110 -2.0017 0.9779
-1.7256 4.9301 -2.0017 0.9779
-2.1586 4.7565 -2.0017 0.9779
-2.9696 4.2971 -2.0017 0.9779
-3.3412 4.0150 -2.0017 0.9779
-4.0016 3.3573 -2.0017 0.9779
-4.7478 2.1777 -2.0017 0.9779
-5.0593 1.2992 -2.0017 0.9779
-5.1550 0.8427 -2.0017 0.9779
-5.2096 0.3794 -2.0017 0.9779
-5.1941 -0.5526 -2.0017 0.9779
-5.0132 -1.4669 -2.0017 0.9779
-4.4457 -2.7422 -2.0017 0.9779
-4.1833 -3.1279 -2.0017 0.9779
-3.8876 -3.4886 -2.0017 0.9779
-3.1979 -4.1141 -1.9969 0.9779
-2.2423 -4.2853 -1.8534 0.9795
-1.8470 -4.4588 -1.8495 0.9795
-1.0252 -4.7160 -1.8495 0.9795
-0.6003 -4.7887 -1.8495 0.9795
-0.1707 -4.8231 -1.8495 0.9795
0.2603 -4.8191 -1.8495 0.9795
0.6893 -4.7767 -1.8495 0.9795
1.1127 -4.6961 -1.8495 0.9795
2.3166 -4.2338 -1.8495 0.9795
3.2712 -4.0506 -1.9952 0.9779
3.6284 -3.7518 -2.0001 0.9779
3.9517 -3.4157 -2.0016 0.9779
4.2407 -3.0495 -2.0016 0.9779
4.7151 -2.2472 -2.0016 0.9779
4.8968 -1.8176 -2.0016 0.9779
5.0394 -1.3734 -2.0016 0.9779
5.1419 -0.9183 -2.0016 0.9779
5.2232 0.0102 -2.0016 0.9779
5.2015 0.4762 -2.0016 0.9779
5.1383 0.9384 -2.0016 0.9779
5.0341 1.3931 -2.0016 0.9779
4.8897 1.8366 -2.0016 0.9779
4.7063 2.2656 -2.0016 0.9779
4.4854 2.6765 -2.0016 0.9779
3.6165 3.7688 -2.0017 0.9779
2.8891 4.3515 -2.0017 0.9779
2.4894 4.5920 -2.0017 0.9779
2.0697 4.7957 -2.0017 0.9779
1.6336 4.9613 -2.0017 0.9779
0.2614 5.2168 -2.0017 0.9779
-0.2051 5.2193 -2.0017 0.9779
-1.1294 5.0998 -2.0017 0.9779
-1.5800 4.9787 -2.0017 0.9779
-2.4397 4.6186 -2.0017 0.9779
-2.8420 4.3825 -2.0017 0.9779
-3.2217 4.1115 -2.0017 0.9779
-3.9012 3.4735 -2.0017 0.9779
-4.1955 3.1115 -2.0017 0.9779
-4.6817 2.3163 -2.0017 0.9779
-5.0189 1.4474 -2.0017 0.9779
-5.1962 0.5323 -2.0017 0.9779
-5.2230 0.0666 -2.0017 0.9779
-5.2081 -0.3997 -2.0017 0.9779
-5.1517 -0.8628 -2.0017 0.9779
-4.2735 -3.0036 -2.0017 0.9779
-2.9294 -4.2746 -1.9859 0.9780
-1.9773 -4.4026 -1.8495 0.9795
-0.7408 -4.7690 -1.8495 0.9795
0.1186 -4.8247 -1.8495 0.9795
0.5486 -4.7949 -1.8495 0.9795
0.9742 -4.7268 -1.8495 0.9795
2.1912 -4.3000 -1.8495 0.9795
2.6108 -4.1587 -1.8817 0.9792
3.1367 -4.1265 -1.9863 0.9780
3.5137 -3.8536 -1.9985 0.9779
3.8496 -3.5303 -2.0016 0.9779
4.1492 -3.1728 -2.0016 0.9779
4.6470 -2.3848 -2.0016 0.9779
4.9969 -1.5209 -2.0016 0.9779
5.2132 0.3231 -2.0016 0.9779
5.1636 0.7869 -2.0016 0.9779
5.0728 1.2445 -2.0016 0.9779
4.3170 2.9404 -2.0017 0.9779
3.7257 3.6608 -2.0017 0.9779
3.3842 3.9787 -2.0017 0.9779
3.0158 4.2647 -2.0017 0.9779
2.6232 4.5168 -2.0017 0.9779
2.2098 4.7328 -2.0017 0.9779
0.4146 5.2069 -2.0017 0.9779
-0.5174 5.1977 -2.0017 0.9779
-0.9791 5.1308 -2.0017 0.9779
-1.4330 5.0230 -2.0017 0.9779
-2.3029 4.6883 -2.0017 0.9779
-3.0995 4.2044 -2.0017 0.9779
-4.1023 3.2335 -2.0017 0.9779
-4.3744 2.8546 -2.0017 0.9779
-4.6116 2.4529 -2.0017 0.9779
-5.0966 1.1441 -2.0017 0.9779
-5.2176 -0.2465 -2.0017 0.9779
-5.0907 -1.1699 -2.0017 0.9779
-4.8017 -2.0560 -2.0017 0.9779
-4.0858 -3.2542 -2.0017 0.9779
-2.1058 -4.3425 -1.8495 0.9795
-0.0232 -4.8261 -1.8495 0.9795
0.4074 -4.8089 -1.8495 0.9795
1.2556 -4.6599 -1.8495 0.9795
1.6664 -4.5293 -1.8495 0.9795
2.0639 -4.3626 -1.8495 0.9795
4.3318 -2.9185 -2.0016 0.9779
4.5749 -2.5204 -2.0016 0.9779
4.7816 -2.1021 -2.0016 0.9779
4.9501 -1.6671 -2.0016 0.9779
5.0791 -1.2188 -2.0016 0.9779
5.2148 -0.2967 -2.0016 0.9779
4.8313 1.9852 -2.0016 0.9779
4.6349 2.4083 -2.0016 0.9779
4.4016 2.8122 -2.0017 0.9779
4.1331 3.1937 -2.0017 0.9779
3.8317 3.5498 -2.0017 0.9779
3.4997 3.8775 -2.0017 0.9779
2.3479 4.6659 -2.0017 0.9779
1.9223 4.8567 -2.0017 0.9779
1.4813 5.0089 -2.0017 0.9779
1.0285 5.1211 -2.0017 0.9779
0.5675 5.1924 -2.0017 0.9779
-0.3644 5.2106 -2.0017 0.9779
-0.8279 5.1573 -2.0017 0.9779
-2.1641 4.7540 -2.0017 0.9779
-2.9746 4.2937 -2.0017 0.9779
-3.3458 4.0112 -2.0017 0.9779
-3.6904 3.6967 -2.0017 0.9779
-4.2886 2.9819 -2.0017 0.9779
-4.9252 1.7397 -2.0017 0.9779
-5.2101 0.3733 -2.0017 0.9779
-5.2226 -0.0930 -2.0017 0.9779
-5.1935 -0.5586 -2.0017 0.9779
-5.0115 -1.4727 -2.0017 0.9779
-3.8835 -3.4931 -2.0017 0.9779
-3.5564 -3.8257 -2.0017 0.9779
-3.1930 -4.1177 -1.9968 0.9779
-2.7430 -4.2772 -1.9472 0.9785
-2.2363 -4.2860 -1.8526 0.9795
-1.4365 -4.6074 -1.8495 0.9795
-1.0197 -4.7172 -1.8495 0.9795
-0.5948 -4.7894 -1.8495 0.9795
-0.1651 -4.8233 -1.8495 0.9795
1.1181 -4.6948 -1.8495 0.9795
1.9347 -4.4213 -1.8495 0.9795
2.7846 -4.1483 -1.9147 0.9788
3.2760 -4.0469 -1.9953 0.9779
3.6329 -3.7477 -2.0002 0.9779
4.2442 -3.0445 -2.0016 0.9779
4.4989 -2.6537 -2.0016 0.9779
4.7177 -2.2417 -2.0016 0.9779
4.8989 -1.8119 -2.0016 0.9779
5.1429 -0.9123 -2.0016 0.9779
5.2038 -0.4498 -2.0016 0.9779
5.2009 0.4822 -2.0016 0.9779
5.1372 0.9443 -2.0016 0.9779
4.8876 1.8423 -2.0016 0.9779
3.2611 4.0802 -2.0017 0.9779
2.4840 4.5948 -2.0017 0.9779
2.0642 4.7981 -2.0017 0.9779
1.6278 4.9632 -2.0017 0.9779
1.1785 5.0886 -2.0017 0.9779
4.8377 -0.7180 -2.0016 0.9791
4.7832 1.0196 -2.0016 0.9791
4.5259 1.8535 -2.0016 0.9791
4.3425 2.2499 -2.0017 0.9791
4.1244 2.6284 -2.0017 0.9791
3.8734 2.9859 -2.0017 0.9791
3.2811 3.6268 -2.0017 0.9791
2.5843 4.1522 -2.0017 0.9791
0.9686 4.7939 -2.0017 0.9791
0.1011 4.8897 -2.0017 0.9791
