ply
format ascii 1.0
element vertex 1592
property float32 x
property float32 y
property float32 z
property float32 I
end_header
-10.6885 0.3073 -2.0098 0.9574
-10.6733 -0.6468 -2.0098 0.9574
-10.3877 -2.5316 -2.0096 0.9574
-10.1197 -3.4472 -2.0094 0.9574
-9.7518 -4.3266 -2.0053 0.9575
-7.6422 -6.2482 -1.8554 0.9606
-7.0532 -6.9030 -1.8550 0.9606
-4.9929 -5.8455 -1.4450 0.9692
-4.9712 -8.5163 -1.8535 0.9607
-2.5381 -9.5191 -1.8517 0.9607
-1.6789 -9.7042 -1.8511 0.9607
-0.8068 -9.8118 -1.8505 0.9607
0.0710 -9.8413 -1.8498 0.9607
0.9478 -9.7924 -1.8492 0.9607
1.8163 -9.6656 -1.8486 0.9608
2.6698 -9.4621 -1.8479 0.9608
3.5016 -9.1834 -1.8473 0.9608
5.8015 -7.9224 -1.8457 0.9608
6.4829 -7.3717 -1.8452 0.9608
7.1125 -6.7627 -1.8447 0.9608
7.6853 -6.1004 -1.8443 0.9609
8.1969 -5.3899 -1.8439 0.9609
9.5673 -4.0804 -1.9550 0.9586
10.0941 -3.2766 -1.9948 0.9577
10.5994 -0.4888 -1.9944 0.9577
10.6008 0.4580 -1.9944 0.9577
10.5181 1.4013 -1.9945 0.9577
10.3519 2.3335 -1.9946 0.9577
9.3689 4.9912 -1.9953 0.9577
5.8484 7.9381 -1.8533 0.9607
3.2429 6.6044 -1.3829 0.9705
2.6979 7.0144 -1.4126 0.9699
2.3940 8.3911 -1.6401 0.9651
1.2540 6.5682 -1.2569 0.9732
0.1078 10.6507 -2.0020 0.9576
-1.7865 10.5078 -2.0034 0.9575
-2.7170 10.3102 -2.0041 0.9575
-4.9668 8.5659 -1.8611 0.9605
-5.7123 8.0913 -1.8617 0.9605
-6.4126 7.5519 -1.8622 0.9605
-8.6978 5.9379 -1.9795 0.9580
-9.7582 4.3634 -2.0092 0.9574
-10.1096 3.4766 -2.0094 0.9574
-10.4695 -2.1699 -2.0097 0.9574
-9.9158 -3.9938 -2.0093 0.9574
-8.3584 -5.2569 -1.8560 0.9606
-5.9883 -7.8395 -1.8542 0.9606
-3.2201 -5.1015 -1.1339 0.9757
0.6077 -9.8207 -1.8494 0.9607
1.4802 -9.7241 -1.8488 0.9608
2.3404 -9.5502 -1.8482 0.9608
4.7794 -8.5823 -1.8464 0.9608
5.5238 -8.1197 -1.8459 0.9608
6.8743 -7.0060 -1.8449 0.9608
8.0056 -5.6714 -1.8441 0.9609
10.6103 0.0901 -1.9944 0.9577
10.4263 1.9730 -1.9945 0.9577
10.2097 2.8949 -1.9947 0.9577
9.5357 4.6631 -1.9952 0.9577
2.4653 7.6277 -1.5067 0.9679
0.4771 10.6392 -2.0018 0.9576
-2.0318 8.9603 -1.7269 0.9633
-3.7791 8.9010 -1.8176 0.9614
-4.6662 8.7319 -1.8609 0.9605
-5.4277 8.2836 -1.8615 0.9605
-6.8161 7.1920 -1.8625 0.9605
-7.4319 6.5573 -1.8629 0.9605
-9.1418 5.5352 -2.0087 0.9574
-9.6005 4.6989 -2.0091 0.9574
-10.5051 1.9918 -2.0097 0.9574
-10.6925 0.0946 -2.0099 0.9574
-10.6582 -0.8589 -2.0098 0.9574
-10.3351 -2.7377 -2.0096 0.9574
-10.0488 -3.6477 -2.0094 0.9574
-9.6480 -4.5124 -2.0020 0.9576
-7.5161 -6.3986 -1.8553 0.9606
-4.9569 -6.0427 -1.4690 0.9687
-5.5508 -8.1531 -1.8539 0.9607
-4.8005 -8.6129 -1.8534 0.9607
-2.3481 -9.5669 -1.8516 0.9607
-1.4854 -9.7349 -1.8510 0.9607
1.1423 -9.7709 -1.8490 0.9608
2.8573 -9.4064 -1.8478 0.9608
3.6833 -9.1113 -1.8472 0.9608
5.9576 -7.8049 -1.8456 0.9608
6.6279 -7.2408 -1.8451 0.9608
7.8048 -5.9460 -1.8442 0.9609
8.3021 -5.2256 -1.8439 0.9609
10.6070 -0.2779 -1.9944 0.9577
10.5896 0.6688 -1.9944 0.9577
10.3036 2.5390 -1.9946 0.9577
8.7713 5.9835 -1.9957 0.9577
7.7325 6.3549 -1.8813 0.9601
7.0258 6.9113 -1.8524 0.9607
6.3833 7.5120 -1.8529 0.9607
4.6332 6.5579 -1.5092 0.9678
4.9506 8.5310 -1.8539 0.9607
3.0469 6.5303 -1.3545 0.9711
0.8456 10.6148 -2.0015 0.9576
-1.9953 10.4710 -2.0035 0.9575
-3.5493 9.2378 -1.8601 0.9605
-3.9056 6.4371 -1.4152 0.9698
-4.7299 6.4247 -1.4996 0.9681
-8.9438 5.8484 -2.0086 0.9574
-9.4312 5.0287 -2.0089 0.9574
-10.6828 0.4654 -2.0098 0.9574
-10.6817 -0.4888 -2.0098 0.9574
-10.1697 -3.2972 -2.0095 0.9574
-8.7039 -4.6655 -1.8562 0.9606
-5.1473 -5.8488 -1.4644 0.9688
-5.8308 -7.9566 -1.8541 0.9606
-4.3227 -8.8603 -1.8530 0.9607
-1.7943 -4.7008 -0.9457 0.9797
-0.0745 -9.8418 -1.8499 0.9607
0.8028 -9.8059 -1.8493 0.9607
1.6732 -9.6920 -1.8487 0.9608
2.5297 -9.5010 -1.8480 0.9608
4.9489 -8.4850 -1.8463 0.9608
5.6839 -8.0077 -1.8458 0.9608
6.3734 -7.4671 -1.8453 0.9608
7.5945 -6.2136 -1.8444 0.9608
9.2304 -4.0992 -1.8984 0.9597
10.5911 -0.6455 -1.9944 0.9577
10.6064 0.3012 -1.9944 0.9577
10.3852 2.1801 -1.9946 0.9577
9.8350 3.9904 -1.9950 0.9577
9.4414 4.8520 -1.9952 0.9577
7.2605 6.6629 -1.8522 0.9607
6.6393 7.2854 -1.8527 0.9607
5.2429 8.3532 -1.8537 0.9607
3.6178 7.1004 -1.4978 0.9681
2.4259 8.0496 -1.5802 0.9664
1.3369 6.4804 -1.2437 0.9734
1.2130 10.5777 -2.0012 0.9576
-0.6851 10.6323 -2.0026 0.9576
-1.6308 10.5325 -2.0033 0.9575
-2.5641 10.3487 -2.0040 0.9575
-3.5714 6.3748 -1.3734 0.9707
-5.5917 8.1746 -1.8616 0.9605
-5.2221 6.3376 -1.5435 0.9671
-6.9582 7.0554 -1.8626 0.9605
-10.0569 3.6257 -2.0094 0.9574
-10.5427 1.7824 -2.0097 0.9574
-10.6923 -0.1181 -2.0099 0.9574
-10.5006 -2.0148 -2.0097 0.9574
-9.2358 -4.5456 -1.9348 0.9590
-7.9428 -5.8633 -1.8556 0.9606
-6.1039 -7.7504 -1.8543 0.9606
-3.3401 -5.1221 -1.1494 0.9754
-4.6279 -8.7061 -1.8532 0.9607
-9.5002 0.2731 -2.0090 0.9619
-9.4867 -0.5749 -2.0090 0.9619
-9.3974 -1.4182 -2.0089 0.9619
-8.9948 -3.0640 -2.0086 0.9619
-8.6849 -3.8533 -2.0084 0.9619
-8.1279 -4.5128 -1.9651 0.9627
-7.2627 -4.9273 -1.8552 0.9648
-6.2698 -6.1363 -1.8544 0.9648
-4.4195 -7.5711 -1.8531 0.9648
-2.2131 -4.7120 -1.1004 0.9789
-1.7359 -4.7578 -1.0706 0.9795
-1.4928 -8.6284 -1.8510 0.9648
0.8428 -8.7079 -1.8493 0.9649
1.6152 -8.5955 -1.8487 0.9649
2.3743 -8.4147 -1.8482 0.9649
5.1600 -7.0464 -1.8461 0.9649
5.7663 -6.5568 -1.8457 0.9649
6.3264 -6.0153 -1.8453 0.9649
6.8361 -5.4263 -1.8449 0.9649
7.2913 -4.7945 -1.8446 0.9650
8.9794 -2.9148 -1.9956 0.9621
9.2028 -2.1025 -1.9954 0.9621
9.3531 -1.2737 -1.9953 0.9621
9.3567 1.2465 -1.9953 0.9621
9.2088 2.0758 -1.9954 0.9621
8.6955 3.6788 -1.9958 0.9621
8.3340 4.4399 -1.9960 0.9621
5.8091 6.5670 -1.8533 0.9648
3.4802 7.0875 -1.6690 0.9682
0.0890 8.7868 -1.8575 0.9647
-1.4737 8.6682 -1.8586 0.9647
-2.2413 8.5049 -1.8591 0.9647
-2.3410 6.4747 -1.4553 0.9722
-3.7181 7.9763 -1.8602 0.9647
-4.4156 7.6152 -1.8607 0.9647
-5.0782 7.1931 -1.8612 0.9646
-5.7006 6.7134 -1.8617 0.9646
-6.2777 6.1799 -1.8621 0.9646
-7.2606 5.9714 -1.9871 0.9623
-8.2923 4.6356 -2.0081 0.9619
-8.6737 3.8785 -2.0084 0.9619
-8.9859 3.0902 -2.0086 0.9619
-9.2264 2.2770 -2.0088 0.9619
-9.4850 0.6024 -2.0090 0.9619
-9.5010 -0.2455 -2.0090 0.9619
-9.4411 -1.0915 -2.0089 0.9619
-7.4297 -4.6728 -1.8553 0.9648
-6.9823 -5.3156 -1.8550 0.9648
-6.4794 -5.9157 -1.8546 0.9648
-5.3617 -5.8534 -1.6779 0.9681
-5.3235 -6.9691 -1.8537 0.9648
-1.7913 -8.5724 -1.8512 0.9648
-1.0197 -8.6954 -1.8506 0.9648
-0.2404 -8.7490 -1.8501 0.9649
2.0813 -8.4930 -1.8484 0.9649
3.5544 -7.9838 -1.8473 0.9649
4.2508 -7.6330 -1.8468 0.9649
6.1145 -6.2316 -1.8454 0.9649
7.1212 -5.0448 -1.8447 0.9649
7.5413 -4.3891 -1.8444 0.9650
9.3034 -1.5973 -1.9953 0.9621
9.4084 -0.7616 -1.9953 0.9621
9.4388 0.0802 -1.9952 0.9621
9.3942 0.9213 -1.9953 0.9621
9.0823 2.5752 -1.9955 0.9621
8.0801 4.8884 -1.9962 0.9621
7.0862 6.2479 -1.9970 0.9621
6.0328 6.3610 -1.8531 0.9648
4.8096 7.3348 -1.8540 0.9648
2.4654 7.6280 -1.6945 0.9678
1.9448 8.5628 -1.8561 0.9647
1.1741 8.7047 -1.8567 0.9647
-0.2866 6.4431 -1.3633 0.9740
-1.1721 8.7131 -1.8584 0.9647
-1.9448 8.5765 -1.8589 0.9647
-2.7024 8.3715 -1.8595 0.9647
-4.1484 7.7629 -1.8605 0.9647
-5.4638 6.9064 -1.8615 0.9646
-6.7956 5.9959 -1.9157 0.9636
-8.8730 3.3998 -2.0085 0.9619
-9.1416 2.5955 -2.0087 0.9619
-9.4733 -0.7634 -2.0090 0.9619
-9.3672 -1.6049 -2.0089 0.9619
-9.1862 -2.4334 -2.0088 0.9619
-8.6063 -4.0252 -2.0083 0.9619
-3.4489 -5.0658 -1.2954 0.9753
-4.2677 -7.6571 -1.8530 0.9648
-2.8385 -8.2886 -1.8519 0.9648
-2.0877 -8.5062 -1.8514 0.9648
0.2372 -8.7474 -1.8497 0.9649
3.2757 -8.1031 -1.8475 0.9649
5.8953 -6.4405 -1.8456 0.9649
6.9424 -5.2891 -1.8448 0.9649
7.3850 -4.6483 -1.8445 0.9650
9.2426 -1.9190 -1.9954 0.9621
9.3765 -1.0874 -1.9953 0.9621
9.4359 -0.2472 -1.9952 0.9621
9.4204 0.5950 -1.9952 0.9621
9.3302 1.4324 -1.9953 0.9621
8.9288 3.0670 -1.9956 0.9621
8.6208 3.8512 -1.9958 0.9621
8.2443 4.6050 -1.9961 0.9621
7.8022 5.3225 -1.9964 0.9621
7.2980 5.9979 -1.9968 0.9621
1.4751 8.6577 -1.8564 0.9647
0.6976 8.7574 -1.8570 0.9647
-0.8692 8.7475 -1.8581 0.9647
-1.6460 8.6378 -1.8587 0.9647
-3.8763 7.9013 -1.8603 0.9647
-4.5664 7.5263 -1.8608 0.9646
-5.2205 7.0910 -1.8613 0.9646
-5.8333 6.5990 -1.8618 0.9646
-6.3998 6.0540 -1.8622 0.9646
-7.4536 5.8855 -2.0075 0.9619
-7.9500 5.1986 -2.0079 0.9619
-8.7494 3.7053 -2.0084 0.9619
-9.2700 2.0930 -2.0088 0.9619
-9.4942 -0.4345 -2.0090 0.9619
-9.0393 -2.9307 -2.0086 0.9619
-7.3350 -4.8195 -1.8552 0.9648
-6.3601 -6.0431 -1.8545 0.9648
-3.1709 -5.2522 -1.2968 0.9752
-3.8430 -7.8772 -1.8527 0.9648
-1.7944 -4.7011 -1.0636 0.9796
-1.6203 -8.6058 -1.8511 0.9648
0.7139 -8.7198 -1.8494 0.9649
2.9931 -8.2128 -1.8477 0.9649
3.7123 -7.9110 -1.8472 0.9649
4.4015 -7.5465 -1.8467 0.9649
6.7553 -5.5270 -1.8450 0.9649
7.2198 -4.9019 -1.8446 0.9650
8.6162 -3.8264 -1.9928 0.9622
8.9355 -3.0473 -1.9956 0.9621
9.3333 -1.4119 -1.9953 0.9621
9.4217 -0.5743 -1.9952 0.9621
9.4353 0.2679 -1.9952 0.9621
9.3741 1.1080 -1.9953 0.9621
9.2384 1.9394 -1.9954 0.9621
9.0295 2.7554 -1.9955 0.9621
8.3986 4.3161 -1.9960 0.9621
6.8836 6.3170 -1.9749 0.9625
5.9054 6.4801 -1.8532 0.9648
3.6178 7.1004 -1.6845 0.9679
2.8224 7.0260 -1.6005 0.9695
1.3369 6.4804 -1.3987 0.9733
1.0008 8.7269 -1.8568 0.9647
0.2189 8.7841 -1.8574 0.9647
-0.5652 8.7713 -1.8579 0.9647
-2.1151 8.5367 -1.8591 0.9647
-3.5996 8.0301 -1.8601 0.9647
-5.2221 6.3375 -1.7358 0.9670
-8.2226 4.7576 -2.0081 0.9619
-8.9391 3.2227 -2.0086 0.9619
-9.3707 1.5843 -2.0089 0.9619
-9.3333 -1.7909 -2.0089 0.9619
-9.1358 -2.6156 -2.0087 0.9619
-8.8654 -3.4192 -2.0085 0.9619
-8.5152 -4.1910 -2.0061 0.9619
-7.0604 -5.2119 -1.8550 0.9648
-6.0202 -6.3802 -1.8543 0.9648
-3.3029 -5.0652 -1.2782 0.9756
-8.4855 1.0060 -2.0082 0.9655
-8.5415 0.2456 -2.0083 0.9655
-8.5294 -0.5169 -2.0083 0.9655
-8.0873 -2.7549 -2.0080 0.9655
-7.4614 -4.1427 -2.0058 0.9655
-6.1083 -4.9940 -1.8543 0.9681
-5.6377 -5.5177 -1.8540 0.9681
-4.5663 -6.4284 -1.8532 0.9681
-3.9742 -6.8083 -1.8528 0.9681
-1.7359 -4.7579 -1.1903 0.9794
-2.0295 -7.6114 -1.8514 0.9682
-0.6452 -7.8466 -1.8503 0.9682
1.4528 -7.7313 -1.8488 0.9682
5.6914 -5.4116 -1.8458 0.9682
6.5597 -4.3134 -1.8451 0.9683
8.0788 -2.6224 -1.9962 0.9657
8.2798 -1.8917 -1.9961 0.9657
8.4835 -0.3912 -1.9959 0.9657
8.4846 0.3666 -1.9959 0.9657
8.4183 1.1215 -1.9960 0.9657
8.2852 1.8676 -1.9961 0.9657
7.8232 3.3098 -1.9964 0.9657
7.4979 3.9945 -1.9966 0.9657
7.1129 4.6476 -1.9969 0.9657
6.1767 5.8389 -1.9976 0.9657
5.5600 6.2853 -1.9722 0.9661
4.6795 6.3514 -1.8541 0.9681
3.4483 7.0226 -1.8387 0.9684
2.6732 6.9502 -1.7501 0.9699
1.2558 6.5773 -1.5737 0.9729
-0.6250 7.8807 -1.8580 0.9680
-2.0156 7.6486 -1.8590 0.9680
-3.3436 7.1729 -1.8599 0.9680
-3.9707 6.8479 -1.8604 0.9680
-5.1362 6.0488 -1.8650 0.9679
-6.0842 5.9893 -2.0065 0.9655
-7.0535 4.8154 -2.0072 0.9655
-7.4558 4.1680 -2.0075 0.9655
-7.7986 3.4872 -2.0078 0.9655
-8.0793 2.7784 -2.0080 0.9655
-8.4454 1.2997 -2.0082 0.9655
-8.5422 -0.2208 -2.0083 0.9655
-8.4884 -0.9814 -2.0082 0.9655
-8.3667 -1.7341 -2.0082 0.9655
-8.1783 -2.4729 -2.0080 0.9655
-7.6076 -3.8851 -2.0076 0.9655
-7.1321 -4.4856 -1.9802 0.9660
-5.8261 -5.3192 -1.8541 0.9681
-5.3277 -5.8163 -1.8537 0.9681
-3.5963 -7.0139 -1.8525 0.9681
1.1840 -7.7778 -1.8490 0.9682
3.1973 -7.1816 -1.8476 0.9682
3.8238 -6.8663 -1.8471 0.9682
5.5007 -5.6061 -1.8459 0.9682
7.6936 -3.6016 -1.9965 0.9657
8.3704 -1.4371 -1.9960 0.9657
8.4922 0.0721 -1.9959 0.9657
8.4520 0.8289 -1.9960 0.9657
8.1713 2.3169 -1.9962 0.9657
5.8496 6.1679 -1.9978 0.9657
4.9777 6.2874 -1.8847 0.9676
4.3266 6.5981 -1.8544 0.9681
3.7221 6.9592 -1.8548 0.9681
2.4079 7.4501 -1.8401 0.9683
1.7493 7.7020 -1.8562 0.9681
0.2932 6.5400 -1.5386 0.9735
-0.2866 6.4431 -1.5158 0.9738
-1.0541 7.8362 -1.8583 0.9680
-1.7490 7.7131 -1.8588 0.9680
-2.4303 7.5285 -1.8593 0.9680
-3.7305 6.9808 -1.8602 0.9680
-4.9131 6.2103 -1.8611 0.9680
-5.7020 6.0164 -1.9481 0.9665
-6.4026 5.6491 -2.0067 0.9655
-7.6727 3.7554 -2.0077 0.9655
-8.3951 1.5917 -2.0082 0.9655
-8.5447 0.0756 -2.0083 0.9655
-8.2593 -2.1878 -2.0081 0.9655
-8.0307 -2.9152 -2.0079 0.9655
-7.3683 -4.2850 -2.0032 0.9656
-5.5266 -5.6285 -1.8539 0.9681
-5.0018 -6.0975 -1.8535 0.9681
-3.4281 -5.0353 -1.4316 0.9753
-3.8377 -6.8856 -1.8527 0.9681
-2.0789 -4.6652 -1.2004 0.9792
-1.1878 -7.7846 -1.8507 0.9682
1.6062 -7.7004 -1.8487 0.9682
2.9466 -7.2889 -1.8477 0.9682
3.5837 -6.9955 -1.8473 0.9682
4.7668 -6.2450 -1.8464 0.9682
6.6440 -4.1819 -1.8451 0.9683
7.5525 -3.8603 -1.9934 0.9657
7.8781 -3.1763 -1.9964 0.9657
8.3156 -1.7266 -1.9960 0.9657
8.4756 0.5353 -1.9959 0.9657
8.3944 1.2888 -1.9960 0.9657
8.0332 2.7594 -1.9963 0.9657
7.7560 3.4648 -1.9965 0.9657
7.4172 4.1430 -1.9967 0.9657
6.0596 5.9609 -1.9977 0.9657
5.3417 6.2862 -1.9388 0.9667
3.0468 6.5301 -1.6936 0.9708
1.3268 7.7872 -1.8566 0.9681
0.5211 6.5418 -1.5424 0.9734
-2.1675 7.6075 -1.8591 0.9680
-2.8378 7.3859 -1.8596 0.9680
-6.2024 5.8674 -2.0066 0.9655
-6.7019 5.2920 -2.0070 0.9655
-7.1482 4.6743 -2.0073 0.9655
-7.5375 4.0190 -2.0076 0.9655
-7.8667 3.3314 -2.0078 0.9655
-8.3346 1.8819 -2.0081 0.9655
-8.5370 0.3719 -2.0083 0.9655
-7.8593 -3.3487 -2.0078 0.9655
-7.5286 -4.0355 -2.0075 0.9655
-6.8328 -4.4895 -1.9215 0.9670
-4.6611 -6.3604 -1.8533 0.9681
-3.1652 -5.2427 -1.4393 0.9751
-3.4559 -7.0837 -1.8524 0.9681
-1.7945 -4.7014 -1.1827 0.9795
-1.4572 -7.7396 -1.8509 0.9682
-0.0596 -7.8710 -1.8499 0.9682
2.0236 -7.6000 -1.8484 0.9682
2.6923 -7.3874 -1.8479 0.9682
3.9594 -6.7885 -1.8470 0.9682
4.5478 -6.4071 -1.8466 0.9682
5.6109 -5.4953 -1.8458 0.9682
6.0774 -4.9723 -1.8455 0.9682
6.4954 -4.4101 -1.8452 0.9683
7.3989 -4.1115 -1.9894 0.9658
7.7636 -3.4478 -1.9964 0.9657
8.0392 -2.7417 -1.9962 0.9657
8.4768 -0.5167 -1.9959 0.9657
8.4339 0.9969 -1.9960 0.9657
7.8712 3.1936 -1.9964 0.9657
6.7483 5.1647 -1.9972 0.9657
6.2622 5.7467 -1.9975 0.9657
5.7260 6.2833 -1.9979 0.9657
1.3369 6.4804 -1.5551 0.9732
0.9001 7.8493 -1.8569 0.9681
0.1969 7.9005 -1.8574 0.9680
-1.9022 7.6773 -1.8589 0.9680
-2.5797 7.4791 -1.8594 0.9680
-4.4700 6.5348 -1.8608 0.9680
-5.9221 6.0048 -1.9821 0.9659
-7.3932 4.2777 -2.0075 0.9655
-7.7461 3.6021 -2.0077 0.9655
-8.3915 -1.6102 -2.0082 0.9655
-8.2140 -2.3517 -2.0080 0.9655
-7.6643 -3.7722 -2.0076 0.9655
-7.2725 -4.4252 -2.0008 0.9656
-6.3484 -4.6863 -1.8545 0.9681
-5.9043 -5.2326 -1.8542 0.9681
-4.8793 -6.1955 -1.8534 0.9681
-7.7002 0.9129 -2.0077 0.9685
-7.7511 0.2228 -2.0077 0.9685
-7.6672 -1.1571 -2.0077 0.9685
-7.0862 -3.1440 -2.0072 0.9685
-6.7770 -3.7627 -2.0070 0.9685
-6.3961 -4.3394 -2.0012 0.9686
-4.6488 -5.4426 -1.8533 0.9709
-3.6069 -6.1791 -1.8525 0.9709
-2.2138 -4.7134 -1.3483 0.9787
-1.8420 -6.9085 -1.8512 0.9709
-0.5857 -7.1223 -1.8503 0.9709
0.0516 -7.1443 -1.8498 0.9709
1.3188 -7.0181 -1.8489 0.9709
1.9387 -6.8710 -1.8485 0.9709
3.1266 -6.4145 -1.8476 0.9709
3.6852 -6.1089 -1.8472 0.9710
4.2142 -5.7548 -1.8468 0.9710
4.7095 -5.3552 -1.8465 0.9710
5.1672 -4.9132 -1.8461 0.9710
5.5837 -4.4322 -1.8458 0.9710
6.7971 -3.6465 -1.9971 0.9686
7.6406 -1.0405 -1.9965 0.9686
7.7027 -0.3552 -1.9965 0.9686
7.7037 0.3329 -1.9965 0.9686
7.6436 1.0183 -1.9965 0.9686
7.5227 1.6957 -1.9966 0.9686
7.3420 2.3597 -1.9968 0.9686
6.8076 3.6268 -1.9971 0.9686
6.4580 4.2197 -1.9974 0.9686
6.0571 4.7793 -1.9977 0.9686
5.6078 5.3011 -1.9980 0.9686
3.1582 6.4317 -1.8552 0.9708
2.5728 6.6892 -1.8556 0.9708
0.7116 7.1368 -1.8570 0.9708
0.0726 7.1736 -1.8575 0.9708
-0.5673 7.1533 -1.8579 0.9708
-1.2030 7.0760 -1.8584 0.9708
-3.0346 6.5101 -1.8597 0.9708
-4.2757 6.0564 -1.9195 0.9698
-5.0141 5.9050 -2.0057 0.9685
-5.5216 5.4355 -2.0061 0.9685
-5.9851 4.9224 -2.0064 0.9685
-6.4011 4.3699 -2.0067 0.9685
-7.5278 1.8578 -2.0076 0.9685
-7.6638 1.1794 -2.0077 0.9685
-7.7386 0.4915 -2.0077 0.9685
-7.7517 -0.2003 -2.0077 0.9685
-7.7028 -0.8905 -2.0077 0.9685
-7.5924 -1.5736 -2.0076 0.9685
-6.9037 -3.5256 -2.0071 0.9685
-6.5553 -4.1229 -2.0051 0.9685
-5.8706 -4.4692 -1.9103 0.9700
-5.2873 -4.8273 -1.8537 0.9709
-3.1727 -5.0264 -1.5390 0.9757
-1.8891 -4.6684 -1.3039 0.9794
-2.0807 -6.8411 -1.8514 0.9709
-0.8324 -7.0984 -1.8505 0.9709
-0.1962 -7.1425 -1.8500 0.9709
0.4412 -7.1298 -1.8496 0.9709
1.6994 -6.9347 -1.8486 0.9709
2.3103 -6.7540 -1.8482 0.9709
3.4714 -6.2335 -1.8474 0.9709
5.9077 -4.1851 -1.8745 0.9705
6.9854 -3.2701 -1.9970 0.9686
7.2484 -2.6341 -1.9968 0.9686
7.4538 -1.9773 -1.9967 0.9686
7.6000 -1.3049 -1.9966 0.9686
7.6742 0.7526 -1.9965 0.9686
7.5768 1.4338 -1.9966 0.9686
7.2028 2.7569 -1.9969 0.9686
6.2188 4.5661 -1.9976 0.9686
5.3108 5.5998 -1.9982 0.9686
4.1026 6.2565 -1.9371 0.9696
3.3790 6.3178 -1.8551 0.9708
2.2044 6.8206 -1.8559 0.9708
1.5880 6.9916 -1.8564 0.9708
0.9586 7.1071 -1.8568 0.9708
-0.2866 6.4431 -1.6699 0.9737
-0.9568 7.1128 -1.8582 0.9708
-2.2058 6.8331 -1.8591 0.9708
-3.3857 6.3357 -1.8600 0.9708
-3.9779 6.0711 -1.8793 0.9705
-4.7713 6.0311 -1.9911 0.9687
-5.3294 5.6233 -2.0060 0.9685
-6.6305 4.0146 -2.0069 0.9685
-6.9628 3.4079 -2.0071 0.9685
-7.2396 2.7739 -2.0073 0.9685
-7.4586 2.1177 -2.0075 0.9685
-7.6182 1.4444 -2.0076 0.9685
-7.7540 0.0686 -2.0077 0.9685
-7.6426 -1.3094 -2.0076 0.9685
-7.0221 -3.2842 -2.0072 0.9685
-6.7006 -3.8967 -2.0069 0.9685
-6.3017 -4.4609 -1.9991 0.9686
-5.4519 -4.6413 -1.8538 0.9708
-3.4187 -5.0214 -1.5729 0.9752
-2.0790 -4.6654 -1.3225 0.9791
-2.3169 -6.7654 -1.8516 0.9709
-1.0782 -7.0659 -1.8507 0.9709
0.8293 -7.0940 -1.8493 0.9709
1.4581 -6.9901 -1.8488 0.9709
2.6749 -6.6169 -1.8479 0.9709
3.2534 -6.3507 -1.8475 0.9709
4.8149 -5.2602 -1.8464 0.9710
5.2637 -4.8092 -1.8461 0.9710
5.6706 -4.3201 -1.8458 0.9710
6.5067 -4.0955 -1.9906 0.9687
6.8681 -3.5105 -1.9971 0.9686
7.3810 -2.2346 -1.9967 0.9686
7.6597 -0.8883 -1.9965 0.9686
7.7083 -0.2019 -1.9965 0.9686
7.4876 1.8451 -1.9967 0.9686
6.3730 4.3475 -1.9975 0.9686
5.5014 5.4118 -1.9981 0.9686
4.9980 5.8818 -1.9985 0.9686
2.4394 6.7394 -1.8557 0.9708
1.2044 7.0689 -1.8566 0.9708
-0.0701 7.1740 -1.8576 0.9708
-3.1637 6.4488 -1.8598 0.9708
-3.7268 6.1424 -1.8602 0.9708
-5.1308 5.8043 -2.0058 0.9685
-6.0821 4.8026 -2.0065 0.9685
-6.4869 4.2419 -2.0068 0.9685
-7.3805 2.3750 -2.0074 0.9685
-7.5633 1.7077 -2.0076 0.9685
-7.7469 0.3375 -2.0077 0.9685
-7.7461 -0.3545 -2.0077 0.9685
-4.2302 -5.7724 -1.8530 0.9709
-0.0541 -7.1446 -1.8499 0.9709
0.5829 -7.1192 -1.8495 0.9709
1.2149 -7.0372 -1.8490 0.9709
2.4441 -6.7063 -1.8481 0.9709
3.0315 -6.4603 -1.8477 0.9709
4.1287 -5.8167 -1.8469 0.9710
5.0941 -4.9892 -1.8462 0.9710
5.5177 -4.5145 -1.8459 0.9710
7.2992 -2.4893 -1.9968 0.9686
7.6967 -0.4691 -1.9965 0.9686
7.7078 0.2189 -1.9965 0.9686
6.5196 4.1237 -1.9974 0.9686
6.1269 4.6891 -1.9976 0.9686
4.6703 6.1464 -1.9987 0.9686
3.9270 6.2567 -1.9126 0.9699
2.6714 6.6502 -1.8556 0.9708
2.0684 6.8635 -1.8560 0.9708
1.3369 6.4804 -1.7132 0.9730
0.8171 7.1252 -1.8569 0.9708
0.1787 7.1714 -1.8574 0.9708
-2.3414 6.7883 -1.8592 0.9708
-3.5113 6.2674 -1.8601 0.9708
-5.4404 5.5164 -2.0060 0.9685
-5.9115 5.0103 -2.0064 0.9685
-6.3356 4.4640 -2.0067 0.9685
-6.7092 3.8820 -2.0070 0.9685
-7.6455 1.2926 -2.0076 0.9685
-7.7538 -0.0856 -2.0077 0.9685
-7.6150 -1.4611 -2.0076 0.9685
-6.9552 -3.4232 -2.0071 0.9685
-6.6211 -4.0288 -2.0067 0.9685
-5.3583 -4.7487 -1.8538 0.9709
-4.9127 -5.2066 -1.8534 0.9709
-4.4282 -5.6227 -1.8531 0.9709
-3.2843 -5.0366 -1.5568 0.9755
-3.3579 -6.3171 -1.8523 0.9709
-7.0874 0.2038 -2.0072 0.9710
-5.4341 -4.4429 -1.9871 0.9712
-4.2511 -4.9770 -1.8530 0.9732
-3.1133 -5.3335 -1.7483 0.9747
-1.7359 -4.7579 -1.4338 0.9792
-1.6846 -6.3181 -1.8511 0.9732
-0.5356 -6.5139 -1.8503 0.9732
0.6293 -6.5025 -1.8494 0.9732
2.8599 -5.8673 -1.8478 0.9732
3.3709 -5.5879 -1.8474 0.9732
4.3080 -4.8987 -1.8468 0.9732
4.7268 -4.4944 -1.8465 0.9732
5.8886 -3.8721 -1.9951 0.9711
6.4899 -2.7680 -1.9974 0.9711
6.8773 -1.5713 -1.9971 0.9711
6.9897 -0.9519 -1.9970 0.9711
7.0466 -0.3250 -1.9970 0.9711
7.0475 0.3045 -1.9970 0.9711
6.9925 0.9316 -1.9970 0.9711
6.7166 2.1587 -1.9972 0.9711
6.4979 2.7491 -1.9974 0.9711
5.9077 3.8601 -1.9978 0.9711
5.5408 4.3720 -1.9981 0.9711
4.6778 5.2881 -1.9987 0.9711
4.1886 5.6851 -1.9991 0.9711
2.3939 6.2241 -1.8878 0.9727
1.7989 6.3053 -1.8562 0.9731
0.0664 6.5610 -1.8575 0.9731
-1.1002 6.4715 -1.8583 0.9731
-2.2329 6.1759 -1.8591 0.9731
-3.5155 6.0629 -1.9840 0.9713
-4.0848 5.7861 -2.0051 0.9710
-5.0492 4.9704 -2.0058 0.9710
-5.8533 3.9960 -2.0063 0.9710
-6.1869 3.4587 -2.0066 0.9710
-6.7041 2.3055 -2.0070 0.9710
-6.8833 1.6987 -2.0071 0.9710
-7.0880 -0.1832 -2.0072 0.9710
-7.0433 -0.8143 -2.0072 0.9710
-6.9424 -1.4389 -2.0071 0.9710
-6.7861 -2.0519 -2.0070 0.9710
-6.5757 -2.6485 -2.0069 0.9710
-6.3128 -3.2239 -2.0067 0.9710
-5.9996 -3.7734 -2.0064 0.9710
-5.6249 -4.2822 -2.0013 0.9710
-4.4214 -4.8269 -1.8531 0.9732
-3.9728 -5.2010 -1.8528 0.9732
-1.8892 -4.6686 -1.4258 0.9793
-1.3373 -6.3997 -1.8509 0.9732
-0.7613 -6.4920 -1.8504 0.9732
-0.1795 -6.5325 -1.8500 0.9732
0.4035 -6.5210 -1.8496 0.9732
1.5544 -6.3429 -1.8488 0.9732
2.6549 -5.9634 -1.8480 0.9732
3.6703 -5.3950 -1.8472 0.9732
4.5684 -4.6559 -1.8466 0.9732
4.9645 -4.2294 -1.8463 0.9733
5.7417 -4.0676 -1.9920 0.9712
6.6309 -2.4097 -1.9973 0.9711
6.8189 -1.8088 -1.9971 0.9711
6.9526 -1.1937 -1.9970 0.9711
7.0312 -0.5691 -1.9970 0.9711
7.0538 0.0599 -1.9970 0.9711
7.0205 0.6885 -1.9970 0.9711
6.7872 1.9244 -1.9972 0.9711
6.5891 2.5220 -1.9973 0.9711
5.6888 4.1770 -1.9980 0.9711
4.3829 5.5360 -1.9989 0.9711
3.3301 6.2263 -1.9989 0.9711
0.8768 6.5004 -1.8569 0.9731
-0.2853 6.4141 -1.8176 0.9737
-1.4518 6.4027 -1.8586 0.9731
-2.0173 6.2491 -1.8590 0.9731
-2.5920 6.1050 -1.8776 0.9728
-3.8814 5.9238 -2.0049 0.9710
-5.3133 4.6881 -2.0060 0.9710
-6.0630 3.6710 -2.0065 0.9710
-6.3668 3.1162 -2.0067 0.9710
-6.8201 1.9364 -2.0070 0.9710
-6.9660 1.3207 -2.0071 0.9710
-7.0901 0.0627 -2.0072 0.9710
-6.9883 -1.1973 -2.0072 0.9710
-6.6638 -2.4190 -2.0069 0.9710
-6.4211 -3.0031 -2.0067 0.9710
-6.1271 -3.5632 -2.0065 0.9710
-5.7799 -4.0915 -2.0047 0.9710
-5.2235 -4.4469 -1.9420 0.9719
-4.5865 -4.6710 -1.8532 0.9732
-4.1511 -5.0604 -1.8529 0.9732
-2.0791 -4.6656 -1.4460 0.9790
-2.1189 -6.1872 -1.8514 0.9732
-1.5586 -6.3501 -1.8510 0.9732
-0.9860 -6.4623 -1.8506 0.9732
-0.4059 -6.5230 -1.8502 0.9732
0.1771 -6.5317 -1.8498 0.9732
0.7585 -6.4884 -1.8493 0.9732
1.3336 -6.3935 -1.8489 0.9732
1.8978 -6.2478 -1.8485 0.9732
2.4467 -6.0524 -1.8481 0.9732
2.9759 -5.8090 -1.8477 0.9732
3.4812 -5.5195 -1.8474 0.9732
3.9587 -5.1862 -1.8470 0.9732
4.4045 -4.8118 -1.8467 0.9732
4.8151 -4.3993 -1.8464 0.9733
5.4879 -4.1809 -1.9531 0.9717
5.9700 -3.7577 -1.9970 0.9711
6.5436 -2.6383 -1.9973 0.9711
6.7522 -2.0443 -1.9972 0.9711
7.0073 -0.8126 -1.9970 0.9711
7.0517 -0.1847 -1.9970 0.9711
7.0401 0.4446 -1.9970 0.9711
6.9726 1.0705 -1.9970 0.9711
6.6724 2.2919 -1.9972 0.9711
6.1605 3.4410 -1.9976 0.9711
5.8299 3.9770 -1.9979 0.9711
5.0325 4.9505 -1.9984 0.9711
4.0748 5.7675 -1.9991 0.9711
3.5451 6.1090 -1.9995 0.9711
1.1016 6.4655 -1.8567 0.9731
-0.0641 6.5614 -1.8576 0.9731
-2.3555 6.1306 -1.8592 0.9731
-2.9865 6.0876 -1.9196 0.9722
-4.1993 5.7039 -2.0051 0.9710
-4.6919 5.3078 -2.0055 0.9710
-5.5616 4.3916 -2.0061 0.9710
-5.9318 3.8789 -2.0064 0.9710
-6.5277 2.7644 -2.0068 0.9710
-7.0278 0.9388 -2.0072 0.9710
-7.0836 0.3086 -2.0072 0.9710
-6.9124 -1.5767 -2.0071 0.9710
-6.5216 -2.7787 -2.0068 0.9710
-6.2473 -3.3487 -2.0066 0.9710
-4.7460 -4.5094 -1.8533 0.9732
-3.8684 -5.2787 -1.8527 0.9732
-2.8684 -5.8795 -1.8520 0.9732
-1.2097 -6.4248 -1.8508 0.9732
1.6802 -6.3104 -1.8487 0.9732
4.2352 -4.9620 -1.8468 0.9732
4.6599 -4.5639 -1.8465 0.9732
5.1373 -4.2032 -1.8791 0.9728
6.9749 -1.0552 -1.9970 0.9711
7.0513 0.2002 -1.9970 0.9711
7.0055 0.8280 -1.9970 0.9711
6.9040 1.4493 -1.9971 0.9711
6.7477 2.0591 -1.9972 0.9711
6.5378 2.6526 -1.9973 0.9711
6.2759 3.2252 -1.9975 0.9711
5.2008 4.7727 -1.9983 0.9711
4.2721 5.6224 -1.9990 0.9711
3.7545 5.9819 -1.9994 0.9711
2.5004 6.2246 -1.8990 0.9725
1.8919 6.2778 -1.8561 0.9731
1.3250 6.4229 -1.8566 0.9731
0.7473 6.5169 -1.8570 0.9731
0.1635 6.5590 -1.8574 0.9731
-1.0044 6.4868 -1.8582 0.9731
-1.5790 6.3729 -1.8587 0.9731
-2.1413 6.2081 -1.8591 0.9731
-2.7339 6.0989 -1.8921 0.9726
-3.3998 6.0684 -1.9692 0.9715
-3.9987 5.8457 -2.0050 0.9710
-4.5047 5.4669 -2.0054 0.9710
-5.4057 4.5816 -2.0060 0.9710
-6.1350 3.5498 -2.0065 0.9710
-6.4277 2.9890 -2.0068 0.9710
-6.9909 1.1819 -2.0072 0.9710
-7.0899 -0.0783 -2.0072 0.9710
-6.6143 -2.5510 -2.0069 0.9710
-5.0210 -4.4498 -1.8993 0.9725
-4.4925 -4.7612 -1.8531 0.9732
-4.0495 -5.1418 -1.8528 0.9732
-6.5219 0.1875 -2.0068 0.9731
-6.4514 -0.9736 -2.0068 0.9731
-6.3386 -1.5448 -2.0067 0.9731
-6.1753 -2.1036 -2.0066 0.9731
-5.9627 -2.6455 -2.0064 0.9731
-5.7026 -3.1662 -2.0062 0.9731
-5.0425 -4.1227 -2.0033 0.9731
-4.5245 -4.4282 -1.9473 0.9739
-3.9175 -4.5864 -1.8552 0.9751
-3.4877 -4.9099 -1.8524 0.9751
-1.5504 -5.8148 -1.8510 0.9751
0.5793 -5.9850 -1.8495 0.9752
1.1103 -5.9083 -1.8491 0.9752
1.6322 -5.7846 -1.8487 0.9752
2.6325 -5.4007 -1.8480 0.9752
3.9656 -4.5093 -1.8470 0.9752
4.4378 -4.2196 -1.8835 0.9747
5.0761 -4.0293 -1.9934 0.9732
5.7240 -3.0708 -1.9979 0.9732
6.1773 -2.0052 -1.9976 0.9732
6.4346 -0.8763 -1.9974 0.9732
6.4870 -0.2992 -1.9974 0.9732
6.4878 0.2803 -1.9974 0.9732
6.3353 1.4281 -1.9975 0.9732
6.1831 1.9873 -1.9976 0.9732
5.4384 3.5535 -1.9981 0.9732
4.3060 4.8678 -1.9990 0.9732
3.8556 5.2332 -1.9993 0.9732
1.7665 6.1917 -1.9804 0.9734
1.1810 6.1856 -1.9369 0.9740
0.6159 6.1770 -1.9093 0.9744
-1.0432 6.1358 -1.9143 0.9743
-2.2030 6.0931 -1.9928 0.9732
-2.7529 5.9056 -2.0041 0.9731
-3.7592 5.3248 -2.0048 0.9731
-5.0365 4.1422 -2.0057 0.9731
-5.6934 3.1828 -2.0062 0.9731
-6.5114 0.4136 -2.0068 0.9731
-6.4813 -0.7493 -2.0068 0.9731
-5.5210 -3.4724 -2.0061 0.9731
-4.0689 -4.4421 -1.8528 0.9751
-3.1512 -4.9923 -1.8158 0.9756
-1.8893 -4.6688 -1.5491 0.9791
-0.7007 -5.9751 -1.8504 0.9751
0.9048 -5.9437 -1.8492 0.9752
1.9451 -5.6863 -1.8485 0.9752
2.9228 -5.2485 -1.8478 0.9752
3.3785 -4.9661 -1.8474 0.9752
3.8071 -4.6444 -1.8471 0.9752
5.3001 -3.7547 -1.9978 0.9732
5.6143 -3.2676 -1.9980 0.9732
5.8826 -2.7538 -1.9978 0.9732
6.2773 -1.6652 -1.9975 0.9732
6.4004 -1.0989 -1.9974 0.9732
6.4727 -0.5239 -1.9974 0.9732
6.4936 0.0552 -1.9974 0.9732
6.2481 1.7716 -1.9976 0.9732
5.8351 2.8534 -1.9979 0.9732
5.5581 3.3626 -1.9981 0.9732
4.0345 5.0960 -1.9992 0.9732
3.5647 5.4363 -1.9995 0.9732
-0.2739 6.1579 -1.8959 0.9745
-3.0713 5.7473 -2.0043 0.9731
-3.5721 5.4516 -2.0047 0.9731
-4.4849 4.7322 -2.0053 0.9731
-5.2554 3.8616 -2.0059 0.9731
-5.5794 3.3782 -2.0061 0.9731
-5.8589 2.8676 -2.0063 0.9731
-6.0917 2.3341 -2.0065 0.9731
-6.4101 1.2154 -2.0067 0.9731
-6.5035 -0.5241 -2.0068 0.9731
-5.3230 -3.7681 -2.0059 0.9731
-4.9552 -4.2185 -2.0016 0.9731
-4.3505 -4.4307 -1.9099 0.9743
-3.8201 -4.6570 -1.8527 0.9751
-3.3892 -4.9781 -1.8523 0.9751
-1.9501 -5.6943 -1.8513 0.9751
-0.3736 -6.0036 -1.8502 0.9751
0.6982 -5.9720 -1.8494 0.9752
1.2275 -5.8848 -1.8490 0.9752
1.7469 -5.7508 -1.8486 0.9752
2.2521 -5.5710 -1.8482 0.9752
2.7393 -5.3471 -1.8479 0.9752
3.2044 -5.0806 -1.8476 0.9752
4.6066 -4.2088 -1.9192 0.9742
5.1594 -3.9307 -1.9950 0.9732
5.7838 -2.9563 -1.9979 0.9732
6.4507 -0.7481 -1.9974 0.9732
6.4916 -0.1701 -1.9974 0.9732
6.4810 0.4093 -1.9974 0.9732
6.4188 0.9855 -1.9974 0.9732
6.1424 2.1099 -1.9976 0.9732
5.9304 2.6493 -1.9978 0.9732
4.6325 4.5571 -1.9987 0.9732
3.2632 5.6233 -1.9997 0.9732
2.7495 5.8929 -2.0001 0.9732
1.6337 6.1906 -1.9693 0.9736
1.0536 6.1839 -1.9294 0.9741
-1.7412 6.1114 -1.9545 0.9738
-2.3365 6.0813 -2.0038 0.9731
-2.8699 5.8499 -2.0042 0.9731
-3.3806 5.5718 -2.0045 0.9731
-6.2102 1.9984 -2.0066 0.9731
-6.4670 0.8639 -2.0068 0.9731
-6.5184 0.2840 -2.0068 0.9731
-6.0013 -2.5570 -2.0064 0.9731
-4.6582 -4.4260 -1.9764 0.9735
-3.5600 -4.8579 -1.8525 0.9751
-3.1123 -5.1550 -1.8521 0.9751
-0.0455 -6.0143 -1.8499 0.9751
3.4764 -4.8978 -1.8474 0.9752
3.8986 -4.5676 -1.8471 0.9752
5.6780 -3.1552 -1.9980 0.9732
5.9361 -2.6362 -1.9978 0.9732
6.1470 -2.0964 -1.9976 0.9732
6.3091 -1.5400 -1.9975 0.9732
6.4210 -0.9714 -1.9974 0.9732
6.4491 0.7623 -1.9974 0.9732
5.7773 2.9690 -1.9979 0.9732
5.4902 3.4726 -1.9981 0.9732
3.9325 5.1754 -1.9992 0.9732
3.4560 5.5063 -1.9996 0.9732
2.9519 5.7936 -2.0000 0.9732
2.4242 6.0348 -2.0003 0.9732
1.8662 6.1925 -1.9893 0.9733
1.2763 6.1868 -1.9430 0.9739
0.7086 6.1786 -1.9129 0.9743
-0.3966 6.1547 -1.8970 0.9745
-0.9505 6.1387 -1.9106 0.9743
-4.1456 5.0311 -2.0051 0.9731
-4.9746 4.2162 -2.0057 0.9731
-5.6456 3.2666 -2.0062 0.9731
-5.9149 2.7506 -2.0064 0.9731
-6.1371 2.2125 -2.0065 0.9731
-6.3102 1.6567 -2.0067 0.9731
-6.4331 1.0876 -2.0068 0.9731
-6.5046 0.5098 -2.0068 0.9731
-6.5242 -0.0721 -2.0068 0.9731
-6.4074 -1.2295 -2.0067 0.9731
-5.2469 -3.8731 -2.0059 0.9731
-4.8662 -4.3126 -1.9999 0.9732
-4.1828 -4.4329 -1.8746 0.9748
-3.7266 -4.7319 -1.8526 0.9751
-5.9941 0.7106 -2.0064 0.9749
-6.0337 0.1735 -2.0065 0.9749
-6.0251 -0.3651 -2.0065 0.9749
-5.8642 -1.4292 -2.0063 0.9749
-5.7131 -1.9461 -2.0062 0.9749
-5.5165 -2.4475 -2.0061 0.9749
-4.6708 -3.8188 -2.0055 0.9749
-4.3022 -4.2106 -2.0010 0.9749
-2.8086 -4.8115 -1.8519 0.9768
-2.2148 -4.7155 -1.7318 0.9783
-1.7359 -4.7580 -1.6836 0.9789
-0.9491 -5.4857 -1.8506 0.9768
-0.4562 -5.5474 -1.8502 0.9768
0.0402 -5.5649 -1.8499 0.9768
1.0274 -5.4672 -1.8491 0.9768
1.5104 -5.3528 -1.8488 0.9768
2.4360 -4.9977 -1.8481 0.9768
5.0233 -3.3031 -1.9984 0.9750
5.2973 -2.8419 -1.9982 0.9750
5.5291 -2.3581 -1.9981 0.9750
5.8593 -1.3387 -1.9978 0.9750
5.9574 0.7937 -1.9978 0.9750
5.7223 1.8391 -1.9979 0.9750
5.5359 2.3421 -1.9981 0.9750
5.0329 3.2885 -1.9984 0.9750
4.7203 3.7245 -1.9987 0.9750
3.9849 4.5048 -1.9992 0.9750
1.1291 5.9138 -2.0013 0.9749
-0.4763 6.0052 -2.0024 0.9749
-1.0099 5.9400 -2.0028 0.9749
-1.5357 5.8274 -2.0032 0.9749
-2.0494 5.6684 -2.0036 0.9749
-2.5471 5.4641 -2.0039 0.9749
-3.0246 5.2162 -2.0043 0.9749
-3.4781 4.9266 -2.0046 0.9749
-3.9040 4.5977 -2.0049 0.9749
-4.2990 4.2319 -2.0052 0.9749
-5.5094 2.4635 -2.0061 0.9749
-5.7074 1.9627 -2.0062 0.9749
-5.8600 1.4462 -2.0063 0.9749
-5.9658 0.9181 -2.0064 0.9749
-6.0241 0.3826 -2.0065 0.9749
-6.0342 -0.1559 -2.0065 0.9749
-5.9103 -1.2250 -2.0064 0.9749
-5.3745 -2.7447 -2.0060 0.9749
-5.1079 -3.2125 -2.0058 0.9749
-4.8007 -3.6547 -2.0056 0.9749
-4.4515 -4.0642 -2.0037 0.9749
-3.3827 -4.4284 -1.8523 0.9768
-2.9740 -4.7115 -1.8520 0.9768
-1.8894 -4.6690 -1.6742 0.9790
-1.6204 -5.3277 -1.8511 0.9768
-1.1388 -5.4499 -1.8507 0.9768
-0.6483 -5.5287 -1.8504 0.9768
0.8372 -5.4999 -1.8493 0.9768
1.7999 -5.2619 -1.8486 0.9768
2.7048 -4.8569 -1.8479 0.9768
4.9060 -3.4755 -1.9985 0.9750
5.1957 -3.0240 -1.9983 0.9750
5.4441 -2.5485 -1.9981 0.9750
5.6492 -2.0529 -1.9980 0.9750
5.9234 -1.0170 -1.9978 0.9750
5.9904 -0.4849 -1.9977 0.9750
5.9053 1.1175 -1.9978 0.9750
5.4002 2.6407 -1.9982 0.9750
5.1437 3.1119 -1.9984 0.9750
4.8464 3.5584 -1.9986 0.9750
4.5104 3.9768 -1.9988 0.9750
3.2988 5.0307 -1.9997 0.9750
2.8377 5.3057 -2.0000 0.9750
1.3334 5.8706 -2.0011 0.9749
0.8049 5.9673 -2.0015 0.9749
0.2698 6.0164 -2.0019 0.9749
-0.2677 6.0177 -2.0023 0.9749
-0.8032 5.9710 -2.0027 0.9749
-1.3326 5.8768 -2.0031 0.9749
-3.7420 4.7300 -2.0048 0.9749
-4.8622 3.5727 -2.0056 0.9749
-5.1619 3.1254 -2.0058 0.9749
-5.4204 2.6530 -2.0060 0.9749
-5.6358 2.1594 -2.0062 0.9749
-5.8062 1.6485 -2.0063 0.9749
-5.9303 1.1244 -2.0064 0.9749
-5.8345 -1.5455 -2.0063 0.9749
-5.6732 -2.0594 -2.0062 0.9749
-5.4666 -2.5567 -2.0061 0.9749
-5.2165 -3.0336 -2.0059 0.9749
-4.9247 -3.4862 -2.0057 0.9749
-4.2145 -4.2922 -1.9995 0.9750
-2.7122 -4.8663 -1.8519 0.9768
-2.0793 -4.6661 -1.6981 0.9787
-1.8043 -5.2687 -1.8512 0.9768
-0.8397 -5.5033 -1.8505 0.9768
0.1509 -5.5628 -1.8498 0.9768
0.6460 -5.5261 -1.8494 0.9768
1.6165 -5.3215 -1.8487 0.9768
2.5349 -4.9481 -1.8480 0.9768
2.9654 -4.7016 -1.8477 0.9768
4.7827 -3.6437 -1.9986 0.9750
5.7526 -1.7416 -1.9979 0.9750
5.8847 -1.2218 -1.9978 0.9750
5.8357 1.4380 -1.9979 0.9750
5.4883 2.4518 -1.9981 0.9750
5.2483 2.9315 -1.9983 0.9750
4.9666 3.3881 -1.9985 0.9750
4.6454 3.8178 -1.9987 0.9750
3.8946 4.5833 -1.9993 0.9750
3.4711 4.9130 -1.9996 0.9750
3.0198 5.2037 -1.9999 0.9750
2.5443 5.4531 -2.0002 0.9750
2.0484 5.6593 -2.0006 0.9749
1.5361 5.8204 -2.0010 0.9749
-0.0588 6.0229 -2.0021 0.9749
-0.5956 5.9948 -2.0025 0.9749
-1.6514 5.7960 -2.0033 0.9749
-3.5755 4.8566 -2.0047 0.9749
-4.7351 3.7390 -2.0055 0.9749
-5.0502 3.3024 -2.0058 0.9749
-5.7454 1.8488 -2.0063 0.9749
-6.0299 -0.2759 -2.0065 0.9749
-5.8847 -1.3423 -2.0064 0.9749
-5.5522 -2.3657 -2.0061 0.9749
-5.0429 -3.3134 -2.0057 0.9749
-4.3665 -4.1488 -2.0021 0.9749
-3.8818 -4.4108 -1.9531 0.9755
-3.2938 -4.4946 -1.8523 0.9768
-2.4425 -5.0064 -1.8517 0.9768
-1.7950 -4.7028 -1.6732 0.9790
-1.0301 -5.4713 -1.8506 0.9768
0.4540 -5.5456 -1.8496 0.9768
0.9464 -5.4820 -1.8492 0.9768
1.9041 -5.2248 -1.8485 0.9768
2.3619 -5.0334 -1.8482 0.9768
2.8007 -4.8019 -1.8478 0.9768
3.2171 -4.5324 -1.8475 0.9768
3.6231 -4.2448 -1.8551 0.9768
4.2804 -4.1922 -1.9915 0.9751
4.9740 -3.3771 -1.9985 0.9750
5.2547 -2.9200 -1.9983 0.9750
5.4937 -2.4397 -1.9981 0.9750
5.6889 -1.9401 -1.9980 0.9750
5.8389 -1.4252 -1.9978 0.9750
5.9424 -0.8990 -1.9978 0.9750
5.9988 -0.3656 -1.9977 0.9750
5.9684 0.7055 -1.9978 0.9750
4.7747 3.6542 -1.9986 0.9750
4.4305 4.0658 -1.9989 0.9750
2.7317 5.3613 -2.0001 0.9750
1.7368 5.7632 -2.0008 0.9749
0.1500 6.0209 -2.0020 0.9749
-0.3874 6.0114 -2.0024 0.9749
-1.4493 5.8493 -2.0031 0.9749
-1.9653 5.6979 -2.0035 0.9749
-2.4659 5.5010 -2.0039 0.9749
-3.8355 4.6548 -2.0049 0.9749
-4.2358 4.2950 -2.0052 0.9749
-4.6024 3.9008 -2.0054 0.9749
-5.4722 2.5447 -2.0061 0.9749
-5.9516 1.0062 -2.0064 0.9749
-5.8026 -1.6613 -2.0063 0.9749
-5.4146 -2.6649 -2.0060 0.9749
-4.8543 -3.5834 -2.0056 0.9749
-2.6148 -4.9191 -1.8518 0.9768
-5.5709 0.6605 -2.0061 0.9765
-5.5470 -0.8371 -2.0061 0.9765
-5.4501 -1.3283 -2.0060 0.9765
-5.1270 -2.2747 -2.0058 0.9765
-4.6407 -3.1485 -2.0055 0.9765
-4.3411 -3.5492 -2.0052 0.9765
-4.0070 -3.9216 -2.0050 0.9765
-3.1232 -4.3968 -1.9286 0.9774
0.4982 -5.1479 -1.8495 0.9783
0.9550 -5.0821 -1.8492 0.9783
1.4040 -4.9758 -1.8489 0.9783
2.2645 -4.6458 -1.8482 0.9783
2.6708 -4.4272 -1.8489 0.9783
3.6793 -4.1837 -1.9924 0.9766
4.3781 -3.4752 -1.9989 0.9765
5.3148 -1.7252 -1.9982 0.9765
5.4471 -1.2445 -1.9981 0.9765
5.5362 -0.7539 -1.9981 0.9765
5.5813 -0.2574 -1.9980 0.9765
5.5384 0.7378 -1.9981 0.9765
5.4507 1.2287 -1.9981 0.9765
5.3198 1.7098 -1.9982 0.9765
4.6788 3.0572 -1.9987 0.9765
4.3881 3.4625 -1.9989 0.9765
4.0625 3.8403 -1.9991 0.9765
3.7044 4.1877 -1.9994 0.9765
2.9027 4.7804 -2.0000 0.9765
2.4654 5.0209 -2.0003 0.9765
1.0495 5.4972 -2.0013 0.9765
0.5554 5.5698 -2.0017 0.9765
-0.4427 5.5820 -2.0024 0.9765
-0.9387 5.5213 -2.0028 0.9765
-1.4274 5.4166 -2.0031 0.9765
-1.9049 5.2687 -2.0035 0.9765
-2.3674 5.0787 -2.0038 0.9765
-3.2327 4.5790 -2.0044 0.9765
-3.6285 4.2732 -2.0047 0.9765
-3.9956 3.9333 -2.0050 0.9765
-4.8955 2.7367 -2.0056 0.9765
-5.1204 2.2896 -2.0058 0.9765
-5.4462 1.3441 -2.0060 0.9765
-5.5728 -0.6443 -2.0061 0.9765
-5.4930 -1.1385 -2.0061 0.9765
-5.3694 -1.6235 -2.0060 0.9765
-5.2030 -2.0956 -2.0059 0.9765
-4.9950 -2.5509 -2.0057 0.9765
-4.7473 -2.9858 -2.0055 0.9765
-4.4618 -3.3967 -2.0053 0.9765
-3.7811 -4.1278 -2.0018 0.9765
-2.7778 -4.4008 -1.8610 0.9781
-1.8894 -4.6691 -1.8013 0.9788
-1.5062 -4.9520 -1.8510 0.9783
-0.6026 -5.1390 -1.8503 0.9783
-0.1421 -5.1713 -1.8500 0.9783
0.3194 -5.1624 -1.8497 0.9783
1.6732 -4.8913 -1.8487 0.9783
2.9064 -4.2722 -1.8478 0.9783
3.4674 -4.2300 -1.9559 0.9770
3.9082 -3.9830 -1.9955 0.9766
4.8302 -2.8113 -1.9986 0.9765
5.0612 -2.3693 -1.9984 0.9765
5.4008 -1.4327 -1.9982 0.9765
5.5606 0.5453 -1.9981 0.9765
5.4900 1.0389 -1.9981 0.9765
5.2188 1.9975 -1.9983 0.9765
5.0203 2.4550 -1.9984 0.9765
4.7819 2.8930 -1.9986 0.9765
4.1930 3.6970 -1.9990 0.9765
3.0666 4.6766 -1.9999 0.9765
2.1881 5.1485 -2.0005 0.9765
1.2395 5.4571 -2.0012 0.9765
0.7482 5.5468 -2.0016 0.9765
0.2508 5.5925 -2.0019 0.9765
-0.2488 5.5936 -2.0023 0.9765
-0.7466 5.5501 -2.0026 0.9765
-1.7210 5.3312 -2.0033 0.9765
-2.1897 5.1574 -2.0037 0.9765
-2.6412 4.9425 -2.0040 0.9765
-3.8566 4.0692 -2.0049 0.9765
-4.2045 3.7097 -2.0051 0.9765
-4.5190 3.3205 -2.0054 0.9765
-4.7975 2.9047 -2.0056 0.9765
-5.2379 2.0069 -2.0059 0.9765
-5.6097 0.0496 -2.0062 0.9765
-5.5292 -0.9473 -2.0061 0.9765
-5.4226 -1.4364 -2.0060 0.9765
-5.2726 -1.9140 -2.0059 0.9765
-4.8482 -2.8194 -2.0056 0.9765
-4.2696 -3.6348 -2.0052 0.9765
-3.9266 -3.9989 -2.0042 0.9765
-3.5440 -4.3203 -1.9983 0.9765
-2.9945 -4.3984 -1.9028 0.9776
-2.0794 -4.6663 -1.8269 0.9785
-1.6771 -4.8971 -1.8511 0.9783
-1.2336 -5.0263 -1.8508 0.9783
1.0558 -5.0619 -1.8491 0.9783
1.9373 -4.7922 -1.8485 0.9783
2.7566 -4.3706 -1.8479 0.9783
3.2396 -4.2442 -1.9094 0.9776
4.4462 -3.3873 -1.9989 0.9765
4.7300 -2.9772 -1.9987 0.9765
5.3480 -1.6191 -1.9982 0.9765
5.5501 -0.6437 -1.9981 0.9765
5.5853 -0.1463 -1.9980 0.9765
5.5761 0.3522 -1.9980 0.9765
5.2848 1.8153 -1.9983 0.9765
5.1022 2.2793 -1.9984 0.9765
3.6205 4.2607 -1.9995 0.9765
3.2267 4.5672 -1.9998 0.9765
2.8072 4.8374 -2.0001 0.9765
1.4279 5.4104 -2.0011 0.9765
0.9400 5.5172 -2.0014 0.9765
-0.0547 5.5984 -2.0021 0.9765
-0.5537 5.5723 -2.0025 0.9765
-1.0484 5.5017 -2.0029 0.9765
-2.9072 4.7915 -2.0042 0.9765
-3.7129 4.2003 -2.0048 0.9765
-4.0731 3.8531 -2.0050 0.9765
-4.6937 3.0693 -2.0055 0.9765
-4.9491 2.6388 -2.0057 0.9765
-5.3398 1.7183 -2.0060 0.9765
-5.6041 -0.2565 -2.0062 0.9765
-5.3360 -1.7300 -2.0060 0.9765
-4.6869 -3.0795 -2.0055 0.9765
-4.3932 -3.4847 -2.0053 0.9765
-2.6764 -4.4331 -1.8518 0.9782
-1.4073 -4.9808 -1.8509 0.9783
0.8797 -5.0958 -1.8492 0.9783
1.3303 -4.9962 -1.8489 0.9783
1.7701 -4.8569 -1.8486 0.9783
2.1956 -4.6790 -1.8483 0.9783
2.6036 -4.4639 -1.8480 0.9783
3.9890 -3.9069 -1.9967 0.9766
4.6241 -3.1395 -1.9987 0.9765
4.8851 -2.7146 -1.9985 0.9765
5.1072 -2.2681 -1.9984 0.9765
5.2887 -1.8037 -1.9982 0.9765
5.4282 -1.3249 -1.9981 0.9765
5.5245 -0.8357 -1.9981 0.9765
5.5769 -0.3399 -1.9980 0.9765
5.5487 0.6558 -1.9981 0.9765
5.4683 1.1479 -1.9981 0.9765
5.1781 2.1009 -1.9983 0.9765
4.9705 2.5544 -1.9985 0.9765
4.7235 2.9876 -1.9987 0.9765
3.7659 4.1324 -1.9994 0.9765
2.5394 4.9838 -2.0003 0.9765
2.0853 5.1912 -2.0006 0.9765
1.6145 5.3573 -2.0009 0.9765
-0.8569 5.5344 -2.0027 0.9765
-1.3471 5.4369 -2.0031 0.9765
-1.8267 5.2961 -2.0034 0.9765
-2.2920 5.1130 -2.0038 0.9765
-2.7391 4.8892 -2.0041 0.9765
-3.5648 4.3263 -2.0047 0.9765
-4.2776 3.6254 -2.0052 0.9765
-5.0859 2.3651 -2.0058 0.9765
-5.5313 0.9352 -2.0061 0.9765
-5.5092 -1.0571 -2.0061 0.9765
-5.3928 -1.5440 -2.0060 0.9765
-5.0323 -2.4768 -2.0057 0.9765
-3.4552 -4.3873 -1.9971 0.9766
-2.8691 -4.3998 -1.8784 0.9779
-5.2247 -0.3166 -2.0059 0.9778
-5.1756 -0.7811 -2.0058 0.9778
-4.7838 -2.1224 -2.0056 0.9778
-4.5752 -2.5402 -2.0054 0.9778
-3.7388 -3.6592 -2.0048 0.9778
-3.0206 -4.2523 -1.9988 0.9779
-2.5568 -4.3801 -1.9436 0.9785
-1.6556 -4.5378 -1.8511 0.9795
-1.2443 -4.6666 -1.8508 0.9795
-0.8232 -4.7581 -1.8505 0.9795
-0.3957 -4.8117 -1.8502 0.9795
0.0348 -4.8270 -1.8499 0.9795
0.4649 -4.8039 -1.8495 0.9795
1.7187 -4.5074 -1.8486 0.9795
2.1133 -4.3356 -1.8483 0.9796
2.5705 -4.2610 -1.9070 0.9789
3.4417 -3.9136 -1.9972 0.9779
4.3583 -2.8659 -1.9989 0.9779
5.0838 -1.1615 -1.9984 0.9779
5.1669 -0.7036 -1.9983 0.9779
5.0871 1.1467 -1.9984 0.9779
4.9649 1.5957 -1.9985 0.9779
4.8031 2.0321 -1.9986 0.9779
4.3666 2.8532 -1.9989 0.9779
3.7914 3.5840 -1.9993 0.9779
2.7089 4.4612 -2.0001 0.9779
1.8742 4.8729 -2.0007 0.9779
1.4326 5.0213 -2.0011 0.9779
0.9794 5.1299 -2.0014 0.9779
-1.3320 5.0544 -2.0031 0.9779
-1.7775 4.9163 -2.0034 0.9779
-2.2091 4.7390 -2.0037 0.9779
-2.6231 4.5239 -2.0040 0.9778
-3.0164 4.2727 -2.0043 0.9778
-3.3857 3.9873 -2.0046 0.9778
-3.7282 3.6700 -2.0048 0.9778
-4.0409 3.3235 -2.0050 0.9778
-4.3216 2.9503 -2.0052 0.9778
-4.5678 2.5535 -2.0054 0.9778
-5.0816 1.2541 -2.0058 0.9778
-5.2238 0.3318 -2.0059 0.9778
-5.2326 -0.1352 -2.0059 0.9778
-5.1252 -1.0622 -2.0058 0.9778
-4.4295 -2.7859 -2.0053 0.9778
-4.1632 -3.1694 -2.0051 0.9778
-3.8636 -3.5275 -2.0049 0.9778
-3.5334 -3.8574 -2.0046 0.9778
-2.2473 -4.3829 -1.8875 0.9791
-1.8121 -4.4779 -1.8512 0.9795
-1.4054 -4.6209 -1.8509 0.9795
-0.9878 -4.7270 -1.8506 0.9795
-0.5623 -4.7954 -1.8503 0.9795
0.2981 -4.8175 -1.8497 0.9795
0.7262 -4.7709 -1.8494 0.9795
1.1485 -4.6864 -1.8490 0.9795
1.5614 -4.5646 -1.8487 0.9795
1.9618 -4.4065 -1.8485 0.9795
2.3790 -4.2719 -1.8738 0.9793
2.8861 -4.2423 -1.9663 0.9783
3.6542 -3.7241 -1.9994 0.9779
4.9015 -1.7812 -1.9985 0.9779
5.0405 -1.3371 -1.9984 0.9779
5.1395 -0.8824 -1.9984 0.9779
5.1976 -0.4207 -1.9983 0.9779
5.2143 0.0443 -1.9983 0.9779
4.8706 1.8642 -1.9986 0.9779
4.6853 2.2912 -1.9987 0.9779
3.2391 4.0913 -1.9997 0.9779
2.8619 4.3644 -2.0000 0.9779
2.0419 4.8046 -2.0006 0.9779
-0.6967 5.1791 -2.0026 0.9779
-2.0433 4.8125 -2.0036 0.9779
-2.8663 4.3745 -2.0042 0.9778
-3.5985 3.7969 -2.0047 0.9778
-4.2165 3.0983 -2.0052 0.9778
-4.8872 1.8726 -2.0056 0.9778
-5.0349 1.4295 -2.0057 0.9778
-5.2341 0.0463 -2.0059 0.9778
-5.1590 -0.8839 -2.0058 0.9778
-5.0595 -1.3402 -2.0058 0.9778
-4.7405 -2.2171 -2.0055 0.9778
-4.5237 -2.6307 -2.0054 0.9778
-4.2707 -3.0232 -2.0052 0.9778
-3.6652 -3.7327 -2.0047 0.9778
-2.9338 -4.3093 -1.9978 0.9779
-2.4419 -4.3812 -1.9221 0.9787
-1.9664 -4.4127 -1.8513 0.9795
-1.5649 -4.5697 -1.8510 0.9795
0.1309 -4.8252 -1.8498 0.9795
0.5604 -4.7935 -1.8495 0.9795
0.9853 -4.7237 -1.8492 0.9795
1.8079 -4.4722 -1.8486 0.9795
2.1991 -4.2926 -1.8483 0.9796
2.6833 -4.2545 -1.9276 0.9787
3.1568 -4.1356 -1.9938 0.9780
3.5208 -3.8464 -1.9983 0.9779
4.8369 -1.9502 -1.9986 0.9779
5.1799 -0.6007 -1.9983 0.9779
5.0634 1.2477 -1.9984 0.9779
4.9322 1.6942 -1.9985 0.9779
4.7618 2.1273 -1.9986 0.9779
4.5536 2.5435 -1.9988 0.9779
4.3091 2.9395 -1.9990 0.9779
4.0303 3.3123 -1.9992 0.9779
3.7194 3.6588 -1.9994 0.9779
3.3788 3.9763 -1.9996 0.9779
1.3325 5.0490 -2.0011 0.9779
0.8772 5.1486 -2.0015 0.9779
0.4148 5.2071 -2.0018 0.9779
-0.9783 5.1339 -2.0028 0.9779
-1.4323 5.0271 -2.0031 0.9779
-1.8750 4.8802 -2.0035 0.9779
-2.3030 4.6943 -2.0038 0.9779
-3.1009 4.2119 -2.0043 0.9778
-3.4645 3.9193 -2.0046 0.9778
-4.6177 2.4622 -2.0054 0.9778
-4.9823 1.6032 -2.0057 0.9778
-5.2294 0.2278 -2.0059 0.9778
-5.1866 -0.7045 -2.0059 0.9778
-5.1030 -1.1640 -2.0058 0.9778
-4.8147 -2.0515 -2.0056 0.9778
-4.3732 -2.8734 -2.0053 0.9778
-2.6438 -4.3791 -1.9603 0.9783
-2.1386 -4.3836 -1.8691 0.9793
-1.7226 -4.5129 -1.8511 0.9795
-0.4668 -4.8055 -1.8502 0.9795
1.2414 -4.6624 -1.8490 0.9795
1.6518 -4.5325 -1.8487 0.9795
2.0490 -4.3665 -1.8484 0.9796
2.4880 -4.2658 -1.8924 0.9791
3.3822 -3.9626 -1.9965 0.9779
5.0661 -1.2366 -1.9984 0.9779
5.1560 -0.7800 -1.9983 0.9779
5.2049 -0.3172 -1.9983 0.9779
5.2124 0.1480 -1.9983 0.9779
5.1786 0.6121 -1.9983 0.9779
5.1035 1.0713 -1.9984 0.9779
4.9879 1.5221 -1.9985 0.9779
4.8326 1.9608 -1.9986 0.9779
4.6389 2.3840 -1.9987 0.9779
4.4083 2.7882 -1.9989 0.9779
4.1426 3.1704 -1.9991 0.9779
3.5145 3.8566 -1.9995 0.9779
2.3698 4.6510 -2.0004 0.9779
1.9460 4.8445 -2.0007 0.9779
1.5067 4.9995 -2.0010 0.9779
0.5951 5.1893 -2.0017 0.9779
0.1302 5.2226 -2.0020 0.9779
-1.7046 4.9419 -2.0033 0.9779
-3.6734 3.7247 -2.0048 0.9778
-3.9913 3.3828 -2.0050 0.9778
-4.5294 2.6208 -2.0054 0.9778
-4.9235 1.7750 -2.0057 0.9778
-5.1610 0.8725 -2.0058 0.9778
-5.2183 0.4090 -2.0059 0.9778
-5.2080 -0.5242 -2.0059 0.9778
-5.0318 -1.4406 -2.0057 0.9778
-4.4703 -2.7201 -2.0053 0.9778
-4.2097 -3.1075 -2.0051 0.9778
-3.5901 -3.8048 -2.0047 0.9778
-3.2317 -4.1034 -2.0016 0.9779
-1.9252 0.0554 -0.7883 0.9917
-1.9471 -0.1180 -0.7984 0.9916
-1.9660 -0.2967 -0.8138 0.9914
-4.6383 -1.5800 -2.0055 0.9790
-4.2834 -2.3783 -2.0052 0.9790
-4.0540 -2.7504 -2.0050 0.9790
-3.1808 -3.7239 -2.0044 0.9791
-2.4620 -4.2178 -1.9988 0.9791
-1.1650 -4.3693 -1.8507 0.9806
-0.3705 -4.5054 -1.8502 0.9807
0.8345 -4.4407 -1.8493 0.9807
1.2268 -4.3480 -1.8490 0.9807
1.6355 -4.2892 -1.8787 0.9804
2.0796 -4.2665 -1.9426 0.9797
2.8835 -3.9376 -1.9975 0.9791
3.5405 -3.3664 -1.9995 0.9791
4.6450 -1.5078 -1.9987 0.9791
4.8385 -0.6589 -1.9986 0.9791
4.8786 0.2108 -1.9985 0.9791
4.6493 1.4943 -1.9987 0.9791
4.3106 2.2965 -1.9990 0.9791
4.0890 2.6718 -1.9991 0.9791
3.8349 3.0260 -1.9993 0.9791
3.5503 3.3561 -1.9995 0.9791
3.2373 3.6597 -1.9997 0.9791
2.5366 4.1775 -2.0003 0.9791
2.1544 4.3876 -2.0005 0.9791
0.9171 4.8034 -2.0014 0.9791
0.4853 4.8668 -2.0017 0.9791
-1.2471 4.7324 -2.0030 0.9791
-2.0683 4.4371 -2.0036 0.9791
-2.4560 4.2356 -2.0039 0.9791
-2.8242 4.0004 -2.0041 0.9791
-3.4905 3.4361 -2.0046 0.9791
-3.7833 3.1116 -2.0048 0.9791
-4.0460 2.7622 -2.0050 0.9790
-4.6337 1.5935 -2.0055 0.9790
-1.9487 0.1238 -0.7991 0.9916
-1.9228 -0.0497 -0.7872 0.9917
-4.7983 -0.9945 -2.0056 0.9790
-3.8977 -2.9673 -2.0049 0.9791
-3.6173 -3.3026 -2.0047 0.9791
-3.3081 -3.6115 -2.0045 0.9791
-2.6089 -4.1332 -2.0004 0.9791
-2.2256 -4.3407 -1.9964 0.9791
-0.5265 -4.4901 -1.8503 0.9807
0.2791 -4.5108 -1.8497 0.9807
0.6810 -4.4739 -1.8522 0.9806
1.4699 -4.2970 -1.8587 0.9806
2.3670 -4.2504 -1.9912 0.9792
3.9859 -2.8237 -1.9992 0.9791
4.8128 -0.8263 -1.9986 0.9791
4.8672 -0.3940 -1.9986 0.9791
4.8830 0.0415 -1.9985 0.9791
4.8599 0.4766 -1.9986 0.9791
4.7981 0.9080 -1.9986 0.9791
4.6983 1.3321 -1.9987 0.9791
3.3621 3.5451 -1.9997 0.9791
3.0331 3.8311 -1.9999 0.9791
2.6798 4.0868 -2.0001 0.9791
2.3052 4.3100 -2.0004 0.9791
1.9120 4.4990 -2.0007 0.9791
1.5036 4.6522 -2.0010 0.9791
1.0830 4.7684 -2.0013 0.9791
0.2191 4.8865 -2.0019 0.9791
-0.2174 4.8874 -2.0023 0.9791
-0.6523 4.8493 -2.0026 0.9791
-1.0822 4.7726 -2.0029 0.9791
-1.9131 4.5059 -2.0035 0.9791
-2.3075 4.3180 -2.0038 0.9791
-2.6836 4.0957 -2.0040 0.9791
-3.0384 3.8406 -2.0043 0.9791
-3.3691 3.5549 -2.0045 0.9791
-3.6730 3.2408 -2.0048 0.9791
-3.9477 2.9007 -2.0050 0.9790
-4.1909 2.5375 -2.0051 0.9790
-4.5755 1.7532 -2.0054 0.9790
-4.7138 1.3384 -2.0055 0.9790
-2.2075 0.4185 -0.9196 0.9903
-1.9578 0.1927 -0.8052 0.9915
-1.9070 0.0169 -0.7805 0.9918
-2.1339 -0.3656 -0.8861 0.9907
-4.4382 -2.0758 -2.0053 0.9790
-3.7298 -3.1753 -2.0048 0.9791
-3.1060 -3.7863 -2.0043 0.9791
-2.7530 -4.0436 -2.0021 0.9791
-2.3766 -4.2640 -1.9979 0.9791
-1.4946 -4.3643 -1.8880 0.9803
-0.6820 -4.4694 -1.8504 0.9806
-0.2808 -4.5117 -1.8501 0.9807
0.1225 -4.5180 -1.8498 0.9807
0.5247 -4.4884 -1.8495 0.9807
0.9226 -4.4231 -1.8492 0.9807
1.3130 -4.3225 -1.8489 0.9807
1.7320 -4.2845 -1.8914 0.9802
3.6067 -3.2953 -1.9995 0.9791
4.1338 -2.6019 -1.9991 0.9791
4.3489 -2.2229 -1.9989 0.9791
4.5295 -1.8262 -1.9988 0.9791
4.6740 -1.4151 -1.9987 0.9791
4.8507 -0.5625 -1.9986 0.9791
4.8815 -0.1279 -1.9985 0.9791
4.8267 0.7410 -1.9986 0.9791
4.2641 2.3818 -1.9990 0.9791
3.4829 3.4262 -1.9996 0.9791
3.1640 3.7235 -1.9998 0.9791
2.8198 3.9912 -2.0000 0.9791
2.4531 4.2272 -2.0003 0.9791
2.0668 4.4297 -2.0006 0.9791
1.2477 4.7277 -2.0012 0.9791
0.3884 4.8757 -2.0018 0.9791
-0.4838 4.8687 -2.0024 0.9791
-1.3411 4.7069 -2.0031 0.9791
-3.5583 3.3661 -2.0047 0.9791
-3.8446 3.0358 -2.0049 0.9791
-4.1003 2.6812 -2.0051 0.9790
-4.3233 2.3052 -2.0052 0.9790
-4.5119 1.9107 -2.0054 0.9790
-4.6645 1.5010 -2.0055 0.9790
-1.9497 0.2604 -0.8050 0.9915
-1.9381 -0.0887 -0.7940 0.9916
-4.5077 -1.9206 -2.0054 0.9790
-4.3182 -2.3147 -2.0052 0.9790
-4.0943 -2.6902 -2.0051 0.9790
-2.5250 -4.1823 -1.9995 0.9791
-2.1279 -4.3617 -1.9862 0.9792
-1.2334 -4.3653 -1.8565 0.9806
-0.8366 -4.4433 -1.8505 0.9806
-0.0342 -4.5198 -1.8499 0.9807
0.3688 -4.5042 -1.8496 0.9807
1.1624 -4.3657 -1.8490 0.9807
2.4538 -4.2072 -1.9934 0.9792
3.1721 -3.7165 -1.9998 0.9791
3.4904 -3.4185 -1.9996 0.9791
3.7809 -3.0934 -1.9993 0.9791
4.6222 -1.5763 -1.9987 0.9791
4.7441 -1.1580 -1.9986 0.9791
4.8741 -0.2971 -1.9985 0.9791
4.7792 1.0032 -1.9986 0.9791
4.6709 1.4253 -1.9987 0.9791
4.5255 1.8362 -1.9988 0.9791
4.3440 2.2324 -1.9989 0.9791
4.1281 2.6110 -1.9991 0.9791
2.9564 3.8908 -1.9999 0.9791
2.5981 4.1394 -2.0002 0.9791
0.1219 4.8901 -2.0020 0.9791
-0.3146 4.8822 -2.0023 0.9791
-0.7487 4.8355 -2.0026 0.9791
-4.0047 2.8217 -2.0050 0.9790
-4.4428 2.0660 -2.0053 0.9790
-4.7396 1.2443 -2.0055 0.9790
-2.1233 0.3590 -0.8814 0.9907
-1.9552 0.1533 -0.8027 0.9916
-4.8125 -0.9234 -2.0056 0.9790
-4.5717 -1.7632 -2.0054 0.9790
-4.3960 -2.1636 -2.0053 0.9790
-4.1853 -2.5467 -2.0051 0.9790
-3.9413 -2.9094 -2.0049 0.9790
-3.6658 -3.2488 -2.0047 0.9791
-3.3613 -3.5623 -2.0045 0.9791
-3.0300 -3.8473 -2.0043 0.9791
-2.6707 -4.0956 -2.0011 0.9791
