ply
format ascii 1.0
element vertex 1567
property float32 x
property float32 y
property float32 z
property float32 I
end_header
5.6288 -13.6235 2.5991 0.9419
9.2160 -14.3576 3.0083 0.9331
10.4932 -13.5183 3.0175 0.9329
5.4501 7.9043 1.6929 0.9618
-4.9095 7.7629 1.4071 0.9635
-14.5838 9.1385 2.6365 0.9327
-14.9501 5.9872 2.4671 0.9369
-15.4802 4.6447 2.4759 0.9367
-11.7874 -14.0001 2.8037 0.9286
-8.0930 -14.1033 2.4910 0.9363
-6.3931 -13.8834 2.3415 0.9400
-5.0325 -14.1314 2.2980 0.9411
0.2185 -14.0265 2.1490 0.9448
4.0666 -13.9401 2.2246 0.9429
5.3377 -13.6298 2.2424 0.9425
12.2101 -13.6177 2.8019 0.9287
14.9413 8.1914 2.6103 0.9334
-15.5300 8.3629 2.7021 0.9311
-15.2113 6.5129 2.5349 0.9352
-6.7994 -13.8922 2.3694 0.9393
-0.1107 -13.7476 2.1061 0.9459
4.9725 -13.6376 2.2238 0.9430
6.5181 -13.8791 2.3490 0.9398
9.7603 -13.7324 2.5810 0.9341
11.6659 -13.6461 2.7503 0.9299
-14.6874 8.3626 2.5892 0.9339
-10.9112 -14.1279 2.7347 0.9303
-7.3203 -14.1027 2.4342 0.9377
-5.6903 -13.8682 2.2964 0.9411
-4.6347 -14.9856 2.4030 0.9385
-1.7115 -14.0635 2.1703 0.9443
-0.4358 -13.7546 2.1082 0.9458
3.3915 -14.0663 2.2166 0.9431
4.6132 -13.6454 2.2066 0.9434
6.1293 -13.8952 2.3266 0.9404
9.2802 -13.7328 2.5391 0.9351
5.2232 7.9718 1.4600 0.9622
-13.4014 6.5033 2.2820 0.9415
-10.2143 -15.1949 2.8048 0.9286
-7.7487 -14.1030 2.4651 0.9370
-6.0806 -13.8767 2.3210 0.9405
-4.7349 -14.1190 2.2813 0.9415
-2.0498 -14.0641 2.1773 0.9441
4.3486 -13.9397 2.2370 0.9426
5.6288 -13.6235 2.2582 0.9421
-15.8626 4.7595 2.1566 0.9354
-11.7874 -14.0001 2.3832 0.9288
-10.3585 -14.8087 2.3533 0.9297
-5.0321 -14.1304 1.9533 0.9413
-2.3168 -14.0636 1.8561 0.9441
-1.0185 -13.7672 1.7977 0.9458
0.2185 -14.0256 1.8266 0.9450
5.3377 -13.6298 1.9061 0.9427
9.1244 -14.8121 2.2654 0.9322
10.1034 -13.5267 2.1986 0.9342
14.9402 8.1908 2.2187 0.9336
-15.8377 6.7811 2.2435 0.9329
-15.8375 5.1628 2.1692 0.9350
-12.3754 -14.0128 2.4345 0.9274
-10.4730 -14.2438 2.3023 0.9312
-5.4177 -14.1465 1.9726 0.9407
-1.3750 -14.0619 1.8399 0.9446
-0.1107 -13.7476 1.7903 0.9461
3.7115 -13.9397 1.8785 0.9435
6.5176 -13.8781 1.9966 0.9400
-16.3387 4.1603 2.1955 0.9343
-11.0183 -14.2666 2.3474 0.9299
-7.3639 -14.1866 2.0814 0.9376
-5.6903 -13.8682 1.9520 0.9413
-1.7113 -14.0625 1.8447 0.9445
0.8094 -14.0010 1.8263 0.9450
3.3926 -14.0708 1.8848 0.9433
6.1288 -13.8942 1.9775 0.9406
9.3373 -13.8173 2.1716 0.9349
11.0057 -13.5072 2.2689 0.9321
5.2265 7.9770 1.2419 0.9623
-15.5894 5.9102 2.1711 0.9350
-13.8140 -14.2267 2.5823 0.9231
-10.3244 -15.3588 2.4099 0.9281
-4.7345 -14.1180 1.9391 0.9417
-2.0496 -14.0632 1.8507 0.9443
-0.7618 -13.7617 1.7948 0.9459
0.4784 -14.0148 1.8261 0.9450
4.3482 -13.9386 1.9014 0.9428
5.6288 -13.6235 1.9195 0.9423
9.1181 -14.2050 2.1981 0.9342
10.4932 -13.5183 2.2285 0.9333
5.4389 7.8880 1.2477 0.9621
-4.9080 7.7607 0.9860 0.9637
-10.3589 -14.8093 1.9407 0.9299
-6.3931 -13.8834 1.6413 0.9404
-5.0317 -14.1294 1.6106 0.9414
4.0660 -13.9381 1.5591 0.9433
14.9391 8.1902 1.8295 0.9338
-17.0553 5.5598 1.9263 0.9304
-5.4173 -14.1454 1.6265 0.9409
4.9725 -13.6377 1.5587 0.9433
6.5171 -13.8771 1.6463 0.9402
-13.2530 -14.3104 2.0944 0.9245
-5.6903 -13.8682 1.6097 0.9415
-1.7112 -14.0616 1.5211 0.9446
0.8093 -14.0001 1.5059 0.9451
4.6132 -13.6454 1.5467 0.9437
6.1284 -13.8931 1.6306 0.9407
9.3366 -13.8162 1.7906 0.9351
11.0057 -13.5072 1.8710 0.9323
-10.3248 -15.3594 1.9873 0.9283
-7.7945 -14.1863 1.7381 0.9370
-4.7342 -14.1170 1.5989 0.9419
-0.7618 -13.7617 1.4800 0.9461
9.1191 -14.2065 1.8127 0.9343
5.4307 7.8762 1.0273 0.9622
-4.9074 7.7596 0.7772 0.9638
-6.3931 -13.8834 1.2939 0.9405
-5.0313 -14.1283 1.2696 0.9416
-2.3165 -14.0616 1.2064 0.9444
-1.0185 -13.7672 1.1686 0.9461
4.0657 -13.9371 1.2290 0.9434
5.3377 -13.6298 1.2391 0.9429
9.1261 -14.8149 1.4730 0.9325
14.9381 8.1896 1.4421 0.9339
-6.7994 -13.8922 1.3093 0.9398
-5.4169 -14.1444 1.2822 0.9410
-1.3748 -14.0600 1.1959 0.9449
3.7110 -13.9377 1.2210 0.9437
4.9725 -13.6377 1.2288 0.9434
9.8185 -13.8142 1.4347 0.9342
-13.2517 -14.3090 1.6510 0.9247
-5.6903 -13.8682 1.2690 0.9416
6.1279 -13.8921 1.2853 0.9409
9.3358 -13.8150 1.4115 0.9353
11.0057 -13.5072 1.4749 0.9324
-11.3520 -14.0019 1.5259 0.9302
-10.3252 -15.3600 1.5667 0.9284
-4.7339 -14.1159 1.2604 0.9420
-2.0493 -14.0612 1.2029 0.9446
-0.7618 -13.7617 1.1667 0.9462
0.4783 -14.0129 1.1869 0.9453
4.3476 -13.9366 1.2358 0.9431
10.4933 -13.5183 1.4487 0.9336
5.4256 7.8688 0.8091 0.9624
-5.0310 -14.1273 0.9299 0.9417
-2.3163 -14.0607 0.8837 0.9445
0.2184 -14.0227 0.8697 0.9453
4.0654 -13.9361 0.9002 0.9435
5.3377 -13.6298 0.9077 0.9430
10.1034 -13.5267 1.0469 0.9346
-12.3755 -14.0128 1.1593 0.9278
-6.7994 -13.8922 0.9591 0.9399
-1.3747 -14.0590 0.8760 0.9450
-0.1107 -13.7476 0.8525 0.9464
4.9725 -13.6377 0.9001 0.9435
6.5162 -13.8750 0.9506 0.9404
9.8177 -13.8131 1.0509 0.9343
-11.0154 -14.2628 1.1175 0.9303
-5.6903 -13.8682 0.9296 0.9417
-4.6359 -14.9895 0.9729 0.9391
-1.7110 -14.0596 0.8783 0.9448
-0.4358 -13.7546 0.8534 0.9463
0.8092 -13.9982 0.8695 0.9454
9.3350 -13.8139 1.0338 0.9354
11.0057 -13.5072 1.0804 0.9326
5.2344 7.9890 0.5923 0.9624
-11.3517 -14.0016 1.1177 0.9303
-10.3257 -15.3607 1.1477 0.9285
-6.0806 -13.8767 0.9395 0.9411
0.4783 -14.0119 0.8694 0.9454
5.6288 -13.6235 0.9141 0.9426
9.1210 -14.2096 1.0470 0.9346
10.4933 -13.5183 1.0612 0.9337
5.4173 7.8568 0.5918 0.9625
-5.0306 -14.1263 0.5913 0.9417
-2.3161 -14.0597 0.5619 0.9446
0.2184 -14.0218 0.5530 0.9454
5.3377 -13.6298 0.5772 0.9431
9.1279 -14.8177 0.6862 0.9327
10.1035 -13.5267 0.6657 0.9346
14.9359 8.1885 0.6716 0.9341
5.6170 7.8315 0.3800 0.9622
-5.4161 -14.1423 0.5971 0.9412
-0.1107 -13.7476 0.5421 0.9465
4.9725 -13.6377 0.5724 0.9435
9.8168 -13.8119 0.6682 0.9344
11.7716 -13.7696 0.7143 0.9300
-11.0144 -14.2615 0.7105 0.9304
-7.3616 -14.1822 0.6301 0.9380
-5.6903 -13.8683 0.5911 0.9418
-0.4358 -13.7546 0.5426 0.9464
0.8092 -13.9972 0.5528 0.9454
4.6132 -13.6454 0.5680 0.9440
11.0057 -13.5072 0.6870 0.9326
-10.3261 -15.3613 0.7298 0.9286
-7.7927 -14.1830 0.6381 0.9373
-4.7332 -14.1139 0.5870 0.9421
0.4782 -14.0110 0.5528 0.9454
4.3470 -13.9347 0.5756 0.9432
9.1220 -14.2111 0.6659 0.9346
10.4933 -13.5183 0.6748 0.9338
5.4050 7.8389 0.3755 0.9626
-10.3607 -14.8119 0.3053 0.9302
-6.3931 -13.8835 0.2582 0.9407
-2.3160 -14.0587 0.2407 0.9446
4.0649 -13.9342 0.2452 0.9436
5.3377 -13.6298 0.2473 0.9431
12.3246 -13.7454 0.3119 0.9288
14.9349 8.1879 0.2877 0.9341
5.5570 7.7478 0.1611 0.9626
-12.3755 -14.0128 0.3158 0.9279
-5.4157 -14.1413 0.2558 0.9412
-1.3746 -14.0571 0.2386 0.9451
-0.1107 -13.7476 0.2322 0.9465
3.7102 -13.9348 0.2436 0.9439
-13.2480 -14.3051 0.3293 0.9250
-11.0135 -14.2603 0.3044 0.9305
-5.6903 -13.8683 0.2532 0.9418
-4.6365 -14.9915 0.2651 0.9392
0.8091 -13.9963 0.2368 0.9455
3.3981 -14.0939 0.2449 0.9437
6.1266 -13.8891 0.2564 0.9411
11.0057 -13.5072 0.2943 0.9327
5.2315 7.9846 0.1612 0.9625
-15.1707 7.3619 0.2848 0.9348
-10.3266 -15.3620 0.3127 0.9286
-6.0806 -13.8767 0.2559 0.9412
-4.7328 -14.1128 0.2514 0.9422
-0.7618 -13.7617 0.2328 0.9464
4.3467 -13.9337 0.2466 0.9433
5.6288 -13.6235 0.2490 0.9427
10.4933 -13.5183 0.2891 0.9338
5.3844 7.8090 0.1602 0.9628
-5.0299 -14.1242 -0.0844 0.9418
-2.3158 -14.0577 -0.0802 0.9446
-1.0185 -13.7672 -0.0777 0.9463
4.0646 -13.9332 -0.0817 0.9436
5.3377 -13.6298 -0.0824 0.9431
9.1297 -14.8207 -0.0980 0.9327
12.3236 -13.7442 -0.1039 0.9288
5.5142 7.6882 -0.0533 0.9629
-12.3755 -14.0128 -0.1053 0.9279
-10.4675 -14.2363 -0.0995 0.9318
-0.1107 -13.7476 -0.0774 0.9465
4.9726 -13.6377 -0.0817 0.9436
9.8152 -13.8096 -0.0954 0.9345
11.7695 -13.7673 -0.1020 0.9301
-11.0125 -14.2590 -0.1014 0.9305
0.8091 -13.9953 -0.0789 0.9455
3.3993 -14.0986 -0.0817 0.9436
4.6132 -13.6455 -0.0811 0.9440
6.1262 -13.8881 -0.0855 0.9411
11.0057 -13.5072 -0.0981 0.9327
-11.3510 -14.0007 -0.1015 0.9304
-10.3270 -15.3627 -0.1042 0.9286
-6.0806 -13.8767 -0.0853 0.9412
-4.7325 -14.1118 -0.0838 0.9422
-2.0488 -14.0573 -0.0800 0.9448
-0.7618 -13.7617 -0.0776 0.9464
0.4782 -14.0091 -0.0789 0.9455
4.3464 -13.9327 -0.0822 0.9433
9.1240 -14.2142 -0.0951 0.9347
-4.9039 7.7541 -0.2583 0.9640
-10.3616 -14.8132 -0.5090 0.9302
-2.3157 -14.0568 -0.4011 0.9446
0.2184 -14.0189 -0.3948 0.9454
4.0643 -13.9322 -0.4087 0.9436
5.3377 -13.6298 -0.4122 0.9431
9.1306 -14.8221 -0.4902 0.9327
12.3225 -13.7430 -0.5197 0.9288
14.9331 8.1869 -0.4795 0.9341
5.4982 7.6659 -0.2656 0.9630
-10.4666 -14.2351 -0.4975 0.9317
-6.7994 -13.8922 -0.4355 0.9400
-5.4149 -14.1392 -0.4263 0.9412
-1.3744 -14.0552 -0.3977 0.9451
-0.1107 -13.7476 -0.3871 0.9465
6.5142 -13.8709 -0.4315 0.9405
9.8144 -13.8085 -0.4770 0.9345
-13.2456 -14.3024 -0.5489 0.9250
-11.0115 -14.2577 -0.5073 0.9304
-5.6903 -13.8683 -0.4221 0.9418
0.8090 -13.9944 -0.3947 0.9455
4.6132 -13.6455 -0.4056 0.9440
6.1257 -13.8871 -0.4274 0.9411
11.0057 -13.5072 -0.4906 0.9327
5.2092 7.9505 -0.2676 0.9627
-15.0847 7.3202 -0.4721 0.9351
-7.7909 -14.1796 -0.4556 0.9373
-6.0806 -13.8767 -0.4266 0.9412
-2.0486 -14.0563 -0.4000 0.9447
0.4782 -14.0081 -0.3947 0.9455
9.1250 -14.2158 -0.4757 0.9346
-15.0361 7.6443 -0.8554 0.9347
-11.7875 -14.0001 -0.9282 0.9293
-10.3621 -14.8138 -0.9168 0.9302
0.2183 -14.0180 -0.7110 0.9454
9.1315 -14.8236 -0.8830 0.9326
5.4854 7.6481 -0.4773 0.9630
-14.8794 -3.3494 -0.7735 0.9407
-6.4451 -13.1685 -0.7435 0.9430
-5.4145 -14.1381 -0.7678 0.9412
-1.3743 -14.0542 -0.7161 0.9450
3.7094 -13.9318 -0.7312 0.9439
4.9726 -13.6377 -0.7362 0.9435
6.5138 -13.8699 -0.7771 0.9405
9.8136 -13.8073 -0.8591 0.9344
11.7675 -13.7649 -0.9184 0.9300
-14.8801 -2.9821 -0.7696 0.9410
-13.2443 -14.3010 -0.9885 0.9249
-11.0105 -14.2565 -0.9135 0.9304
-7.3593 -14.1779 -0.8101 0.9380
-5.6904 -13.8683 -0.7602 0.9417
-4.6375 -14.9948 -0.7960 0.9391
-0.4358 -13.7546 -0.6979 0.9464
0.8090 -13.9934 -0.7108 0.9454
3.4015 -14.1079 -0.7360 0.9435
4.6132 -13.6455 -0.7305 0.9439
6.1253 -13.8861 -0.7697 0.9410
11.0057 -13.5072 -0.8836 0.9326
5.1939 7.9272 -0.4806 0.9628
-15.0436 7.3002 -0.8480 0.9352
-11.3505 -14.0001 -0.9140 0.9304
-7.7902 -14.1785 -0.8204 0.9373
-6.0806 -13.8767 -0.7683 0.9411
-4.7318 -14.1098 -0.7547 0.9421
-2.0485 -14.0554 -0.7203 0.9447
5.6288 -13.6235 -0.7476 0.9427
5.3307 7.7312 -0.4763 0.9631
-4.9025 7.7519 -0.6725 0.9639
-14.9477 7.5993 -1.2295 0.9350
-11.7875 -14.0001 -1.3419 0.9292
-6.0367 -13.1095 -1.0582 0.9438
-5.0288 -14.1211 -1.0991 0.9417
-0.8546 -5.1877 -0.3855 0.9791
-1.0185 -13.7673 -1.0122 0.9461
5.3377 -13.6298 -1.0733 0.9430
12.2718 -13.6865 -1.3478 0.9289
14.8542 8.1436 -1.2421 0.9343
5.4731 7.6309 -0.6885 0.9630
-16.0750 8.6563 -1.3387 0.9294
-14.3043 -3.2199 -1.0751 0.9429
-12.3755 -14.0128 -1.3708 0.9278
-6.4468 -13.1719 -1.0753 0.9429
-1.3742 -14.0533 -1.0353 0.9449
3.7091 -13.9308 -1.0570 0.9438
4.9726 -13.6377 -1.0644 0.9434
6.4873 -13.8136 -1.1190 0.9406
9.7717 -13.7484 -1.2367 0.9346
19.0662 -4.6156 -1.4384 0.9243
5.8051 7.7028 -0.7072 0.9621
-14.3329 -2.8724 -1.0718 0.9431
-10.9636 -14.1957 -1.3151 0.9306
-7.3287 -14.1188 -1.1664 0.9382
-5.6904 -13.8683 -1.0991 0.9416
-1.7103 -14.0538 -1.0381 0.9448
-0.4358 -13.7547 -1.0090 0.9463
-16.0033 6.0671 -1.2549 0.9337
-6.0806 -13.8767 -1.1109 0.9410
-4.7314 -14.1087 -1.0911 0.9421
4.3454 -13.9297 -1.0699 0.9432
5.3174 7.7119 -0.6868 0.9631
-18.0683 7.2360 -1.8686 0.9248
-18.8306 5.6500 -1.8875 0.9240
-15.4402 -2.4223 -1.5005 0.9391
-13.5638 -3.3918 -1.3423 0.9454
-17.6660 -7.9715 -1.8607 0.9251
-16.8791 -9.5148 -1.8602 0.9251
-13.7391 -13.6343 -1.8583 0.9252
-10.3023 -14.7283 -1.7256 0.9303
-9.6206 -16.7654 -1.8557 0.9253
-5.0079 -14.0625 -1.4331 0.9418
-4.8250 -18.6860 -1.8528 0.9254
-0.8543 -5.1859 -0.5046 0.9791
0.2174 -13.9576 -1.3402 0.9455
2.0180 -19.1491 -1.8486 0.9255
3.7179 -18.8818 -1.8475 0.9256
5.3377 -13.6298 -1.4053 0.9429
12.2707 -13.6853 -1.7647 0.9288
16.1188 -10.3675 -1.8399 0.9259
17.6967 -7.3309 -1.8390 0.9259
18.2771 -5.7201 -1.8386 0.9259
14.8205 8.1252 -1.6226 0.9343
-11.0098 8.7731 -1.3515 0.9450
-18.5076 6.0332 -1.8688 0.9248
-13.5722 -3.0551 -1.3356 0.9456
-17.1004 -9.1141 -1.8603 0.9251
-16.2134 -10.6017 -1.8598 0.9251
-15.1967 -12.0032 -1.8592 0.9251
-12.3755 -14.0128 -1.7948 0.9276
-10.4217 -14.1741 -1.6890 0.9317
-10.0153 -16.5356 -1.8560 0.9253
-5.3911 -14.0769 -1.4472 0.9412
-0.1107 -13.7476 -1.3199 0.9463
3.2713 -18.9671 -1.8478 0.9256
3.6938 -13.8734 -1.3783 0.9439
4.9726 -13.6377 -1.3936 0.9433
9.6842 -16.5859 -1.8439 0.9257
11.7174 -13.7063 -1.7312 0.9301
14.8526 -12.1248 -1.8407 0.9258
15.8707 -10.7463 -1.8401 0.9259
16.7620 -9.2833 -1.8395 0.9259
17.5196 -7.7473 -1.8391 0.9259
16.8808 6.9082 -1.7511 0.9293
-11.0607 6.2977 -1.2219 0.9501
-13.5205 -3.9936 -1.3535 0.9449
-17.3121 -8.7082 -1.8605 0.9251
-16.4606 -10.2166 -1.8599 0.9251
-13.1495 -14.1986 -1.8579 0.9252
-5.6904 -13.8683 -1.4391 0.9415
-4.0318 -18.8679 -1.8523 0.9254
-1.7031 -13.9953 -1.3535 0.9449
0.8056 -13.9353 -1.3401 0.9455
2.8228 -19.0419 -1.8481 0.9256
6.0993 -13.8272 -1.4509 0.9411
13.3965 -13.7295 -1.8416 0.9258
14.5634 -12.4734 -1.8409 0.9258
15.6137 -11.1192 -1.8402 0.9259
17.3328 -8.1596 -1.8392 0.9259
17.9883 -6.5777 -1.8388 0.9259
18.5007 -4.9442 -1.8385 0.9259
5.2191 7.9656 -0.9143 0.9625
-14.4303 8.6739 -1.6164 0.9346
-12.6919 6.1590 -1.3544 0.9449
-16.0031 6.0670 -1.6431 0.9335
-13.5570 -3.6585 -1.3481 0.9451
-17.5142 -8.2973 -1.8606 0.9251
-15.7496 -11.2740 -1.8595 0.9251
-14.6747 -12.6310 -1.8588 0.9251
-10.2773 -15.2887 -1.7686 0.9286
-7.7581 -14.1200 -1.5467 0.9373
-6.0806 -13.8767 -1.4545 0.9409
-4.7122 -14.0514 -1.4228 0.9422
-2.0400 -13.9971 -1.3580 0.9447
-0.7618 -13.7617 -1.3232 0.9461
2.3725 -19.1062 -1.8484 0.9256
4.0670 -18.8074 -1.8473 0.9256
4.3268 -13.8699 -1.3949 0.9433
5.6288 -13.6235 -1.4152 0.9425
16.3072 -10.0662 -1.8398 0.9259
17.8288 -7.0011 -1.8389 0.9259
18.3794 -5.3800 -1.8386 0.9259
18.4673 6.5573 -1.8814 0.9243
16.6974 9.5611 -1.8472 0.9256
13.4451 9.3862 -1.5742 0.9362
2.5410 16.6485 -2.0005 0.9344
1.0446 16.8166 -2.0014 0.9344
-0.4616 16.8505 -2.0024 0.9344
-1.9655 16.7497 -2.0033 0.9343
-4.9182 16.1474 -2.0051 0.9343
-4.5538 8.8658 -1.1839 0.9606
-10.2771 13.4255 -2.0084 0.9342
-11.4391 12.4585 -2.0091 0.9341
-9.5822 8.7250 -1.5394 0.9491
-14.5864 5.8415 -1.8664 0.9387
-16.2236 4.8678 -2.0120 0.9340
-16.9373 0.3935 -2.0125 0.9340
-16.9045 -1.1206 -2.0124 0.9340
-13.6606 -3.4160 -1.6727 0.9449
-14.7822 -5.1370 -1.8589 0.9389
-14.2619 -6.4355 -1.8586 0.9389
-11.0945 -11.0099 -1.8567 0.9390
-8.9526 -12.7988 -1.8553 0.9390
-2.7757 -6.0277 -0.7883 0.9736
-3.8984 -15.0978 -1.8522 0.9391
-0.8540 -5.1841 -0.6241 0.9791
0.2174 -13.9566 -1.6581 0.9453
1.6312 -15.4787 -1.8488 0.9392
3.0056 -15.2642 -1.8480 0.9393
6.9350 -13.9034 -1.8456 0.9393
9.2904 -12.4382 -1.8441 0.9394
13.0409 -8.3878 -1.8418 0.9395
14.3189 -5.9316 -1.8411 0.9395
16.6385 -2.0817 -1.9918 0.9347
16.7573 -0.5875 -1.9918 0.9347
16.7430 0.9114 -1.9918 0.9347
15.9066 5.3181 -1.9923 0.9347
13.6499 7.4834 -1.8491 0.9392
9.9964 6.7064 -1.4299 0.9527
12.1071 9.7973 -1.8500 0.9392
5.4239 7.5623 -1.1055 0.9632
7.2140 15.1912 -1.9976 0.9345
5.8310 15.7815 -1.9985 0.9345
4.4003 16.2463 -1.9994 0.9344
-5.9712 15.7942 -2.0057 0.9342
-8.6928 14.4922 -2.0074 0.9342
-11.1406 12.7241 -2.0089 0.9341
-9.4043 6.2071 -1.3385 0.9556
-14.3106 6.1272 -1.8492 0.9392
-16.5100 3.7909 -2.0122 0.9340
-16.7937 -2.2295 -2.0124 0.9340
-14.9000 -4.7866 -1.8590 0.9389
-13.8058 -7.3582 -1.8583 0.9389
-13.0905 -8.5596 -1.8579 0.9389
-12.2704 -9.6918 -1.8574 0.9390
-10.3440 -11.7126 -1.8562 0.9390
-8.0894 -13.3559 -1.8548 0.9390
-5.3907 -14.0759 -1.7904 0.9411
-2.8964 -15.3164 -1.8516 0.9391
-1.3682 -13.9925 -1.6700 0.9449
1.2653 -15.5148 -1.8491 0.9392
4.9726 -13.6377 -1.7243 0.9432
7.8318 -13.4133 -1.8450 0.9394
8.9949 -12.6554 -1.8443 0.9394
10.0854 -11.7973 -1.8436 0.9394
12.0155 -9.8087 -1.8425 0.9394
13.5618 -7.5110 -1.8415 0.9395
14.1755 -6.2685 -1.8411 0.9395
14.6762 -4.9768 -1.8408 0.9395
16.5850 -2.4742 -1.9919 0.9347
16.7597 0.5156 -1.9918 0.9347
16.6473 2.0103 -1.9918 0.9347
16.4025 3.4892 -1.9920 0.9347
15.5244 6.3531 -1.9925 0.9347
13.1306 8.3661 -1.8494 0.9392
8.6219 6.6462 -1.2931 0.9571
11.2663 12.4571 -1.9951 0.9346
8.8771 14.2732 -1.9966 0.9345
7.5700 15.0149 -1.9974 0.9345
4.7823 16.1359 -1.9991 0.9345
0.3347 16.8494 -2.0019 0.9344
-1.1718 16.8197 -2.0028 0.9343
-4.1490 16.3579 -2.0046 0.9343
-6.9989 15.3723 -2.0064 0.9342
-6.1557 8.8811 -1.2836 0.9574
-12.8984 8.9578 -1.8654 0.9387
-11.0603 6.2974 -1.5118 0.9500
-16.4154 4.1798 -2.0121 0.9340
-16.9388 -0.3209 -2.0125 0.9340
-16.8420 -1.8322 -2.0124 0.9340
-13.6601 -2.7376 -1.6549 0.9454
-13.6640 -4.0360 -1.6924 0.9442
-13.9766 -7.0304 -1.8584 0.9389
-13.2899 -8.2486 -1.8580 0.9389
-9.5490 -12.3641 -1.8557 0.9390
-8.4035 -13.1625 -1.8550 0.9390
-2.5411 -6.1930 -0.7952 0.9734
-4.5908 -14.8437 -1.8456 0.9393
-3.2578 -15.2455 -1.8518 0.9391
-1.7030 -13.9943 -1.6746 0.9448
2.2818 -15.3928 -1.8484 0.9392
3.3452 -13.8744 -1.6953 0.9441
4.6132 -13.6455 -1.7110 0.9436
6.0989 -13.8262 -1.7950 0.9409
9.8048 -12.0334 -1.8438 0.9394
10.8366 -11.1059 -1.8432 0.9394
11.7814 -10.0906 -1.8426 0.9394
13.3814 -7.8297 -1.8416 0.9395
14.0241 -6.6020 -1.8412 0.9395
14.5551 -5.3223 -1.8409 0.9395
15.0566 -4.0238 -1.8513 0.9392
16.5222 -2.8654 -1.9919 0.9347
16.7672 0.1195 -1.9918 0.9347
16.6899 1.6165 -1.9918 0.9347
16.4799 3.1007 -1.9919 0.9347
12.5545 9.2131 -1.8498 0.9392
12.5945 11.1022 -1.9943 0.9346
11.5564 12.1865 -1.9950 0.9346
10.4256 13.1744 -1.9957 0.9346
5.2412 7.9994 -1.1360 0.9622
6.5684 15.4849 -1.9980 0.9345
3.7123 16.4208 -1.9998 0.9344
2.2320 16.6943 -2.0007 0.9344
0.7326 16.8347 -2.0016 0.9344
-0.7741 16.8406 -2.0025 0.9343
-3.7610 16.4494 -2.0044 0.9343
-5.2173 16.0549 -2.0053 0.9343
-6.6331 15.5316 -2.0061 0.9342
-7.9969 14.8834 -2.0070 0.9342
-9.2978 14.1154 -2.0078 0.9342
-10.5251 13.2336 -2.0085 0.9342
-11.6690 12.2451 -2.0092 0.9341
-12.7199 11.1577 -2.0099 0.9341
-13.6695 9.9801 -2.0105 0.9341
-13.4620 8.0918 -1.8657 0.9387
-12.6918 6.1589 -1.6757 0.9448
-16.3116 4.5662 -2.0121 0.9340
-16.6559 3.0917 -2.0123 0.9340
-16.8807 -1.4339 -2.0124 0.9340
-13.7880 -2.4259 -1.6630 0.9452
-13.6617 -3.6868 -1.6809 0.9446
-13.4819 -7.9328 -1.8581 0.9389
-10.8876 -11.2129 -1.8565 0.9390
-9.8393 -12.1362 -1.8559 0.9390
-8.7130 -12.9616 -1.8552 0.9390
-7.5177 -13.6825 -1.8545 0.9391
0.4761 -13.9469 -1.6577 0.9453
3.2879 -15.2044 -1.8478 0.9393
7.1910 -13.7712 -1.8454 0.9393
8.3888 -13.0688 -1.8447 0.9394
10.5721 -11.3598 -1.8433 0.9394
12.4167 -9.2922 -1.8422 0.9394
13.1935 -8.1442 -1.8417 0.9395
13.8650 -6.9318 -1.8413 0.9395
14.8720 -4.3533 -1.8407 0.9395
16.4503 -3.2549 -1.9919 0.9347
16.2416 4.1778 -1.9921 0.9347
13.5094 7.7356 -1.8492 0.9392
12.8522 10.8007 -1.9942 0.9346
11.8400 11.9090 -1.9948 0.9346
5.2837 7.6630 -1.1057 0.9632
5.1960 9.1977 -1.2548 0.9583
6.9316 15.3237 -1.9978 0.9345
2.6255 16.6349 -2.0005 0.9344
-1.8803 16.7590 -2.0032 0.9343
-3.3710 16.5317 -2.0041 0.9343
3.3673 13.7078 -2.0000 0.9446
2.1305 13.9591 -2.0008 0.9445
0.8758 14.0990 -2.0015 0.9445
-0.3870 14.1263 -2.0023 0.9445
-1.6476 14.0408 -2.0031 0.9445
-2.8960 13.8428 -2.0038 0.9445
-4.1222 13.5340 -2.0046 0.9444
-5.3163 13.1166 -2.0053 0.9444
-4.5538 8.8657 -1.4122 0.9605
-4.8147 7.6131 -1.2763 0.9643
-8.6115 11.2496 -2.0074 0.9444
-9.5846 10.4387 -2.0079 0.9444
-9.5512 8.6967 -1.8302 0.9492
-11.1497 6.9866 -1.8643 0.9482
-11.7313 5.9642 -1.8647 0.9482
-13.1701 5.2744 -2.0101 0.9443
-13.9014 2.8480 -2.0106 0.9443
-14.1010 1.5953 -2.0107 0.9443
-14.1875 0.3296 -2.0108 0.9443
-13.7656 -3.4423 -2.0105 0.9443
-13.3565 -4.6416 -2.0035 0.9445
-8.4322 -10.0151 -1.8550 0.9485
-0.8537 -5.1823 -0.7442 0.9790
-0.9636 -13.0242 -1.8504 0.9486
0.2033 -13.0531 -1.8497 0.9486
0.4915 -4.6636 -0.6644 0.9812
2.5202 -12.7989 -1.8483 0.9487
3.6517 -12.5180 -1.8476 0.9487
4.7533 -12.1374 -1.8469 0.9487
7.7926 -10.4328 -1.8451 0.9488
8.6905 -9.6924 -1.8445 0.9488
11.5230 -6.0306 -1.8428 0.9488
13.7496 -2.9866 -1.9936 0.9447
13.9605 -1.7466 -1.9935 0.9447
13.6896 3.2519 -1.9936 0.9447
12.8960 5.6367 -1.9941 0.9447
10.8475 7.2774 -1.8508 0.9486
10.1566 8.2189 -1.8512 0.9486
6.4131 7.4369 -1.3914 0.9611
7.1612 12.1448 -1.9977 0.9446
6.0500 12.7402 -1.9983 0.9446
3.3659 9.1097 -1.3760 0.9615
2.4594 13.9035 -2.0006 0.9446
1.2084 14.0729 -2.0013 0.9445
-1.3153 14.0743 -2.0029 0.9445
-2.5679 13.9060 -2.0036 0.9445
-3.8009 13.6263 -2.0044 0.9445
-5.0045 13.2372 -2.0051 0.9444
-8.3427 11.4489 -2.0072 0.9444
-9.3346 10.6614 -2.0078 0.9444
-9.5119 9.0811 -1.8633 0.9483
-7.7999 6.2153 -1.4131 0.9605
-9.4042 6.2070 -1.5965 0.9555
-11.5866 6.2393 -1.8646 0.9482
-13.0413 5.5838 -2.0101 0.9443
-13.4897 4.3974 -2.0103 0.9443
-13.8299 3.1755 -2.0105 0.9443
-14.0592 1.9279 -2.0107 0.9443
-14.1757 0.6647 -2.0108 0.9443
-13.4982 -4.3363 -2.0088 0.9443
-11.5656 -6.1642 -1.8569 0.9484
-10.2802 -8.1198 -1.8562 0.9485
-9.5116 -9.0032 -1.8557 0.9485
-8.6671 -9.8139 -1.8552 0.9485
-4.6765 -12.2110 -1.8527 0.9485
-3.5660 -12.5752 -1.8520 0.9486
2.2174 -12.8562 -1.8485 0.9487
3.3553 -12.6020 -1.8478 0.9487
7.5445 -10.6149 -1.8452 0.9487
10.0798 -8.2285 -1.8437 0.9488
10.7719 -7.2938 -1.8432 0.9488
12.3136 -4.1756 -1.8423 0.9488
13.6756 -3.3106 -1.9936 0.9447
14.0623 0.4326 -1.9934 0.9447
13.7623 2.9276 -1.9936 0.9447
13.0250 5.3303 -1.9941 0.9447
11.0158 7.0187 -1.8507 0.9486
8.6221 6.6463 -1.5425 0.9570
9.5961 8.8706 -1.8516 0.9486
5.6469 7.4929 -1.3294 0.9628
1.8252 9.0639 -1.3100 0.9633
-1.4414 8.9899 -1.2900 0.9639
-3.4776 13.7109 -2.0042 0.9445
-5.8655 12.8829 -2.0057 0.9444
-6.9950 12.3119 -2.0064 0.9444
-6.1763 8.9109 -1.5362 0.9571
-7.5391 6.3043 -1.3925 0.9611
-14.1888 -0.2688 -2.0108 0.9443
-13.9135 -2.7883 -2.0106 0.9443
-13.6076 -4.0194 -2.0104 0.9443
-10.4698 -7.8752 -1.8563 0.9484
-8.8972 -9.6071 -1.8553 0.9485
-7.0420 -11.0299 -1.8542 0.9485
-3.8624 -12.4887 -1.8522 0.9486
-2.7307 -12.7789 -1.8515 0.9486
-1.5780 -12.9668 -1.8508 0.9486
1.9132 -12.9063 -1.8487 0.9487
3.0570 -12.6790 -1.8480 0.9487
4.1755 -12.3508 -1.8473 0.9487
5.2599 -11.9242 -1.8466 0.9487
8.2243 -10.0936 -1.8448 0.9488
9.0902 -9.3161 -1.8443 0.9488
9.8832 -8.4649 -1.8438 0.9488
10.5972 -7.5467 -1.8433 0.9488
11.2264 -6.5688 -1.8429 0.9488
11.7661 -5.5390 -1.8426 0.9488
12.2119 -4.4655 -1.8423 0.9488
13.8628 -2.4042 -1.9935 0.9447
14.0215 -1.1565 -1.9934 0.9447
13.8273 2.6016 -1.9936 0.9447
12.6478 6.1759 -1.9943 0.9447
11.1779 6.7561 -1.8506 0.9486
8.7448 11.0505 -1.9967 0.9447
6.0058 9.1664 -1.5527 0.9567
4.8803 9.1364 -1.4676 0.9590
5.5085 12.9861 -1.9987 0.9446
2.0364 9.0077 -1.3085 0.9634
1.8714 13.9973 -2.0009 0.9445
0.3905 8.9740 -1.2727 0.9644
-1.2264 9.0051 -1.2877 0.9639
-5.5590 13.0167 -2.0055 0.9444
-6.7016 12.4726 -2.0062 0.9444
-5.0107 7.6069 -1.2906 0.9639
-8.8192 11.0887 -2.0075 0.9444
-6.0835 6.3839 -1.2495 0.9650
-9.8875 8.6731 -1.8636 0.9483
-10.6251 7.7573 -1.8640 0.9482
-11.2778 6.7790 -1.8644 0.9482
-13.6638 3.8250 -2.0104 0.9443
-14.1283 1.3335 -2.0107 0.9443
-14.1912 0.0665 -2.0108 0.9443
-12.7348 -4.6920 -1.9230 0.9466
-11.8450 -5.6116 -1.8571 0.9484
-11.2945 -6.6457 -1.8568 0.9484
-10.6536 -7.6262 -1.8564 0.9484
-8.2445 -10.1691 -1.8549 0.9485
-2.5546 -5.8299 -0.9019 0.9746
-4.1568 -12.3952 -1.8524 0.9486
-1.8841 -12.9272 -1.8510 0.9486
-0.7218 -13.0388 -1.8503 0.9486
0.6059 -4.8795 -0.6967 0.9803
2.7569 -12.7490 -1.8481 0.9487
3.8830 -12.4472 -1.8475 0.9487
6.0310 -11.5497 -1.8461 0.9487
7.0359 -10.9613 -1.8455 0.9487
7.9842 -10.2859 -1.8449 0.9488
11.6325 -5.8157 -1.8427 0.9488
12.1034 -4.7529 -1.8424 0.9488
13.4643 -3.9413 -1.9878 0.9449
13.8024 -2.7310 -1.9936 0.9447
14.0317 1.0251 -1.9934 0.9447
13.8847 2.2741 -1.9935 0.9447
13.6272 3.5053 -1.9937 0.9447
12.7896 5.8751 -1.9942 0.9447
10.7112 7.4776 -1.8509 0.9486
9.2147 9.2684 -1.8518 0.9486
5.4141 6.5190 -1.2007 0.9663
4.8211 8.5342 -1.3888 0.9612
5.8132 12.8511 -1.9985 0.9446
4.6440 13.3237 -1.9992 0.9446
0.9473 14.0941 -2.0015 0.9445
-1.5762 14.0487 -2.0030 0.9445
2.8966 11.7916 -2.0003 0.9520
1.3846 9.0719 -1.5118 0.9635
-1.4170 12.0754 -2.0029 0.9519
-1.8793 8.9828 -1.5119 0.9635
-3.5448 11.6383 -2.0042 0.9519
-4.5714 11.2788 -2.0049 0.9519
-4.5537 8.8656 -1.6419 0.9604
-4.8011 7.5916 -1.4798 0.9642
-9.0083 6.8366 -1.8630 0.9552
-9.5847 6.0060 -1.8634 0.9552
-10.8694 5.5259 -2.0087 0.9518
-11.3210 4.5338 -2.0090 0.9518
-11.6819 3.5051 -2.0092 0.9518
-11.5200 -4.0034 -2.0091 0.9518
-7.2496 -8.6104 -1.8543 0.9554
-6.4500 -9.2210 -1.8538 0.9554
-2.6927 -5.8476 -1.0606 0.9742
-3.7718 -10.5914 -1.8522 0.9554
-0.8534 -5.1805 -0.8649 0.9789
0.1749 -11.2269 -1.8497 0.9555
5.8779 -9.5419 -1.8462 0.9556
7.4776 -8.3396 -1.8452 0.9556
8.1905 -7.6367 -1.8448 0.9556
9.9161 -5.1896 -1.8438 0.9556
12.1003 -0.4242 -1.9946 0.9521
12.0899 0.6581 -1.9946 0.9521
11.7811 2.7986 -1.9948 0.9521
11.4852 3.8398 -1.9950 0.9521
11.0977 4.8507 -1.9952 0.9521
8.7396 7.0723 -1.8521 0.9554
8.0749 7.8262 -1.8525 0.9554
6.1323 7.1112 -1.5469 0.9626
4.8142 8.1645 -1.5614 0.9623
5.2049 10.9605 -1.9989 0.9520
2.1155 11.9594 -2.0008 0.9520
1.0394 12.1045 -2.0014 0.9519
-0.8415 9.0044 -1.4898 0.9640
-4.3033 11.3827 -2.0047 0.9519
-6.2633 10.4418 -2.0059 0.9518
-7.4457 8.5041 -1.8621 0.9552
-8.1774 7.8071 -1.8625 0.9552
-9.3795 6.1907 -1.8514 0.9555
-10.7353 5.7809 -2.0086 0.9518
-11.8878 2.7296 -2.0094 0.9518
-12.0848 1.6572 -2.0095 0.9518
-11.8994 -2.6786 -2.0094 0.9518
-9.4275 -6.1645 -1.8556 0.9554
-8.8376 -6.9804 -1.8553 0.9554
-8.1771 -7.7400 -1.8549 0.9554
-7.4515 -8.4373 -1.8544 0.9554
-6.6665 -9.0667 -1.8539 0.9554
-3.0665 -10.8139 -1.8517 0.9555
-1.0932 -11.1796 -1.8505 0.9555
0.3799 -4.6585 -0.7700 0.9812
2.8863 -10.8405 -1.8481 0.9555
4.7657 -10.1478 -1.8469 0.9556
6.4912 -9.1329 -1.8459 0.9556
7.2790 -8.5145 -1.8454 0.9556
9.2693 -6.2764 -1.8442 0.9556
11.4450 -3.8810 -1.9909 0.9522
11.7690 -2.8491 -1.9948 0.9521
12.1020 0.3723 -1.9946 0.9521
11.5724 3.5673 -1.9949 0.9521
11.2088 4.5870 -1.9952 0.9521
8.2571 7.6328 -1.8524 0.9554
6.4407 7.1214 -1.5818 0.9618
5.4619 10.8336 -1.9987 0.9520
3.5850 9.0398 -1.6020 0.9613
3.4497 11.6396 -1.9999 0.9520
0.2414 12.1496 -2.0019 0.9519
-0.8449 12.1267 -2.0026 0.9519
-1.9251 12.0068 -2.0032 0.9519
-4.0329 11.4802 -2.0045 0.9519
-2.9227 6.4193 -1.1620 0.9718
-4.4224 6.3805 -1.2789 0.9690
-7.2423 8.6770 -1.8619 0.9552
-7.9902 7.9976 -1.8624 0.9552
-8.6744 7.2537 -1.8628 0.9552
-9.2894 6.4514 -1.8632 0.9552
-11.0934 5.0631 -2.0089 0.9518
-12.1679 0.8590 -2.0095 0.9518
-12.1961 -0.2310 -2.0095 0.9518
-11.9596 -2.3968 -2.0094 0.9518
-11.6968 -3.4550 -2.0092 0.9518
-9.5710 -5.9404 -1.8557 0.9554
-8.3582 -7.5452 -1.8550 0.9554
-7.6492 -8.2595 -1.8545 0.9554
-6.0547 -9.4835 -1.8536 0.9554
-3.0392 -5.8551 -1.0868 0.9736
-2.5541 -6.2247 -1.1084 0.9731
-3.3214 -10.7394 -1.8519 0.9555
-2.3483 -10.9895 -1.8513 0.9555
-0.3557 -11.2246 -1.8501 0.9555
3.5920 -10.6248 -1.8476 0.9556
5.4215 -9.8103 -1.8465 0.9556
6.2741 -9.2844 -1.8460 0.9556
9.1189 -6.4940 -1.8442 0.9556
9.6607 -5.6527 -1.8439 0.9556
10.1253 -4.7666 -1.8436 0.9556
11.2045 -4.0971 -1.9654 0.9528
11.6987 -3.1264 -1.9949 0.9521
12.0669 -0.9953 -1.9946 0.9521
12.1074 0.0863 -1.9946 0.9521
12.0515 1.1672 -1.9947 0.9521
11.8997 2.2389 -1.9947 0.9521
10.3676 6.2664 -1.9957 0.9521
9.0630 6.6508 -1.8519 0.9555
8.4346 7.4352 -1.8523 0.9554
7.7387 8.1606 -1.8527 0.9554
4.8810 7.4495 -1.4672 0.9645
3.7234 11.5539 -1.9998 0.9520
2.0363 9.0075 -1.5213 0.9633
1.6097 12.0398 -2.0011 0.9520
0.3905 8.9738 -1.4797 0.9642
-4.7801 11.1927 -2.0050 0.9519
-7.0348 8.8451 -1.8618 0.9552
-6.0833 6.3836 -1.4527 0.9649
-10.9703 5.3236 -2.0088 0.9518
-11.4034 4.3232 -2.0091 0.9518
-11.7451 3.2879 -2.0093 0.9518
-12.1441 1.1462 -2.0095 0.9518
-12.1982 0.0572 -2.0095 0.9518
-12.1544 -1.0324 -2.0095 0.9518
-12.0131 -2.1136 -2.0094 0.9518
-10.1821 -4.8237 -1.8561 0.9554
-9.7091 -5.7129 -1.8558 0.9554
-9.1584 -6.5559 -1.8555 0.9554
-8.5346 -7.3460 -1.8551 0.9554
-7.0883 -8.7429 -1.8542 0.9554
-2.5546 -5.8299 -1.0486 0.9745
-2.6075 -10.9319 -1.8514 0.9555
-1.6203 -11.1175 -1.8508 0.9555
-0.6208 -11.2140 -1.8502 0.9555
0.1614 -4.7299 -0.7796 0.9810
4.2818 -10.3632 -1.8472 0.9556
6.0535 -9.4307 -1.8461 0.9556
6.8696 -8.8500 -1.8456 0.9556
8.3303 -7.4831 -1.8447 0.9556
8.9635 -6.7079 -1.8443 0.9556
9.5249 -5.8796 -1.8440 0.9556
10.0103 -5.0047 -1.8437 0.9556
10.5244 -4.1328 -1.8627 0.9552
11.8783 -2.3503 -1.9948 0.9521
12.0757 0.8822 -1.9946 0.9521
11.9491 1.9571 -1.9947 0.9521
8.6074 7.2334 -1.8522 0.9554
7.9288 7.9750 -1.8526 0.9554
5.4141 6.5190 -1.3960 0.9662
4.9115 7.1231 -1.4254 0.9655
5.0010 11.0558 -1.9990 0.9520
3.9950 11.4618 -1.9996 0.9520
0.8148 12.1225 -2.0016 0.9519
-1.3556 12.0822 -2.0029 0.9519
-1.8314 8.9813 -1.5100 0.9635
-2.1826 10.4328 -2.0034 0.9575
-2.8821 9.4625 -1.8593 0.9605
-3.7166 9.1699 -1.8598 0.9605
-4.7877 7.5704 -1.6836 0.9642
-6.0188 7.8627 -1.8612 0.9605
-7.3247 6.6694 -1.8620 0.9605
-7.8925 5.9898 -1.8623 0.9605
-9.0509 5.6715 -2.0076 0.9575
-9.5226 4.8412 -2.0079 0.9575
-10.2341 3.0707 -2.0083 0.9574
-10.6834 0.2482 -2.0086 0.9574
-10.5568 -1.6562 -2.0085 0.9574
-10.3661 -2.5922 -2.0084 0.9574
-10.0923 -3.5072 -2.0082 0.9574
-9.7187 -4.3854 -2.0041 0.9575
-8.5978 -4.8466 -1.8551 0.9606
-8.1294 -5.5942 -1.8548 0.9606
-7.5960 -6.2967 -1.8545 0.9606
-4.9063 -8.5500 -1.8529 0.9607
-2.6927 -5.8476 -1.2101 0.9741
-3.3053 -9.2815 -1.8519 0.9607
-0.8531 -5.1787 -0.9865 0.9789
-0.7263 -9.8172 -1.8503 0.9607
0.5189 -4.9234 -0.9305 0.9801
1.9002 -9.6501 -1.8487 0.9608
2.7536 -9.4392 -1.8481 0.9608
3.5845 -9.1531 -1.8476 0.9608
4.3864 -8.7940 -1.8471 0.9608
5.1530 -8.3650 -1.8467 0.9608
6.5558 -7.3115 -1.8458 0.9608
8.6945 -4.5503 -1.8445 0.9608
10.1336 -3.1715 -1.9958 0.9577
10.5349 -1.3180 -1.9956 0.9577
10.6102 -0.3720 -1.9955 0.9577
10.5075 1.5215 -1.9956 0.9577
10.3302 2.4539 -1.9957 0.9577
10.0706 3.3669 -1.9959 0.9577
9.3132 5.1059 -1.9963 0.9577
7.7824 6.2977 -1.8817 0.9601
2.5813 9.5304 -1.8559 0.9606
1.8543 10.4827 -2.0009 0.9576
-0.9914 10.6085 -2.0027 0.9576
-1.1768 6.3728 -1.2181 0.9740
-2.8644 10.2688 -2.0038 0.9575
-3.4987 9.2544 -1.8596 0.9605
-4.7600 7.9356 -1.7393 0.9630
-5.8311 8.0022 -1.8611 0.9605
-6.5239 7.4512 -1.8615 0.9605
-7.1647 6.8402 -1.8619 0.9605
-7.7484 6.1743 -1.8622 0.9605
-9.4052 5.0647 -2.0078 0.9575
-9.8212 4.2050 -2.0081 0.9574
-10.1585 3.3115 -2.0083 0.9574
-10.4144 2.3913 -2.0084 0.9574
-10.6746 0.5005 -2.0086 0.9574
-10.6766 -0.4547 -2.0086 0.9574
-10.4246 -2.3466 -2.0085 0.9574
-10.1726 -3.2679 -2.0083 0.9574
-9.8386 -4.1627 -2.0080 0.9575
-8.7102 -4.6423 -1.8552 0.9606
-6.5289 -7.3927 -1.8539 0.9607
-3.5239 -9.2014 -1.8520 0.9607
-0.0792 -9.8416 -1.8499 0.9607
3.3676 -9.2358 -1.8478 0.9608
5.6908 -8.0067 -1.8463 0.9608
7.0212 -6.8636 -1.8455 0.9608
7.6047 -6.2080 -1.8452 0.9608
8.1272 -5.5031 -1.8449 0.9608
8.5849 -4.7546 -1.8446 0.9608
9.3817 -4.1487 -1.9281 0.9591
10.0561 -3.4101 -1.9959 0.9577
10.5009 -1.5666 -1.9956 0.9577
10.5985 -0.6225 -1.9955 0.9577
10.6117 0.3265 -1.9955 0.9577
10.3851 2.2092 -1.9957 0.9577
9.8282 4.0220 -1.9960 0.9577
5.3006 7.0334 -1.6554 0.9648
4.8487 7.7961 -1.7257 0.9633
4.4423 8.8113 -1.8548 0.9606
2.8056 9.4661 -1.8558 0.9606
2.1013 10.4352 -2.0008 0.9576
-1.6871 10.5226 -2.0031 0.9576
-2.6208 10.3329 -2.0037 0.9575
-3.2799 9.3365 -1.8600 0.9605
-2.8817 6.3294 -1.3072 0.9721
-5.3002 6.3502 -1.5547 0.9669
-8.4832 5.8914 -1.9413 0.9588
-9.2826 5.2852 -2.0078 0.9575
-10.5496 1.7015 -2.0085 0.9574
-10.6597 0.7526 -2.0086 0.9574
-10.4773 -2.0997 -2.0085 0.9574
-10.2472 -3.0268 -2.0083 0.9574
-7.3231 -6.6107 -1.8543 0.9606
-6.0277 -7.8047 -1.8535 0.9607
-5.3053 -8.3098 -1.8531 0.9607
-3.0392 -5.8551 -1.2400 0.9735
-2.5540 -6.2244 -1.2646 0.9730
-1.1894 -9.7734 -1.8506 0.9607
-0.3117 -9.8377 -1.8500 0.9607
0.2861 -4.9498 -0.9319 0.9800
1.4425 -9.7306 -1.8490 0.9608
5.5004 -8.1394 -1.8465 0.9608
6.2038 -7.6139 -1.8460 0.9608
7.4562 -6.3862 -1.8453 0.9608
8.4705 -4.9563 -1.8446 0.9608
8.8828 -4.1817 -1.8454 0.9608
9.9730 -3.6468 -1.9959 0.9577
10.2579 -2.7413 -1.9957 0.9577
10.4611 -1.8142 -1.9956 0.9577
10.5675 1.0235 -1.9956 0.9577
10.4343 1.9632 -1.9956 0.9577
9.9202 3.7886 -1.9960 0.9577
9.0903 5.4944 -1.9965 0.9577
8.5647 6.2852 -1.9968 0.9577
4.8811 7.4497 -1.6740 0.9644
3.8541 9.0860 -1.8551 0.9606
0.3905 8.9737 -1.6883 0.9641
-1.2261 9.0028 -1.7078 0.9637
-4.6846 8.7187 -1.8604 0.9605
-4.2033 6.3811 -1.4362 0.9694
-5.0587 6.3605 -1.5275 0.9675
-6.0830 6.3834 -1.6574 0.9647
-7.4474 6.5327 -1.8621 0.9605
-9.1548 5.5028 -2.0077 0.9575
-9.6110 4.6639 -2.0080 0.9575
-10.2895 2.8804 -2.0084 0.9574
-10.6479 -0.9044 -2.0086 0.9574
-10.5241 -1.8517 -2.0085 0.9574
-9.6211 -4.5580 -2.0011 0.9576
-8.0239 -5.7438 -1.8548 0.9606
-6.8716 -7.0769 -1.8541 0.9606
-6.2108 -7.6606 -1.8537 0.9607
-5.5005 -8.1827 -1.8532 0.9607
-3.1324 -9.3406 -1.8518 0.9607
-1.4200 -9.7433 -1.8507 0.9607
0.1615 -4.7305 -0.8897 0.9809
3.7535 -9.0845 -1.8475 0.9608
4.5485 -8.7107 -1.8470 0.9608
6.0226 -7.7588 -1.8461 0.9608
6.6899 -7.1884 -1.8457 0.9608
7.3037 -6.5609 -1.8454 0.9608
7.8590 -5.8813 -1.8450 0.9608
9.8677 -3.8749 -1.9926 0.9578
10.5574 -1.1224 -1.9956 0.9577
10.2831 2.6451 -1.9957 0.9577
9.6504 4.4331 -1.9961 0.9577
9.2172 5.2779 -1.9964 0.9577
8.7104 6.0809 -1.9967 0.9577
7.5466 6.3420 -1.8528 0.9607
6.9515 6.9920 -1.8532 0.9607
4.9116 7.1233 -1.6263 0.9654
3.2491 9.3217 -1.8555 0.9606
2.4043 9.5772 -1.8560 0.9606
-0.2376 10.6496 -2.0022 0.9576
-2.1295 10.4435 -2.0034 0.9575
1.3253 8.6830 -1.8567 0.9647
0.3985 6.4150 -1.3586 0.9741
-1.0245 8.7305 -1.8581 0.9647
-1.8005 8.6063 -1.8586 0.9647
-2.5625 8.4133 -1.8591 0.9647
-3.3044 8.1528 -1.8595 0.9647
-4.0202 7.8270 -1.8599 0.9647
-5.3508 6.9900 -1.8608 0.9647
-5.9549 6.4855 -1.8611 0.9646
-8.0457 5.0416 -2.0070 0.9619
-8.8163 3.5307 -2.0075 0.9619
-9.0971 2.7295 -2.0076 0.9619
-9.3051 1.9064 -2.0078 0.9619
-9.4964 0.2206 -2.0079 0.9619
-9.4781 -0.6283 -2.0079 0.9619
-8.9711 -3.1176 -2.0076 0.9619
-8.6560 -3.9059 -2.0074 0.9619
-7.2265 -4.9729 -1.8543 0.9648
-5.0244 -7.1830 -1.8529 0.9648
-4.3619 -7.6013 -1.8525 0.9648
-2.9387 -8.2521 -1.8516 0.9648
-0.6458 -8.7293 -1.8502 0.9648
0.1363 -8.7498 -1.8498 0.9649
0.4915 -4.6643 -0.9914 0.9810
1.6898 -8.5816 -1.8488 0.9649
3.1878 -8.1401 -1.8479 0.9649
3.9011 -7.8210 -1.8474 0.9649
4.5829 -7.4397 -1.8470 0.9649
5.2279 -6.9992 -1.8466 0.9649
5.8309 -6.5031 -1.8463 0.9649
6.3871 -5.9552 -1.8459 0.9649
7.3423 -4.7226 -1.8453 0.9649
7.9989 -4.1863 -1.9084 0.9638
8.7268 -3.6151 -1.9967 0.9621
9.4381 -0.3309 -1.9963 0.9621
9.4300 0.5133 -1.9963 0.9621
9.3467 1.3534 -1.9963 0.9621
9.1890 2.1828 -1.9964 0.9621
8.6555 3.7833 -1.9967 0.9621
8.2840 4.5416 -1.9970 0.9621
7.8464 5.2640 -1.9972 0.9621
6.4608 6.2618 -1.9019 0.9639
5.7278 6.6421 -1.8540 0.9648
4.9786 6.9414 -1.8057 0.9657
3.1072 6.5431 -1.5311 0.9708
1.7642 6.5137 -1.4265 0.9728
-0.0331 8.7874 -1.8575 0.9647
-0.8179 8.7516 -1.8580 0.9647
-1.1768 6.3728 -1.3699 0.9739
-2.3629 8.4709 -1.8589 0.9647
-3.1107 8.2281 -1.8594 0.9647
-5.1839 7.1141 -1.8607 0.9647
-5.7997 6.6241 -1.8610 0.9646
-7.4118 5.9060 -2.0033 0.9620
-7.9240 5.2300 -2.0069 0.9619
-9.2573 2.1256 -2.0077 0.9619
-9.4161 -1.2501 -2.0078 0.9619
-8.7461 -3.7004 -2.0074 0.9619
-7.3423 -4.8010 -1.8544 0.9648
-6.3691 -6.0286 -1.8538 0.9648
-5.8041 -6.5721 -1.8534 0.9648
-4.5405 -7.4966 -1.8526 0.9648
-3.1331 -8.1810 -1.8518 0.9648
-0.9773 -5.1680 -1.1118 0.9787
-0.8519 -8.7122 -1.8504 0.9648
1.4867 -8.6197 -1.8489 0.9649
2.2499 -8.4503 -1.8485 0.9649
3.7155 -7.9115 -1.8476 0.9649
4.4061 -7.5463 -1.8471 0.9649
5.0613 -7.1211 -1.8467 0.9649
5.6759 -6.6393 -1.8464 0.9649
7.2290 -4.8949 -1.8454 0.9649
8.6311 -3.8168 -1.9949 0.9622
8.9450 -3.0333 -1.9966 0.9621
9.1795 -2.2222 -1.9964 0.9621
9.3408 -1.3935 -1.9963 0.9621
9.4395 0.2904 -1.9963 0.9621
9.3760 1.1322 -1.9963 0.9621
9.2378 1.9651 -1.9964 0.9621
9.0260 2.7824 -1.9965 0.9621
8.3887 4.3445 -1.9969 0.9621
6.7726 6.2606 -1.9495 0.9630
5.8828 6.5047 -1.8539 0.9648
5.2504 6.9668 -1.8440 0.9650
4.6338 7.4505 -1.8546 0.9648
3.9508 7.8363 -1.8551 0.9648
2.5924 6.5370 -1.4865 0.9717
2.4950 8.4182 -1.8559 0.9647
1.7337 8.6095 -1.8564 0.9647
-1.3918 8.6806 -1.8583 0.9647
-2.1620 8.5238 -1.8588 0.9647
-2.8818 6.3295 -1.4701 0.9720
-3.6297 6.3887 -1.5532 0.9704
-6.2235 6.2293 -1.8613 0.9646
-8.2516 4.6982 -2.0071 0.9619
-8.6392 3.9430 -2.0074 0.9619
-9.2044 2.3437 -2.0077 0.9619
-9.3774 1.5124 -2.0078 0.9619
-9.4972 -0.1799 -2.0079 0.9619
-9.4430 -1.0273 -2.0078 0.9619
-8.8313 -3.4929 -2.0075 0.9619
-8.4733 -4.2621 -2.0049 0.9620
-7.4539 -4.6264 -1.8544 0.9648
-5.9581 -6.4335 -1.8535 0.9648
-3.0392 -5.8551 -1.3945 0.9734
-2.5879 -8.3677 -1.8514 0.9648
-1.0576 -8.6902 -1.8505 0.9648
1.2827 -8.6530 -1.8491 0.9649
3.5278 -7.9975 -1.8477 0.9649
4.2269 -7.6487 -1.8472 0.9649
7.5344 -4.4085 -1.8452 0.9649
8.8711 -3.2438 -1.9966 0.9621
9.1246 -2.4385 -1.9964 0.9621
9.3054 -1.6138 -1.9963 0.9621
9.4120 -0.7763 -1.9963 0.9621
9.4001 0.9104 -1.9963 0.9621
9.2815 1.7463 -1.9964 0.9621
8.4888 4.1450 -1.9968 0.9621
5.4432 6.8784 -1.8541 0.9648
4.8082 7.3385 -1.8545 0.9648
4.1346 7.7403 -1.8549 0.9648
1.1641 8.7065 -1.8568 0.9647
-1.1862 8.7104 -1.8582 0.9647
-2.7182 8.3647 -1.8591 0.9647
-5.4798 6.8899 -1.8608 0.9646
-6.0457 6.3441 -1.8524 0.9648
-6.7716 5.9399 -1.9040 0.9638
-7.6675 5.5980 -2.0068 0.9619
-8.1380 4.8916 -2.0071 0.9619
-8.5434 4.1459 -2.0073 0.9619
-8.8804 3.3667 -2.0075 0.9619
-9.4988 0.0445 -2.0079 0.9619
-9.4647 -0.8039 -2.0079 0.9619
-8.9116 -3.2834 -2.0075 0.9619
-7.1329 -5.1059 -1.8542 0.9648
-4.8901 -7.2746 -1.8528 0.9648
-2.7851 -8.3048 -1.8516 0.9648
3.3381 -8.0791 -1.8478 0.9649
4.0453 -7.7469 -1.8474 0.9649
4.7199 -7.3531 -1.8469 0.9649
5.3565 -6.9007 -1.8466 0.9649
6.4962 -5.8356 -1.8459 0.9649
6.9903 -5.2313 -1.8456 0.9649
8.3342 -4.1667 -1.9696 0.9626
8.7922 -3.4526 -1.9966 0.9621
9.0646 -2.6534 -1.9965 0.9621
9.2648 -1.8332 -1.9964 0.9621
9.1470 2.3529 -1.9964 0.9621
8.5841 3.9432 -1.9968 0.9621
7.7477 5.4088 -1.9973 0.9621
7.2348 6.0800 -1.9976 0.9621
6.2263 6.2626 -1.8667 0.9645
1.3693 8.6760 -1.8566 0.9647
-0.1960 8.7858 -1.8576 0.9647
-0.9801 8.7354 -1.8581 0.9647
-1.7567 8.6152 -1.8586 0.9647
1.8842 7.6704 -1.8563 0.9681
0.3985 6.4151 -1.5106 0.9739
-0.1773 6.4721 -1.5217 0.9737
-0.9214 7.8519 -1.8580 0.9680
-2.3045 7.5662 -1.8589 0.9680
-2.9717 7.3318 -1.8593 0.9680
-3.6153 7.0386 -1.8597 0.9680
-4.8117 6.2857 -1.8604 0.9680
-6.3109 5.7463 -2.0059 0.9655
-6.7998 5.1605 -2.0062 0.9655
-7.6113 3.8695 -2.0067 0.9655
-7.9272 3.1747 -2.0069 0.9655
-8.1796 2.4543 -2.0071 0.9655
-8.4866 0.9601 -2.0073 0.9655
-8.5385 0.1984 -2.0073 0.9655
-7.7832 -3.5120 -2.0068 0.9655
-7.4319 -4.1894 -2.0051 0.9656
-6.6101 -4.5487 -1.8858 0.9676
-6.0718 -5.0333 -1.8536 0.9681
-5.0779 -6.0311 -1.8530 0.9681
-4.5182 -6.4593 -1.8526 0.9681
-3.9225 -6.8357 -1.8523 0.9681
-1.9691 -7.6259 -1.8511 0.9682
-0.8329 -5.0561 -1.2043 0.9792
-0.5808 -7.8510 -1.8502 0.9682
0.1226 -7.8696 -1.8498 0.9682
0.4916 -4.6644 -1.1023 0.9809
1.5199 -7.7187 -1.8489 0.9682
2.8674 -7.3220 -1.8481 0.9682
4.1225 -6.6923 -1.8473 0.9682
4.7028 -6.2962 -1.8470 0.9682
6.2003 -4.8221 -1.8460 0.9682
6.6053 -4.2485 -1.8458 0.9682
7.5172 -3.9341 -1.9940 0.9657
7.8510 -3.2523 -1.9972 0.9657
8.4911 -0.2977 -1.9968 0.9657
8.4089 1.2176 -1.9969 0.9657
8.0590 2.6944 -1.9971 0.9657
7.4526 4.0858 -1.9975 0.9657
6.1055 5.9175 -1.9983 0.9657
5.3720 6.2295 -1.9333 0.9668
4.5992 6.4125 -1.8547 0.9681
4.0090 6.7990 -1.8550 0.9681
2.0648 7.6233 -1.8562 0.9681
1.1503 6.5028 -1.5520 0.9732
0.6760 7.8726 -1.8571 0.9681
-0.0297 7.9034 -1.8575 0.9680
-0.6036 6.4589 -1.5246 0.9737
-1.1768 6.3728 -1.5231 0.9737
-2.1250 7.6181 -1.8588 0.9680
-3.4478 7.1217 -1.8596 0.9680
-4.0709 6.7867 -1.8600 0.9680
-4.5727 6.2753 -1.8249 0.9686
-6.6758 5.3195 -2.0062 0.9655
-7.1251 4.7028 -2.0064 0.9655
-7.5175 4.0481 -2.0067 0.9655
-8.3318 -1.8755 -2.0072 0.9655
-8.1305 -2.6119 -2.0070 0.9655
-6.1893 -4.8886 -1.8536 0.9681
-5.7271 -5.4210 -1.8534 0.9681
-5.2192 -5.9098 -1.8530 0.9681
-4.6698 -6.3511 -1.8527 0.9681
-2.8639 -5.8513 -1.5311 0.9736
-2.8176 -7.3572 -1.8516 0.9681
-0.9593 -5.0727 -1.2133 0.9790
-0.7662 -7.8355 -1.8503 0.9682
1.3372 -7.7529 -1.8490 0.9682
2.0237 -7.6008 -1.8486 0.9682
2.6938 -7.3881 -1.8482 0.9682
3.3421 -7.1165 -1.8478 0.9682
3.9635 -6.7882 -1.8474 0.9682
4.5529 -6.4058 -1.8470 0.9682
5.6179 -5.4918 -1.8464 0.9682
6.0849 -4.9674 -1.8461 0.9682
6.5033 -4.4035 -1.8459 0.9682
8.2584 -1.9992 -1.9970 0.9657
8.4817 -0.4982 -1.9968 0.9657
8.4352 1.0186 -1.9969 0.9657
8.3109 1.7679 -1.9969 0.9657
8.1203 2.5032 -1.9971 0.9657
7.8649 3.2186 -1.9972 0.9657
6.7328 5.1900 -1.9979 0.9657
5.6330 6.2284 -1.9737 0.9661
4.7492 6.3018 -1.8546 0.9681
4.1683 6.7020 -1.8549 0.9681
3.5538 7.0489 -1.8553 0.9681
1.3104 6.5077 -1.5602 0.9731
0.8618 7.8540 -1.8569 0.9681
0.1570 7.9014 -1.8574 0.9680
-0.5494 7.8857 -1.8578 0.9680
-1.2517 7.8070 -1.8582 0.9680
-2.8818 6.3295 -1.6345 0.9718
-6.5480 5.4755 -2.0061 0.9655
-7.4196 4.2245 -2.0066 0.9655
-7.7680 3.5454 -2.0068 0.9655
-8.2761 2.1073 -2.0071 0.9655
-8.4316 1.3599 -2.0072 0.9655
-8.4906 -0.9237 -2.0073 0.9655
-8.3739 -1.6782 -2.0072 0.9655
-8.1901 -2.4192 -2.0071 0.9655
-7.6278 -3.8369 -2.0067 0.9655
-5.3576 -5.7851 -1.8531 0.9681
-4.8187 -6.2393 -1.8528 0.9681
-4.2415 -6.6435 -1.8524 0.9681
-3.0392 -5.8551 -1.5504 0.9733
-0.2493 -7.8676 -1.8500 0.9682
0.2703 -4.6765 -1.1009 0.9809
1.1537 -7.7828 -1.8491 0.9682
3.8022 -6.8803 -1.8475 0.9682
4.4006 -6.5119 -1.8471 0.9682
4.9636 -6.0918 -1.8468 0.9682
5.4868 -5.6232 -1.8465 0.9682
6.3977 -4.5561 -1.8459 0.9682
7.6890 -3.6197 -1.9973 0.9657
8.2090 -2.1938 -1.9970 0.9657
8.4677 -0.6984 -1.9968 0.9657
8.4961 0.0606 -1.9968 0.9657
7.9386 3.0318 -1.9972 0.9657
7.6368 3.7290 -1.9974 0.9657
6.8533 5.0293 -1.9978 0.9657
6.3777 5.6220 -1.9981 0.9657
5.8511 6.1701 -1.9985 0.9657
3.0832 7.2685 -1.8556 0.9681
1.0470 7.8310 -1.8568 0.9681
0.3436 7.8950 -1.8573 0.9681
-1.7626 7.7091 -1.8586 0.9680
-4.3538 6.6097 -1.8602 0.9680
-4.9276 6.1956 -1.8605 0.9680
-7.9848 3.0272 -2.0070 0.9655
-8.3970 1.5587 -2.0072 0.9655
-8.5408 0.0400 -2.0073 0.9655
-8.4113 -1.4799 -2.0072 0.9655
-8.2451 -2.2250 -2.0071 0.9655
-7.7165 -3.6557 -2.0068 0.9655
-7.3444 -4.3215 -2.0027 0.9656
-5.9773 -5.1449 -1.8535 0.9681
-3.7949 -6.9069 -1.8522 0.9681
-2.5546 -5.8299 -1.4959 0.9742
-2.5047 -7.4687 -1.8514 0.9681
0.1615 -4.7321 -1.1128 0.9807
0.5825 -4.6906 -1.1109 0.9808
2.3421 -7.5079 -1.8484 0.9682
3.0026 -7.2672 -1.8480 0.9682
4.8185 -6.2076 -1.8469 0.9682
5.8440 -5.2497 -1.8463 0.9682
6.2885 -4.7061 -1.8460 0.9682
8.1550 -2.3871 -1.9970 0.9657
8.3351 -1.6492 -1.9969 0.9657
8.3849 1.3733 -1.9969 0.9657
8.2292 2.1168 -1.9970 0.9657
7.7226 3.5475 -1.9973 0.9657
7.3757 4.2234 -1.9975 0.9657
6.5085 5.4696 -1.9981 0.9657
4.4797 6.4970 -1.8547 0.9681
3.6784 6.5114 -1.7576 0.9697
3.2538 7.1932 -1.8555 0.9681
2.5990 7.4566 -1.8559 0.9681
1.9231 7.6607 -1.8563 0.9681
0.4305 6.4044 -1.5086 0.9740
-1.5799 7.7481 -1.8584 0.9680
1.0820 7.0893 -1.8568 0.9708
0.3985 6.4151 -1.6642 0.9738
-0.8363 7.1271 -1.8580 0.9708
-1.4698 7.0254 -1.8584 0.9708
-4.5810 5.9844 -1.9513 0.9693
-5.2380 5.7048 -2.0053 0.9685
-7.4231 2.2272 -2.0066 0.9685
-7.7015 0.8713 -2.0068 0.9685
-7.7337 -0.5127 -2.0068 0.9685
-7.5187 -1.8801 -2.0067 0.9685
-7.3203 -2.5439 -2.0065 0.9685
-7.0633 -3.1872 -2.0064 0.9685
-6.7498 -3.8049 -2.0062 0.9685
-6.3657 -4.3805 -2.0007 0.9686
-5.5105 -4.5679 -1.8532 0.9709
-5.0798 -5.0411 -1.8530 0.9709
-4.1007 -5.8624 -1.8524 0.9709
-2.3988 -6.7358 -1.8513 0.9709
-1.7873 -6.9217 -1.8509 0.9709
-0.8309 -5.0435 -1.3235 0.9791
-0.5272 -7.1263 -1.8502 0.9709
0.1113 -7.1434 -1.8498 0.9709
0.4916 -4.6645 -1.2144 0.9808
1.3797 -7.0067 -1.8490 0.9709
5.2165 -4.8637 -1.8466 0.9710
5.6292 -4.3779 -1.8464 0.9710
6.8365 -3.5779 -1.9978 0.9686
7.1281 -2.9528 -1.9977 0.9686
7.3627 -2.3043 -1.9975 0.9686
7.5387 -1.6375 -1.9974 0.9686
7.6545 -0.9577 -1.9973 0.9686
7.7027 0.4193 -1.9973 0.9686
7.3169 2.4463 -1.9976 0.9686
6.7662 3.7095 -1.9979 0.9686
5.9998 4.8551 -1.9984 0.9686
3.0743 6.4738 -1.8556 0.9708
2.4844 6.7238 -1.8560 0.9708
1.8744 6.9202 -1.8563 0.9708
1.2491 7.0614 -1.8567 0.9708
0.6137 7.1462 -1.8571 0.9708
-0.6677 7.1445 -1.8579 0.9708
-1.9288 6.9146 -1.8587 0.9708
-2.5391 6.7161 -1.8590 0.9708
-3.1293 6.4638 -1.8594 0.9708
-4.3686 5.9952 -1.9207 0.9698
-6.0585 4.8277 -2.0058 0.9685
-7.1238 3.0501 -2.0064 0.9685
-7.3682 2.4019 -2.0066 0.9685
-7.5537 1.7344 -2.0067 0.9685
-7.7437 -0.3298 -2.0068 0.9685
-7.6832 -1.0200 -2.0068 0.9685
-7.5611 -1.7020 -2.0067 0.9685
-7.3785 -2.3703 -2.0066 0.9685
-6.8380 -3.6445 -2.0062 0.9685
-6.4758 -4.2344 -2.0033 0.9685
-5.7305 -4.5262 -1.8907 0.9703
-5.1977 -4.9198 -1.8530 0.9709
-4.2382 -5.7642 -1.8524 0.9709
-3.7059 -6.1185 -1.8521 0.9709
-2.5573 -6.6776 -1.8514 0.9709
-0.9570 -5.0605 -1.3335 0.9789
1.2138 -7.0377 -1.8491 0.9709
1.8371 -6.8998 -1.8487 0.9709
3.5981 -6.1624 -1.8476 0.9709
4.6354 -5.4222 -1.8470 0.9710
5.1003 -4.9858 -1.8467 0.9710
5.5244 -4.5098 -1.8465 0.9710
6.7502 -3.7385 -1.9979 0.9686
7.0565 -3.1204 -1.9977 0.9686
7.4980 -1.8151 -1.9974 0.9686
7.7008 -0.4523 -1.9973 0.9686
7.7104 0.2372 -1.9973 0.9686
7.6586 0.9248 -1.9973 0.9686
7.5457 1.6051 -1.9974 0.9686
7.3726 2.2727 -1.9975 0.9686
6.8518 3.5485 -1.9978 0.9686
6.5082 4.1467 -1.9981 0.9686
6.1126 4.7119 -1.9983 0.9686
5.6682 5.2397 -1.9986 0.9686
2.6424 6.6629 -1.8559 0.9708
2.0372 6.8736 -1.8562 0.9708
-1.7648 6.9579 -1.8586 0.9708
-4.9623 5.9454 -2.0051 0.9685
-5.4743 5.4793 -2.0054 0.9685
-5.9426 4.9693 -2.0057 0.9685
-6.3634 4.4193 -2.0060 0.9685
-6.7334 3.8338 -2.0062 0.9685
-7.3093 2.5753 -2.0065 0.9685
-7.5105 1.9124 -2.0067 0.9685
-7.7315 0.5458 -2.0068 0.9685
-7.7494 -0.1468 -2.0068 0.9685
-7.5993 -1.5229 -2.0067 0.9685
-7.2063 -2.8502 -2.0065 0.9685
-4.8624 -5.2504 -1.8528 0.9709
-4.3734 -5.6627 -1.8525 0.9709
-2.5573 -6.2326 -1.7443 0.9725
-1.4937 -6.9902 -1.8508 0.9709
-0.2263 -7.1415 -1.8500 0.9709
1.6737 -6.9416 -1.8488 0.9709
2.2864 -6.7631 -1.8484 0.9709
3.9950 -5.9118 -1.8474 0.9709
4.5062 -5.5304 -1.8471 0.9710
4.9813 -5.1051 -1.8468 0.9710
5.4165 -4.6392 -1.8465 0.9710
6.6524 -3.8925 -1.9956 0.9687
7.2459 -2.6496 -1.9976 0.9686
7.6880 -0.6341 -1.9973 0.9686
7.6782 0.7437 -1.9973 0.9686
7.5814 1.4264 -1.9974 0.9686
6.9335 3.3856 -1.9978 0.9686
6.6041 3.9917 -1.9980 0.9686
6.2220 4.5660 -1.9982 0.9686
5.7902 5.1041 -1.9985 0.9686
4.0625 6.2003 -1.9193 0.9698
3.3763 6.3208 -1.8554 0.9708
1.5811 6.9938 -1.8565 0.9708
-2.2188 6.8278 -1.8588 0.9708
-3.3993 6.3266 -1.8596 0.9708
-5.3431 5.6069 -2.0053 0.9685
-6.9714 3.3830 -2.0063 0.9685
-7.2463 2.7472 -2.0065 0.9685
-7.4632 2.0892 -2.0066 0.9685
-7.7164 0.7283 -2.0068 0.9685
-7.7229 -0.6560 -2.0068 0.9685
-7.6332 -1.3430 -2.0067 0.9685
-7.0029 -3.3176 -2.0063 0.9685
-6.6779 -3.9293 -2.0061 0.9685
-6.2771 -4.4933 -1.9987 0.9686
-4.9853 -5.1342 -1.8529 0.9709
-4.5061 -5.5580 -1.8526 0.9709
-3.9911 -5.9372 -1.8523 0.9709
-3.4443 -6.2688 -1.8520 0.9709
-2.2733 -6.7789 -1.8512 0.9709
-1.6585 -6.9534 -1.8509 0.9709
-0.3950 -7.1345 -1.8501 0.9709
0.5825 -4.6910 -1.2239 0.9807
1.5093 -6.9796 -1.8489 0.9709
2.1261 -6.8155 -1.8485 0.9709
2.7257 -6.5971 -1.8482 0.9709
3.8544 -6.0048 -1.8475 0.9709
4.3745 -5.6356 -1.8472 0.9710
4.8595 -5.2216 -1.8469 0.9710
5.3056 -4.7660 -1.8466 0.9710
6.9015 -3.4504 -1.9978 0.9686
7.1815 -2.8201 -1.9976 0.9686
7.6710 -0.8156 -1.9973 0.9686
7.6936 0.5621 -1.9973 0.9686
6.6964 3.8344 -1.9979 0.9686
6.3279 4.4176 -1.9982 0.9686
5.9089 4.9657 -1.9984 0.9686
3.5245 6.2389 -1.8553 0.9708
2.9538 6.5300 -1.8557 0.9708
2.3593 6.7690 -1.8560 0.9708
-0.8001 7.1312 -1.8580 0.9708
-1.4340 7.0327 -1.8584 0.9708
0.3966 6.3848 -1.8110 0.9738
-0.1797 6.5593 -1.8576 0.9731
-1.3442 6.4252 -1.8583 0.9731
-1.9130 6.2807 -1.8587 0.9731
-2.4667 6.0858 -1.8590 0.9731
-3.0955 6.0267 -1.9180 0.9722
-3.7844 5.9840 -2.0044 0.9710
-4.3044 5.6230 -2.0047 0.9710
-4.7901 5.2170 -2.0050 0.9710
-6.0038 3.7621 -2.0057 0.9710
-6.5784 2.6345 -2.0061 0.9710
-6.9429 1.4224 -2.0063 0.9710
-7.0424 0.7967 -2.0064 0.9710
-7.0016 -1.0984 -2.0063 0.9710
-6.8753 -1.7192 -2.0063 0.9710
-6.1723 -3.4794 -2.0058 0.9710
-5.8363 -4.0163 -2.0056 0.9710
-5.4277 -4.4993 -1.9958 0.9711
-4.2145 -5.0056 -1.8524 0.9732
-3.7501 -5.3612 -1.8521 0.9732
-2.7356 -5.9407 -1.8515 0.9732
-2.1938 -6.1602 -1.8512 0.9732
