ply
format ascii 1.0
element vertex 1584
property float32 x
property float32 y
property float32 z
property float32 I
end_header
-5.9877 15.5584 -1.9803 0.9351
-11.0603 12.5003 -1.9827 0.9350
-12.1365 11.4706 -1.9836 0.9349
-15.4209 6.5239 -1.9890 0.9348
-16.3615 3.6886 -1.9923 0.9347
-16.7870 0.7265 -1.9959 0.9346
-16.8009 -0.7733 -1.9978 0.9345
-16.6813 -2.2698 -1.9998 0.9344
-16.4286 -3.7512 -2.0017 0.9344
-16.0446 -5.2055 -2.0037 0.9343
-14.8942 -7.9868 -2.0075 0.9342
-14.1363 -9.2912 -2.0094 0.9341
-13.2639 -10.5236 -2.0112 0.9341
-12.2839 -11.6740 -2.0130 0.9340
-10.3518 -11.7647 -1.8615 0.9388
-8.1108 -13.4357 -1.8642 0.9387
-6.8856 -14.1143 -1.8655 0.9387
-5.2525 -13.7607 -1.7496 0.9424
-1.5223 -15.6602 -1.8690 0.9386
-0.1185 -15.4787 -1.8387 0.9396
2.6763 -15.5136 -1.8700 0.9386
7.9248 -13.5938 -1.8691 0.9386
10.2047 -11.9618 -1.8677 0.9386
12.1358 -11.8922 -2.0183 0.9338
13.1534 -10.7682 -2.0192 0.9338
15.5009 -6.8904 -2.0150 0.9340
16.4505 -4.0222 -2.0116 0.9341
15.8623 -2.4063 -1.9058 0.9374
16.7561 1.9725 -2.0041 0.9343
16.4975 3.4547 -2.0022 0.9344
15.5916 6.3164 -1.9983 0.9345
14.1957 8.9673 -1.9945 0.9346
13.3279 10.1876 -1.9927 0.9347
5.1739 4.7422 -0.8337 0.9721
11.2884 12.3711 -1.9893 0.9348
10.1330 13.3176 -1.9878 0.9348
3.4515 5.4908 -0.7704 0.9742
7.5972 14.8846 -1.9851 0.9349
6.2367 15.4933 -1.9839 0.9349
4.8285 15.9793 -1.9829 0.9350
1.9133 16.5693 -1.9813 0.9350
0.4288 16.6692 -1.9807 0.9350
-2.5367 16.4753 -1.9801 0.9351
-5.4216 15.7637 -1.9802 0.9351
-8.1372 14.5562 -1.9809 0.9350
-10.5997 12.8893 -1.9823 0.9350
-11.7118 11.8989 -1.9832 0.9350
-12.7326 10.8136 -1.9843 0.9349
-13.6541 9.6417 -1.9855 0.9349
-15.1705 7.0744 -1.9883 0.9348
-15.7531 5.6986 -1.9899 0.9347
-16.2119 4.2756 -1.9916 0.9347
-16.8114 -0.1660 -1.9971 0.9345
-16.2157 -4.6208 -2.0029 0.9343
-15.7547 -6.0536 -2.0048 0.9343
-14.4572 -8.7712 -2.0087 0.9342
-7.3889 -13.8529 -1.8650 0.9387
-2.0866 -15.5929 -1.8687 0.9386
0.7154 -15.7239 -1.8697 0.9386
2.1142 -15.5996 -1.8700 0.9386
3.4963 -15.3499 -1.8700 0.9386
6.1649 -14.4828 -1.8697 0.9386
8.6337 -13.1513 -1.8688 0.9386
12.7590 -11.2389 -2.0197 0.9338
14.5330 -8.7838 -2.0171 0.9339
15.2467 -7.4481 -2.0156 0.9339
16.6320 -3.1414 -2.0106 0.9341
14.9462 -1.4609 -1.7839 0.9413
13.1530 2.2618 -1.5853 0.9477
16.2813 4.3232 -2.0010 0.9344
14.5157 8.4519 -1.9953 0.9346
13.6921 9.7031 -1.9934 0.9346
11.7316 11.9592 -1.9900 0.9347
6.7937 15.2615 -1.9844 0.9349
5.4036 15.7976 -1.9833 0.9350
-1.9401 16.5568 -1.9802 0.9351
-3.4077 16.3170 -1.9800 0.9351
-6.2514 15.4548 -1.9803 0.9351
-7.6054 14.8390 -1.9807 0.9350
-8.9002 14.1061 -1.9812 0.9350
-11.2722 12.3117 -1.9828 0.9350
-12.3310 11.2638 -1.9839 0.9349
-15.5319 6.2618 -1.9893 0.9348
11.9143 -7.7658 -2.0151 0.9442
12.5515 -6.6690 -2.0139 0.9442
13.0875 -5.5203 -2.0126 0.9442
13.8401 -3.1046 -2.0097 0.9443
14.0511 -1.8573 -2.0082 0.9443
13.1276 -0.5541 -1.8617 0.9483
13.1142 0.6177 -1.8602 0.9483
12.9964 1.7826 -1.8587 0.9484
12.7754 2.9314 -1.8572 0.9484
12.9690 5.5451 -1.9985 0.9446
12.4133 6.6735 -1.9969 0.9447
5.1679 4.9218 -1.0112 0.9716
8.2882 11.3366 -1.9898 0.9448
7.2406 12.0231 -1.9886 0.9449
2.5781 13.7704 -1.9850 0.9450
1.3401 13.9413 -1.9844 0.9450
-1.1559 13.9526 -1.9837 0.9450
-4.8056 13.1494 -1.9837 0.9450
-5.9593 12.6705 -1.9839 0.9450
-7.0663 12.0915 -1.9843 0.9450
-8.1181 11.4168 -1.9849 0.9450
-10.0236 9.8014 -1.9864 0.9449
-10.8624 8.8732 -1.9873 0.9449
-11.6161 7.8740 -1.9884 0.9449
-12.2788 6.8113 -1.9895 0.9449
-12.8451 5.6934 -1.9908 0.9448
-13.6708 3.3271 -1.9935 0.9447
-13.9232 2.0970 -1.9950 0.9447
-14.0656 0.8484 -1.9966 0.9447
-14.0152 -1.6650 -1.9998 0.9446
-12.5908 -6.4786 -2.0063 0.9444
-9.6575 -8.8706 -1.8580 0.9484
-7.9399 -10.4584 -1.8605 0.9483
-6.9805 -11.1312 -1.8616 0.9483
-4.8985 -12.2066 -1.8636 0.9483
0.8503 -13.1456 -1.8665 0.9482
2.0187 -13.0187 -1.8667 0.9482
4.2979 -12.4531 -1.8666 0.9482
5.3900 -12.0190 -1.8664 0.9482
6.4385 -11.4886 -1.8660 0.9482
7.4348 -10.8661 -1.8655 0.9482
8.6396 -10.4829 -1.9248 0.9466
10.8580 -9.2016 -2.0166 0.9441
12.3056 -7.1198 -2.0144 0.9442
13.7230 -3.6035 -2.0103 0.9443
13.2062 -1.0362 -1.8769 0.9479
13.0566 1.3125 -1.8593 0.9484
12.8772 2.4689 -1.8578 0.9484
13.1652 5.0747 -1.9991 0.9446
12.0359 7.3198 -1.9960 0.9447
9.6495 10.2206 -1.9916 0.9448
8.6944 11.0327 -1.9903 0.9448
-3.1235 13.6462 -1.9835 0.9450
-8.7145 10.9718 -1.9853 0.9450
-11.3216 8.2865 -1.9879 0.9449
-12.0219 7.2486 -1.9890 0.9449
-12.6278 6.1520 -1.9903 0.9448
-13.1344 5.0054 -1.9916 0.9448
-13.8342 2.5977 -1.9944 0.9447
-13.6550 -3.6414 -2.0024 0.9445
-13.2870 -4.8479 -2.0040 0.9445
-12.8124 -6.0177 -2.0056 0.9444
-9.9686 -8.5135 -1.8574 0.9484
-6.3818 -11.4900 -1.8623 0.9483
-4.2446 -12.4528 -1.8641 0.9482
-1.9678 -13.0182 -1.8655 0.9482
0.3749 -13.1669 -1.8664 0.9482
1.5471 -13.0827 -1.8666 0.9482
2.7071 -12.8935 -1.8667 0.9482
4.9527 -12.2066 -1.8665 0.9482
6.0199 -11.7146 -1.8662 0.9482
7.9997 -10.4540 -1.8651 0.9482
9.6265 -10.4917 -2.0175 0.9441
11.3277 -8.6094 -2.0160 0.9441
12.0433 -7.5614 -2.0149 0.9442
13.5879 -4.0980 -2.0109 0.9443
14.0785 -1.6181 -2.0079 0.9444
9.2820 1.4342 -1.3308 0.9628
13.7121 3.3926 -2.0014 0.9445
12.8710 5.7638 -1.9982 0.9446
12.2963 6.8825 -1.9966 0.9447
5.4313 4.4714 -0.9968 0.9720
10.0151 9.8682 -1.9921 0.9448
8.0934 11.4745 -1.9895 0.9449
7.0344 12.1431 -1.9884 0.9449
2.3436 13.8114 -1.9849 0.9450
1.1030 13.9614 -1.9844 0.9450
-0.1457 14.0013 -1.9839 0.9450
-1.3928 13.9306 -1.9837 0.9450
-2.6286 13.7501 -1.9835 0.9450
-5.0285 13.0661 -1.9837 0.9450
-6.1740 12.5678 -1.9840 0.9450
-8.3114 11.2778 -1.9850 0.9450
-9.2868 10.4959 -1.9857 0.9450
-10.1896 9.6305 -1.9866 0.9449
-11.0127 8.6882 -1.9875 0.9449
-12.3942 6.6024 -1.9898 0.9448
-13.3872 4.3027 -1.9924 0.9448
-13.9589 1.8603 -1.9953 0.9447
-14.0801 0.6093 -1.9969 0.9447
-14.0896 -0.6485 -1.9985 0.9446
-13.9871 -1.9032 -2.0001 0.9446
-13.0172 -5.5492 -2.0050 0.9444
-11.8439 -7.7845 -2.0082 0.9443
-11.1114 -8.8158 -2.0097 0.9443
-6.7910 -11.2494 -1.8618 0.9483
-3.5784 -12.6637 -1.8646 0.9482
-2.4363 -12.9370 -1.8653 0.9482
4.5088 -12.3781 -1.8666 0.9482
5.5933 -11.9253 -1.8663 0.9482
7.6179 -10.7375 -1.8654 0.9482
10.1693 -9.9651 -2.0174 0.9441
12.4233 -6.9088 -2.0141 0.9442
13.4349 -4.5874 -2.0115 0.9443
13.7803 -3.3693 -2.0100 0.9443
14.0153 -2.1261 -2.0085 0.9443
13.1168 -0.8052 -1.8620 0.9483
13.1259 0.3668 -1.8605 0.9483
13.0304 1.5339 -1.8590 0.9484
13.5061 4.1139 -2.0005 0.9446
13.0750 5.2969 -1.9988 0.9446
11.9080 7.5222 -1.9957 0.9447
11.1817 8.5471 -1.9942 0.9447
5.1947 4.7612 -0.9984 0.9719
9.4732 10.3818 -1.9913 0.9448
8.5047 11.1775 -1.9900 0.9448
3.4515 5.4908 -0.9189 0.9741
5.2361 13.0077 -1.9868 0.9449
4.0542 13.4167 -1.9859 0.9449
0.3601 13.9984 -1.9841 0.9450
-2.1304 13.8364 -1.9836 0.9450
-6.8334 12.2238 -1.9842 0.9450
-7.8977 11.5692 -1.9848 0.9450
-11.4620 8.0938 -1.9881 0.9449
-12.1447 7.0440 -1.9893 0.9449
-12.7320 5.9372 -1.9905 0.9448
-13.2193 4.7821 -1.9918 0.9448
-13.6025 3.5874 -1.9932 0.9448
-14.0444 1.1171 -1.9962 0.9447
-14.0421 -1.3964 -1.9994 0.9446
-13.5933 -3.8736 -2.0027 0.9445
-13.2048 -5.0738 -2.0043 0.9445
-11.4191 -8.4061 -2.0091 0.9443
-9.0173 -9.5306 -1.8590 0.9484
-8.1374 -10.3031 -1.8602 0.9483
-7.1912 -10.9942 -1.8614 0.9483
-6.1862 -11.5980 -1.8625 0.9483
-5.1306 -12.1094 -1.8634 0.9483
-4.0327 -12.5242 -1.8643 0.9482
-1.7463 -13.0505 -1.8656 0.9482
2.9259 -12.8456 -1.8667 0.9482
8.1756 -10.3159 -1.8650 0.9482
9.8045 -10.3277 -2.0177 0.9441
10.6811 -9.4085 -2.0168 0.9441
12.7679 -6.2371 -2.0134 0.9442
13.6537 -3.8659 -2.0106 0.9443
13.7764 -1.3466 -1.9613 0.9456
13.1349 -0.1076 -1.8611 0.9483
13.0816 1.0626 -1.8596 0.9484
10.2437 3.7251 -1.5444 0.9569
12.7692 5.9808 -1.9979 0.9446
12.1757 7.0894 -1.9963 0.9447
7.3512 5.2095 -1.2766 0.9643
5.3314 4.5433 -0.9925 0.9721
5.8630 5.9767 -1.1863 0.9667
6.8263 12.2596 -1.9882 0.9449
5.7036 12.8126 -1.9872 0.9449
3.3353 13.6100 -1.9854 0.9450
2.1084 13.8485 -1.9848 0.9450
0.8655 13.9775 -1.9843 0.9450
-4.0719 13.3941 -1.9836 0.9450
-11.1598 8.5006 -1.9877 0.9449
-11.8795 7.4763 -1.9888 0.9449
11.2478 -4.7443 -2.0110 0.9517
11.6190 -3.7208 -2.0099 0.9517
11.8970 -2.6687 -2.0086 0.9518
12.0796 -1.5967 -2.0073 0.9518
11.2768 0.5311 -1.8598 0.9553
10.9879 2.5212 -1.8572 0.9553
10.1191 6.6663 -1.9962 0.9521
5.5966 4.4501 -1.1779 0.9714
5.2847 5.0331 -1.2023 0.9708
7.1345 9.7586 -1.9914 0.9522
5.2835 10.8596 -1.9895 0.9522
4.2928 11.2826 -1.9887 0.9522
3.2689 11.6161 -1.9880 0.9523
1.1540 12.0052 -1.9868 0.9523
0.0795 12.0580 -1.9865 0.9523
-0.9954 12.0155 -1.9862 0.9523
-2.0622 11.8782 -1.9861 0.9523
-5.1319 10.9113 -1.9864 0.9523
-6.9905 9.8309 -1.9872 0.9523
-7.8412 9.1715 -1.9878 0.9523
-9.3520 7.6394 -1.9893 0.9522
-11.0563 4.9006 -1.9923 0.9522
-11.9808 1.8044 -1.9960 0.9521
-12.1020 0.7299 -1.9973 0.9520
-12.1271 -0.3518 -1.9987 0.9520
-11.8886 -2.5028 -2.0015 0.9519
-11.6265 -3.5549 -2.0029 0.9519
-11.2713 -4.5802 -2.0043 0.9519
-10.8257 -5.5704 -2.0057 0.9518
-10.2931 -6.5174 -2.0070 0.9518
-8.3009 -7.6246 -1.8568 0.9553
-4.2086 -10.4875 -1.8616 0.9552
-3.2584 -10.8250 -1.8623 0.9552
-1.2855 -11.2381 -1.8634 0.9552
-0.2789 -11.3103 -1.8638 0.9552
0.7304 -11.2918 -1.8641 0.9552
2.7238 -10.9839 -1.8643 0.9552
7.7830 -9.4436 -2.0160 0.9516
9.3291 -7.9059 -2.0145 0.9516
9.9921 -7.0398 -2.0136 0.9517
10.5745 -6.1182 -2.0126 0.9517
11.4799 -4.1390 -2.0103 0.9517
11.0749 2.1233 -1.8577 0.9553
7.6473 2.1880 -1.3104 0.9683
10.5072 4.0502 -1.8551 0.9554
9.7471 7.1914 -1.9955 0.9521
8.3052 8.7968 -1.9930 0.9521
3.5580 5.4523 -1.0725 0.9740
4.6982 11.1220 -1.9890 0.9522
3.6869 11.4921 -1.9882 0.9523
2.6471 11.7710 -1.9876 0.9523
0.5149 12.0481 -1.9866 0.9523
-0.5608 12.0442 -1.9863 0.9523
-1.6319 11.9451 -1.9861 0.9523
-6.6302 10.0759 -1.9870 0.9523
-7.5038 9.4475 -1.9876 0.9523
-9.7470 7.1340 -1.9898 0.9522
-11.3047 4.3081 -1.9930 0.9521
-11.6507 3.2854 -1.9942 0.9521
-11.9046 2.2353 -1.9954 0.9521
-12.0644 1.1662 -1.9967 0.9521
-12.1286 0.0864 -1.9981 0.9520
-12.0964 -0.9956 -1.9995 0.9520
-11.7439 -3.1318 -2.0023 0.9519
-11.4261 -4.1689 -2.0037 0.9519
-11.0167 -5.1743 -2.0051 0.9519
-10.5189 -6.1398 -2.0065 0.9518
-8.5687 -7.3179 -1.8563 0.9553
-6.3385 -9.3402 -1.8596 0.9553
-5.4836 -9.8728 -1.8605 0.9552
-4.5839 -10.3269 -1.8613 0.9552
-3.6467 -10.6987 -1.8621 0.9552
-1.6904 -11.1832 -1.8632 0.9552
2.3253 -11.0751 -1.8643 0.9552
3.3031 -10.8236 -1.8642 0.9552
4.2543 -10.4852 -1.8641 0.9552
5.1711 -10.0629 -1.8638 0.9552
6.0461 -9.5600 -1.8634 0.9552
7.4175 -9.6933 -2.0108 0.9517
8.2718 -9.0153 -2.0156 0.9516
9.7331 -7.3975 -2.0140 0.9516
10.3487 -6.4975 -2.0130 0.9517
10.8810 -5.5464 -2.0120 0.9517
11.3256 -4.5520 -2.0108 0.9517
11.6792 -3.5223 -2.0096 0.9517
10.9420 2.7072 -1.8569 0.9553
11.0729 4.9586 -1.9987 0.9520
5.4273 4.4681 -1.1581 0.9719
8.6196 8.4931 -1.9935 0.9521
6.9669 9.8774 -1.9912 0.9522
5.0977 10.9469 -1.9893 0.9522
-0.1255 12.0572 -1.9864 0.9523
-2.2637 11.8413 -1.9861 0.9523
-3.3101 11.5925 -1.9861 0.9523
-6.2613 10.3078 -1.9868 0.9523
-7.1569 9.7112 -1.9873 0.9523
-7.9964 9.0375 -1.9879 0.9523
-8.7732 8.2918 -1.9887 0.9522
-11.5216 3.7031 -1.9937 0.9521
-11.8131 2.6632 -1.9949 0.9521
-12.0112 1.6007 -1.9962 0.9521
-11.5659 -3.7525 -2.0031 0.9519
-11.1933 -4.7717 -2.0045 0.9519
-10.7309 -5.7543 -2.0059 0.9518
-10.1821 -6.6923 -2.0073 0.9518
-5.2869 -6.0085 -1.3185 0.9681
-5.8354 -9.6665 -1.8601 0.9553
-4.9530 -10.1528 -1.8610 0.9552
-2.0930 -11.1137 -1.8630 0.9552
-1.0944 -11.2588 -1.8635 0.9552
-0.0866 -11.3138 -1.8639 0.9552
0.9222 -11.2780 -1.8641 0.9552
3.8730 -10.6325 -1.8642 0.9552
5.6974 -9.7730 -1.8636 0.9552
6.7481 -9.5115 -1.9212 0.9538
8.7369 -8.5615 -2.0152 0.9516
10.1093 -6.8684 -2.0134 0.9517
11.1564 -4.9592 -2.0113 0.9517
11.5472 -3.9428 -2.0101 0.9517
11.8454 -2.8962 -2.0089 0.9518
11.2057 1.3191 -1.8588 0.9553
11.0358 2.3109 -1.8575 0.9553
7.5935 2.3129 -1.3077 0.9683
10.4355 4.2276 -1.8548 0.9554
10.2462 6.4724 -1.9965 0.9521
9.6223 7.3551 -1.9952 0.9521
5.2183 4.7828 -1.1661 0.9717
8.1536 8.9357 -1.9928 0.9521
3.4515 5.4908 -1.0684 0.9741
3.4908 11.5523 -1.9881 0.9523
2.4465 11.8137 -1.9875 0.9523
1.3835 11.9815 -1.9869 0.9523
-0.7654 12.0326 -1.9863 0.9523
-1.8346 11.9155 -1.9861 0.9523
-6.8008 9.9623 -1.9871 0.9523
-7.6638 9.3192 -1.9877 0.9523
-8.4667 8.6020 -1.9884 0.9522
-9.2033 7.8162 -1.9891 0.9522
-10.4545 6.0637 -1.9910 0.9522
-11.7062 3.0873 -1.9944 0.9521
-11.9424 2.0330 -1.9957 0.9521
-12.0840 0.9611 -1.9970 0.9520
-12.1299 -0.1198 -1.9984 0.9520
-12.0793 -1.2012 -1.9997 0.9520
-11.6906 -3.3314 -2.0026 0.9519
-11.3551 -4.3631 -2.0040 0.9519
-10.9286 -5.3615 -2.0054 0.9518
-10.4144 -6.3185 -2.0067 0.9518
-7.7501 -8.1912 -1.8577 0.9553
-3.4646 -10.7598 -1.8622 0.9552
-2.4927 -11.0295 -1.8628 0.9552
2.5132 -11.0340 -1.8643 0.9552
3.4865 -10.7657 -1.8642 0.9552
5.3412 -9.9732 -1.8638 0.9552
8.4232 -8.8728 -2.0155 0.9516
9.1770 -8.0836 -2.0147 0.9516
9.8566 -7.2304 -2.0138 0.9517
10.4567 -6.3200 -2.0128 0.9517
12.1238 -1.1850 -2.0068 0.9518
11.3713 -0.0931 -1.8734 0.9549
11.2492 0.9138 -1.8593 0.9553
10.8929 2.8924 -1.8567 0.9553
10.2432 3.7249 -1.7956 0.9568
10.9856 5.1453 -1.9984 0.9520
10.4761 6.0998 -1.9971 0.9520
7.3514 5.2097 -1.4843 0.9641
5.3402 4.5508 -1.1558 0.9720
5.8631 5.9769 -1.3793 0.9666
2.8719 11.7190 -1.9877 0.9523
1.8155 11.9249 -1.9871 0.9523
0.7453 12.0366 -1.9867 0.9523
-0.3303 12.0530 -1.9864 0.9523
-1.4031 11.9743 -1.9861 0.9523
-2.4646 11.8011 -1.9861 0.9523
-7.3213 9.5887 -1.9874 0.9523
-9.6078 7.3184 -1.9897 0.9522
-11.2189 4.5230 -1.9927 0.9521
8.9666 -5.8445 -2.0118 0.9574
9.4476 -5.0198 -2.0109 0.9574
9.8526 -4.1558 -2.0099 0.9574
10.1785 -3.2594 -2.0089 0.9574
10.5836 -1.3990 -2.0066 0.9575
10.6599 -0.4499 -2.0054 0.9575
9.7950 1.3435 -1.8583 0.9606
9.6304 2.2097 -1.8572 0.9606
9.3893 3.0574 -1.8560 0.9606
9.0739 3.8796 -1.8549 0.9606
4.8155 3.8290 -1.1564 0.9753
5.3061 5.0535 -1.3773 0.9706
6.2571 8.5584 -1.9927 0.9578
3.3345 5.5369 -1.2149 0.9740
3.7655 9.8967 -1.9903 0.9578
2.8675 10.1897 -1.9897 0.9578
0.0697 10.5783 -1.9883 0.9579
-1.8092 10.4208 -1.9880 0.9579
-2.7307 10.2180 -1.9880 0.9579
-5.3382 9.1344 -1.9886 0.9579
-8.2029 6.7008 -1.9908 0.9578
-8.7709 5.9454 -1.9916 0.9578
-9.2700 5.1423 -1.9925 0.9578
-10.0455 3.4181 -1.9945 0.9577
-10.3158 2.5105 -1.9956 0.9577
-10.5044 1.5821 -1.9967 0.9577
-10.6097 0.6399 -1.9978 0.9577
-10.6309 -0.3084 -1.9990 0.9576
-10.5676 -1.2554 -2.0003 0.9576
-9.8772 -4.0137 -2.0040 0.9575
-6.6511 -7.3047 -1.8569 0.9606
-5.9766 -7.8723 -1.8578 0.9606
-1.9978 -9.6988 -1.8613 0.9605
-1.1257 -9.8406 -1.8617 0.9605
-0.2442 -9.9035 -1.8620 0.9605
0.6395 -9.8872 -1.8623 0.9605
2.3850 -9.6174 -1.8624 0.9605
3.2325 -9.3662 -1.8624 0.9605
4.8429 -8.6414 -1.8619 0.9605
6.8155 -8.2696 -2.0142 0.9573
7.5231 -7.6270 -2.0136 0.9573
8.1701 -6.9237 -2.0129 0.9573
10.0563 -3.6257 -2.0093 0.9574
10.3338 -2.7136 -2.0082 0.9574
10.6649 0.1167 -2.0047 0.9575
9.8396 0.9891 -1.8588 0.9605
7.6475 2.1881 -1.4951 0.9681
8.5462 6.3054 -1.9962 0.9577
5.2636 4.6623 -1.3217 0.9718
7.2831 7.7141 -1.9941 0.9577
4.9760 9.3531 -1.9913 0.9578
4.1210 9.7556 -1.9906 0.9578
3.2341 10.0807 -1.9899 0.9578
1.3922 10.4892 -1.9888 0.9578
-1.4317 10.4795 -1.9880 0.9579
-2.3599 10.3099 -1.9880 0.9579
-5.0044 9.3206 -1.9885 0.9579
-7.2971 7.6701 -1.9899 0.9578
-7.9543 6.9916 -1.9906 0.9578
-8.5491 6.2572 -1.9913 0.9578
-9.0765 5.4727 -1.9922 0.9578
-10.2161 2.8808 -1.9951 0.9577
-10.4380 1.9599 -1.9962 0.9577
-10.4899 -1.8154 -2.0010 0.9576
-10.2927 -2.7448 -2.0022 0.9576
-9.6537 -4.5341 -2.0047 0.9575
-5.0155 -6.1332 -1.4892 0.9683
-4.0144 -9.0440 -1.8599 0.9605
-3.1935 -9.3691 -1.8605 0.9605
-2.3465 -9.6193 -1.8611 0.9605
-1.4802 -9.7926 -1.8615 0.9605
-0.6017 -9.8876 -1.8619 0.9605
0.2820 -9.9034 -1.8622 0.9605
6.5131 -8.5113 -2.0144 0.9573
7.2437 -7.8947 -2.0139 0.9573
7.9158 -7.2153 -2.0132 0.9573
8.5242 -6.4787 -2.0125 0.9574
9.0639 -5.6908 -2.0116 0.9574
9.5307 -4.8581 -2.0107 0.9574
9.9208 -3.9874 -2.0097 0.9574
10.2313 -3.0857 -2.0086 0.9574
10.4599 -2.1603 -2.0075 0.9575
10.6047 -1.2188 -2.0064 0.9575
10.6648 -0.2687 -2.0052 0.9575
9.9474 0.6381 -1.8736 0.9602
9.3349 3.2161 -1.8558 0.9606
8.6052 4.8165 -1.8536 0.9607
5.7218 5.6378 -1.5098 0.9678
6.8612 8.0875 -1.9935 0.9578
6.1102 8.6627 -1.9925 0.9578
5.3114 9.1688 -1.9917 0.9578
3.5965 9.9586 -1.9902 0.9578
2.6938 10.2364 -1.9895 0.9578
1.7703 10.4330 -1.9890 0.9578
0.8332 10.5470 -1.9886 0.9579
-1.0523 10.5246 -1.9881 0.9579
-1.9860 10.3885 -1.9880 0.9579
-4.6643 9.4946 -1.9883 0.9579
-5.4928 9.0427 -1.9887 0.9579
-6.2783 8.5190 -1.9891 0.9578
-7.6955 7.2733 -1.9903 0.9578
-9.3568 4.9844 -1.9927 0.9578
-10.6203 0.4596 -1.9981 0.9577
-10.1362 -3.2886 -2.0030 0.9576
-9.4027 -5.0421 -2.0054 0.9575
-8.9211 -5.8635 -2.0066 0.9575
-8.3480 -6.6233 -2.0030 0.9576
-5.2595 -5.9773 -1.4965 0.9681
-5.8424 -7.9734 -1.8580 0.9606
-5.1109 -8.4662 -1.8588 0.9605
-4.3378 -8.8917 -1.8596 0.9605
-3.5293 -9.2463 -1.8603 0.9605
-2.6921 -9.5272 -1.8609 0.9605
-0.9583 -9.8587 -1.8618 0.9605
-0.0759 -9.9065 -1.8621 0.9605
0.8075 -9.8750 -1.8623 0.9605
2.5481 -9.5754 -1.8624 0.9605
3.3912 -9.3098 -1.8624 0.9605
4.2070 -8.9696 -1.8622 0.9605
5.0374 -8.6409 -1.8800 0.9601
6.9547 -8.1522 -2.0141 0.9573
7.6512 -7.4976 -2.0135 0.9573
9.7723 -4.3440 -2.0101 0.9574
10.3774 -2.5373 -2.0080 0.9575
10.5562 -1.6014 -2.0069 0.9575
10.6507 -0.6538 -2.0057 0.9575
9.8202 1.1560 -1.8586 0.9606
9.6721 2.0254 -1.8574 0.9606
9.1476 3.7059 -1.8551 0.9606
8.7371 4.4839 -1.8459 0.9608
8.4369 6.4490 -1.9960 0.9577
5.2518 4.8136 -1.3390 0.9714
5.2561 5.7602 -1.4657 0.9688
6.4203 8.4380 -1.9929 0.9578
4.8160 9.4356 -1.9912 0.9578
3.0621 10.1336 -1.9898 0.9578
2.1461 10.3633 -1.9892 0.9578
1.2137 10.5109 -1.9888 0.9579
-0.6715 10.5562 -1.9882 0.9579
-1.6095 10.4535 -1.9880 0.9579
-2.5347 10.2683 -1.9880 0.9579
-3.4399 10.0019 -1.9880 0.9579
-4.3181 9.6564 -1.9882 0.9579
-5.1623 9.2345 -1.9885 0.9579
-5.9659 8.7394 -1.9889 0.9578
-6.7228 8.1749 -1.9894 0.9578
-7.4268 7.5455 -1.9900 0.9578
-8.0725 6.8559 -1.9907 0.9578
-8.6548 6.1115 -1.9915 0.9578
-9.1690 5.3181 -1.9923 0.9578
-9.9772 3.6092 -1.9943 0.9577
-10.5942 0.8426 -1.9976 0.9577
-10.6335 -0.1050 -1.9988 0.9576
-9.5763 -4.6980 -2.0049 0.9575
-9.1249 -5.5361 -2.0061 0.9575
-8.6002 -6.3310 -2.0073 0.9575
-7.3974 -6.5382 -1.8557 0.9606
-6.7889 -7.1753 -1.8567 0.9606
-6.1254 -7.7557 -1.8576 0.9606
-5.4124 -8.2746 -1.8585 0.9606
-4.6553 -8.7278 -1.8593 0.9605
-3.8604 -9.1115 -1.8600 0.9605
-3.0340 -9.4226 -1.8606 0.9605
-2.1828 -9.6583 -1.8612 0.9605
-1.3136 -9.8168 -1.8616 0.9605
0.4503 -9.8973 -1.8622 0.9605
1.3307 -9.8187 -1.8624 0.9605
5.8651 -8.9340 -2.0088 0.9574
8.6324 -6.3324 -2.0123 0.9574
9.1585 -5.5355 -2.0114 0.9574
9.9862 -3.8178 -2.0095 0.9574
10.4939 -1.9821 -2.0073 0.9575
10.6227 -1.0383 -2.0062 0.9575
6.3238 2.9619 -1.3126 0.9720
8.5211 4.9615 -1.8534 0.9607
7.3516 5.2098 -1.6936 0.9640
5.1544 9.2570 -1.9915 0.9578
4.3072 9.6758 -1.9907 0.9578
3.4265 10.0177 -1.9900 0.9578
2.5193 10.2801 -1.9894 0.9578
1.5927 10.4611 -1.9889 0.9578
-2.1622 10.3532 -1.9880 0.9579
-3.9663 9.8056 -1.9881 0.9579
-4.8251 9.4143 -1.9884 0.9579
-6.4225 8.4115 -1.9892 0.9578
-7.1486 7.8078 -1.9898 0.9578
-7.8185 7.1419 -1.9904 0.9578
-8.4271 6.4191 -1.9911 0.9578
-9.4410 4.8251 -1.9929 0.9578
-9.8383 3.9664 -1.9938 0.9577
8.3966 -4.4614 -2.0099 0.9619
9.0472 -2.8972 -2.0081 0.9619
9.2649 -2.0783 -2.0071 0.9619
9.4085 -1.2437 -2.0061 0.9619
8.8281 1.2108 -1.8836 0.9642
8.5634 1.9649 -1.8572 0.9647
5.8440 3.8500 -1.4793 0.9718
4.6788 3.7203 -1.2635 0.9759
5.3002 5.0478 -1.5471 0.9705
3.2989 5.4778 -1.3517 0.9742
4.1232 8.4749 -1.9922 0.9622
3.3504 8.8058 -1.9915 0.9622
2.5515 9.0668 -1.9910 0.9622
1.7329 9.2559 -1.9905 0.9622
0.9009 9.3717 -1.9901 0.9622
0.0620 9.4133 -1.9898 0.9622
-0.7771 9.3804 -1.9896 0.9622
-6.1204 7.1588 -1.9909 0.9622
-6.7359 6.5866 -1.9914 0.9622
-7.2985 5.9620 -1.9921 0.9622
-7.8035 5.2896 -1.9928 0.9622
-9.3432 1.4072 -1.9972 0.9621
-9.4545 -0.2743 -1.9993 0.9621
-9.3975 -1.1164 -2.0004 0.9620
-9.2657 -1.9506 -2.0015 0.9620
-9.0600 -2.7702 -2.0026 0.9620
-8.0173 -5.0764 -2.0059 0.9619
-7.5368 -5.7737 -2.0069 0.9619
-6.4637 -5.9371 -1.8552 0.9648
-5.3118 -6.9967 -1.8569 0.9647
-3.2753 -8.1617 -1.8589 0.9647
-2.5356 -8.4236 -1.8595 0.9647
-1.7752 -8.6182 -1.8600 0.9647
-0.2169 -8.7997 -1.8607 0.9647
0.5682 -8.7850 -1.8609 0.9646
1.3490 -8.7000 -1.8610 0.9646
2.1191 -8.5453 -1.8610 0.9646
3.6021 -8.0323 -1.8608 0.9646
4.6439 -8.2864 -2.0079 0.9619
5.3784 -7.8606 -2.0133 0.9618
6.6852 -6.7775 -2.0123 0.9618
7.2604 -6.1528 -2.0117 0.9618
7.7772 -5.4793 -2.0110 0.9619
8.6195 -4.0083 -2.0093 0.9619
8.9384 -3.2227 -2.0084 0.9619
9.1856 -2.4120 -2.0075 0.9619
9.3594 -1.5830 -2.0065 0.9619
9.3222 0.9371 -1.9805 0.9624
8.6307 1.6547 -1.8576 0.9647
8.1908 3.1573 -1.8555 0.9647
6.1197 3.0104 -1.4416 0.9725
7.4921 4.5565 -1.8536 0.9648
4.4273 8.3216 -1.9925 0.9622
2.8777 8.9697 -1.9912 0.9622
1.2389 9.3337 -1.9903 0.9622
-0.4378 9.4027 -1.9897 0.9622
-1.2740 9.3255 -1.9895 0.9623
-2.1000 9.1747 -1.9895 0.9623
-2.9094 8.9512 -1.9895 0.9623
-4.4533 8.2940 -1.9899 0.9622
-5.1756 7.8654 -1.9903 0.9622
-5.8573 7.3744 -1.9907 0.9622
-7.0774 6.2208 -1.9918 0.9622
-7.6063 5.5672 -1.9925 0.9622
-8.4805 4.1316 -1.9940 0.9622
-9.0876 2.5626 -1.9958 0.9621
-9.2844 1.7433 -1.9968 0.9621
-9.4297 -0.7761 -2.0000 0.9621
-9.1521 -2.4406 -2.0022 0.9620
-8.9030 -3.2484 -2.0033 0.9620
-8.1937 -4.7826 -2.0054 0.9620
-6.1411 -6.2736 -1.8557 0.9647
-5.0053 -6.1207 -1.6713 0.9682
-4.9340 -7.2706 -1.8573 0.9647
-4.2680 -7.6844 -1.8581 0.9647
-3.5674 -8.0370 -1.8587 0.9647
-2.0851 -8.5477 -1.8598 0.9647
-1.3153 -8.7015 -1.8602 0.9647
1.0339 -8.7429 -1.8609 0.9646
1.8091 -8.6162 -1.8610 0.9646
3.3098 -8.1575 -1.8609 0.9646
4.2159 -8.2040 -1.9497 0.9630
5.0914 -8.0504 -2.0134 0.9618
6.4368 -7.0153 -2.0125 0.9618
7.0344 -6.4119 -2.0119 0.9618
7.5753 -5.7575 -2.0113 0.9618
8.4705 -4.3177 -2.0097 0.9619
8.8178 -3.5440 -2.0088 0.9619
9.0943 -2.7428 -2.0079 0.9619
9.2980 -1.9204 -2.0069 0.9619
9.4274 -1.0835 -2.0059 0.9619
9.4814 -0.2388 -2.0048 0.9620
9.4599 0.6068 -2.0037 0.9620
8.6868 1.3422 -1.8580 0.9647
8.5279 2.1099 -1.8570 0.9647
8.3013 2.8600 -1.8560 0.9647
7.6534 4.2838 -1.8540 0.9648
5.7254 3.9130 -1.4659 0.9720
6.2382 6.1466 -1.8512 0.9648
5.4360 7.7069 -1.9936 0.9622
2.3970 9.1084 -1.9909 0.9622
1.5753 9.2836 -1.9904 0.9622
-0.0979 9.4127 -1.9898 0.9622
-2.5842 9.0503 -1.9895 0.9623
-4.8878 8.0467 -1.9901 0.9622
-6.2415 7.0541 -1.9910 0.9622
-6.8473 6.4716 -1.9915 0.9622
-7.3992 5.8374 -1.9922 0.9622
-8.3244 4.4344 -1.9937 0.9622
-8.9874 2.8886 -1.9955 0.9621
-9.4456 0.4088 -1.9985 0.9621
-9.4495 -0.4349 -1.9995 0.9621
-9.3782 -1.2761 -2.0006 0.9620
-9.2322 -2.1080 -2.0017 0.9620
-9.0125 -2.9240 -2.0028 0.9620
-8.3593 -4.4825 -2.0050 0.9620
-7.9306 -5.2125 -2.0060 0.9619
-7.4292 -5.8943 -2.0046 0.9620
-6.3625 -6.0466 -1.8554 0.9648
-5.1925 -7.0865 -1.8570 0.9647
-3.1363 -8.2167 -1.8591 0.9647
-1.6285 -8.6475 -1.8600 0.9647
-0.8515 -8.7600 -1.8604 0.9647
0.7175 -8.7742 -1.8609 0.9646
1.4967 -8.6759 -1.8610 0.9646
3.0131 -8.2720 -1.8609 0.9646
3.7447 -7.9838 -1.8640 0.9646
5.5110 -7.7678 -2.0132 0.9618
6.1799 -7.2440 -2.0127 0.9618
6.7990 -6.6626 -2.0122 0.9618
7.8686 -5.3460 -2.0108 0.9619
9.2244 -2.2554 -2.0073 0.9619
9.3840 -1.4236 -2.0063 0.9619
9.4686 -0.5812 -2.0052 0.9620
9.4777 0.2648 -2.0042 0.9620
9.0837 1.0693 -1.9334 0.9633
8.6004 1.8010 -1.8574 0.9647
6.7613 2.7391 -1.5420 0.9706
7.8048 4.0055 -1.8544 0.9648
7.4129 4.6827 -1.8534 0.9648
4.8704 3.7228 -1.2958 0.9752
5.2539 4.8155 -1.5065 0.9713
5.2556 5.7597 -1.6482 0.9686
3.3962 5.4029 -1.3490 0.9742
4.2849 8.3951 -1.9923 0.9622
1.0800 9.3531 -1.9902 0.9622
0.2421 9.4106 -1.9899 0.9622
-0.5975 9.3937 -1.9897 0.9622
-2.2556 9.1376 -1.9895 0.9623
-3.0612 8.9005 -1.9896 0.9623
-3.8425 8.5930 -1.9897 0.9622
-4.5937 8.2174 -1.9900 0.9622
-5.9820 7.2742 -1.9908 0.9622
-6.6083 6.7139 -1.9913 0.9622
-7.1826 6.1000 -1.9919 0.9622
-8.5502 3.9872 -1.9942 0.9622
-8.8755 3.2107 -1.9951 0.9621
-9.1306 2.4080 -1.9960 0.9621
-9.4569 -0.0934 -1.9991 0.9621
-9.3002 -1.7728 -2.0013 0.9620
-8.5139 -4.1768 -2.0046 0.9620
-8.1120 -4.9216 -2.0056 0.9620
-7.6450 -5.6279 -2.0067 0.9619
-6.0342 -6.3776 -1.8559 0.9647
-5.4442 -6.8931 -1.8567 0.9647
-4.1371 -7.7563 -1.8582 0.9647
-3.4306 -8.0970 -1.8588 0.9647
-1.1672 -8.7229 -1.8603 0.9647
-0.3852 -8.7937 -1.8606 0.9647
0.4001 -8.7941 -1.8608 0.9646
1.1824 -8.7241 -1.8610 0.9646
1.9552 -8.5842 -1.8610 0.9646
3.4479 -8.1000 -1.8608 0.9646
5.2272 -7.9624 -2.0134 0.9618
5.9148 -7.4632 -2.0129 0.9618
7.6715 -5.6275 -2.0111 0.9618
8.1395 -4.9195 -2.0104 0.9619
8.8760 -3.3934 -2.0086 0.9619
9.4831 -0.0777 -2.0046 0.9620
9.4472 0.7674 -2.0035 0.9620
7.9461 3.7218 -1.8548 0.9648
5.6090 3.9749 -1.4531 0.9723
5.0242 4.2816 -1.3953 0.9734
4.7896 4.8825 -1.4457 0.9724
4.5860 8.2361 -1.9926 0.9622
3.8324 8.6090 -1.9919 0.9622
2.2417 9.1474 -1.9908 0.9622
1.4172 9.3087 -1.9903 0.9622
-0.2579 9.4095 -1.9897 0.9622
-1.9241 9.2131 -1.9895 0.9623
-4.2937 8.3775 -1.9899 0.9622
-5.0240 7.9627 -1.9902 0.9622
-5.7149 7.4847 -1.9906 0.9622
-6.3608 6.9474 -1.9911 0.9622
-6.9567 6.3546 -1.9917 0.9622
-7.9799 5.0221 -1.9930 0.9622
-8.3992 4.2926 -1.9938 0.9622
-8.7521 3.5285 -1.9947 0.9622
7.5488 -4.0109 -2.0090 0.9655
7.8732 -3.3209 -2.0083 0.9655
8.1345 -2.6049 -2.0074 0.9655
8.3306 -1.8687 -2.0065 0.9655
8.5222 -0.3597 -2.0047 0.9656
8.5162 0.4011 -2.0037 0.9656
7.7366 1.7752 -1.8655 0.9679
7.2587 3.1035 -1.8553 0.9681
6.9498 3.7363 -1.8545 0.9681
5.8442 3.8501 -1.6448 0.9717
4.6788 3.7203 -1.4049 0.9757
4.6785 4.4557 -1.5184 0.9738
5.1969 5.9188 -1.8512 0.9682
4.6469 6.3560 -1.8505 0.9682
3.2823 5.4503 -1.4953 0.9742
3.7102 7.6260 -1.9932 0.9658
3.0149 7.9240 -1.9926 0.9658
1.5594 8.3295 -1.9916 0.9658
0.0558 8.4714 -1.9910 0.9658
-1.4489 8.3455 -1.9907 0.9658
-2.1869 8.1832 -1.9907 0.9658
-2.9076 7.9560 -1.9908 0.9658
-3.6054 7.6658 -1.9910 0.9658
-4.2749 7.3149 -1.9912 0.9658
-4.9106 6.9059 -1.9915 0.9658
-5.5077 6.4421 -1.9920 0.9658
-6.0614 5.9271 -1.9925 0.9658
-6.5674 5.3648 -1.9930 0.9658
-7.0217 4.7596 -1.9937 0.9657
-7.7608 3.4399 -1.9951 0.9657
-8.2552 2.0091 -1.9968 0.9657
-8.3337 -1.7544 -2.0015 0.9656
-4.7755 -6.2903 -1.8561 0.9681
-2.2793 -7.5721 -1.8585 0.9680
1.2126 -7.8199 -1.8598 0.9680
1.9047 -7.6808 -1.8598 0.9680
5.4439 -6.6054 -2.0117 0.9654
6.5268 -5.5311 -2.0107 0.9655
7.4002 -4.2816 -2.0093 0.9655
8.0365 -2.8975 -2.0078 0.9655
8.5052 -0.6674 -2.0051 0.9656
8.4804 0.8525 -2.0031 0.9656
7.3675 2.8399 -1.8557 0.9681
6.7398 4.0989 -1.8539 0.9681
5.0208 5.3179 -1.7189 0.9704
3.4824 5.3365 -1.4976 0.9742
3.6960 6.9471 -1.8494 0.9682
2.5895 8.0717 -1.9923 0.9658
1.8594 8.2684 -1.9918 0.9658
0.3618 8.4643 -1.9911 0.9658
-0.3940 8.4619 -1.9909 0.9658
-2.6184 8.0556 -1.9908 0.9658
-3.3261 7.7907 -1.9909 0.9658
-4.0076 7.4641 -1.9911 0.9658
-5.2710 6.6363 -1.9918 0.9658
-6.3686 5.5978 -1.9928 0.9658
-7.2660 4.3810 -1.9941 0.9657
-7.6303 3.7174 -1.9948 0.9657
-7.9344 3.0237 -1.9956 0.9657
-8.3524 1.5683 -1.9973 0.9657
-8.4629 0.8181 -1.9982 0.9657
-8.5061 0.0606 -1.9992 0.9657
-8.3900 -1.4520 -2.0011 0.9656
-7.3680 -4.3006 -2.0051 0.9656
-6.9586 -4.9425 -2.0060 0.9655
-5.5215 -5.6406 -1.8551 0.9681
-4.9988 -6.1127 -1.8558 0.9681
-4.4358 -6.5364 -1.8565 0.9681
-3.8369 -6.9082 -1.8572 0.9681
-3.2070 -7.2249 -1.8578 0.9680
-1.8743 -7.6835 -1.8588 0.9680
0.9293 -7.8585 -1.8598 0.9680
1.6261 -7.7446 -1.8598 0.9680
2.3098 -7.5688 -1.8598 0.9680
3.9115 -7.6118 -2.0113 0.9654
4.5765 -7.2363 -2.0123 0.9654
6.3235 -5.7639 -2.0109 0.9655
6.8100 -5.1758 -2.0103 0.9655
7.9279 -3.1864 -2.0081 0.9655
8.3605 -1.7267 -2.0064 0.9655
7.6701 1.8977 -1.8570 0.9681
7.4667 2.5725 -1.8561 0.9681
5.7256 3.9131 -1.6299 0.9719
4.6589 3.8355 -1.4183 0.9755
4.5724 4.5053 -1.5086 0.9740
4.5379 6.4336 -1.8503 0.9682
3.9450 6.8100 -1.8497 0.9682
3.5799 7.6875 -1.9930 0.9658
2.8797 7.9737 -1.9925 0.9658
2.1570 8.1966 -1.9920 0.9658
1.4176 8.3545 -1.9916 0.9658
-0.0882 8.4709 -1.9910 0.9658
-4.3987 7.2414 -1.9913 0.9658
-5.6166 6.3479 -1.9921 0.9658
-6.1616 5.8235 -1.9926 0.9658
-6.6580 5.2527 -1.9931 0.9658
-7.1020 4.6399 -1.9938 0.9657
-7.4900 3.9899 -1.9945 0.9657
-7.8188 3.3078 -1.9953 0.9657
-8.2888 1.8686 -1.9970 0.9657
-8.4967 0.3677 -1.9988 0.9657
-8.4998 -0.3912 -1.9998 0.9656
-8.3035 -1.8959 -2.0017 0.9656
-7.8427 -3.3433 -2.0037 0.9656
-6.6882 -5.3064 -2.0065 0.9655
-4.6683 -6.3710 -1.8563 0.9681
-4.0834 -6.7641 -1.8569 0.9681
-3.4654 -7.1035 -1.8576 0.9680
-0.0606 -7.9121 -1.8596 0.9680
1.3453 -7.7982 -1.8598 0.9680
2.7149 -7.4534 -1.8643 0.9679
3.6269 -7.7328 -2.0074 0.9655
4.3124 -7.3973 -2.0124 0.9654
4.9537 -6.9823 -2.0121 0.9654
5.5551 -6.5117 -2.0116 0.9654
6.1119 -5.9892 -2.0111 0.9654
6.6194 -5.4191 -2.0106 0.9655
7.0738 -4.8060 -2.0099 0.9655
8.2942 -2.0279 -2.0067 0.9655
8.4381 -1.2801 -2.0058 0.9655
8.5146 -0.5227 -2.0049 0.9656
8.4639 0.9964 -2.0030 0.9656
7.5563 2.3016 -1.8564 0.9681
7.0207 3.6031 -1.8546 0.9681
6.6685 4.2125 -1.8538 0.9681
4.8038 4.4029 -1.5315 0.9736
5.0580 5.5432 -1.7636 0.9696
3.3861 5.3867 -1.4953 0.9742
3.1661 7.8654 -1.9927 0.9658
1.7185 8.2985 -1.9917 0.9658
0.9719 8.4171 -1.9913 0.9658
0.2179 8.4690 -1.9911 0.9658
-1.2890 8.3718 -1.9907 0.9658
-3.4581 7.7332 -1.9909 0.9658
-5.3832 6.5460 -1.9919 0.9658
-6.4632 5.4891 -1.9929 0.9658
-6.9289 4.8927 -1.9935 0.9657
-7.3399 4.2572 -1.9942 0.9657
-8.4763 0.6742 -1.9984 0.9657
-8.5067 -0.0840 -1.9994 0.9656
-8.4695 -0.8422 -2.0003 0.9656
-8.1935 -2.3348 -2.0023 0.9656
-7.9567 -3.0573 -2.0033 0.9656
-7.6563 -3.7561 -2.0043 0.9656
-7.2945 -4.4256 -2.0052 0.9655
-6.8743 -5.0605 -2.0062 0.9655
-3.7192 -6.9728 -1.8573 0.9680
-3.0839 -7.2788 -1.8579 0.9680
-2.4236 -7.5267 -1.8584 0.9680
-1.7435 -7.7146 -1.8588 0.9680
-1.0492 -7.8408 -1.8592 0.9680
-0.3463 -7.9043 -1.8595 0.9680
0.3596 -7.9046 -1.8597 0.9680
2.4381 -7.5284 -1.8598 0.9680
5.3168 -6.7087 -2.0118 0.9654
5.8922 -6.2067 -2.0113 0.9654
8.2170 -2.3266 -2.0071 0.9655
8.3879 -1.5843 -2.0062 0.9655
8.3476 1.4355 -1.9907 0.9658
7.1477 3.3478 -1.8550 0.9681
6.8176 3.9696 -1.8541 0.9681
5.0818 3.6013 -1.4638 0.9747
4.7893 4.8822 -1.6073 0.9723
3.8285 6.8757 -1.8496 0.9682
3.4485 7.7468 -1.9929 0.9658
2.7436 8.0211 -1.9924 0.9658
2.0173 8.2317 -1.9919 0.9658
0.5236 8.4560 -1.9912 0.9658
-0.9858 8.4130 -1.9908 0.9658
-4.5212 7.1658 -1.9913 0.9658
-5.1428 6.7356 -1.9917 0.9658
-5.7240 6.2518 -1.9921 0.9658
-6.2600 5.7183 -1.9927 0.9658
-6.7468 5.1391 -1.9933 0.9658
-7.1803 4.5189 -1.9939 0.9657
-7.5572 3.8623 -1.9946 0.9657
-7.8745 3.1747 -1.9954 0.9657
6.5004 -4.2370 -2.0090 0.9684
6.8499 -3.6396 -2.0084 0.9685
7.3818 -2.3639 -2.0069 0.9685
7.6780 -1.0149 -2.0053 0.9685
7.7346 -0.3264 -2.0044 0.9685
7.5354 1.7290 -2.0018 0.9686
6.8501 2.2305 -1.8653 0.9707
6.3093 3.3920 -1.8547 0.9708
5.7751 3.8046 -1.7906 0.9718
4.6879 4.4647 -1.6762 0.9736
4.7187 5.3742 -1.8517 0.9709
4.2194 5.7713 -1.8511 0.9709
3.2650 5.4217 -1.6387 0.9742
2.7378 7.1958 -1.9934 0.9687
2.0851 7.4094 -1.9930 0.9687
1.4162 7.5643 -1.9926 0.9687
0.7363 7.6592 -1.9922 0.9687
0.0507 7.6934 -1.9920 0.9687
-1.3158 7.5792 -1.9917 0.9687
-3.2743 6.9618 -1.9920 0.9687
-4.4595 6.2716 -1.9925 0.9687
-5.9637 4.8717 -1.9938 0.9687
-7.0468 3.1234 -1.9957 0.9687
-7.6309 1.1493 -1.9981 0.9686
-7.7204 -0.2240 -1.9998 0.9686
-7.5647 -1.5925 -2.0016 0.9686
-7.3960 -2.2614 -2.0025 0.9685
-7.1682 -2.9129 -2.0034 0.9685
-5.7005 -5.2360 -2.0041 0.9685
-4.3334 -5.7079 -1.8555 0.9708
-3.8087 -6.0734 -1.8561 0.9708
-2.0680 -6.8702 -1.8577 0.9708
-1.4478 -7.0286 -1.8580 0.9708
0.4634 -7.1640 -1.8588 0.9708
1.1001 -7.0946 -1.8589 0.9708
1.7281 -6.9684 -1.8589 0.9708
2.5254 -7.3173 -2.0042 0.9685
4.3863 -6.4106 -2.0112 0.9684
4.9392 -5.9931 -2.0108 0.9684
5.4525 -5.5278 -2.0104 0.9684
5.9220 -5.0186 -2.0098 0.9684
7.6377 -1.2918 -2.0056 0.9685
7.7191 -0.6057 -2.0048 0.9685
7.7390 0.0847 -2.0039 0.9685
7.6973 0.7737 -2.0030 0.9685
6.6880 2.5780 -1.8558 0.9708
6.1197 3.0104 -1.7658 0.9722
6.1187 3.7212 -1.8542 0.9708
5.4164 3.9962 -1.7428 0.9726
4.9083 4.3476 -1.6977 0.9733
3.4719 5.3204 -1.6449 0.9741
3.3562 6.3084 -1.8501 0.9709
-0.3578 7.6848 -1.9919 0.9687
-1.7164 7.4986 -1.9917 0.9687
-2.3779 7.3159 -1.9918 0.9687
-3.6396 6.7786 -1.9921 0.9687
-4.7867 6.0266 -1.9927 0.9687
-5.3059 5.5772 -1.9931 0.9687
-6.5978 3.9781 -1.9948 0.9687
-6.9284 3.3754 -1.9954 0.9687
-7.2042 2.7454 -1.9962 0.9686
-7.5832 1.4239 -1.9977 0.9686
-7.7220 0.0550 -1.9994 0.9686
-7.6159 -1.3180 -2.0012 0.9686
-7.2674 -2.6516 -2.0030 0.9685
-7.0052 -3.2902 -2.0039 0.9685
-6.6870 -3.9031 -2.0047 0.9685
-6.3152 -4.4855 -2.0056 0.9685
-5.8927 -5.0325 -2.0064 0.9685
-5.3343 -5.4494 -1.9744 0.9690
-2.9098 -6.5554 -1.8570 0.9708
-2.3146 -6.7904 -1.8575 0.9708
-1.0726 -7.0963 -1.8582 0.9708
-0.4360 -7.1647 -1.8585 0.9708
0.8431 -7.1296 -1.8588 0.9708
1.4752 -7.0263 -1.8589 0.9708
3.5509 -6.9101 -2.0116 0.9684
4.1521 -6.5653 -2.0113 0.9684
4.7199 -6.1680 -2.0110 0.9684
6.9103 -3.5224 -2.0082 0.9685
7.4204 -2.2379 -2.0068 0.9685
7.7384 -0.1949 -2.0043 0.9685
6.5400 2.9287 -1.8554 0.9708
5.6579 3.8668 -1.7744 0.9721
4.6263 5.4532 -1.8516 0.9709
2.6150 7.2409 -1.9933 0.9687
1.9588 7.4435 -1.9929 0.9687
1.2874 7.5870 -1.9925 0.9687
-0.7653 7.6547 -1.9918 0.9687
-1.4444 7.5557 -1.9917 0.9687
-2.1121 7.3969 -1.9917 0.9687
-2.7631 7.1796 -1.9918 0.9687
-3.3922 6.9053 -1.9920 0.9687
-3.9947 6.5763 -1.9922 0.9687
-5.1006 5.7646 -1.9929 0.9687
-5.5953 5.2883 -1.9934 0.9687
-6.0460 4.7699 -1.9939 0.9687
-7.6499 1.0195 -1.9982 0.9686
-7.6571 -1.0419 -2.0008 0.9686
-7.3571 -2.3869 -2.0026 0.9685
-6.4720 -4.2538 -2.0053 0.9685
-6.0696 -4.8156 -2.0061 0.9685
-4.7327 -5.3786 -1.8550 0.9708
-4.2360 -5.7811 -1.8556 0.9708
-3.7051 -6.1376 -1.8563 0.9708
-1.9510 -6.9047 -1.8577 0.9708
-1.3282 -7.0525 -1.8581 0.9708
1.2205 -7.0749 -1.8589 0.9708
1.8657 -7.0110 -1.8785 0.9705
2.6514 -7.2790 -2.0058 0.9685
3.2992 -7.0341 -2.0116 0.9684
5.0402 -5.9080 -2.0107 0.9684
5.5454 -5.4341 -2.0103 0.9684
6.0061 -4.9170 -2.0097 0.9684
6.4186 -4.3608 -2.0092 0.9684
7.5270 -1.8404 -2.0063 0.9685
7.5678 1.5847 -2.0019 0.9686
7.0175 2.1375 -1.8994 0.9701
6.6427 2.6911 -1.8557 0.9708
5.3146 4.0624 -1.7320 0.9727
4.8039 4.4030 -1.6872 0.9734
4.8210 5.2834 -1.8519 0.9709
3.3758 5.3704 -1.6424 0.9741
2.2266 7.3685 -1.9930 0.9687
1.5607 7.5361 -1.9926 0.9687
0.8827 7.6439 -1.9923 0.9687
-0.4884 7.6775 -1.9919 0.9687
-1.1706 7.6030 -1.9918 0.9687
-2.5019 7.2745 -1.9918 0.9687
-3.7543 6.7159 -1.9921 0.9687
-5.8691 4.9846 -1.9937 0.9687
-6.2918 4.4429 -1.9943 0.9687
-6.9852 3.2574 -1.9956 0.9687
-7.2504 2.6228 -1.9963 0.9686
-7.4582 1.9669 -1.9971 0.9686
-7.6069 1.2949 -1.9979 0.9686
-7.7225 -0.0762 -1.9996 0.9686
-7.5930 -1.4474 -2.0014 0.9686
-7.4371 -2.1193 -2.0023 0.9686
-7.2219 -2.7749 -2.0032 0.9685
-6.9489 -3.4091 -2.0040 0.9685
-6.6203 -4.0165 -2.0049 0.9685
-6.2386 -4.5925 -2.0058 0.9685
-5.1253 -5.4170 -1.9308 0.9697
-3.9239 -5.9990 -1.8560 0.9708
-0.9519 -7.1138 -1.8583 0.9708
0.3263 -7.1715 -1.8587 0.9708
1.5944 -7.0002 -1.8589 0.9708
2.3440 -7.2378 -1.9698 0.9691
3.6678 -6.8486 -2.0115 0.9684
6.2576 -4.5903 -2.0094 0.9684
7.6122 -1.4378 -2.0058 0.9685
7.7069 -0.7533 -2.0050 0.9685
7.6215 1.3106 -2.0023 0.9686
7.3508 1.9519 -1.9692 0.9691
6.7368 2.4498 -1.8560 0.9708
5.5428 3.9280 -1.7590 0.9723
5.0274 4.2843 -1.7102 0.9731
4.6802 4.7710 -1.7304 0.9728
4.5327 5.5307 -1.8515 0.9709
3.5852 5.2709 -1.6505 0.9740
3.4765 6.2435 -1.8503 0.9709
1.8320 7.4754 -1.9928 0.9687
0.4755 7.6794 -1.9921 0.9687
-0.8953 7.6405 -1.9918 0.9687
-1.5726 7.5301 -1.9917 0.9687
-2.8847 7.1317 -1.9919 0.9687
-3.5092 6.8468 -1.9920 0.9687
-4.1060 6.5076 -1.9923 0.9687
-4.6704 6.1168 -1.9926 0.9687
-5.6847 5.1927 -1.9935 0.9687
-6.5200 4.1033 -1.9946 0.9687
-7.1498 2.8825 -1.9960 0.9686
5.9434 -3.8739 -2.0084 0.9709
6.2632 -3.3278 -2.0078 0.9709
6.5327 -2.7555 -2.0071 0.9710
6.9133 -1.5508 -2.0057 0.9710
7.0213 -0.9281 -2.0050 0.9710
7.0689 0.3329 -2.0034 0.9710
7.0083 0.9612 -2.0026 0.9710
6.8919 1.5814 -2.0018 0.9710
6.7208 2.1884 -2.0009 0.9710
5.7712 3.1026 -1.8549 0.9731
5.4695 3.6033 -1.8542 0.9731
4.6790 3.7204 -1.6923 0.9755
2.8671 5.8931 -1.8553 0.9731
2.5049 6.5836 -1.9941 0.9711
0.6737 7.0080 -1.9930 0.9712
-0.5811 7.0149 -1.9927 0.9712
-3.5521 6.0782 -1.9930 0.9712
-4.0803 5.7383 -1.9933 0.9712
-4.5763 5.3527 -1.9936 0.9711
-5.0362 4.9245 -1.9940 0.9711
-5.4563 4.4571 -1.9945 0.9711
-6.1644 3.4195 -1.9956 0.9711
-6.6779 2.2722 -1.9969 0.9711
-6.9804 1.0513 -1.9984 0.9711
-7.0617 -0.2049 -1.9999 0.9711
-7.0181 -0.8338 -2.0008 0.9710
-6.9187 -1.4565 -2.0016 0.9710
-6.7642 -2.0682 -2.0024 0.9710
-6.2946 -3.2389 -2.0040 0.9710
-5.9832 -3.7885 -2.0048 0.9710
-5.6239 -4.3083 -2.0056 0.9710
-5.2195 -4.7942 -2.0063 0.9710
-4.7593 -5.2270 -2.0012 0.9710
-4.0103 -5.2824 -1.8775 0.9728
-1.8907 -6.2812 -1.8570 0.9731
-1.3236 -6.4259 -1.8573 0.9731
-0.7457 -6.5193 -1.8576 0.9731
-0.1618 -6.5606 -1.8578 0.9731
1.0195 -6.5751 -1.8836 0.9727
2.3174 -6.7147 -2.0109 0.9709
2.9065 -6.4811 -2.0108 0.9709
4.0101 -5.8608 -2.0104 0.9709
4.9851 -5.0539 -2.0096 0.9709
5.4144 -4.5884 -2.0091 0.9709
5.8003 -4.0865 -2.0086 0.9709
6.4298 -2.9900 -2.0074 0.9710
6.6685 -2.4043 -2.0067 0.9710
6.8538 -1.7997 -2.0060 0.9710
6.9843 -1.1813 -2.0053 0.9710
7.0590 -0.5539 -2.0045 0.9710
7.0396 0.7076 -2.0029 0.9710
6.9457 1.3317 -2.0021 0.9710
6.7966 1.9446 -2.0013 0.9710
6.3780 2.4585 -1.9351 0.9720
5.8923 2.8985 -1.8590 0.9731
4.8503 4.2962 -1.8343 0.9734
1.5450 6.8702 -1.9935 0.9712
-2.7639 6.4738 -1.9927 0.9712
-3.3301 6.2023 -1.9929 0.9712
-4.3797 5.5141 -1.9935 0.9712
-6.0361 3.6395 -1.9954 0.9711
-6.3384 3.0880 -1.9960 0.9711
-6.5906 2.5116 -1.9966 0.9711
-7.0425 -0.5796 -2.0004 0.9711
-6.9657 -1.2055 -2.0012 0.9710
-6.8333 -1.8223 -2.0021 0.9710
-4.9526 -5.0594 -2.0043 0.9710
-4.3320 -5.2974 -1.9372 0.9720
-3.1832 -5.7311 -1.8559 0.9731
-2.1161 -6.2083 -1.8568 0.9731
-0.9807 -6.4877 -1.8575 0.9731
-0.3986 -6.5502 -1.8577 0.9731
6.7853 -2.0464 -2.0063 0.9710
6.9381 -1.4330 -2.0056 0.9710
7.0355 -0.8086 -2.0048 0.9710
7.0617 0.4530 -2.0032 0.9710
6.9904 1.0801 -2.0024 0.9710
6.8635 1.6981 -2.0016 0.9710
5.9870 2.6810 -1.8571 0.9731
5.7172 3.2000 -1.8548 0.9731
4.6584 3.8351 -1.7082 0.9752
4.5318 4.4654 -1.8011 0.9739
3.7697 5.3445 -1.8515 0.9732
3.2330 5.5809 -1.8259 0.9735
1.7922 6.8104 -1.9936 0.9711
1.1779 6.9419 -1.9933 0.9712
-0.0732 7.0390 -1.9928 0.9712
-2.5282 6.5692 -1.9927 0.9712
-3.1038 6.3182 -1.9928 0.9712
-3.6550 6.0171 -1.9930 0.9712
-4.1774 5.6683 -1.9933 0.9712
-4.6668 5.2743 -1.9937 0.9711
-5.1193 4.8384 -1.9941 0.9711
-5.5315 4.3640 -1.9946 0.9711
-5.9001 3.8547 -1.9951 0.9711
-6.2220 3.3145 -1.9957 0.9711
-6.4947 2.7476 -1.9964 0.9711
-6.7160 2.1586 -1.9970 0.9711
-7.0557 0.3053 -1.9993 0.9711
-7.0035 -0.9530 -2.0009 0.9710
-6.7286 -2.1830 -2.0026 0.9710
-6.2391 -3.3457 -2.0042 0.9710
-4.6666 -5.3035 -1.9999 0.9711
-3.8741 -5.2871 -1.8555 0.9731
-2.3388 -6.1272 -1.8566 0.9731
-1.7837 -6.3126 -1.8570 0.9731
-1.2143 -6.4477 -1.8574 0.9731
0.5349 -6.5414 -1.8580 0.9731
1.1446 -6.6347 -1.9060 0.9724
1.8214 -6.8447 -2.0051 0.9710
3.0162 -6.4307 -2.0108 0.9709
4.1090 -5.7916 -2.0103 0.9709
5.4913 -4.4955 -2.0091 0.9709
5.8686 -3.9872 -2.0085 0.9709
6.1988 -3.4472 -2.0079 0.9709
6.4793 -2.8801 -2.0073 0.9710
6.8829 -1.6829 -2.0059 0.9710
7.0746 0.1977 -2.0036 0.9710
7.0260 0.8271 -2.0027 0.9710
6.7620 2.0597 -2.0011 0.9710
6.2476 2.5310 -1.9083 0.9724
5.2021 3.9764 -1.8536 0.9731
4.7471 4.3510 -1.8229 0.9736
3.9607 5.2055 -1.8517 0.9732
2.9719 5.8226 -1.8506 0.9732
2.0372 6.7418 -1.9938 0.9711
1.4279 6.8952 -1.9934 0.9712
-1.0711 6.9567 -1.9926 0.9712
-1.6869 6.8335 -1.9926 0.9712
-3.9697 5.8151 -1.9932 0.9712
-5.7563 4.0648 -1.9949 0.9711
-6.0974 3.5366 -1.9955 0.9711
-6.3904 2.9800 -1.9961 0.9711
-6.6327 2.3994 -1.9968 0.9711
-6.8226 1.7993 -1.9975 0.9711
-6.9584 1.1845 -1.9982 0.9711
-7.0637 -0.0697 -1.9998 0.9711
-6.8019 -1.9383 -2.0022 0.9710
-5.7048 -4.1996 -2.0054 0.9710
-4.8622 -5.1390 -2.0028 0.9710
-4.1736 -5.2845 -1.9063 0.9724
-3.5877 -5.4851 -1.8555 0.9731
-2.5583 -6.0382 -1.8565 0.9731
-2.0104 -6.2436 -1.8569 0.9731
-1.4462 -6.3992 -1.8572 0.9731
-0.8703 -6.5036 -1.8575 0.9731
0.8828 -6.5139 -1.8609 0.9730
1.5556 -6.8298 -1.9830 0.9713
3.3532 -6.2612 -2.0107 0.9709
3.8973 -5.9366 -2.0104 0.9709
4.4102 -5.5648 -2.0101 0.9709
4.8877 -5.1486 -2.0097 0.9709
5.3259 -4.6914 -2.0093 0.9709
5.7214 -4.1970 -2.0087 0.9709
6.0710 -3.6693 -2.0082 0.9709
6.8186 -1.9306 -2.0062 0.9710
6.9610 -1.3148 -2.0054 0.9710
6.5291 2.3743 -1.9668 0.9715
5.9352 2.7799 -1.8554 0.9731
4.5827 4.6716 -1.8526 0.9732
3.5504 5.2198 -1.7871 0.9741
2.2795 6.6644 -1.9940 0.9711
1.6762 6.8397 -1.9936 0.9711
1.0597 6.9607 -1.9932 0.9712
0.4351 7.0265 -1.9930 0.9712
-0.1929 7.0366 -1.9928 0.9712
-0.8192 6.9910 -1.9926 0.9712
-2.6395 6.5254 -1.9927 0.9712
-3.2108 6.2647 -1.9929 0.9712
-3.7568 5.9543 -1.9931 0.9712
-5.2011 4.7510 -1.9942 0.9711
-5.9650 3.7540 -1.9952 0.9711
-6.5409 2.6370 -1.9965 0.9711
6.2115 -1.9891 -2.0061 0.9731
6.3619 -1.4271 -2.0054 0.9731
6.4615 -0.8541 -2.0047 0.9731
6.5096 -0.2747 -2.0040 0.9731
6.3433 1.4555 -2.0017 0.9731
5.0348 3.3168 -1.8544 0.9751
4.6563 3.7024 -1.8298 0.9754
4.3629 4.1552 -1.8532 0.9751
3.9740 4.5261 -1.8526 0.9751
3.1055 5.1568 -1.8515 0.9751
2.7898 5.7342 -1.9614 0.9737
2.3062 6.0614 -1.9947 0.9732
1.7565 6.2416 -1.9943 0.9732
1.1930 6.3722 -1.9940 0.9732
0.6202 6.4523 -1.9937 0.9732
0.0427 6.4812 -1.9935 0.9732
-2.7585 5.8650 -1.9935 0.9732
-3.7568 5.2832 -1.9939 0.9732
-4.6367 4.5339 -1.9946 0.9732
-5.3704 3.6404 -1.9956 0.9732
-6.1475 2.0918 -1.9973 0.9732
-6.4885 0.3914 -1.9994 0.9732
-6.5000 -0.1886 -2.0001 0.9732
-6.4597 -0.7674 -2.0008 0.9731
-6.3680 -1.3406 -2.0016 0.9731
-6.2255 -1.9035 -2.0023 0.9731
-5.7930 -2.9808 -2.0038 0.9731
-2.7369 -5.3763 -1.8556 0.9751
-0.6861 -5.9982 -1.8570 0.9751
0.4043 -6.2499 -1.9264 0.9741
2.1322 -6.1780 -2.0102 0.9730
2.6742 -5.9631 -2.0101 0.9730
4.5868 -4.6501 -2.0090 0.9730
5.3371 -3.7602 -2.0081 0.9730
5.9166 -2.7514 -2.0070 0.9731
6.1364 -2.2124 -2.0063 0.9731
6.3071 -1.6562 -2.0057 0.9731
6.5136 0.0713 -2.0036 0.9731
6.4789 0.6513 -2.0028 0.9731
6.3927 1.2256 -2.0021 0.9731
6.2556 1.7898 -2.0013 0.9731
5.6990 2.8034 -1.9535 0.9738
4.8506 3.5787 -1.8540 0.9751
3.7274 4.7298 -1.8523 0.9751
2.5238 5.9746 -1.9949 0.9732
0.8529 6.4260 -1.9938 0.9732
-1.4460 6.3173 -1.9933 0.9732
-2.0033 6.1634 -1.9933 0.9732
-2.5448 5.9606 -1.9934 0.9732
-3.0661 5.7105 -1.9936 0.9732
-3.5633 5.4152 -1.9938 0.9732
-4.4695 4.6980 -1.9945 0.9732
-4.8715 4.2819 -1.9949 0.9732
-5.8352 2.8428 -1.9964 0.9732
-6.0672 2.3121 -1.9970 0.9732
-6.3855 1.1990 -1.9984 0.9732
-6.4692 0.6254 -1.9991 0.9732
-6.4822 -0.5335 -2.0005 0.9731
-6.1170 -2.2319 -2.0028 0.9731
-5.6278 -3.2849 -2.0043 0.9731
-5.3145 -3.7747 -2.0050 0.9731
-4.1227 -5.0414 -2.0031 0.9731
-1.9471 -5.7123 -1.8562 0.9751
-1.4305 -5.8641 -1.8566 0.9751
-0.9023 -5.9692 -1.8569 0.9751
-0.3667 -6.0266 -1.8571 0.9750
0.1749 -6.1422 -1.8900 0.9746
2.9868 -5.8124 -2.0100 0.9730
3.4926 -5.5224 -2.0098 0.9730
5.1983 -3.9509 -2.0083 0.9730
5.5283 -3.4710 -2.0078 0.9731
6.0532 -2.4329 -2.0066 0.9731
6.3848 -1.3187 -2.0053 0.9731
6.4992 0.4169 -2.0031 0.9731
6.4337 0.9941 -2.0024 0.9731
6.3171 1.5630 -2.0016 0.9731
6.1504 2.1190 -2.0009 0.9731
5.3519 2.9956 -1.8864 0.9747
4.6189 3.8026 -1.8402 0.9753
3.4704 4.9202 -1.8519 0.9751
3.0173 5.2086 -1.8514 0.9751
1.0845 6.3914 -1.9940 0.9732
-0.0674 6.4809 -1.9935 0.9732
-1.2169 6.3654 -1.9933 0.9732
-1.7794 6.2316 -1.9933 0.9732
-2.8578 5.8173 -1.9935 0.9732
-3.3652 5.5401 -1.9937 0.9732
-4.2966 4.8560 -1.9943 0.9732
-5.7280 3.0513 -1.9962 0.9732
-5.9789 2.5294 -1.9968 0.9732
-6.3371 1.4287 -1.9981 0.9732
-6.4947 0.2811 -1.9995 0.9732
-6.1927 -2.0092 -2.0025 0.9731
-5.9913 -2.5541 -2.0032 0.9731
-5.4466 -3.5798 -2.0047 0.9731
-3.8429 -5.2446 -1.9998 0.9732
-2.1519 -5.6377 -1.8561 0.9751
-1.6412 -5.8082 -1.8564 0.9751
-1.1172 -5.9324 -1.8567 0.9751
-0.0463 -6.0492 -1.8606 0.9750
1.6807 -6.3159 -2.0103 0.9730
2.2368 -6.1408 -2.0102 0.9730
3.2910 -5.6452 -2.0099 0.9730
3.7806 -5.3288 -2.0096 0.9730
4.2398 -4.9698 -2.0093 0.9730
4.6650 -4.5713 -2.0089 0.9730
5.0527 -4.1365 -2.0085 0.9730
5.3999 -3.6688 -2.0080 0.9730
5.7039 -3.1720 -2.0074 0.9731
5.9622 -2.6503 -2.0068 0.9731
6.1727 -2.1077 -2.0062 0.9731
6.3339 -1.5487 -2.0056 0.9731
6.5037 -0.3992 -2.0042 0.9731
6.4664 0.7612 -2.0027 0.9731
6.0279 2.4420 -2.0004 0.9731
5.0977 3.2202 -1.8546 0.9751
4.7887 3.6604 -1.8539 0.9751
2.7441 5.3764 -1.8566 0.9751
2.4218 6.0164 -1.9948 0.9732
0.7436 6.4394 -1.9938 0.9732
0.1667 6.4794 -1.9936 0.9732
-0.4114 6.4679 -1.9934 0.9732
-3.1628 5.6577 -1.9936 0.9732
-4.1181 5.0077 -1.9942 0.9732
-4.9437 4.1986 -1.9950 0.9732
-5.6134 3.2559 -1.9960 0.9732
-5.8830 2.7434 -1.9965 0.9732
-6.1059 2.2088 -1.9972 0.9732
-6.2806 1.6564 -1.9978 0.9732
-6.4794 0.5154 -1.9992 0.9732
-6.5019 -0.0642 -1.9999 0.9732
-6.4727 -0.6437 -2.0007 0.9731
-6.2603 -1.7839 -2.0022 0.9731
-6.0787 -2.3357 -2.0029 0.9731
-5.2499 -3.8647 -2.0051 0.9731
-4.8863 -4.3187 -2.0058 0.9731
-4.0343 -5.1080 -2.0020 0.9731
-3.4379 -5.2560 -1.9317 0.9741
-2.3539 -5.5559 -1.8559 0.9751
-1.8498 -5.7447 -1.8563 0.9751
-1.3306 -5.8878 -1.8566 0.9751
-0.8007 -5.9838 -1.8569 0.9751
-0.2643 -6.0321 -1.8571 0.9750
0.2817 -6.1911 -1.9062 0.9744
0.8745 -6.4529 -2.0029 0.9731
1.4504 -6.3677 -2.0087 0.9730
2.0136 -6.2177 -2.0102 0.9730
4.0578 -5.1201 -2.0094 0.9730
4.9005 -4.3166 -2.0087 0.9730
5.5862 -3.3763 -2.0077 0.9731
5.8633 -2.8642 -2.0071 0.9731
6.0934 -2.3296 -2.0065 0.9731
6.2747 -1.7766 -2.0058 0.9731
6.4059 -1.2099 -2.0052 0.9731
6.5143 -0.0534 -2.0037 0.9731
6.4154 1.1032 -2.0022 0.9731
6.2892 1.6700 -2.0015 0.9731
5.8300 2.7306 -1.9801 0.9734
5.2455 3.0542 -1.8670 0.9749
4.9185 3.4855 -1.8542 0.9751
4.5867 3.9087 -1.8535 0.9751
4.2187 4.3005 -1.8529 0.9751
3.3861 4.9782 -1.8518 0.9751
1.5432 6.2972 -1.9942 0.9732
0.9757 6.4087 -1.9939 0.9732
-0.7542 6.4368 -1.9934 0.9732
-1.3249 6.3438 -1.9933 0.9732
-2.4302 6.0081 -1.9934 0.9732
-5.1604 3.9308 -1.9953 0.9732
-5.7794 2.9537 -1.9963 0.9732
-6.0214 2.4276 -1.9969 0.9732
5.0592 -3.2976 -2.0074 0.9749
5.3316 -2.8329 -2.0069 0.9749
5.8859 -1.3203 -2.0051 0.9749
6.0229 -0.2542 -2.0038 0.9749
5.9682 0.8186 -2.0024 0.9749
5.8695 1.3468 -2.0017 0.9749
5.7241 1.8639 -2.0011 0.9749
5.5333 2.3658 -2.0004 0.9750
4.3925 3.4926 -1.8654 0.9766
4.0428 3.8503 -1.8558 0.9767
2.8742 4.7727 -1.8519 0.9768
2.6266 5.3987 -1.9957 0.9750
1.6257 5.7770 -1.9949 0.9750
-0.4953 5.9783 -1.9940 0.9750
-2.0591 5.6342 -1.9940 0.9750
-2.5532 5.4286 -1.9941 0.9750
-3.4772 4.8901 -1.9945 0.9750
-4.2915 4.1964 -1.9952 0.9750
-4.6494 3.7980 -1.9956 0.9750
-5.2523 2.9136 -1.9965 0.9750
-5.4925 2.4345 -1.9971 0.9750
-5.6893 1.9358 -1.9976 0.9750
-5.9463 0.8956 -1.9989 0.9750
-5.9774 -0.7101 -2.0009 0.9749
-5.8924 -1.2405 -2.0016 0.9749
-5.3599 -2.7579 -2.0037 0.9749
-5.0945 -3.2257 -2.0044 0.9749
-4.0634 -4.4627 -2.0062 0.9749
-3.6501 -4.8079 -2.0066 0.9749
-3.2001 -5.1030 -2.0022 0.9749
0.9264 -5.9742 -2.0096 0.9748
1.4552 -5.8679 -2.0096 0.9748
1.9723 -5.7148 -2.0096 0.9748
2.4737 -5.5160 -2.0095 0.9748
3.8434 -4.6635 -2.0088 0.9748
4.2430 -4.3016 -2.0084 0.9749
4.9373 -3.4785 -2.0076 0.9749
5.2264 -3.0239 -2.0071 0.9749
5.4736 -2.5454 -2.0066 0.9749
5.8352 -1.5322 -2.0054 0.9749
6.0106 -0.4716 -2.0041 0.9749
6.0267 0.0659 -2.0034 0.9749
5.9948 0.6026 -2.0027 0.9749
5.3988 2.6557 -2.0000 0.9750
5.1025 3.1032 -1.9852 0.9751
4.5888 3.3856 -1.8956 0.9762
3.0450 4.6663 -1.8521 0.9768
2.7303 5.1320 -1.9323 0.9758
2.3359 5.5298 -1.9954 0.9750
1.8334 5.7149 -1.9950 0.9750
1.3166 5.8546 -1.9947 0.9750
0.7894 5.9478 -1.9944 0.9750
0.2562 5.9939 -1.9942 0.9750
-1.3384 5.8473 -1.9939 0.9750
-1.8542 5.7048 -1.9940 0.9750
-2.8380 5.2856 -1.9942 0.9750
-4.8451 3.5462 -1.9958 0.9750
-5.1431 3.1010 -1.9963 0.9750
-5.4004 2.6310 -1.9968 0.9750
-5.6150 2.1398 -1.9974 0.9750
-5.9093 1.1096 -1.9986 0.9750
-5.9983 -0.4937 -2.0006 0.9749
-5.9325 -1.0267 -2.0013 0.9749
-5.8194 -1.5519 -2.0020 0.9749
-5.6600 -2.0651 -2.0027 0.9749
-5.2069 -3.0392 -2.0041 0.9749
-4.2214 -4.3125 -2.0060 0.9749
-3.8214 -4.6729 -2.0066 0.9749
-2.3689 -5.3368 -1.9409 0.9757
