ply
format ascii 1.0
element vertex 1572
property float32 x
property float32 y
property float32 z
property float32 I
end_header
2.6682 -13.3271 -0.3827 0.9471
6.3529 -16.0865 -0.4870 0.9331
1.3033 -17.6723 -0.4990 0.9315
3.5206 -13.6654 -0.3974 0.9451
7.4332 -16.1791 -0.5013 0.9312
4.5299 -14.5542 -0.7730 0.9408
6.5084 -15.7884 -0.8660 0.9339
-0.0139 -18.0329 -0.9145 0.9303
1.5808 -17.8168 -0.9071 0.9309
3.7795 -13.8160 -0.7264 0.9442
6.1303 -16.4717 -0.8913 0.9320
-0.6530 -18.3968 -0.9336 0.9289
3.1870 -13.4711 -0.7020 0.9461
8.5946 -15.7286 -0.9090 0.9307
15.0329 4.1324 -0.7907 0.9395
13.3811 4.9989 -0.7244 0.9444
0.3407 -17.8684 -0.9063 0.9309
2.6682 -13.3273 -0.6893 0.9470
4.2471 -14.3970 -0.7612 0.9417
6.3534 -16.0876 -0.8772 0.9331
-0.2880 -18.4050 -0.9335 0.9289
1.3034 -17.6730 -0.8987 0.9315
2.2954 -13.9677 -0.7179 0.9449
5.9508 -16.7477 -0.9014 0.9313
0.5878 -17.3077 -1.2698 0.9329
2.8658 -13.2840 -0.9964 0.9470
8.6853 -16.6722 -1.3784 0.9274
15.3772 3.9007 -1.1632 0.9384
-0.0139 -18.0328 -1.3222 0.9302
1.5749 -17.7503 -1.3066 0.9310
2.4589 -13.6870 -1.0196 0.9458
3.7794 -13.8159 -1.0502 0.9442
6.1054 -16.4049 -1.2834 0.9322
3.1870 -13.4710 -1.0150 0.9460
17.3176 1.5582 -1.2749 0.9326
4.2466 -14.3955 -1.1005 0.9416
8.2430 -16.4147 -1.3468 0.9290
-0.2880 -18.4054 -1.3497 0.9288
1.2984 -17.6051 -1.2943 0.9316
2.2954 -13.9679 -1.0379 0.9448
3.5205 -13.6652 -1.0347 0.9450
5.9274 -16.6819 -1.2981 0.9315
4.5050 -14.4743 -1.4554 0.9409
6.4814 -15.7229 -1.6327 0.9339
8.6853 -16.6720 -1.8048 0.9272
10.3595 -16.1789 -1.8444 0.9257
11.7563 -15.1856 -1.8437 0.9257
14.2571 -12.8484 -1.8426 0.9258
19.2028 1.3445 -1.8481 0.9256
19.0079 3.0512 -1.8482 0.9256
-18.2630 7.5878 -1.8986 0.9236
-18.4723 5.8056 -1.8590 0.9251
-18.9182 4.1362 -1.8591 0.9251
-19.2127 2.4334 -1.8592 0.9251
-6.9226 -18.5135 -1.8976 0.9236
-5.1183 -18.5981 -1.8519 0.9254
-0.0139 -18.0327 -1.7312 0.9301
7.6838 -16.0890 -1.7117 0.9309
9.7931 -16.5312 -1.8447 0.9257
14.9338 -12.0499 -1.8422 0.9258
19.1017 2.3895 -1.8482 0.9256
15.4975 3.3634 -1.5225 0.9383
14.7858 4.6220 -1.4872 0.9396
-18.7626 4.7902 -1.8591 0.9251
-19.3632 -0.3452 -1.8593 0.9251
-19.2544 -2.0699 -1.8592 0.9251
-4.0956 -18.8444 -1.8514 0.9254
-2.3983 -19.1258 -1.8506 0.9255
-0.6530 -18.3968 -1.7673 0.9287
0.9356 -17.3804 -1.6710 0.9324
6.0787 -18.2468 -1.8464 0.9256
8.5957 -15.7306 -1.7210 0.9305
4.0595 -6.0714 -0.7012 0.9711
12.0542 -14.9483 -1.8436 0.9257
13.3345 -13.8097 -1.8430 0.9258
17.3178 1.5582 -1.6693 0.9325
14.4693 3.9774 -1.4407 0.9415
13.2637 4.9551 -1.3593 0.9447
-18.0697 7.0906 -1.8636 0.9250
-18.5843 5.4383 -1.8590 0.9251
-19.2573 2.0519 -1.8593 0.9251
-19.3637 0.3270 -1.8593 0.9251
-19.3151 -1.4004 -1.8592 0.9251
-6.3984 -18.2044 -1.8525 0.9254
-4.7480 -18.6941 -1.8517 0.9254
-1.3516 -19.2228 -1.8500 0.9255
0.3385 -17.7499 -1.7044 0.9311
2.0816 -19.1399 -1.8484 0.9256
4.2233 -14.3164 -1.4330 0.9418
6.3261 -16.0187 -1.6535 0.9331
11.5297 -15.3597 -1.8438 0.9257
14.0650 -13.0598 -1.8426 0.9258
15.1690 -11.7507 -1.8421 0.9258
16.1522 -10.3491 -1.8417 0.9258
19.2206 1.0586 -1.8481 0.9256
15.0100 5.0210 -1.5195 0.9384
-19.1741 2.7190 -1.8592 0.9251
-19.3407 0.9989 -1.8593 0.9251
-19.4744 -2.4852 -1.8848 0.9241
-5.3949 -18.5213 -1.8520 0.9254
-2.0183 -19.1677 -1.8504 0.9255
3.5205 -13.6651 -1.3547 0.9449
5.9278 -16.6830 -1.6997 0.9313
7.4335 -16.1797 -1.7094 0.9309
12.3474 -14.7052 -1.8434 0.9257
13.6048 -13.5416 -1.8429 0.9258
-15.8628 -5.8813 -2.0096 0.9341
-15.2730 -7.2708 -2.0093 0.9341
-14.5613 -8.6018 -2.0089 0.9341
-13.7335 -9.8635 -2.0085 0.9342
-12.7965 -11.0458 -2.0080 0.9342
-11.7577 -12.1394 -2.0075 0.9342
-10.6257 -13.1354 -2.0069 0.9342
-8.1191 -14.8043 -2.0056 0.9342
-6.7648 -15.4639 -2.0050 0.9343
-0.8610 -15.5494 -1.8499 0.9392
0.5284 -15.5585 -1.8492 0.9392
1.8705 -15.1046 -1.8079 0.9405
2.8657 -13.2838 -1.6142 0.9467
5.9246 -14.3723 -1.8466 0.9393
7.1799 -13.7824 -1.8460 0.9393
8.3774 -13.0835 -1.8454 0.9393
9.5076 -12.2810 -1.8449 0.9394
10.5617 -11.3815 -1.8444 0.9394
15.0028 -7.5396 -1.9945 0.9346
16.7443 1.1723 -1.9939 0.9346
14.7307 3.7367 -1.8052 0.9406
14.1811 6.4516 -1.8506 0.9392
14.6068 8.2901 -1.9951 0.9346
12.9082 10.7570 -1.9959 0.9346
11.9010 11.8680 -1.9965 0.9345
10.7987 12.8853 -1.9970 0.9345
9.6099 13.8008 -1.9976 0.9345
7.0110 15.2979 -1.9989 0.9345
2.7161 16.6254 -2.0011 0.9344
-0.2796 16.8559 -2.0025 0.9343
-1.7818 16.7700 -2.0033 0.9343
-3.2709 16.5504 -2.0040 0.9343
-6.1622 15.7174 -2.0054 0.9343
-7.5413 15.1105 -2.0060 0.9342
-12.3610 11.5347 -2.0083 0.9342
-13.3431 10.3892 -2.0088 0.9341
-14.2189 9.1602 -2.0092 0.9341
-14.9815 7.8575 -2.0095 0.9341
-16.5321 3.6145 -2.0102 0.9341
-16.7892 2.1265 -2.0103 0.9341
-15.5171 -6.7368 -2.0094 0.9341
-12.1733 -11.7252 -2.0077 0.9342
-5.9103 -15.8064 -2.0045 0.9343
-4.1358 -15.0281 -1.8515 0.9391
-2.7787 -15.3314 -1.8508 0.9392
-1.4004 -15.5124 -1.8501 0.9392
-0.0120 -15.5697 -1.8495 0.9392
2.4590 -13.6874 -1.6519 0.9455
3.7794 -13.8157 -1.7014 0.9439
7.9192 -13.3679 -1.8456 0.9393
9.0767 -12.6050 -1.8451 0.9393
10.1614 -11.7424 -1.8446 0.9394
11.1649 -10.7871 -1.8441 0.9394
12.0793 -9.7466 -1.8437 0.9394
14.7330 -8.0563 -1.9946 0.9346
15.9253 -5.3106 -1.9941 0.9346
16.3340 -3.8694 -1.9939 0.9346
16.6130 -2.3978 -1.9938 0.9346
15.2205 3.3032 -1.8501 0.9392
14.6818 4.5895 -1.8272 0.9399
14.3956 5.9551 -1.8505 0.9392
14.8847 7.7776 -1.9949 0.9346
14.1349 9.0753 -1.9953 0.9346
12.3044 11.4466 -1.9963 0.9345
11.2381 12.5013 -1.9968 0.9345
10.0819 13.4573 -1.9974 0.9345
8.8448 14.3070 -1.9980 0.9345
7.5367 15.0434 -1.9987 0.9345
4.7488 16.1539 -2.0001 0.9344
3.2910 16.5188 -2.0008 0.9344
-1.1985 16.8194 -2.0030 0.9343
-2.6941 16.6516 -2.0037 0.9343
-4.1693 16.3510 -2.0044 0.9343
-5.6122 15.9197 -2.0051 0.9343
-7.0114 15.3611 -2.0058 0.9342
-8.3555 14.6797 -2.0064 0.9342
-9.6338 13.8806 -2.0070 0.9342
-10.8359 12.9701 -2.0076 0.9342
-12.9733 10.8451 -2.0086 0.9342
-15.3890 7.0296 -2.0097 0.9341
-16.8804 1.2079 -2.0103 0.9341
-16.8258 -1.8088 -2.0102 0.9341
-16.2343 -4.7672 -2.0098 0.9341
-15.7426 -6.1946 -2.0096 0.9341
-15.1252 -7.5720 -2.0092 0.9341
-13.5345 -10.1334 -2.0084 0.9342
-11.5139 -12.3694 -2.0074 0.9342
-7.8233 -14.9613 -2.0055 0.9343
-4.6556 -14.8775 -1.8517 0.9391
-1.9382 -15.4566 -1.8504 0.9392
0.8368 -15.5437 -1.8491 0.9392
2.1168 -14.6971 -1.7638 0.9419
6.2081 -14.2509 -1.8465 0.9393
7.4513 -13.6364 -1.8459 0.9393
4.0591 -6.0707 -0.8675 0.9710
9.7487 -12.0893 -1.8448 0.9394
10.7848 -11.1692 -1.8443 0.9394
11.7347 -10.1609 -1.8438 0.9394
14.4454 -8.5633 -1.9948 0.9346
15.1489 -7.2404 -1.9944 0.9346
15.7321 -5.8603 -1.9942 0.9346
16.1903 -4.4341 -1.9940 0.9346
16.5201 -2.9730 -1.9939 0.9346
16.7849 0.0079 -1.9938 0.9346
15.3254 2.7729 -1.8500 0.9392
15.1446 7.2558 -1.9948 0.9346
11.6640 12.1024 -1.9966 0.9345
9.3349 13.9896 -1.9978 0.9345
8.0533 14.7709 -1.9984 0.9345
6.7067 15.4351 -1.9991 0.9345
5.3059 15.9771 -1.9998 0.9344
3.8618 16.3924 -2.0005 0.9344
-2.1142 16.7327 -2.0034 0.9343
-5.0556 16.1027 -2.0048 0.9343
-6.4732 15.5932 -2.0055 0.9343
-7.8400 14.9590 -2.0062 0.9342
-11.5288 12.3621 -2.0079 0.9342
-13.5471 10.1230 -2.0089 0.9341
-15.1349 7.5591 -2.0096 0.9341
-15.7506 6.1806 -2.0098 0.9341
-16.2405 4.7524 -2.0100 0.9341
-16.8788 -1.2238 -2.0102 0.9341
-16.7015 -2.7234 -2.0101 0.9341
-16.3907 -4.2010 -2.0099 0.9341
-15.9490 -5.6448 -2.0097 0.9341
-15.3799 -7.0430 -2.0094 0.9341
-12.9600 -10.8547 -2.0081 0.9342
-10.8205 -12.9765 -2.0070 0.9342
-9.6177 -13.8852 -2.0064 0.9342
-8.3389 -14.6826 -2.0058 0.9342
-5.5816 -15.8805 -1.9995 0.9344
-3.8367 -15.1059 -1.8513 0.9391
-2.4739 -15.3822 -1.8507 0.9392
2.6683 -13.3279 -1.6146 0.9467
4.2228 -14.3149 -1.7729 0.9417
5.7104 -14.4597 -1.8467 0.9393
6.9744 -13.8885 -1.8461 0.9393
8.1822 -13.2073 -1.8455 0.9393
9.3243 -12.4217 -1.8450 0.9394
10.3917 -11.5379 -1.8445 0.9394
11.3760 -10.5630 -1.8440 0.9394
14.0900 -9.0278 -1.9878 0.9348
15.5199 -6.4031 -1.9943 0.9346
16.0272 -4.9936 -1.9941 0.9346
16.6572 -2.0678 -1.9938 0.9346
16.7750 -0.5747 -1.9938 0.9346
16.7598 0.9230 -1.9938 0.9346
15.0090 3.5705 -1.8326 0.9397
14.7724 4.9415 -1.8503 0.9392
14.2751 6.2397 -1.8506 0.9392
14.7281 8.0716 -1.9950 0.9346
13.0663 10.5634 -1.9959 0.9346
12.0757 11.6891 -1.9964 0.9345
7.2374 15.1911 -1.9988 0.9345
4.4278 16.2462 -2.0002 0.9344
-3.0241 16.5962 -2.0039 0.9343
-5.9273 15.8065 -2.0053 0.9343
-7.3152 15.2202 -2.0059 0.9342
-8.6456 14.5120 -2.0066 0.9342
-12.1875 11.7169 -2.0082 0.9342
-14.8625 8.0793 -2.0094 0.9341
-16.0652 5.3130 -2.0100 0.9341
-16.4763 3.8600 -2.0101 0.9341
-16.7556 2.3760 -2.0102 0.9341
-16.9010 0.8729 -2.0103 0.9341
-16.9113 -0.6372 -2.0103 0.9341
-16.7864 -2.1422 -2.0102 0.9341
-16.5273 -3.6298 -2.0100 0.9341
-12.3469 -11.5433 -2.0078 0.9342
-11.2656 -12.5946 -2.0072 0.9342
-8.8446 -14.3862 -2.0060 0.9342
-6.1452 -15.7176 -2.0047 0.9343
-4.3592 -14.9658 -1.8516 0.9391
-0.2437 -15.5688 -1.8496 0.9392
1.1448 -15.5228 -1.8489 0.9392
2.2955 -13.9684 -1.6815 0.9446
3.5205 -13.6650 -1.6762 0.9447
5.2058 -14.6511 -1.8469 0.9393
6.4890 -14.1240 -1.8463 0.9393
8.8885 -12.7393 -1.8452 0.9393
9.9860 -11.8928 -1.8447 0.9394
11.0036 -10.9525 -1.8442 0.9394
11.9333 -9.9256 -1.8438 0.9394
12.7680 -8.8205 -1.8434 0.9394
14.6119 -8.2749 -1.9947 0.9346
15.2891 -6.9383 -1.9944 0.9346
15.8448 -5.5470 -1.9941 0.9346
16.2748 -4.1121 -1.9940 0.9346
16.5756 -2.6448 -1.9939 0.9346
-12.2007 -7.2073 -2.0078 0.9444
-11.5075 -8.2648 -2.0074 0.9444
-10.7228 -9.2559 -2.0070 0.9444
-7.8858 -11.7548 -2.0056 0.9444
-4.4906 -13.4111 -2.0039 0.9445
-3.0271 -12.7082 -1.8510 0.9486
-1.8816 -12.9236 -1.8504 0.9486
-0.7219 -13.0358 -1.8499 0.9486
0.4430 -13.0443 -1.8493 0.9486
1.6036 -12.9489 -1.8487 0.9487
2.7507 -12.7506 -1.8482 0.9487
3.8752 -12.4509 -1.8476 0.9487
7.0259 -10.9728 -1.8461 0.9487
8.8587 -9.5463 -1.8453 0.9487
9.6724 -8.7168 -1.8449 0.9488
10.4091 -7.8184 -1.8445 0.9488
11.9637 -7.4167 -1.9944 0.9447
13.0976 -5.1770 -1.9955 0.9447
13.5058 -3.9885 -1.9953 0.9447
13.9981 -1.5266 -1.9951 0.9447
14.0783 -0.2727 -1.9951 0.9447
14.0469 0.9835 -1.9952 0.9447
12.6396 4.4383 -1.8981 0.9473
12.8218 5.8331 -1.9959 0.9447
11.5859 8.0200 -1.9965 0.9447
8.0594 11.5741 -1.9983 0.9446
5.8792 12.8283 -1.9994 0.9446
4.7135 13.3052 -2.0000 0.9446
-3.9687 13.5772 -2.0043 0.9445
-6.3202 12.6638 -2.0054 0.9444
-8.4729 11.3460 -2.0064 0.9444
-9.4528 10.5479 -2.0069 0.9444
-13.0907 5.4389 -2.0085 0.9443
-13.5246 4.2506 -2.0087 0.9443
-14.0660 1.7815 -2.0089 0.9443
-13.7998 -3.2467 -2.0087 0.9443
-13.0011 -5.6445 -2.0082 0.9443
-11.0385 -8.8788 -2.0072 0.9444
-10.2008 -9.8254 -2.0068 0.9444
-8.2899 -11.4752 -2.0058 0.9444
-3.4898 -12.6805 -1.8635 0.9483
-1.1740 -13.0045 -1.8501 0.9486
3.4411 -12.5793 -1.8478 0.9487
5.6171 -11.7617 -1.8468 0.9487
9.3648 -9.0479 -1.8450 0.9488
12.9105 -5.6287 -1.9956 0.9447
13.7026 -3.2461 -1.9952 0.9447
14.0604 -0.7611 -1.9951 0.9447
14.0724 0.4953 -1.9951 0.9447
13.7622 2.9868 -1.9954 0.9447
12.6562 5.2356 -1.9406 0.9462
12.4858 6.5241 -1.9961 0.9447
11.1327 8.6407 -1.9968 0.9447
10.3203 9.6008 -1.9972 0.9446
9.4255 10.4850 -1.9976 0.9446
6.3201 12.6151 -1.9992 0.9446
5.1719 13.1321 -1.9998 0.9446
3.9818 13.5448 -2.0004 0.9446
2.7593 13.8500 -2.0010 0.9445
0.2561 14.1286 -2.0022 0.9445
-1.0047 14.0995 -2.0028 0.9445
-3.4946 13.7052 -2.0040 0.9445
-5.8763 12.8742 -2.0052 0.9444
-7.0024 12.3024 -2.0057 0.9444
-10.0151 10.0181 -2.0071 0.9444
-10.8705 9.0873 -2.0075 0.9444
-11.6394 8.0834 -2.0079 0.9444
-12.3155 7.0147 -2.0082 0.9443
-12.8934 5.8897 -2.0084 0.9443
-14.1423 1.0120 -2.0089 0.9443
-14.0967 -1.5154 -2.0089 0.9443
-13.9046 -2.7659 -2.0087 0.9443
-12.6729 -6.3443 -2.0081 0.9444
-12.0549 -7.4476 -2.0077 0.9444
-11.3409 -8.4910 -2.0074 0.9444
-10.5366 -9.4663 -2.0069 0.9444
-8.6840 -11.1816 -2.0060 0.9444
-2.7743 -12.7649 -1.8509 0.9486
3.0028 -12.6927 -1.8481 0.9487
4.0587 -6.0701 -1.0346 0.9709
8.1765 -10.1396 -1.8456 0.9487
9.8430 -8.5228 -1.8448 0.9488
12.7079 -6.0737 -1.9957 0.9447
13.1974 -4.9161 -1.9955 0.9447
13.5820 -3.7198 -1.9953 0.9447
14.0255 -1.2487 -1.9951 0.9447
12.5938 4.7048 -1.9049 0.9471
12.7040 6.0865 -1.9959 0.9447
12.1127 7.1959 -1.9963 0.9447
11.4251 8.2485 -1.9966 0.9447
10.6464 9.2360 -1.9970 0.9447
9.7828 10.1506 -1.9975 0.9446
8.8411 10.9849 -1.9979 0.9446
7.8287 11.7323 -1.9984 0.9446
6.7534 12.3868 -1.9990 0.9446
4.4490 13.3969 -2.0001 0.9446
3.2380 13.7443 -2.0007 0.9446
-0.5147 14.1242 -2.0026 0.9445
-1.7723 14.0264 -2.0032 0.9445
-5.4253 13.0690 -2.0050 0.9444
-6.5705 12.5367 -2.0055 0.9444
-8.6967 11.1763 -2.0065 0.9444
-10.5477 9.4584 -2.0074 0.9444
-12.0639 7.4375 -2.0081 0.9444
-14.0986 1.5022 -2.0089 0.9443
-12.8862 -5.9010 -2.0082 0.9443
-9.0678 -10.8746 -2.0062 0.9444
-8.0602 -11.6366 -2.0057 0.9444
-6.9889 -12.3056 -2.0051 0.9444
-5.8624 -12.8759 -2.0046 0.9444
-2.0738 -12.8948 -1.8505 0.9486
-0.9158 -13.0243 -1.8500 0.9486
3.6897 -12.5078 -1.8477 0.9487
4.7887 -12.1256 -1.8472 0.9487
10.2919 -7.9726 -1.8446 0.9488
12.4901 -6.5114 -1.9958 0.9447
13.0193 -5.3714 -1.9955 0.9447
13.7641 -2.9736 -1.9952 0.9447
13.9739 -1.7347 -1.9951 0.9447
14.0727 -0.4821 -1.9951 0.9447
13.9355 2.0247 -1.9952 0.9447
12.7059 4.2503 -1.8983 0.9473
12.7922 5.5915 -1.9781 0.9452
11.7036 7.8464 -1.9965 0.9447
8.2303 11.4523 -1.9982 0.9446
7.1785 12.1437 -1.9988 0.9446
6.0691 12.7388 -1.9993 0.9446
2.4843 13.9030 -2.0011 0.9445
1.2353 14.0734 -2.0017 0.9445
-0.0241 14.1319 -2.0023 0.9445
-1.2843 14.0778 -2.0030 0.9445
-4.9679 13.2480 -2.0047 0.9444
-6.1308 12.7559 -2.0053 0.9444
-8.3029 11.4703 -2.0063 0.9444
-9.2945 10.6870 -2.0068 0.9444
-10.2123 9.8180 -2.0072 0.9444
-11.0490 8.8702 -2.0076 0.9444
-12.4526 6.7693 -2.0082 0.9443
-13.4597 4.4513 -2.0087 0.9443
-14.0378 1.9906 -2.0089 0.9443
-14.1683 -0.5339 -2.0089 0.9443
-12.5441 -6.5942 -2.0080 0.9444
-9.4406 -10.5543 -2.0064 0.9444
-5.1508 -13.1741 -2.0042 0.9445
-1.3674 -12.9863 -1.8502 0.9486
-0.2043 -13.0524 -1.8496 0.9486
2.1155 -12.8734 -1.8485 0.9487
3.2538 -12.6298 -1.8479 0.9487
6.4742 -11.3092 -1.8464 0.9487
7.4548 -10.6844 -1.8459 0.9487
9.2294 -9.1866 -1.8451 0.9488
12.8256 -5.8203 -1.9956 0.9447
13.2920 -4.6533 -1.9954 0.9447
13.6529 -3.4496 -1.9953 0.9447
-9.2193 -7.9580 -2.0063 0.9518
-7.6565 -9.4649 -2.0055 0.9518
-5.8514 -10.6693 -2.0046 0.9519
-4.8758 -11.1457 -2.0041 0.9519
-2.6917 -11.3002 -1.9137 0.9540
-1.6183 -11.1148 -1.8503 0.9555
-0.6209 -11.2118 -1.8499 0.9555
0.3810 -11.2196 -1.8494 0.9555
2.3661 -10.9679 -1.8484 0.9555
3.3336 -10.7106 -1.8479 0.9555
4.2741 -10.3682 -1.8475 0.9556
7.6218 -8.2134 -1.8459 0.9556
8.9562 -6.7271 -1.8453 0.9556
10.8292 -5.4422 -1.9966 0.9521
11.2701 -4.4547 -1.9964 0.9521
11.6215 -3.4320 -1.9963 0.9521
11.8806 -2.3822 -1.9962 0.9521
12.0453 -1.3136 -1.9961 0.9521
11.7461 2.9796 -1.9963 0.9521
11.4348 4.0152 -1.9965 0.9521
11.0325 5.0191 -1.9967 0.9521
7.7918 9.2975 -1.9984 0.9520
5.0575 11.0354 -1.9998 0.9520
4.0546 11.4452 -2.0003 0.9520
3.0189 11.7640 -2.0008 0.9520
0.8823 12.1196 -2.0018 0.9519
-0.2016 12.1532 -2.0024 0.9519
-2.3578 11.9304 -2.0034 0.9519
-3.4128 11.6757 -2.0039 0.9519
-4.4412 11.3278 -2.0044 0.9519
-8.9051 8.3099 -2.0065 0.9518
-11.2539 4.6757 -2.0076 0.9518
-12.0921 1.5315 -2.0079 0.9518
-12.1805 0.4475 -2.0080 0.9518
-12.1718 -0.6401 -2.0079 0.9518
-11.8635 -2.7911 -2.0077 0.9518
-11.5664 -3.8373 -2.0076 0.9518
-11.1771 -4.8526 -2.0074 0.9518
-10.6987 -5.8289 -2.0071 0.9518
-9.4906 -7.6338 -2.0065 0.9518
-8.7706 -8.4478 -2.0061 0.9518
-7.1281 -9.8670 -2.0053 0.9519
-4.2602 -11.3932 -2.0038 0.9519
-3.2209 -11.7036 -1.9997 0.9520
-2.0032 -11.0531 -1.8505 0.9555
-1.0097 -11.1847 -1.8501 0.9555
-0.0086 -11.2272 -1.8496 0.9555
0.9929 -11.1808 -1.8491 0.9555
1.9842 -11.0445 -1.8486 0.9555
2.9601 -10.8209 -1.8481 0.9555
4.8323 -10.1183 -1.8472 0.9556
5.7138 -9.6451 -1.8468 0.9556
6.5494 -9.0953 -1.8464 0.9556
8.7179 -7.0343 -1.8454 0.9556
11.1091 -4.8434 -1.9965 0.9521
11.4957 -3.8334 -1.9963 0.9521
11.9925 -1.7309 -1.9961 0.9521
12.1093 0.4262 -1.9961 0.9521
12.0234 1.5041 -1.9962 0.9521
11.1996 4.6330 -1.9966 0.9521
8.8793 8.2602 -1.9979 0.9520
7.2743 9.7097 -1.9987 0.9520
6.3812 10.3219 -1.9991 0.9520
5.4369 10.8522 -1.9996 0.9520
4.4489 11.2964 -2.0001 0.9520
3.4251 11.6510 -2.0006 0.9520
2.3734 11.9131 -2.0011 0.9519
1.3023 12.0804 -2.0016 0.9519
0.2203 12.1516 -2.0022 0.9519
-0.8641 12.1261 -2.0027 0.9519
-6.0211 10.5783 -2.0052 0.9519
-7.8072 9.3449 -2.0060 0.9518
-10.0067 6.9496 -2.0071 0.9518
-10.5878 6.0306 -2.0073 0.9518
-11.0844 5.0633 -2.0075 0.9518
-11.8092 3.0149 -2.0078 0.9518
-12.0315 1.9503 -2.0079 0.9518
-12.1868 -0.2173 -2.0080 0.9518
-11.9535 -2.3778 -2.0078 0.9518
-11.3393 -4.4619 -2.0074 0.9518
-10.8951 -5.4544 -2.0072 0.9518
-9.7504 -7.3003 -2.0066 0.9518
-8.2960 -8.9124 -2.0059 0.9518
-5.6383 -10.7827 -2.0045 0.9519
-0.3983 -11.2213 -1.8498 0.9555
0.6034 -11.2092 -1.8493 0.9555
4.4786 -10.2809 -1.8474 0.9556
5.3760 -9.8384 -1.8470 0.9556
7.0347 -8.7237 -1.8462 0.9556
7.7829 -8.0603 -1.8458 0.9556
8.4690 -7.3331 -1.8455 0.9556
11.9254 -2.1461 -1.9961 0.9521
12.0689 -1.0745 -1.9961 0.9521
11.9239 2.1574 -1.9962 0.9521
11.3531 4.2413 -1.9966 0.9521
9.8302 7.0971 -1.9974 0.9520
7.6063 9.4506 -1.9985 0.9520
6.7350 10.0933 -1.9989 0.9520
4.8379 11.1341 -1.9999 0.9520
2.7852 11.8223 -2.0009 0.9520
0.6418 12.1354 -2.0020 0.9519
-2.5941 11.8820 -2.0035 0.9519
-3.6439 11.6064 -2.0040 0.9519
-4.6652 11.2381 -2.0045 0.9519
-5.6498 10.7800 -2.0050 0.9519
-10.3716 6.3942 -2.0072 0.9518
-10.9016 5.4448 -2.0075 0.9518
-11.9564 2.3667 -2.0079 0.9518
-12.1201 1.2914 -2.0080 0.9518
-12.0291 -1.9615 -2.0078 0.9518
-7.7968 -9.3503 -2.0056 0.9518
-6.9307 -10.0059 -2.0052 0.9519
-6.0097 -10.5815 -2.0047 0.9519
-5.0413 -11.0724 -2.0042 0.9519
-1.7835 -11.0900 -1.8504 0.9555
-0.7876 -11.2019 -1.8499 0.9555
1.2135 -11.1578 -1.8490 0.9555
2.2027 -11.0023 -1.8485 0.9555
4.1195 -10.4311 -1.8476 0.9556
5.9036 -9.5294 -1.8467 0.9556
7.4990 -8.3261 -1.8460 0.9556
8.2099 -7.6231 -1.8456 0.9556
8.8553 -6.8598 -1.8453 0.9556
10.1879 -6.5276 -1.9933 0.9521
12.0244 -1.4927 -1.9961 0.9521
12.0985 0.6663 -1.9961 0.9521
11.9914 1.7423 -1.9962 0.9521
11.4931 3.8446 -1.9965 0.9521
7.0806 9.8526 -1.9988 0.9520
5.2209 10.9585 -1.9997 0.9520
4.2243 11.3831 -2.0002 0.9520
3.1935 11.7173 -2.0007 0.9520
-0.0208 12.1543 -2.0023 0.9519
-1.1045 12.1072 -2.0028 0.9519
-2.1799 11.9637 -2.0033 0.9519
-3.2386 11.7247 -2.0039 0.9519
-7.1390 9.8625 -2.0057 0.9518
-8.7803 8.4412 -2.0065 0.9518
-9.4994 7.6262 -2.0068 0.9518
-10.7056 5.8196 -2.0074 0.9518
-11.1829 4.8426 -2.0076 0.9518
-12.0679 1.7113 -2.0079 0.9518
-12.1725 0.6287 -2.0080 0.9518
-12.1800 -0.4589 -2.0079 0.9518
-12.0902 -1.5428 -2.0079 0.9518
-11.2483 -4.6858 -2.0074 0.9518
-10.2347 -6.6071 -2.0069 0.9518
-9.6034 -7.4919 -2.0065 0.9518
-1.1761 -11.1689 -1.8501 0.9555
0.8256 -11.1943 -1.8492 0.9555
1.8197 -11.0733 -1.8487 0.9555
3.7553 -10.5688 -1.8477 0.9555
4.6814 -10.1895 -1.8473 0.9556
4.1609 -5.9635 -1.1979 0.9710
7.2060 -8.5820 -1.8461 0.9556
7.9409 -7.9040 -1.8458 0.9556
10.5467 -5.9727 -1.9967 0.9521
11.0360 -5.0082 -1.9965 0.9521
11.4375 -4.0041 -1.9963 0.9521
11.7482 -2.9684 -1.9962 0.9521
11.9655 -1.9092 -1.9961 0.9521
-10.0108 -3.7116 -2.0068 0.9575
-9.6392 -4.5888 -2.0066 0.9575
-6.7091 -8.2938 -2.0051 0.9575
-5.1276 -9.3496 -2.0043 0.9575
-2.4655 -10.3506 -1.9999 0.9576
-1.4183 -9.7413 -1.8503 0.9607
-0.5441 -9.8266 -1.8499 0.9607
0.3340 -9.8337 -1.8494 0.9607
1.2090 -9.7626 -1.8490 0.9608
2.0740 -9.6138 -1.8486 0.9608
3.7466 -9.0887 -1.8478 0.9608
4.5410 -8.7167 -1.8474 0.9608
3.9839 -6.2219 -1.3887 0.9704
9.4945 -4.7714 -1.9973 0.9577
9.8812 -3.9057 -1.9971 0.9577
10.4165 -2.0887 -1.9969 0.9577
10.5610 -1.1518 -1.9968 0.9577
10.4899 1.6838 -1.9969 0.9577
10.2986 2.6124 -1.9970 0.9577
10.0255 3.5203 -1.9972 0.9577
8.1667 6.8057 -1.9982 0.9577
6.8307 8.1506 -1.9989 0.9576
6.0781 8.7287 -1.9992 0.9576
5.2768 9.2377 -1.9996 0.9576
3.5540 10.0322 -2.0005 0.9576
1.7168 10.5087 -2.0014 0.9576
0.7733 10.6223 -2.0019 0.9576
-0.1767 10.6515 -2.0023 0.9576
-1.1258 10.5957 -2.0028 0.9576
-2.9909 10.2320 -2.0037 0.9575
-3.8919 9.9268 -2.0041 0.9575
-7.1215 7.9465 -2.0057 0.9575
-8.4220 6.5576 -2.0063 0.9575
-8.9742 5.7814 -2.0065 0.9575
-9.4548 4.9589 -2.0067 0.9575
-9.8601 4.0967 -2.0069 0.9575
-10.5943 1.3418 -2.0072 0.9575
-10.6718 0.3921 -2.0072 0.9575
-10.5713 -1.5092 -2.0071 0.9575
-10.3941 -2.4454 -2.0070 0.9575
-8.8802 -5.9217 -2.0062 0.9575
-8.3158 -6.6888 -2.0059 0.9575
-7.6851 -7.4023 -2.0056 0.9575
-6.2462 -8.6462 -2.0049 0.9575
-5.4500 -9.1665 -2.0045 0.9575
-0.8850 -9.8027 -1.8500 0.9607
2.5947 -9.4851 -1.8483 0.9608
3.4292 -9.2140 -1.8479 0.9608
5.0089 -8.4552 -1.8472 0.9608
5.7416 -7.9735 -1.8468 0.9608
6.4284 -7.4286 -1.8465 0.9608
7.6431 -6.1671 -1.8459 0.9608
8.8104 -5.8948 -1.9925 0.9578
9.3235 -5.0983 -1.9973 0.9577
10.0790 -3.3610 -1.9970 0.9577
10.5147 -1.5176 -1.9968 0.9577
10.6080 -0.5742 -1.9968 0.9577
10.1413 3.1702 -1.9971 0.9577
9.8192 4.0620 -1.9973 0.9577
6.3769 8.5119 -1.9991 0.9576
3.8998 9.9020 -2.0003 0.9576
3.0022 10.2125 -2.0008 0.9576
0.1931 10.6502 -2.0022 0.9576
-1.7021 10.5201 -2.0031 0.9576
-2.6337 10.3288 -2.0035 0.9575
-4.4279 9.7011 -2.0044 0.9575
-6.0827 8.7640 -2.0052 0.9575
-6.8409 8.1884 -2.0055 0.9575
-8.1889 6.8455 -2.0062 0.9575
-8.7677 6.0891 -2.0064 0.9575
-9.2767 5.2839 -2.0067 0.9575
-10.0693 3.5531 -2.0070 0.9575
-10.3465 2.6415 -2.0071 0.9575
-10.6517 0.7622 -2.0072 0.9575
-9.5460 -4.7790 -2.0066 0.9575
-9.0809 -5.6102 -2.0063 0.9575
-7.2693 -7.8095 -2.0054 0.9575
-6.5430 -8.4248 -2.0050 0.9575
-4.9409 -9.4491 -2.0042 0.9575
-4.0781 -9.8498 -2.0038 0.9575
-3.1831 -10.1719 -2.0033 0.9575
-0.3491 -9.8350 -1.8498 0.9607
1.4023 -9.7362 -1.8489 0.9608
2.2641 -9.5702 -1.8485 0.9608
3.9259 -9.0122 -1.8477 0.9608
6.1671 -7.6477 -1.8466 0.9608
7.4248 -6.4290 -1.8460 0.9608
8.0119 -5.7728 -1.8561 0.9606
10.4558 -1.8817 -1.9969 0.9577
10.5817 -0.9421 -1.9968 0.9577
10.6236 0.0050 -1.9968 0.9577
10.5811 0.9520 -1.9969 0.9577
10.4545 1.8916 -1.9969 0.9577
9.9539 3.7186 -1.9972 0.9577
9.5837 4.5916 -1.9974 0.9577
8.6182 6.2221 -1.9979 0.9577
8.0304 6.9666 -1.9982 0.9577
5.0928 9.3410 -1.9997 0.9576
4.2407 9.7598 -2.0002 0.9576
3.3545 10.1012 -2.0006 0.9576
2.4412 10.3624 -2.0010 0.9576
1.5081 10.5412 -2.0015 0.9576
-1.3358 10.5719 -2.0029 0.9576
-3.1933 10.1712 -2.0038 0.9575
-4.9509 9.4464 -2.0046 0.9575
-6.5522 8.4203 -2.0054 0.9575
-7.2780 7.8040 -2.0057 0.9575
-7.9459 7.1252 -2.0060 0.9575
-9.5515 4.7705 -2.0068 0.9575
-10.4754 2.0735 -2.0072 0.9575
-10.6774 0.1803 -2.0072 0.9575
-10.5392 -1.7186 -2.0071 0.9575
-10.3434 -2.6511 -2.0070 0.9575
-9.7066 -4.4450 -2.0066 0.9575
-8.7608 -6.0965 -2.0062 0.9575
-7.5365 -7.5529 -2.0055 0.9575
-6.8320 -8.1933 -2.0052 0.9575
-3.5345 -10.0561 -2.0035 0.9575
0.1876 -9.8380 -1.8495 0.9607
2.7822 -9.4313 -1.8482 0.9608
3.6111 -9.1438 -1.8478 0.9608
4.4109 -8.7836 -1.8475 0.9608
5.1753 -8.3538 -1.8471 0.9608
5.8984 -7.8577 -1.8468 0.9608
7.7636 -6.0141 -1.8459 0.9608
8.9409 -5.7286 -1.9959 0.9577
10.3844 -2.2435 -1.9969 0.9577
10.6173 -0.3637 -1.9968 0.9577
9.7369 4.2560 -1.9973 0.9577
9.3198 5.1076 -1.9976 0.9577
8.8285 5.9189 -1.9978 0.9577
8.2669 6.6833 -1.9981 0.9577
7.6394 7.3948 -1.9984 0.9576
6.9510 8.0478 -1.9988 0.9576
6.2071 8.6371 -1.9992 0.9576
5.4135 9.1578 -1.9996 0.9576
3.7028 9.9779 -2.0004 0.9576
2.7992 10.2705 -2.0009 0.9576
-0.0182 10.6525 -2.0023 0.9576
-1.9105 10.4848 -2.0032 0.9576
-4.6197 9.6118 -2.0045 0.9575
-5.4592 9.1636 -2.0049 0.9575
-6.2556 8.6420 -2.0053 0.9575
-7.6934 7.3963 -2.0059 0.9575
-8.3233 6.6820 -2.0062 0.9575
-9.3798 5.0989 -2.0067 0.9575
-10.3970 2.4358 -2.0071 0.9575
-10.5927 -1.3517 -2.0072 0.9575
-10.1830 -3.2109 -2.0069 0.9575
-8.9676 -5.7891 -2.0063 0.9575
-8.4146 -6.5645 -2.0060 0.9575
-5.5855 -9.0850 -2.0045 0.9575
-4.7523 -9.5448 -2.0041 0.9575
-1.9831 -10.0842 -1.9317 0.9590
-1.0307 -9.7889 -1.8501 0.9607
-0.1540 -9.8395 -1.8497 0.9607
1.5950 -9.7060 -1.8488 0.9608
3.2918 -9.2644 -1.8480 0.9608
4.1037 -8.9321 -1.8476 0.9608
4.1465 -5.9428 -1.3620 0.9709
8.7017 -6.0113 -1.9879 0.9579
9.2467 -5.2365 -1.9974 0.9577
10.0280 -3.5106 -1.9970 0.9577
10.3004 -2.6026 -1.9969 0.9577
10.4910 -1.6739 -1.9968 0.9577
-8.5690 -4.0794 -2.0061 0.9619
-7.7067 -5.5350 -2.0056 0.9620
-7.1816 -6.1991 -2.0054 0.9620
-5.2828 -7.8746 -2.0044 0.9620
-2.1956 -9.2173 -2.0029 0.9620
0.2970 -8.7445 -1.8495 0.9649
2.5986 -8.3492 -1.8484 0.9649
3.3319 -8.0827 -1.8480 0.9649
4.0384 -7.7521 -1.8477 0.9649
5.3491 -6.9094 -1.8470 0.9649
8.0336 -4.9803 -1.9980 0.9621
8.4448 -4.2439 -1.9978 0.9621
8.7888 -3.4739 -1.9976 0.9621
9.2651 -1.8578 -1.9974 0.9621
9.3936 -1.0244 -1.9974 0.9621
9.4475 -0.1830 -1.9974 0.9621
9.4263 0.6600 -1.9974 0.9621
9.3303 1.4977 -1.9975 0.9621
8.9171 3.1312 -1.9977 0.9621
8.6032 3.9139 -1.9979 0.9621
8.2209 4.6658 -1.9981 0.9621
7.7731 5.3807 -1.9983 0.9621
7.2635 6.0530 -1.9986 0.9621
6.6959 6.6774 -1.9989 0.9621
6.0750 7.2489 -1.9992 0.9621
5.4055 7.7629 -1.9995 0.9621
3.9425 8.6025 -2.0003 0.9621
3.1605 8.9215 -2.0007 0.9620
2.3531 9.1696 -2.0011 0.9620
1.5266 9.3447 -2.0015 0.9620
0.6877 9.4455 -2.0019 0.9620
-0.1571 9.4712 -2.0023 0.9620
-2.6592 9.0976 -2.0035 0.9620
-5.6754 7.5998 -2.0050 0.9620
-6.3312 7.0647 -2.0053 0.9620
-8.4051 4.4083 -2.0062 0.9619
-8.7653 3.6418 -2.0064 0.9619
-9.0556 2.8461 -2.0065 0.9619
-9.4178 1.1928 -2.0066 0.9619
-9.0088 -2.9887 -2.0063 0.9619
-8.7058 -3.7796 -2.0062 0.9619
-7.3928 -5.9465 -2.0055 0.9620
-6.8323 -6.5809 -2.0052 0.9620
-5.5533 -7.6871 -2.0045 0.9620
-4.0985 -8.5479 -2.0038 0.9620
-3.3195 -8.8776 -2.0034 0.9620
-1.6850 -9.2969 -1.9972 0.9621
0.7732 -8.7142 -1.8492 0.9649
2.3074 -8.4350 -1.8485 0.9649
3.7672 -7.8882 -1.8478 0.9649
4.4546 -7.5196 -1.8475 0.9649
5.7173 -6.6069 -1.8469 0.9649
8.2927 -4.5346 -1.9979 0.9621
8.6632 -3.7770 -1.9977 0.9621
8.9648 -2.9895 -1.9976 0.9621
9.1952 -2.1783 -1.9975 0.9621
9.2350 2.0043 -1.9975 0.9621
8.7336 3.6129 -1.9978 0.9621
8.3775 4.3774 -1.9980 0.9621
7.9548 5.1074 -1.9982 0.9621
6.9233 6.4406 -1.9988 0.9621
6.3225 7.0332 -1.9991 0.9621
5.6713 7.5701 -1.9994 0.9621
4.2384 8.4599 -2.0001 0.9621
3.4680 8.8058 -2.0005 0.9620
-0.6734 9.4497 -2.0025 0.9620
-2.3417 9.1837 -2.0034 0.9620
-4.6909 8.2414 -2.0045 0.9620
-6.7076 6.7096 -2.0054 0.9620
-7.2800 6.0857 -2.0057 0.9619
-7.7944 5.4131 -2.0059 0.9619
-9.1976 2.3482 -2.0066 0.9619
-9.3706 1.5190 -2.0066 0.9619
-9.4689 0.6776 -2.0066 0.9619
-9.4915 -0.1692 -2.0066 0.9619
-9.3100 -1.8519 -2.0065 0.9619
-8.4863 -4.2484 -2.0061 0.9619
-7.0570 -6.3401 -2.0053 0.9620
-5.1254 -7.9776 -2.0043 0.9620
-2.8302 -9.0442 -2.0032 0.9620
-2.0120 -9.2572 -2.0025 0.9620
0.4703 -8.7364 -1.8494 0.9649
2.0134 -8.5106 -1.8486 0.9649
3.4914 -8.0147 -1.8479 0.9649
8.1306 -4.8199 -1.9979 0.9621
8.5271 -4.0755 -1.9978 0.9621
9.3001 -1.6737 -1.9974 0.9621
9.4121 -0.8379 -1.9974 0.9621
9.4115 0.8468 -1.9974 0.9621
8.8534 3.3075 -1.9978 0.9621
8.1269 4.8280 -1.9981 0.9621
7.1422 6.1961 -1.9987 0.9621
6.5624 6.8091 -1.9990 0.9621
5.9302 7.3682 -1.9993 0.9621
5.2507 7.8689 -1.9996 0.9621
4.5291 8.3071 -2.0000 0.9621
2.9831 8.9828 -2.0008 0.9620
2.1709 9.2148 -2.0012 0.9620
1.3411 9.3736 -2.0016 0.9620
0.5002 9.4578 -2.0020 0.9620
-0.3450 9.4667 -2.0024 0.9620
-1.1877 9.4001 -2.0028 0.9620
-2.8393 9.0434 -2.0036 0.9620
-3.6349 8.7560 -2.0040 0.9620
-5.8252 7.4860 -2.0050 0.9620
-6.4703 6.9380 -2.0053 0.9620
-7.0640 6.3344 -2.0056 0.9620
-7.6015 5.6802 -2.0058 0.9619
-8.0785 4.9804 -2.0061 0.9619
-9.1104 2.6659 -2.0065 0.9619
-9.3122 1.8433 -2.0066 0.9619
-9.4396 1.0058 -2.0066 0.9619
-9.4681 -0.6865 -2.0066 0.9619
-9.3689 -1.5277 -2.0065 0.9619
-8.6289 -3.9515 -2.0061 0.9619
-8.2415 -4.7045 -2.0059 0.9619
-7.2732 -6.0917 -2.0054 0.9620
-6.0740 -7.2843 -2.0048 0.9620
-4.6823 -8.2442 -2.0041 0.9620
-3.9280 -8.6272 -2.0037 0.9620
-2.3325 -9.1840 -2.0029 0.9620
-0.6138 -8.7301 -1.8499 0.9649
0.1668 -8.7482 -1.8495 0.9649
0.9458 -8.6967 -1.8492 0.9649
2.4742 -8.3872 -1.8484 0.9649
3.2114 -8.1317 -1.8481 0.9649
4.6027 -7.4295 -1.8474 0.9649
6.4016 -5.9441 -1.8465 0.9649
7.9587 -5.0993 -1.9980 0.9621
8.3808 -4.3691 -1.9978 0.9621
9.0222 -2.8110 -1.9975 0.9621
9.4437 -0.3235 -1.9974 0.9621
9.4351 0.5196 -1.9974 0.9621
8.2892 4.5429 -1.9981 0.9621
7.8522 5.2643 -1.9983 0.9621
7.3526 5.9441 -1.9985 0.9621
6.1820 7.1575 -1.9991 0.9621
4.0700 8.5427 -2.0002 0.9621
3.2928 8.8732 -2.0006 0.9620
2.4892 9.1332 -2.0010 0.9620
-0.0162 9.4722 -2.0022 0.9620
-1.6987 9.3226 -2.0030 0.9620
-2.5235 9.1358 -2.0034 0.9620
-4.1073 8.5457 -2.0042 0.9620
-4.8536 8.1470 -2.0046 0.9620
-5.5615 7.6832 -2.0049 0.9620
-7.3994 5.9403 -2.0058 0.9619
-7.9004 5.2576 -2.0060 0.9619
-8.3385 4.5328 -2.0062 0.9619
-9.0122 2.9805 -2.0065 0.9619
-9.3990 1.3328 -2.0066 0.9619
-9.4805 0.4896 -2.0066 0.9619
-9.4164 -1.2016 -2.0066 0.9619
-9.2714 -2.0362 -2.0065 0.9619
-7.9721 -5.1465 -2.0058 0.9619
-7.4807 -5.8359 -2.0055 0.9620
-6.3236 -7.0695 -2.0049 0.9620
-5.6672 -7.6038 -2.0046 0.9620
-4.9659 -8.0773 -2.0043 0.9620
-3.4513 -8.8275 -2.0035 0.9620
-2.6501 -9.0982 -2.0031 0.9620
-0.9165 -8.7042 -1.8501 0.9648
-0.1369 -8.7494 -1.8497 0.9649
0.6435 -8.7250 -1.8493 0.9649
2.1818 -8.4687 -1.8486 0.9649
2.9274 -8.2388 -1.8482 0.9649
3.6496 -7.9436 -1.8478 0.9649
4.1369 -5.9290 -1.5282 0.9709
6.1918 -6.1630 -1.8466 0.9649
6.7156 -5.5858 -1.8464 0.9649
8.2244 -4.6576 -1.9979 0.9621
9.1618 -2.3149 -1.9975 0.9621
9.3314 -1.4889 -1.9974 0.9621
-8.0024 -2.9670 -2.0059 0.9655
-7.7054 -3.6682 -2.0057 0.9655
-6.4580 -5.5745 -2.0050 0.9656
-5.3640 -6.6309 -2.0045 0.9656
-3.4166 -7.8101 -2.0035 0.9656
-1.2252 -8.4153 -1.9986 0.9657
-0.4359 -7.8720 -1.8529 0.9681
0.2671 -7.8649 -1.8495 0.9682
2.3374 -7.5098 -1.8485 0.9682
2.9970 -7.2703 -1.8482 0.9682
3.6326 -6.9731 -1.8479 0.9682
3.8738 -6.0499 -1.6884 0.9709
5.3459 -5.7608 -1.8471 0.9682
5.9500 -5.3621 -1.8824 0.9676
7.5968 -3.8178 -1.9982 0.9657
7.9064 -3.1251 -1.9981 0.9657
8.1531 -2.4077 -1.9980 0.9657
8.4991 -0.1646 -1.9979 0.9657
7.7393 3.5209 -1.9983 0.9657
7.3953 4.1972 -1.9985 0.9657
6.9925 4.8403 -1.9987 0.9657
6.5339 5.4450 -1.9989 0.9657
5.4646 6.5205 -1.9995 0.9656
4.8623 6.9828 -1.9998 0.9656
3.5462 7.7378 -2.0004 0.9656
2.8428 8.0245 -2.0008 0.9656
1.3731 8.4049 -2.0015 0.9656
-0.1413 8.5183 -2.0023 0.9656
-1.6524 8.3609 -2.0030 0.9656
-2.3915 8.1817 -2.0034 0.9656
-3.1119 7.9373 -2.0037 0.9656
-3.8077 7.6296 -2.0040 0.9656
-4.4734 7.2609 -2.0044 0.9656
-5.1037 6.8342 -2.0047 0.9656
-5.6934 6.3529 -2.0049 0.9656
-6.2378 5.8208 -2.0052 0.9656
-6.7327 5.2422 -2.0054 0.9655
-7.1739 4.6216 -2.0056 0.9655
-7.8818 3.2747 -2.0059 0.9655
-8.1428 2.5592 -2.0060 0.9655
-8.5304 0.3134 -2.0062 0.9655
-7.0990 -4.7339 -2.0054 0.9655
-6.1440 -5.9179 -2.0049 0.9656
-4.9940 -6.9129 -2.0043 0.9656
-4.3572 -7.3294 -2.0040 0.9656
-3.6858 -7.6873 -2.0036 0.9656
-2.9853 -7.9839 -2.0033 0.9656
-1.5196 -8.3841 -2.0026 0.9656
-0.7390 -8.1859 -1.9317 0.9668
0.6954 -7.8378 -1.8493 0.9682
1.3911 -7.7431 -1.8490 0.9682
2.0755 -7.5870 -1.8486 0.9682
2.7431 -7.3705 -1.8483 0.9682
3.3886 -7.0954 -1.8480 0.9682
4.5933 -6.3789 -1.8474 0.9682
5.1430 -5.9432 -1.8472 0.9682
5.6516 -5.4603 -1.8469 0.9682
6.5978 -5.3237 -1.9925 0.9658
7.7934 -3.3978 -1.9981 0.9657
8.0647 -2.6893 -1.9980 0.9657
8.2720 -1.9596 -1.9979 0.9657
8.4136 -1.2144 -1.9979 0.9657
8.4882 -0.4595 -1.9979 0.9657
8.3079 1.8030 -1.9980 0.9657
8.1145 2.5366 -1.9981 0.9657
7.5363 3.9379 -1.9984 0.9657
4.4748 7.2382 -2.0000 0.9656
3.8124 7.6096 -2.0003 0.9656
2.4013 8.1685 -2.0010 0.9656
1.6639 8.3516 -2.0014 0.9656
0.9129 8.4682 -2.0018 0.9656
0.1544 8.5174 -2.0021 0.9656
-1.3611 8.4126 -2.0029 0.9656
-2.1060 8.2592 -2.0032 0.9656
-2.8344 8.0400 -2.0036 0.9656
-4.2185 7.4114 -2.0042 0.9656
-4.8631 7.0069 -2.0045 0.9656
-6.5464 5.4725 -2.0053 0.9655
-7.0089 4.8676 -2.0055 0.9655
-7.7632 3.5462 -2.0059 0.9655
-8.0489 2.8402 -2.0060 0.9655
-8.2705 2.1115 -2.0061 0.9655
-8.4260 1.3658 -2.0062 0.9655
-8.5143 0.6093 -2.0062 0.9655
-8.3716 -1.6653 -2.0061 0.9655
-8.1894 -2.4048 -2.0060 0.9655
-7.9418 -3.1250 -2.0058 0.9655
-7.6310 -3.8203 -2.0056 0.9655
-6.3460 -5.7014 -2.0050 0.9656
-3.2609 -7.8760 -2.0034 0.9656
0.4230 -7.8577 -1.8494 0.9682
1.1216 -7.7873 -1.8491 0.9682
5.4589 -5.6535 -1.8470 0.9682
6.2094 -5.3766 -1.9304 0.9668
6.8992 -4.9711 -1.9985 0.9657
8.1992 -2.2456 -1.9980 0.9657
8.3664 -1.5056 -1.9979 0.9657
8.4672 -0.7538 -1.9979 0.9657
8.4666 0.7618 -1.9979 0.9657
8.3653 1.5136 -1.9980 0.9657
8.1975 2.2534 -1.9981 0.9657
7.6681 3.6738 -1.9983 0.9657
6.8952 4.9781 -1.9988 0.9657
5.9031 6.1250 -1.9993 0.9657
5.3344 6.6279 -1.9996 0.9656
4.0739 7.4722 -2.0002 0.9656
3.3922 7.8069 -2.0005 0.9656
2.6832 8.0797 -2.0009 0.9656
1.9526 8.2882 -2.0012 0.9656
-0.3103 8.5142 -2.0024 0.9656
-1.0682 8.4542 -2.0027 0.9656
-1.8179 8.3268 -2.0031 0.9656
-3.2689 7.8744 -2.0038 0.9656
-3.9585 7.5528 -2.0041 0.9656
-4.6167 7.1710 -2.0044 0.9656
-5.2384 6.7319 -2.0047 0.9656
-7.9453 3.1178 -2.0060 0.9655
-8.3734 1.6574 -2.0061 0.9655
-8.4245 -1.3737 -2.0061 0.9655
-7.7593 -3.5532 -2.0057 0.9655
-7.4109 -4.2304 -2.0055 0.9655
-7.0036 -4.8737 -2.0053 0.9655
-6.0253 -6.0384 -2.0048 0.9656
-5.4622 -6.5505 -2.0045 0.9656
-4.8558 -7.0103 -2.0042 0.9656
-2.8263 -8.0412 -2.0032 0.9656
-1.3516 -8.4042 -2.0006 0.9656
-0.5622 -7.9962 -1.8839 0.9676
0.1500 -7.8683 -1.8496 0.9682
2.2254 -7.5440 -1.8486 0.9682
2.8886 -7.3143 -1.8482 0.9682
3.5285 -7.0265 -1.8479 0.9682
4.1402 -6.6830 -1.8476 0.9682
4.7188 -6.2863 -1.8474 0.9682
5.7721 -5.3595 -1.8512 0.9682
6.7101 -5.1980 -1.9949 0.9657
7.1595 -4.5873 -1.9984 0.9657
8.3092 -1.7951 -1.9979 0.9657
8.4957 -0.2910 -1.9979 0.9657
8.4126 1.2223 -1.9979 0.9657
8.2705 1.9675 -1.9980 0.9657
7.7908 3.4053 -1.9983 0.9657
7.0636 4.7356 -1.9987 0.9657
4.9656 6.9095 -1.9997 0.9656
3.6608 7.6840 -2.0004 0.9656
2.2389 8.2148 -2.0011 0.9656
1.4980 8.3833 -2.0015 0.9656
0.7448 8.4850 -2.0018 0.9656
-0.7741 8.4855 -2.0026 0.9656
-1.5277 8.3843 -2.0029 0.9656
-2.9934 7.9825 -2.0036 0.9656
-4.3648 7.3265 -2.0043 0.9656
-5.0013 6.9093 -2.0046 0.9656
-5.5981 6.4368 -2.0049 0.9656
-6.1504 5.9129 -2.0051 0.9656
-6.6538 5.3417 -2.0054 0.9655
-7.1042 4.7278 -2.0056 0.9655
-7.8321 3.3916 -2.0059 0.9655
-8.1038 2.6801 -2.0060 0.9655
-8.3108 1.9470 -2.0061 0.9655
-8.4515 1.1985 -2.0062 0.9655
-8.5247 0.4403 -2.0062 0.9655
-8.3368 -1.8309 -2.0060 0.9655
-8.1399 -2.5667 -2.0059 0.9655
-7.8782 -3.2819 -2.0058 0.9655
-7.5536 -3.9708 -2.0056 0.9655
-7.1688 -4.6279 -2.0054 0.9655
-6.2315 -5.8259 -2.0049 0.9656
-5.6866 -6.3574 -2.0046 0.9656
-4.4659 -7.2639 -2.0040 0.9656
-3.7999 -7.6319 -2.0037 0.9656
-2.3834 -8.1825 -2.0030 0.9656
-1.6442 -8.3608 -2.0026 0.9656
-0.8789 -8.3469 -1.9726 0.9661
-0.1232 -7.8693 -1.8497 0.9682
0.5787 -7.8475 -1.8493 0.9682
3.2828 -7.1452 -1.8480 0.9682
5.0541 -6.0192 -1.8472 0.9682
6.4823 -5.3917 -1.9816 0.9659
7.3986 -4.1899 -1.9983 0.9657
7.7420 -3.5134 -1.9981 0.9657
8.0239 -2.8091 -1.9980 0.9657
8.2420 -2.0825 -1.9979 0.9657
8.3946 -1.3394 -1.9979 0.9657
-7.2626 -2.6927 -2.0055 0.9685
-6.9931 -3.3291 -2.0053 0.9685
-6.6679 -3.9390 -2.0052 0.9685
-6.2896 -4.5172 -2.0050 0.9685
-5.3862 -5.5611 -2.0045 0.9685
-4.8684 -6.0183 -2.0043 0.9685
-3.7212 -6.7852 -2.0037 0.9685
-3.1010 -7.0888 -2.0034 0.9685
-2.4564 -7.3359 -2.0030 0.9685
1.5059 -6.9804 -1.8489 0.9709
2.1218 -6.8172 -1.8486 0.9709
2.7207 -6.5999 -1.8483 0.9709
3.2977 -6.3302 -1.8481 0.9709
4.3682 -5.6424 -1.8475 0.9709
4.9716 -5.3575 -1.8924 0.9703
5.7221 -5.1568 -1.9944 0.9687
6.5610 -4.0674 -1.9987 0.9686
7.1780 -2.8372 -1.9984 0.9686
7.5672 -1.5173 -1.9983 0.9686
7.7162 -0.1494 -1.9982 0.9686
7.6989 0.5390 -1.9983 0.9686
7.2828 2.5573 -1.9985 0.9686
6.7139 3.8105 -1.9988 0.9686
5.9317 4.9432 -1.9992 0.9686
4.4140 6.3390 -2.0000 0.9686
1.9212 7.4866 -2.0012 0.9686
1.2464 7.6294 -2.0016 0.9686
0.5614 7.7114 -2.0019 0.9686
-0.1283 7.7321 -2.0022 0.9686
-1.4998 7.5889 -2.0029 0.9685
-2.8245 7.2043 -2.0035 0.9685
-3.4560 6.9248 -2.0039 0.9685
-4.0602 6.5901 -2.0041 0.9685
-4.6321 6.2028 -2.0044 0.9685
-5.6613 5.2829 -2.0049 0.9685
-6.1104 4.7577 -2.0051 0.9685
-6.8593 3.5976 -2.0054 0.9685
-7.1531 2.9720 -2.0056 0.9685
-7.3900 2.3226 -2.0057 0.9685
-7.5679 1.6546 -2.0057 0.9685
-7.6854 0.9734 -2.0058 0.9685
-7.7361 -0.4069 -2.0058 0.9685
-7.3518 -2.4390 -2.0055 0.9685
-6.0336 -4.8531 -2.0048 0.9685
-4.5326 -6.2742 -2.0041 0.9685
-3.3454 -6.9774 -2.0035 0.9685
-2.0525 -7.4582 -2.0028 0.9685
-1.3793 -7.6102 -2.0025 0.9685
-0.6943 -7.6906 -1.9993 0.9686
0.6313 -7.1146 -1.8493 0.9709
1.2628 -7.0289 -1.8490 0.9709
2.4901 -6.6908 -1.8484 0.9709
3.6376 -6.1404 -1.8479 0.9709
4.1699 -5.7909 -1.8476 0.9709
4.6690 -5.3954 -1.8474 0.9709
5.5158 -5.3291 -1.9858 0.9688
6.7727 -3.7034 -1.9986 0.9686
7.0754 -3.0847 -1.9985 0.9686
7.6386 -1.1025 -1.9983 0.9686
7.5425 1.6369 -1.9984 0.9686
7.3670 2.3029 -1.9985 0.9686
6.0995 4.7341 -1.9991 0.9686
5.6538 5.2596 -1.9994 0.9686
4.0622 6.5708 -2.0002 0.9686
3.4608 6.9078 -2.0005 0.9686
2.8317 7.1900 -2.0008 0.9686
2.1798 7.4150 -2.0011 0.9686
0.8287 7.6868 -2.0018 0.9686
0.1402 7.7313 -2.0021 0.9686
-1.2354 7.6359 -2.0028 0.9685
-1.9115 7.4966 -2.0031 0.9685
-2.5726 7.2975 -2.0034 0.9685
-3.2134 7.0402 -2.0037 0.9685
-3.8288 6.7267 -2.0040 0.9685
-5.4743 5.4760 -2.0048 0.9685
-6.3610 4.4177 -2.0052 0.9685
-7.0455 3.2184 -2.0055 0.9685
-7.6469 1.2396 -2.0058 0.9685
-7.7456 -0.1381 -2.0058 0.9685
-7.7023 -0.8280 -2.0058 0.9685
-7.4322 -2.1825 -2.0056 0.9685
-6.9256 -3.4671 -2.0053 0.9685
-6.5884 -4.0703 -2.0051 0.9685
-5.2747 -5.6666 -2.0045 0.9685
-4.7479 -6.1135 -2.0042 0.9685
-4.1834 -6.5115 -2.0039 0.9685
-0.2720 -7.6623 -1.9851 0.9688
1.6440 -6.9489 -1.8488 0.9709
2.2565 -6.7736 -1.8486 0.9709
4.4846 -5.5612 -1.8497 0.9709
5.1558 -5.3395 -1.9218 0.9698
5.8286 -5.0469 -1.9963 0.9686
6.9642 -3.3285 -1.9985 0.9686
7.2328 -2.6943 -1.9984 0.9686
7.5957 -1.3670 -1.9983 0.9686
7.7177 0.0036 -1.9982 0.9686
7.5947 1.3741 -1.9983 0.9686
7.4423 2.0458 -1.9984 0.9686
6.6371 3.9430 -1.9989 0.9686
6.2598 4.5194 -1.9991 0.9686
5.8327 5.0600 -1.9993 0.9686
2.4357 7.3344 -2.0010 0.9686
1.0949 7.6529 -2.0016 0.9686
-1.6501 7.5580 -2.0030 0.9685
-2.3176 7.3819 -2.0033 0.9685
-2.9669 7.1471 -2.0036 0.9685
-4.7543 6.1099 -2.0045 0.9685
-5.7651 5.1697 -2.0049 0.9685
-6.2036 4.6356 -2.0051 0.9685
-7.2108 2.8295 -2.0056 0.9685
-7.4347 2.1756 -2.0057 0.9685
-7.5992 1.5042 -2.0058 0.9685
-7.7457 0.1308 -2.0058 0.9685
-7.6455 -1.2467 -2.0057 0.9685
-7.5037 -1.9232 -2.0056 0.9685
-7.3019 -2.5843 -2.0055 0.9685
-7.0420 -3.2248 -2.0054 0.9685
-6.7259 -3.8394 -2.0052 0.9685
-5.4685 -5.4804 -2.0046 0.9685
-1.9042 -7.4971 -2.0028 0.9685
-1.2280 -7.6357 -2.0024 0.9685
-0.5411 -7.6952 -1.9973 0.9686
1.4019 -7.0022 -1.8490 0.9709
3.2032 -6.3787 -1.8481 0.9709
3.7585 -6.0669 -1.8478 0.9709
6.8447 -3.5683 -1.9986 0.9686
7.1351 -2.9438 -1.9985 0.9686
7.3687 -2.2959 -1.9984 0.9686
7.6589 -0.9508 -1.9982 0.9686
7.7060 0.4244 -1.9983 0.9686
7.3199 2.4486 -1.9985 0.9686
6.7698 3.7101 -1.9988 0.9686
6.4127 4.2992 -1.9990 0.9686
5.0483 5.8449 -1.9997 0.9686
4.5078 6.2725 -1.9999 0.9686
3.9312 6.6503 -2.0002 0.9686
2.6886 7.2450 -2.0009 0.9686
2.0324 7.4570 -2.0012 0.9686
0.6761 7.7020 -2.0019 0.9686
-0.7026 7.7022 -2.0025 0.9685
-2.0599 7.4575 -2.0032 0.9685
-3.3525 6.9753 -2.0038 0.9685
-3.9616 6.6496 -2.0041 0.9685
-6.4475 4.2907 -2.0053 0.9685
-6.8049 3.6992 -2.0054 0.9685
-7.5424 1.7670 -2.0057 0.9685
-7.7413 -0.2917 -2.0058 0.9685
-7.6843 -0.9806 -2.0057 0.9685
-7.5660 -1.6617 -2.0057 0.9685
-6.8553 -3.6037 -2.0053 0.9685
-6.5062 -4.2001 -2.0051 0.9685
-6.1052 -4.7629 -2.0049 0.9685
-4.6256 -6.2062 -2.0041 0.9685
-4.0533 -6.5929 -2.0038 0.9685
-2.8173 -7.2057 -2.0032 0.9685
-0.8093 -7.6854 -2.0009 0.9686
-0.1177 -7.5228 -1.9480 0.9694
1.7814 -6.9146 -1.8488 0.9709
2.3903 -6.7272 -1.8485 0.9709
3.5459 -6.1940 -1.8479 0.9709
4.5883 -5.4644 -1.8474 0.9709
5.3576 -5.3327 -1.9572 0.9692
6.7169 -3.8039 -1.9986 0.9686
7.0288 -3.1897 -1.9985 0.9686
7.6213 -1.2160 -1.9983 0.9686
-6.6414 -2.4624 -2.0052 0.9710
-6.0977 -3.6021 -2.0049 0.9710
-5.3601 -4.6268 -2.0045 0.9710
-4.4522 -5.5038 -2.0041 0.9710
-2.2465 -6.7091 -2.0030 0.9710
-1.6392 -6.8817 -2.0027 0.9710
-0.3910 -7.0612 -2.0020 0.9710
0.2393 -7.0467 -1.9960 0.9711
0.8365 -6.7546 -1.9268 0.9721
1.3852 -6.4210 -1.8596 0.9731
2.4885 -6.0367 -1.8485 0.9732
3.0163 -5.7900 -1.8482 0.9732
4.7937 -5.1658 -1.9951 0.9711
5.2464 -4.7280 -1.9993 0.9711
5.6465 -4.2411 -1.9992 0.9711
6.0016 -3.7206 -1.9990 0.9711
6.5661 -2.5953 -1.9987 0.9711
6.9221 -1.3880 -1.9986 0.9711
7.0181 -0.7654 -1.9986 0.9711
7.0584 -0.1367 -1.9986 0.9711
6.9707 1.1189 -1.9986 0.9711
6.8435 1.7360 -1.9987 0.9711
6.1414 3.4856 -1.9991 0.9711
5.8067 4.0195 -1.9993 0.9711
5.0017 4.9878 -1.9997 0.9711
4.5377 5.4145 -1.9999 0.9711
4.0374 5.7982 -2.0002 0.9711
3.5050 6.1358 -2.0004 0.9711
1.1400 6.9780 -2.0016 0.9710
0.5135 7.0529 -2.0019 0.9710
-0.7474 7.0342 -2.0025 0.9710
-1.3717 6.9406 -2.0028 0.9710
-4.2361 5.6725 -2.0042 0.9710
-4.7254 5.2729 -2.0044 0.9710
-5.1772 4.8312 -2.0046 0.9710
-5.5878 4.3508 -2.0048 0.9710
-5.9539 3.8357 -2.0050 0.9710
-6.2726 3.2899 -2.0051 0.9710
-6.5413 2.7178 -2.0053 0.9710
-6.9205 1.5131 -2.0054 0.9710
-7.0280 0.8901 -2.0055 0.9710
-6.8954 -1.6223 -2.0053 0.9710
-6.2192 -3.3884 -2.0050 0.9710
-5.5177 -4.4381 -2.0046 0.9710
-5.0995 -4.9118 -2.0044 0.9710
-4.1452 -5.7379 -2.0039 0.9710
-2.4782 -6.6275 -2.0031 0.9710
-0.0054 -7.0600 -1.9986 0.9711
0.6128 -6.9063 -1.9628 0.9716
1.7232 -6.2994 -1.8488 0.9732
2.2776 -6.1198 -1.8486 0.9732
2.8137 -5.8916 -1.8483 0.9732
3.3314 -5.6235 -1.8503 0.9732
3.9404 -5.4722 -1.9090 0.9724
5.8690 -3.9267 -1.9991 0.9711
6.1952 -3.3877 -1.9989 0.9711
6.6976 -2.2334 -1.9987 0.9711
6.8698 -1.6274 -1.9986 0.9711
6.9874 -1.0085 -1.9986 0.9711
7.0494 -0.3816 -1.9986 0.9711
7.0554 0.2483 -1.9986 0.9711
6.7389 2.1066 -1.9988 0.9711
6.5246 2.6991 -1.9989 0.9711
5.9425 3.8154 -1.9992 0.9711
5.1716 4.8110 -1.9996 0.9711
4.2360 5.6543 -2.0001 0.9711
3.1655 6.3184 -2.0006 0.9710
2.5900 6.5763 -2.0009 0.9710
1.9937 6.7820 -2.0012 0.9710
1.3814 6.9338 -2.0015 0.9710
0.1282 7.0711 -2.0021 0.9710
-0.5028 7.0554 -2.0024 0.9710
-1.7482 6.8561 -2.0030 0.9710
-3.5015 6.1517 -2.0039 0.9710
-5.0062 5.0077 -2.0046 0.9710
-5.4333 4.5420 -2.0048 0.9710
-6.4429 2.9431 -2.0052 0.9710
-6.6799 2.3571 -2.0053 0.9710
-7.0661 0.5056 -2.0055 0.9710
-7.0434 -0.7572 -2.0054 0.9710
-6.5912 -2.5936 -2.0052 0.9710
-6.0249 -3.7222 -2.0049 0.9710
-4.8238 -5.1822 -2.0042 0.9710
-4.3421 -5.5909 -2.0040 0.9710
-3.8259 -5.9549 -2.0037 0.9710
-3.2794 -6.2714 -2.0035 0.9710
-2.7068 -6.5379 -2.0032 0.9710
-1.5024 -6.9126 -2.0026 0.9710
0.3787 -7.0355 -1.9946 0.9711
4.3548 -5.4003 -1.9639 0.9716
5.7294 -4.1282 -1.9991 0.9711
6.3705 -3.0447 -1.9988 0.9711
6.6162 -2.4646 -1.9987 0.9711
6.9482 -1.2504 -1.9986 0.9711
7.0314 0.6327 -1.9986 0.9711
6.9472 1.2570 -1.9986 0.9711
6.6142 2.4709 -1.9988 0.9711
5.7260 4.1340 -1.9993 0.9711
5.3352 4.6284 -1.9995 0.9711
3.9218 5.8773 -2.0002 0.9711
3.3827 6.2043 -2.0005 0.9711
2.2278 6.7084 -2.0011 0.9710
1.6211 6.8813 -2.0014 0.9710
1.0014 6.9995 -2.0017 0.9710
0.3735 7.0620 -2.0020 0.9710
-2.7134 6.5363 -2.0035 0.9710
-4.3479 5.5875 -2.0043 0.9710
-4.8292 5.1783 -2.0045 0.9710
-5.2721 4.7276 -2.0047 0.9710
-5.6731 4.2392 -2.0049 0.9710
-6.0289 3.7169 -2.0050 0.9710
-6.3367 3.1649 -2.0052 0.9710
-6.9492 1.3755 -2.0054 0.9710
-6.9915 -1.1401 -2.0054 0.9710
-6.6774 -2.3633 -2.0052 0.9710
-6.4397 -2.9490 -2.0051 0.9710
-6.1507 -3.5110 -2.0049 0.9710
-4.5337 -5.4371 -2.0041 0.9710
-2.3461 -6.6751 -2.0030 0.9710
-1.7415 -6.8567 -2.0027 0.9710
0.7412 -6.8154 -1.9408 0.9719
1.2956 -6.4713 -1.8683 0.9729
1.8478 -6.2637 -1.8488 0.9732
2.9299 -5.8344 -1.8482 0.9732
4.0876 -5.4454 -1.9275 0.9721
5.9456 -3.8095 -1.9990 0.9711
6.2611 -3.2641 -1.9989 0.9711
7.0060 -0.8697 -1.9986 0.9711
7.0491 0.3882 -1.9986 0.9711
6.9866 1.0151 -1.9986 0.9711
6.6958 2.2398 -1.9988 0.9711
6.1925 3.3938 -1.9991 0.9711
5.8658 3.9326 -1.9992 0.9711
4.6177 5.3463 -1.9999 0.9711
4.1232 5.7373 -2.0001 0.9711
3.0396 6.3801 -2.0007 0.9710
1.8589 6.8205 -2.0013 0.9710
-0.0121 7.0725 -2.0022 0.9710
-0.6426 7.0443 -2.0025 0.9710
-2.4848 6.6262 -2.0034 0.9710
-3.0660 6.3792 -2.0036 0.9710
-5.1047 4.9076 -2.0046 0.9710
-5.8961 3.9238 -2.0050 0.9710
-6.2229 3.3828 -2.0051 0.9710
-7.0139 0.9946 -2.0055 0.9710
-7.0747 0.3654 -2.0055 0.9710
-7.0791 -0.2667 -2.0055 0.9710
-7.0270 -0.8967 -2.0054 0.9710
-6.9188 -1.5195 -2.0054 0.9710
-6.7555 -2.1302 -2.0053 0.9710
-2.5766 -6.5901 -2.0031 0.9710
-1.9785 -6.7925 -2.0028 0.9710
-0.7406 -7.0337 -2.0022 0.9710
-0.1105 -7.0632 -1.9998 0.9711
0.5145 -6.9758 -1.9802 0.9713
1.0849 -6.6016 -1.8939 0.9726
2.1863 -6.1531 -1.8486 0.9732
3.2434 -5.6655 -1.8481 0.9732
4.5120 -5.3735 -1.9863 0.9713
5.0019 -4.9787 -1.9979 0.9711
6.1442 -3.4795 -1.9989 0.9711
6.4295 -2.9177 -1.9988 0.9711
6.6637 -2.3329 -1.9987 0.9711
6.8449 -1.7295 -1.9986 0.9711
-6.1119 -2.2661 -2.0049 0.9731
-5.2933 -3.8017 -2.0045 0.9731
-4.0975 -5.0653 -2.0039 0.9731
-3.6292 -5.4097 -2.0037 0.9731
-3.1321 -5.7110 -2.0034 0.9731
-2.6102 -5.9667 -2.0031 0.9731
-1.5087 -6.3337 -2.0026 0.9731
0.7985 -6.4478 -1.9984 0.9732
1.9051 -6.1211 -1.9718 0.9735
2.4311 -5.8974 -1.9620 0.9737
2.9719 -5.7047 -1.9785 0.9734
3.9758 -5.1355 -1.9976 0.9732
5.1975 -3.9039 -1.9994 0.9732
5.5245 -3.4248 -1.9992 0.9732
5.8074 -2.9185 -1.9991 0.9732
6.3719 -1.2777 -1.9989 0.9732
6.4603 -0.7045 -1.9988 0.9732
6.4974 -0.1258 -1.9988 0.9732
6.4828 0.4539 -1.9989 0.9732
6.1323 2.1533 -1.9991 0.9732
5.9163 2.6915 -1.9992 0.9732
5.6532 3.2085 -1.9993 0.9732
3.7163 5.3370 -2.0003 0.9732
2.7102 5.9136 -2.0008 0.9731
2.1725 6.1325 -2.0011 0.9731
1.0493 6.4226 -2.0016 0.9731
0.4726 6.4915 -2.0019 0.9731
-1.2624 6.3879 -2.0028 0.9731
-2.3774 6.0638 -2.0033 0.9731
-2.9088 5.8284 -2.0036 0.9731
-3.4172 5.5466 -2.0038 0.9731
-3.8985 5.2205 -2.0040 0.9731
-5.1424 4.0040 -2.0046 0.9731
-5.4793 3.5299 -2.0048 0.9731
-5.7725 3.0276 -2.0049 0.9731
-6.0198 2.5011 -2.0050 0.9731
-6.2190 1.9546 -2.0051 0.9731
-6.5149 0.2393 -2.0052 0.9731
-5.9791 -2.5958 -2.0049 0.9731
-5.7235 -3.1183 -2.0047 0.9731
-5.0779 -4.0844 -2.0044 0.9731
-4.6931 -4.5204 -2.0042 0.9731
-4.2710 -4.9202 -2.0040 0.9731
-1.7277 -6.2778 -2.0027 0.9731
-0.5853 -6.4830 -2.0021 0.9731
1.7031 -6.2257 -1.9853 0.9733
2.2271 -5.9840 -1.9639 0.9736
3.3026 -5.5750 -1.9930 0.9732
3.7923 -5.2664 -1.9961 0.9732
4.2546 -4.9165 -1.9998 0.9732
4.6755 -4.5172 -1.9996 0.9732
5.4024 -3.6146 -1.9993 0.9732
5.7027 -3.1184 -1.9992 0.9732
5.9577 -2.5974 -1.9990 0.9732
6.1652 -2.0559 -1.9990 0.9732
6.4891 -0.3513 -1.9988 0.9732
6.4485 0.8067 -1.9989 0.9732
5.7610 3.0102 -1.9993 0.9732
4.7603 4.4285 -1.9998 0.9732
4.3471 4.8357 -2.0000 0.9732
3.8991 5.2046 -2.0002 0.9732
3.4200 5.5321 -2.0005 0.9731
2.9136 5.8157 -2.0007 0.9731
2.3839 6.0531 -2.0010 0.9731
1.2715 6.3820 -2.0015 0.9731
0.1180 6.5082 -2.0021 0.9731
-0.4627 6.4937 -2.0024 0.9731
-1.6090 6.3101 -2.0029 0.9731
-2.1654 6.1423 -2.0032 0.9731
-2.7047 5.9256 -2.0035 0.9731
-3.2225 5.6616 -2.0037 0.9731
-4.1776 5.0005 -2.0042 0.9731
-4.6072 4.6086 -2.0044 0.9731
-5.6638 3.2260 -2.0048 0.9731
-6.1474 2.1692 -2.0051 0.9731
-6.4352 1.0431 -2.0052 0.9731
-6.5027 0.4653 -2.0052 0.9731
-6.5182 -0.1162 -2.0052 0.9731
-6.2546 -1.8367 -2.0050 0.9731
-6.0657 -2.3868 -2.0049 0.9731
-5.8284 -2.9178 -2.0048 0.9731
-5.2168 -3.9059 -2.0045 0.9731
-4.8474 -4.3549 -2.0043 0.9731
-3.9961 -5.1454 -2.0038 0.9731
-3.5211 -5.4805 -2.0036 0.9731
-2.4912 -6.0171 -2.0031 0.9731
-1.3827 -6.3621 -2.0025 0.9731
-0.8100 -6.4592 -2.0023 0.9731
-0.2309 -6.5047 -2.0020 0.9731
0.3498 -6.4985 -2.0017 0.9731
0.9258 -6.4277 -1.9974 0.9732
2.5475 -5.8478 -1.9619 0.9737
3.0946 -5.6633 -1.9850 0.9734
3.6048 -5.3913 -1.9948 0.9732
4.0789 -5.0582 -1.9986 0.9732
4.5160 -4.6770 -1.9997 0.9732
5.2739 -3.8000 -1.9993 0.9732
5.8641 -2.8027 -1.9991 0.9732
6.2680 -1.7167 -1.9989 0.9732
6.3959 -1.1510 -1.9989 0.9732
6.4986 0.0031 -1.9988 0.9732
6.4726 0.5824 -1.9989 0.9732
6.3950 1.1571 -1.9989 0.9732
6.0884 2.2745 -1.9991 0.9732
4.9110 4.2604 -1.9997 0.9732
4.0772 5.0659 -2.0001 0.9732
3.6098 5.4098 -2.0004 0.9731
3.1136 5.7108 -2.0006 0.9731
2.5924 5.9664 -2.0009 0.9731
2.0505 6.1746 -2.0011 0.9731
-0.8162 6.4593 -2.0026 0.9731
