ply
format ascii 1.0
element vertex 1599
property float32 x
property float32 y
property float32 z
property float32 I
end_header
0.6729 -5.8405 -1.5222 0.9760
2.0666 -6.8393 -1.8499 0.9709
2.6506 -5.1899 -1.5089 0.9762
3.8051 -6.0483 -1.8501 0.9709
5.6965 -4.3464 -1.8552 0.9708
6.5289 -4.1151 -1.9982 0.9686
6.8859 -3.5240 -2.0028 0.9685
7.1731 -2.8954 -2.0028 0.9685
7.5738 -1.5740 -2.0029 0.9685
7.7331 -0.2024 -2.0029 0.9685
7.6458 1.1757 -2.0029 0.9685
7.5103 1.8534 -2.0029 0.9685
6.7506 3.7765 -2.0028 0.9685
6.3865 4.3638 -2.0027 0.9685
5.9713 4.9163 -2.0027 0.9685
5.5085 5.4294 -2.0026 0.9685
5.0018 5.8992 -2.0025 0.9685
4.3079 6.1129 -1.9363 0.9696
1.1927 7.0738 -1.8574 0.9708
3.8471 -4.8503 -1.7526 0.9746
5.6926 -4.1692 -1.9975 0.9711
6.0576 -3.6539 -2.0027 0.9710
6.3597 -3.0987 -2.0027 0.9710
6.8095 -1.9187 -2.0028 0.9710
7.0422 -0.6775 -2.0028 0.9710
7.0746 -0.0463 -2.0028 0.9710
7.0505 0.5854 -2.0028 0.9710
6.8340 1.8295 -2.0028 0.9710
6.6434 2.4321 -2.0028 0.9710
6.1049 3.5744 -2.0027 0.9710
5.7613 4.1049 -2.0026 0.9710
5.3718 4.6026 -2.0026 0.9710
3.9602 5.8606 -2.0024 0.9710
1.5391 6.3782 -1.8574 0.9731
0.9403 6.3325 -1.8124 0.9737
0.3805 6.5496 -1.8573 0.9731
-0.2055 6.5571 -1.8572 0.9731
-1.3679 6.4156 -1.8570 0.9731
-1.9350 6.2676 -1.8569 0.9731
-2.4865 6.0696 -1.8569 0.9731
-3.0789 5.9402 -1.8941 0.9726
-4.3169 5.5977 -2.0012 0.9710
-4.7991 5.1899 -2.0011 0.9710
-5.6451 4.2537 -2.0010 0.9710
-6.7761 2.0093 -2.0008 0.9710
-6.9283 1.3965 -2.0008 0.9710
-7.0252 0.7726 -2.0008 0.9710
-7.0506 -0.4887 -2.0008 0.9710
-4.1939 -5.0070 -1.8490 0.9732
-3.7304 -5.3615 -1.8491 0.9732
-2.1771 -6.1589 -1.8493 0.9732
-1.6187 -6.3289 -1.8494 0.9732
0.6711 -6.2432 -1.7776 0.9742
1.8424 -6.2693 -1.8499 0.9732
2.6348 -5.2575 -1.6648 0.9758
3.4378 -5.5580 -1.8501 0.9732
3.9203 -5.2292 -1.8502 0.9732
4.7878 -4.4492 -1.8503 0.9732
5.5700 -4.3174 -1.9950 0.9711
6.2728 -3.2708 -2.0027 0.9710
6.7546 -2.1035 -2.0028 0.9710
6.9155 -1.4923 -2.0028 0.9710
7.0212 -0.8691 -2.0028 0.9710
7.0638 0.3930 -2.0028 0.9710
6.8813 1.6426 -2.0028 0.9710
6.7072 2.2502 -2.0028 0.9710
5.4953 4.4545 -2.0026 0.9710
5.0756 4.9271 -2.0025 0.9710
3.5820 6.0836 -1.9986 0.9711
2.8847 6.0837 -1.9061 0.9724
1.7123 6.3340 -1.8575 0.9731
0.5589 6.5369 -1.8573 0.9731
-0.6122 6.5315 -1.8571 0.9731
-1.1926 6.4505 -1.8570 0.9731
-2.3203 6.1352 -1.8569 0.9731
-2.8807 5.9493 -1.8713 0.9729
-3.5497 5.9177 -1.9535 0.9717
-4.1629 5.7133 -2.0012 0.9710
-5.5271 4.4060 -2.0010 0.9710
-5.8981 3.8950 -2.0009 0.9710
-6.2221 3.3529 -2.0009 0.9710
-6.7188 2.1932 -2.0008 0.9710
-6.8877 1.5848 -2.0008 0.9710
-7.0016 0.9637 -2.0008 0.9710
-7.0596 0.3350 -2.0008 0.9710
-7.0613 -0.2964 -2.0008 0.9710
-7.0067 -0.9255 -2.0008 0.9710
-6.8962 -1.5472 -2.0008 0.9710
-6.5114 -2.7487 -2.0009 0.9710
-6.2402 -3.3189 -2.0009 0.9710
-5.5405 -4.3674 -1.9972 0.9711
-4.8638 -4.5944 -1.8941 0.9726
-4.3287 -4.8908 -1.8490 0.9732
-2.8787 -5.8635 -1.8492 0.9732
-1.7906 -6.2824 -1.8493 0.9732
1.1003 -6.4408 -1.8497 0.9732
2.2281 -6.1431 -1.8499 0.9732
2.7676 -5.9199 -1.8500 0.9732
2.9118 -5.0077 -1.6399 0.9762
5.2931 -4.3387 -1.9375 0.9719
6.1813 -3.4405 -2.0027 0.9710
6.4639 -2.8751 -2.0027 0.9710
6.8723 -1.6801 -2.0028 0.9710
6.9949 -1.0601 -2.0028 0.9710
7.0258 0.8308 -2.0028 0.9710
6.7660 2.0666 -2.0028 0.9710
6.5545 2.6622 -2.0027 0.9710
5.9765 3.7850 -2.0027 0.9710
5.6147 4.3032 -2.0026 0.9710
5.2081 4.7870 -2.0026 0.9710
4.7599 5.2326 -2.0025 0.9710
3.0906 6.0840 -1.9318 0.9720
2.4378 6.0921 -1.8576 0.9731
1.3158 6.4279 -1.8574 0.9731
-0.4340 6.5459 -1.8572 0.9731
-2.6966 5.9791 -1.8568 0.9731
-4.5094 5.4437 -2.0011 0.9710
-5.4051 4.5550 -2.0010 0.9710
-6.1285 3.5213 -2.0009 0.9710
-6.4181 2.9602 -2.0009 0.9710
-6.6566 2.3755 -2.0008 0.9710
-7.0479 0.5272 -2.0008 0.9710
-7.0293 -0.7343 -2.0008 0.9710
-6.9358 -1.3587 -2.0008 0.9710
-6.3283 -3.1477 -2.0009 0.9710
-5.6646 -4.2202 -1.9997 0.9711
-4.4603 -4.7710 -1.8489 0.9732
-4.0168 -5.1502 -1.8490 0.9732
-3.0374 -5.7828 -1.8491 0.9732
-2.5093 -6.0310 -1.8492 0.9732
-0.8220 -6.4812 -1.8495 0.9732
-0.2403 -6.5290 -1.8496 0.9732
0.3434 -6.5246 -1.8496 0.9732
0.8363 -5.8517 -1.6734 0.9757
1.4981 -6.3602 -1.8498 0.9732
2.0598 -6.2014 -1.8499 0.9732
2.6052 -5.9931 -1.8500 0.9732
5.7262 -4.1271 -1.9982 0.9711
6.8239 -1.8668 -2.0028 0.9710
7.0748 0.0077 -2.0028 0.9710
6.8199 1.8815 -2.0028 0.9710
6.6246 2.4827 -2.0028 0.9710
6.3765 3.0640 -2.0027 0.9710
6.0774 3.6208 -2.0027 0.9710
5.7299 4.1486 -2.0026 0.9710
5.3366 4.6434 -2.0026 0.9710
4.9007 5.1010 -2.0025 0.9710
3.9155 5.8906 -2.0024 0.9710
3.3022 6.0840 -1.9597 0.9716
2.6287 6.0831 -1.8760 0.9728
1.4904 6.3897 -1.8574 0.9731
0.3306 6.5523 -1.8573 0.9731
-0.2555 6.5554 -1.8572 0.9731
-1.4168 6.4049 -1.8570 0.9731
-3.1351 5.9376 -1.9008 0.9725
-3.8274 5.9038 -1.9918 0.9712
-4.3594 5.5647 -2.0012 0.9710
-4.8385 5.1532 -2.0011 0.9710
-6.0303 3.6870 -2.0009 0.9710
-6.3351 3.1340 -2.0009 0.9710
-7.0309 0.7190 -2.0008 0.9710
-6.8381 -1.7867 -2.0008 0.9710
-6.6514 -2.3899 -2.0008 0.9710
-5.7810 -4.0668 -2.0010 0.9710
-5.3763 -4.5507 -1.9940 0.9711
-4.1556 -5.0388 -1.8490 0.9732
-2.1301 -6.1754 -1.8493 0.9732
0.1655 -6.5315 -1.8496 0.9732
1.3242 -6.3986 -1.8498 0.9732
1.8901 -6.2551 -1.8499 0.9732
2.6362 -5.1617 -1.6408 0.9762
4.2796 -4.6841 -1.7962 0.9740
4.8216 -4.4126 -1.8503 0.9732
5.9846 -3.7720 -2.0027 0.9710
6.7705 -2.0520 -2.0028 0.9710
6.9267 -1.4395 -2.0028 0.9710
7.0276 -0.8156 -2.0028 0.9710
7.0723 -0.1851 -2.0028 0.9710
7.0606 0.4468 -2.0028 0.9710
6.8686 1.6950 -2.0028 0.9710
6.6898 2.3013 -2.0028 0.9710
6.1739 3.4539 -2.0027 0.9710
5.8408 3.9910 -2.0026 0.9710
5.4612 4.4963 -2.0026 0.9710
5.0379 4.9656 -2.0025 0.9710
4.5745 5.3952 -2.0025 0.9710
4.0746 5.7818 -2.0024 0.9710
3.5199 6.0838 -1.9898 0.9712
2.2239 6.1732 -1.8575 0.9731
1.6640 6.3468 -1.8575 0.9731
4.1631 -4.3808 -1.8588 0.9750
4.8718 -4.2858 -1.9958 0.9732
6.2671 -1.7659 -2.0027 0.9731
6.4814 -0.6235 -2.0027 0.9731
6.4890 0.5387 -2.0027 0.9731
6.4150 1.1157 -2.0027 0.9731
6.2897 1.6838 -2.0027 0.9731
5.8900 2.7752 -2.0027 0.9731
5.6187 3.2897 -2.0026 0.9731
5.3025 3.7780 -2.0026 0.9731
4.5461 4.6603 -2.0025 0.9731
4.1119 5.0473 -2.0024 0.9731
3.6449 5.3939 -2.0023 0.9731
2.6276 5.9556 -2.0022 0.9731
2.0470 6.0523 -1.9652 0.9736
-3.9734 5.1522 -2.0012 0.9731
-4.4172 4.7769 -2.0012 0.9731
-4.8258 4.3634 -2.0011 0.9731
-5.5244 3.4358 -2.0010 0.9731
-6.0470 2.3988 -2.0009 0.9731
-6.3063 -1.5965 -2.0009 0.9731
-6.1387 -2.1530 -2.0009 0.9731
-5.9222 -2.6923 -2.0009 0.9731
-5.6583 -3.2102 -2.0010 0.9731
-4.9962 -4.1641 -2.0005 0.9731
-3.4335 -4.9348 -1.8491 0.9752
-2.9795 -5.2218 -1.8492 0.9752
-2.5016 -5.4670 -1.8492 0.9752
-1.4899 -5.8252 -1.8494 0.9752
0.1065 -6.0125 -1.8496 0.9751
0.6427 -5.9792 -1.8497 0.9751
1.1603 -5.8300 -1.8283 0.9754
2.6211 -5.2302 -1.7994 0.9758
4.0234 -4.4717 -1.8502 0.9751
4.6796 -4.3486 -1.9649 0.9736
5.7733 -3.0103 -2.0026 0.9731
6.0190 -2.4831 -2.0027 0.9731
6.4620 -0.7999 -2.0027 0.9731
6.5076 -0.2200 -2.0027 0.9731
6.4430 0.9405 -2.0027 0.9731
6.3333 1.5118 -2.0027 0.9731
6.1730 2.0710 -2.0027 0.9731
5.9634 2.6137 -2.0027 0.9731
5.7063 3.1354 -2.0026 0.9731
5.0577 4.0998 -2.0025 0.9731
4.2479 4.9334 -2.0024 0.9731
3.7905 5.2927 -2.0023 0.9731
2.7890 5.8819 -2.0022 0.9731
2.2330 6.0533 -1.9845 0.9734
1.0663 6.0428 -1.8873 0.9746
0.5160 6.0353 -1.8631 0.9750
-0.0247 6.0381 -1.8572 0.9750
-1.6670 5.9723 -1.9072 0.9744
-2.8358 5.8565 -2.0014 0.9731
-3.8316 5.2586 -2.0012 0.9731
-4.7052 4.4933 -2.0011 0.9731
-5.0873 4.0554 -2.0011 0.9731
-6.1842 2.0187 -2.0009 0.9731
-6.3396 1.4587 -2.0009 0.9731
-6.4445 0.8870 -2.0009 0.9731
-6.4979 0.3083 -2.0009 0.9731
-6.4995 -0.2729 -2.0009 0.9731
-5.9933 -2.5300 -2.0009 0.9731
-5.7437 -3.0548 -2.0010 0.9731
-5.4482 -3.5554 -2.0010 0.9731
-5.1093 -4.0275 -2.0011 0.9731
-4.0511 -4.5772 -1.8801 0.9747
-3.5667 -4.8394 -1.8491 0.9752
-2.6496 -5.3968 -1.8492 0.9752
-1.1254 -5.9066 -1.8494 0.9752
0.4796 -5.9945 -1.8497 0.9751
1.0127 -5.9280 -1.8497 0.9751
1.5378 -5.8142 -1.8498 0.9751
2.5472 -5.4486 -1.8500 0.9751
3.4756 -4.9093 -1.8501 0.9751
3.9000 -4.5796 -1.8502 0.9751
4.4461 -4.3633 -1.9160 0.9743
5.0252 -4.1191 -1.9985 0.9732
5.3836 -3.6615 -2.0026 0.9731
5.6891 -3.1665 -2.0026 0.9731
5.9491 -2.6461 -2.0027 0.9731
6.1616 -2.1046 -2.0027 0.9731
6.4662 0.7646 -2.0027 0.9731
6.2272 1.9021 -2.0027 0.9731
6.0325 2.4502 -2.0027 0.9731
5.7896 2.9788 -2.0026 0.9731
5.5005 3.4836 -2.0026 0.9731
4.3808 4.8159 -2.0024 0.9731
1.8140 6.0507 -1.9429 0.9739
0.1399 6.0366 -1.8572 0.9750
-0.9407 5.9975 -1.8672 0.9749
-2.0690 5.9565 -1.9395 0.9740
-2.6746 5.9303 -2.0010 0.9731
-3.1938 5.6690 -2.0013 0.9731
-3.6869 5.3611 -2.0013 0.9731
-4.9749 4.1925 -2.0011 0.9731
-5.6408 3.2411 -2.0010 0.9731
-5.9074 2.7246 -2.0009 0.9731
-6.1269 2.1865 -2.0009 0.9731
-6.2975 1.6309 -2.0009 0.9731
-6.4179 1.0623 -2.0009 0.9731
-6.4871 0.4852 -2.0009 0.9731
-6.5045 -0.0957 -2.0009 0.9731
-6.4700 -0.6758 -2.0009 0.9731
-6.3839 -1.2506 -2.0009 0.9731
-6.2469 -1.8154 -2.0009 0.9731
-6.0600 -2.3657 -2.0009 0.9731
-4.8411 -4.3295 -1.9976 0.9732
-4.2763 -4.5742 -1.9260 0.9741
-3.6972 -4.7404 -1.8491 0.9752
-3.2594 -5.0516 -1.8491 0.9752
-2.3096 -5.5510 -1.8493 0.9752
-1.8050 -5.7352 -1.8493 0.9752
0.3161 -6.0052 -1.8496 0.9751
1.3788 -5.8538 -1.8498 0.9751
2.7377 -5.0181 -1.7582 0.9764
6.1019 -2.2717 -2.0027 0.9731
6.2804 -1.7181 -2.0027 0.9731
6.4088 -1.1507 -2.0027 0.9731
6.4859 -0.5741 -2.0027 0.9731
6.5113 0.0070 -2.0027 0.9731
6.4847 0.5882 -2.0027 0.9731
5.8687 2.8200 -2.0026 0.9731
5.5934 3.3324 -2.0026 0.9731
4.9116 4.2736 -2.0025 0.9731
3.1053 5.7213 -2.0023 0.9731
1.9957 6.0520 -1.9601 0.9737
0.8498 6.0396 -1.8759 0.9748
-1.3238 5.9847 -1.8853 0.9747
-2.4860 5.9388 -1.9802 0.9734
-5.2255 3.8755 -2.0010 0.9731
-5.5504 3.3936 -2.0010 0.9731
-5.8310 2.8846 -2.0010 0.9731
-6.0651 2.3526 -2.0009 0.9731
-6.5047 0.0816 -2.0009 0.9731
-6.4156 -1.0762 -2.0009 0.9731
-6.2940 -1.6445 -2.0009 0.9731
-6.1222 -2.1997 -2.0009 0.9731
-5.9015 -2.7374 -2.0009 0.9731
-5.6337 -3.2532 -2.0010 0.9731
-4.9628 -4.2007 -1.9999 0.9732
-4.5127 -4.5707 -1.9756 0.9735
-3.8249 -4.6378 -1.8490 0.9752
-3.3958 -4.9609 -1.8491 0.9752
-2.4599 -5.4860 -1.8492 0.9752
-1.9605 -5.6838 -1.8493 0.9752
-1.4455 -5.8364 -1.8494 0.9752
-0.9188 -5.9423 -1.8495 0.9752
-0.3848 -6.0009 -1.8495 0.9751
0.1523 -6.0115 -1.8496 0.9751
1.7396 -5.7571 -1.8498 0.9751
2.2466 -5.5791 -1.8499 0.9751
3.6447 -4.7852 -1.8501 0.9751
4.7470 -4.3443 -1.9792 0.9734
5.5080 -3.4716 -2.0026 0.9731
6.0378 -2.4371 -2.0027 0.9731
6.3750 -1.3249 -2.0027 0.9731
6.5091 -0.1704 -2.0027 0.9731
6.4983 0.4113 -2.0027 0.9731
6.4356 0.9896 -2.0027 0.9731
5.9433 2.6590 -2.0027 0.9731
5.0263 4.1382 -2.0025 0.9731
4.6367 4.5702 -2.0025 0.9731
4.2102 4.9656 -2.0024 0.9731
3.2601 5.6347 -2.0023 0.9731
2.7441 5.9029 -2.0022 0.9731
2.1806 6.0530 -1.9789 0.9734
1.5859 6.0488 -1.9234 0.9742
4.8602 -3.5595 -2.0025 0.9749
5.1586 -3.1116 -2.0025 0.9749
5.4158 -2.6388 -2.0026 0.9749
5.6298 -2.1450 -2.0026 0.9749
5.7989 -1.6339 -2.0026 0.9749
5.9216 -1.1099 -2.0027 0.9749
5.9971 -0.5769 -2.0027 0.9749
6.0246 -0.0394 -2.0027 0.9749
6.0041 0.4985 -2.0027 0.9749
5.9356 1.0324 -2.0027 0.9749
5.6574 2.0712 -2.0026 0.9749
4.5747 3.9195 -2.0025 0.9749
4.2065 4.3121 -2.0024 0.9749
2.9136 5.2719 -2.0022 0.9749
2.4314 5.5107 -2.0022 0.9749
1.9297 5.7055 -2.0021 0.9749
0.8846 5.9572 -2.0019 0.9749
-0.1878 5.9926 -1.9929 0.9750
-0.7251 5.9778 -2.0016 0.9749
-1.2557 5.8892 -2.0016 0.9749
-1.7763 5.7534 -2.0015 0.9749
-2.2826 5.5717 -2.0015 0.9749
-2.7707 5.3456 -2.0014 0.9749
-3.2366 5.0768 -2.0013 0.9749
-4.0874 4.4202 -2.0012 0.9749
-4.4655 4.0376 -2.0012 0.9749
-5.1119 3.1793 -2.0011 0.9749
-5.3752 2.7103 -2.0010 0.9749
-5.5955 2.2197 -2.0010 0.9749
-5.7712 1.7114 -2.0010 0.9749
-5.8355 -1.4773 -2.0009 0.9749
-5.6804 -1.9923 -2.0010 0.9749
-5.4800 -2.4913 -2.0010 0.9749
-3.8144 -4.5539 -1.9746 0.9753
-3.1779 -4.5674 -1.8496 0.9768
-2.7570 -4.8318 -1.8492 0.9768
-1.8541 -5.2454 -1.8493 0.9768
-1.3786 -5.3901 -1.8494 0.9768
-0.8921 -5.4919 -1.8495 0.9768
-0.3984 -5.5498 -1.8495 0.9768
0.5947 -5.5326 -1.8497 0.9768
1.0862 -5.4577 -1.8497 0.9768
2.4935 -4.9755 -1.8500 0.9768
4.4056 -4.0940 -1.9991 0.9750
4.7614 -3.6906 -2.0025 0.9749
5.0719 -3.2510 -2.0025 0.9749
5.3419 -2.7854 -2.0026 0.9749
5.5693 -2.2975 -2.0026 0.9749
5.8892 -1.2708 -2.0026 0.9749
6.0213 -0.2035 -2.0027 0.9749
5.7118 1.9163 -2.0026 0.9749
4.9998 3.3607 -2.0025 0.9749
4.6798 3.7935 -2.0025 0.9749
4.3224 4.1959 -2.0024 0.9749
3.9306 4.5648 -2.0024 0.9749
3.5074 4.8973 -2.0023 0.9749
3.0562 5.1906 -2.0022 0.9749
2.5806 5.4425 -2.0022 0.9749
1.5718 5.8141 -2.0020 0.9749
1.0466 5.9310 -2.0020 0.9749
0.5130 6.0005 -2.0019 0.9749
-0.5607 5.9826 -1.9974 0.9750
-1.0948 5.9213 -2.0016 0.9749
-1.6189 5.7998 -2.0016 0.9749
-3.0971 5.1632 -2.0014 0.9749
-3.5455 4.8660 -2.0013 0.9749
-3.9655 4.5300 -2.0012 0.9749
-4.7074 3.7526 -2.0011 0.9749
-5.0235 3.3174 -2.0011 0.9749
-5.7225 1.8680 -2.0010 0.9749
-5.8663 1.3498 -2.0009 0.9749
-5.9633 0.8208 -2.0009 0.9749
-6.0128 0.2853 -2.0009 0.9749
-6.0142 -0.2525 -2.0009 0.9749
-5.9677 -0.7883 -2.0009 0.9749
-5.8736 -1.3178 -2.0009 0.9749
-5.7326 -1.8367 -2.0010 0.9749
-5.5458 -2.3411 -2.0010 0.9749
-5.0415 -3.2899 -2.0011 0.9749
-4.3757 -4.1333 -2.0008 0.9749
-3.9770 -4.4934 -1.9946 0.9750
-3.3606 -4.5598 -1.8829 0.9764
-1.5250 -5.3505 -1.8494 0.9768
-0.5494 -5.5368 -1.8495 0.9768
-0.0531 -5.5640 -1.8496 0.9768
0.9371 -5.4852 -1.8497 0.9768
1.4229 -5.3799 -1.8498 0.9768
1.8975 -5.2316 -1.8499 0.9768
2.3569 -5.0416 -1.8499 0.9768
2.7976 -4.8112 -1.8500 0.9768
3.2159 -4.5425 -1.8501 0.9768
3.7312 -4.3813 -1.9129 0.9760
4.2883 -4.2085 -1.9972 0.9750
5.2640 -2.9299 -2.0026 0.9749
5.5046 -2.4484 -2.0026 0.9749
5.8523 -1.4308 -2.0026 0.9749
5.9567 -0.9028 -2.0027 0.9749
6.0135 -0.3675 -2.0027 0.9749
6.0224 0.1707 -2.0027 0.9749
5.8960 1.2387 -2.0026 0.9749
5.7619 1.7599 -2.0026 0.9749
5.0895 3.2233 -2.0025 0.9749
4.7814 3.6646 -2.0025 0.9749
4.0535 4.4561 -2.0024 0.9749
3.6395 4.7999 -2.0023 0.9749
3.1965 5.1054 -2.0023 0.9749
2.7280 5.3702 -2.0022 0.9749
2.2377 5.5920 -2.0021 0.9749
1.7296 5.7692 -2.0021 0.9749
0.1390 6.0002 -1.9950 0.9750
-0.3970 5.9872 -1.9945 0.9750
-0.9331 5.9490 -2.0017 0.9749
-1.4603 5.8418 -2.0016 0.9749
-2.4754 5.4887 -2.0014 0.9749
-2.9553 5.2457 -2.0014 0.9749
-3.4116 4.9608 -2.0013 0.9749
-4.2390 4.2750 -2.0012 0.9749
-4.6035 3.8795 -2.0011 0.9749
-5.2196 2.9991 -2.0010 0.9749
-5.4664 2.5212 -2.0010 0.9749
-5.6695 2.0232 -2.0010 0.9749
-5.8274 1.5091 -2.0010 0.9749
-5.9388 0.9830 -2.0009 0.9749
-6.0028 0.4490 -2.0009 0.9749
-6.0189 -0.0885 -2.0009 0.9749
-5.9073 -1.1572 -2.0009 0.9749
-5.7805 -1.6799 -2.0010 0.9749
-5.1292 -3.1513 -2.0011 0.9749
-4.4874 -4.0132 -2.0011 0.9749
-4.1017 -4.3874 -1.9965 0.9750
-3.5545 -4.5574 -1.9212 0.9759
-3.0160 -4.6744 -1.8492 0.9768
-1.6702 -5.3069 -1.8493 0.9768
-1.1899 -5.4350 -1.8494 0.9768
-0.7001 -5.5197 -1.8495 0.9768
0.2925 -5.5567 -1.8496 0.9768
0.7872 -5.5086 -1.8497 0.9768
1.2758 -5.4166 -1.8498 0.9768
1.7542 -5.2813 -1.8498 0.9768
2.2187 -5.1038 -1.8499 0.9768
3.5392 -4.3930 -1.8752 0.9765
4.8872 -3.5224 -2.0025 0.9749
5.1822 -3.0722 -2.0025 0.9749
5.6460 -2.1020 -2.0026 0.9749
6.0013 -0.5312 -2.0027 0.9749
6.0248 0.0065 -2.0027 0.9749
6.0001 0.5442 -2.0027 0.9749
5.9276 1.0776 -2.0027 0.9749
5.8077 1.6023 -2.0026 0.9749
5.6415 2.1142 -2.0026 0.9749
5.1755 3.0834 -2.0025 0.9749
4.8796 3.5330 -2.0025 0.9749
4.1735 4.3440 -2.0024 0.9749
3.7690 4.6990 -2.0023 0.9749
1.8862 5.7200 -2.0021 0.9749
1.3681 5.8653 -2.0020 0.9749
0.8391 5.9638 -2.0019 0.9749
-0.7706 5.9723 -2.0017 0.9749
-1.3006 5.8795 -2.0016 0.9749
-1.8200 5.7397 -2.0015 0.9749
-2.8113 5.3243 -2.0014 0.9749
-3.7129 4.7394 -2.0013 0.9749
-5.3957 2.6692 -2.0010 0.9749
-5.6123 2.1770 -2.0010 0.9749
-5.7841 1.6673 -2.0010 0.9749
-5.9883 0.6124 -2.0009 0.9749
-6.0018 -0.4620 -2.0009 0.9749
-5.9366 -0.9958 -2.0009 0.9749
-5.8241 -1.5217 -2.0010 0.9749
-5.6651 -2.0355 -2.0010 0.9749
-5.4609 -2.5330 -2.0010 0.9749
-4.5950 -3.8894 -2.0011 0.9749
-3.1423 -4.5904 -1.8491 0.9768
-1.3375 -5.4005 -1.8494 0.9768
-0.3561 -5.5527 -1.8495 0.9768
1.1277 -5.4493 -1.8498 0.9768
1.6097 -5.3271 -1.8498 0.9768
2.0788 -5.1623 -1.8499 0.9768
2.5313 -4.9564 -1.8500 0.9768
3.3724 -4.4277 -1.8501 0.9768
3.9883 -4.3653 -1.9655 0.9754
4.7894 -3.6542 -2.0025 0.9749
5.3630 -2.7446 -2.0026 0.9749
5.7657 -1.7475 -2.0026 0.9749
5.8987 -1.2259 -2.0026 0.9749
6.0227 -0.1576 -2.0027 0.9749
5.9548 0.9157 -2.0027 0.9749
5.8492 1.4435 -2.0026 0.9749
5.4993 2.4603 -2.0026 0.9749
4.6507 3.8290 -2.0025 0.9749
4.2903 4.2287 -2.0024 0.9749
3.8957 4.5946 -2.0024 0.9749
3.4699 4.9238 -2.0023 0.9749
3.0165 5.2137 -2.0022 0.9749
1.5274 5.8259 -2.0020 0.9749
1.0013 5.9388 -2.0019 0.9749
3.8526 -4.0540 -2.0000 0.9765
4.2041 -3.6985 -2.0024 0.9765
5.2329 -1.9937 -2.0025 0.9765
5.5041 -1.0316 -2.0026 0.9765
5.5743 -0.5363 -2.0026 0.9765
5.5172 0.9596 -2.0026 0.9765
5.2586 1.9252 -2.0026 0.9765
5.0657 2.3868 -2.0025 0.9765
4.8324 2.8293 -2.0025 0.9765
4.5605 3.2493 -2.0025 0.9765
3.5365 4.3410 -2.0023 0.9765
2.7082 4.9003 -2.0022 0.9765
2.2497 5.0991 -1.9931 0.9766
1.7937 5.3034 -2.0021 0.9765
0.8222 5.5374 -2.0019 0.9765
-0.1754 5.5949 -2.0018 0.9765
-1.1672 5.4742 -2.0016 0.9765
-1.6511 5.3480 -2.0016 0.9765
-2.5754 4.9689 -2.0014 0.9765
-3.0086 4.7191 -2.0014 0.9765
-3.7994 4.1088 -2.0013 0.9765
-4.1509 3.7532 -2.0012 0.9765
-4.4692 3.3677 -2.0012 0.9765
-4.7518 2.9553 -2.0011 0.9765
-5.4852 1.1057 -2.0010 0.9765
-5.4244 -1.3732 -2.0010 0.9765
-5.2803 -1.8519 -2.0010 0.9765
-4.6012 -3.1847 -2.0011 0.9765
-3.9619 -3.9522 -2.0012 0.9765
-3.1570 -4.5375 -1.9767 0.9768
-2.1517 -4.7023 -1.8493 0.9783
-1.7235 -4.8758 -1.8493 0.9783
-1.2815 -5.0103 -1.8494 0.9783
-0.8292 -5.1049 -1.8495 0.9783
0.5528 -5.1427 -1.8497 0.9783
1.4584 -4.9629 -1.8498 0.9783
1.8956 -4.8131 -1.8499 0.9783
2.3177 -4.6248 -1.8499 0.9783
2.7317 -4.4165 -1.8571 0.9782
3.2863 -4.3836 -1.9592 0.9770
3.7376 -4.1540 -1.9983 0.9765
4.1018 -3.8116 -2.0024 0.9765
4.4257 -3.4304 -2.0024 0.9765
4.7143 -3.0218 -2.0025 0.9765
4.9653 -2.5890 -2.0025 0.9765
5.4740 -1.1812 -2.0026 0.9765
5.5576 -0.6879 -2.0026 0.9765
5.5413 0.8089 -2.0026 0.9765
5.4469 1.3002 -2.0026 0.9765
5.3091 1.7812 -2.0026 0.9765
5.1289 2.2479 -2.0025 0.9765
4.9077 2.6966 -2.0025 0.9765
4.6473 3.1238 -2.0025 0.9765
4.3499 3.5261 -2.0024 0.9765
2.8408 4.8247 -2.0022 0.9765
1.4610 5.4044 -2.0020 0.9765
0.9728 5.5130 -2.0019 0.9765
0.4768 5.5776 -2.0019 0.9765
-1.0177 5.5041 -2.0017 0.9765
-1.9799 5.2351 -2.0015 0.9765
-3.6861 4.2108 -2.0013 0.9765
-4.3758 3.4882 -2.0012 0.9765
-4.6696 3.0837 -2.0011 0.9765
-5.1432 2.2043 -2.0011 0.9765
-5.3194 1.7364 -2.0010 0.9765
-5.5432 0.7630 -2.0010 0.9765
-5.5892 0.2652 -2.0010 0.9765
-5.5906 -0.2347 -2.0010 0.9765
-5.5473 -0.7327 -2.0010 0.9765
-5.4598 -1.2249 -2.0010 0.9765
-5.1552 -2.1762 -2.0010 0.9765
-4.9404 -2.6276 -2.0011 0.9765
-4.6863 -3.0581 -2.0011 0.9765
-4.0681 -3.8428 -2.0012 0.9765
-3.3090 -4.4897 -1.9945 0.9766
-1.8557 -4.8270 -1.8493 0.9783
-1.4175 -4.9735 -1.8494 0.9783
-0.9680 -5.0803 -1.8494 0.9783
-0.0493 -5.1719 -1.8496 0.9783
1.7638 -4.8629 -1.8498 0.9783
2.6004 -4.4721 -1.8500 0.9783
3.1109 -4.3942 -1.9253 0.9774
4.3306 -3.5497 -2.0024 0.9765
4.6302 -3.1491 -2.0025 0.9765
4.8929 -2.7233 -2.0025 0.9765
5.2993 -1.8101 -2.0026 0.9765
5.5368 -0.8391 -2.0026 0.9765
5.5978 0.1586 -2.0026 0.9765
5.3557 1.6359 -2.0026 0.9765
5.1882 2.1073 -2.0025 0.9765
4.7307 2.9961 -2.0025 0.9765
4.4444 3.4063 -2.0024 0.9765
4.1225 3.7892 -2.0024 0.9765
3.7678 4.1420 -2.0023 0.9765
3.3830 4.4616 -2.0023 0.9765
2.0800 5.1979 -2.0021 0.9765
1.6077 5.3626 -2.0020 0.9765
0.6286 5.5626 -2.0019 0.9765
0.1297 5.5963 -2.0018 0.9765
-0.3703 5.5854 -2.0017 0.9765
-0.8673 5.5298 -2.0017 0.9765
-1.3574 5.4301 -2.0016 0.9765
-1.8365 5.2871 -2.0015 0.9765
-4.2792 3.6062 -2.0012 0.9765
-4.5838 3.2098 -2.0011 0.9765
-4.8519 2.7878 -2.0011 0.9765
-5.2701 1.8807 -2.0010 0.9765
-5.5204 0.9137 -2.0010 0.9765
-5.5799 0.4174 -2.0010 0.9765
-5.5949 -0.0823 -2.0010 0.9765
-5.5652 -0.5813 -2.0010 0.9765
-5.4912 -1.0757 -2.0010 0.9765
-5.3733 -1.5615 -2.0010 0.9765
-5.2125 -2.0349 -2.0010 0.9765
-4.7678 -2.9293 -2.0011 0.9765
-4.1713 -3.7305 -2.0012 0.9765
-3.4327 -4.4013 -1.9960 0.9766
-2.9294 -4.5402 -1.9322 0.9773
-1.9865 -4.7746 -1.8493 0.9783
-1.5525 -4.9330 -1.8494 0.9783
-1.1060 -5.0520 -1.8494 0.9783
0.2718 -5.1651 -1.8496 0.9783
1.1859 -5.0348 -1.8498 0.9783
2.0623 -4.7441 -1.8499 0.9783
2.4776 -4.5413 -1.8499 0.9783
2.9412 -4.4041 -1.8939 0.9778
3.8843 -4.0255 -2.0004 0.9765
4.2322 -3.6664 -2.0024 0.9765
4.8168 -2.8556 -2.0025 0.9765
5.4015 -1.4776 -2.0026 0.9765
5.5782 -0.4938 -2.0026 0.9765
5.6000 0.0061 -2.0026 0.9765
5.5097 1.0016 -2.0026 0.9765
5.0473 2.4253 -2.0025 0.9765
4.8107 2.8661 -2.0025 0.9765
4.5356 3.2839 -2.0025 0.9765
4.2243 3.6755 -2.0024 0.9765
3.8793 4.0378 -2.0024 0.9765
3.0994 4.6629 -2.0022 0.9765
2.6708 4.9208 -2.0022 0.9765
1.7533 5.3169 -2.0021 0.9765
1.2717 5.4519 -2.0020 0.9765
0.7800 5.5435 -2.0019 0.9765
0.2821 5.5908 -2.0018 0.9765
-0.7163 5.5515 -2.0017 0.9765
-1.2089 5.4652 -2.0016 0.9765
-1.6918 5.3353 -2.0016 0.9765
-2.1612 5.1628 -2.0015 0.9765
-2.6132 4.9492 -2.0014 0.9765
-3.0444 4.6960 -2.0014 0.9765
-4.1793 3.7214 -2.0012 0.9765
-4.7742 2.9190 -2.0011 0.9765
-5.2169 2.0236 -2.0010 0.9765
-5.5950 0.0702 -2.0010 0.9765
-5.5790 -0.4295 -2.0010 0.9765
-5.5184 -0.9257 -2.0010 0.9765
-5.4138 -1.4145 -2.0010 0.9765
-5.0762 -2.3546 -2.0011 0.9765
-4.5769 -3.2197 -2.0011 0.9765
-3.5542 -4.3096 -1.9976 0.9765
-2.1158 -4.7186 -1.8493 0.9783
-0.7903 -5.1111 -1.8495 0.9783
-0.3310 -5.1614 -1.8495 0.9783
0.1310 -5.1705 -1.8496 0.9783
0.5920 -5.1384 -1.8497 0.9783
1.4962 -4.9516 -1.8498 0.9783
1.9322 -4.7985 -1.8499 0.9783
2.7766 -4.4135 -1.8647 0.9781
3.7700 -4.1264 -1.9988 0.9765
4.1307 -3.7803 -2.0024 0.9765
4.4517 -3.3966 -2.0024 0.9765
5.4828 -1.1395 -2.0026 0.9765
5.5981 -0.1465 -2.0026 0.9765
5.5888 0.3537 -2.0026 0.9765
5.4368 1.3417 -2.0026 0.9765
5.2953 1.8216 -2.0026 0.9765
5.1116 2.2869 -2.0025 0.9765
4.6234 3.1591 -2.0025 0.9765
4.3229 3.5591 -2.0024 0.9765
3.9879 3.9306 -2.0024 0.9765
3.2253 4.5768 -2.0023 0.9765
2.3601 5.0770 -2.0021 0.9765
1.8975 5.2672 -2.0021 0.9765
3.5993 -3.7875 -2.0023 0.9779
4.4744 -2.6989 -2.0024 0.9779
5.1361 -0.9627 -2.0025 0.9779
5.2255 -0.0342 -2.0026 0.9779
5.2077 0.4324 -2.0025 0.9779
5.1483 0.8954 -2.0025 0.9779
4.9070 1.7964 -2.0025 0.9779
4.7270 2.2272 -2.0025 0.9779
4.5093 2.6402 -2.0025 0.9779
4.2556 3.0320 -2.0024 0.9779
3.9679 3.3997 -2.0024 0.9779
2.1089 4.7799 -2.0021 0.9779
1.2254 5.0784 -2.0020 0.9779
0.7673 5.1673 -2.0019 0.9779
0.3030 5.2150 -2.0018 0.9779
-0.1637 5.2210 -2.0018 0.9779
-0.6290 5.1854 -2.0017 0.9779
-1.9800 4.8331 -2.0015 0.9779
-2.4034 4.6369 -2.0015 0.9779
-2.8075 4.4038 -2.0014 0.9779
-3.1893 4.1355 -2.0013 0.9779
-3.8735 3.5024 -2.0012 0.9779
-4.6627 2.3510 -2.0011 0.9779
-5.0063 1.4845 -2.0011 0.9779
-5.1188 1.0318 -2.0011 0.9779
-5.1904 0.5708 -2.0010 0.9779
-5.2206 0.1053 -2.0010 0.9779
-5.1562 -0.8246 -2.0010 0.9779
-5.0620 -1.2815 -2.0011 0.9779
-4.7537 -2.1611 -2.0011 0.9779
-4.5419 -2.5768 -2.0011 0.9779
-4.2938 -2.9719 -2.0012 0.9779
-4.0115 -3.3434 -2.0012 0.9779
-3.3534 -4.0035 -2.0013 0.9779
-2.9777 -4.2797 -1.9980 0.9779
-2.0701 -4.5240 -1.9065 0.9789
-1.6083 -4.5500 -1.8494 0.9795
-1.1959 -4.6755 -1.8494 0.9795
-0.7738 -4.7637 -1.8495 0.9795
0.0855 -4.8257 -1.8496 0.9795
0.5159 -4.7990 -1.8497 0.9795
1.7689 -4.4913 -1.8498 0.9795
2.7176 -4.3937 -1.9798 0.9781
4.1298 -3.2011 -2.0024 0.9779
4.6333 -2.4159 -2.0025 0.9779
4.9892 -1.5537 -2.0025 0.9779
5.1080 -1.1022 -2.0025 0.9779
5.1860 -0.6420 -2.0025 0.9779
5.2226 -0.1765 -2.0026 0.9779
5.2175 0.2903 -2.0025 0.9779
5.1708 0.7548 -2.0025 0.9779
5.0828 1.2133 -2.0025 0.9779
4.9541 1.6621 -2.0025 0.9779
4.5796 2.5163 -2.0025 0.9779
4.3366 2.9150 -2.0024 0.9779
4.0591 3.2903 -2.0024 0.9779
3.7491 3.6394 -2.0023 0.9779
3.4093 3.9594 -2.0023 0.9779
2.6509 4.5022 -2.0022 0.9779
2.2384 4.7207 -2.0021 0.9779
1.8081 4.9015 -2.0021 0.9779
1.3634 5.0431 -2.0020 0.9779
0.4450 5.2048 -2.0019 0.9779
-0.4875 5.2007 -2.0017 0.9779
-0.9496 5.1363 -2.0017 0.9779
-2.6865 4.4787 -2.0014 0.9779
-3.0755 4.2209 -2.0014 0.9779
-3.4398 3.9295 -2.0013 0.9779
-3.7767 3.6067 -2.0013 0.9779
-4.3576 2.8777 -2.0012 0.9779
-4.7996 2.0570 -2.0011 0.9779
-4.9640 1.6204 -2.0011 0.9779
-5.0888 1.1709 -2.0011 0.9779
-5.2158 0.2475 -2.0010 0.9779
-5.0951 -1.1431 -2.0011 0.9779
-4.9727 -1.5933 -2.0011 0.9779
-4.8108 -2.0308 -2.0011 0.9779
-3.4612 -3.9106 -2.0013 0.9779
-2.7023 -4.4497 -1.9950 0.9779
-2.2207 -4.5231 -1.9310 0.9786
-1.3229 -4.6414 -1.8495 0.9795
-0.9033 -4.7408 -1.8495 0.9795
-0.4766 -4.8027 -1.8495 0.9795
-0.0460 -4.8262 -1.8496 0.9795
1.2342 -4.6665 -1.8498 0.9795
1.6459 -4.5378 -1.8498 0.9795
2.0706 -4.4291 -1.8736 0.9793
2.5600 -4.4027 -1.9517 0.9784
3.0108 -4.2528 -1.9968 0.9779
3.3861 -3.9762 -2.0014 0.9779
3.7292 -3.6598 -2.0023 0.9779
4.0411 -3.3124 -2.0024 0.9779
4.3207 -2.9386 -2.0024 0.9779
4.9450 -1.6891 -2.0025 0.9779
5.0761 -1.2410 -2.0025 0.9779
5.2159 -0.3188 -2.0025 0.9779
5.2235 0.1480 -2.0026 0.9779
5.1894 0.6137 -2.0025 0.9779
4.8414 1.9664 -2.0025 0.9779
4.6465 2.3906 -2.0025 0.9779
3.8469 3.5359 -2.0024 0.9779
3.5159 3.8651 -2.0023 0.9779
3.1568 4.1633 -2.0023 0.9779
2.7726 4.4284 -2.0022 0.9779
2.3662 4.6580 -2.0021 0.9779
1.9410 4.8505 -2.0021 0.9779
1.0476 5.1179 -2.0020 0.9779
0.1210 5.2223 -2.0018 0.9779
-0.3456 5.2121 -2.0018 0.9779
-0.8094 5.1603 -2.0017 0.9779
-2.5635 4.5503 -2.0014 0.9779
-3.9933 3.3652 -2.0012 0.9779
-4.2776 2.9953 -2.0012 0.9779
-5.1516 0.8527 -2.0011 0.9779
-5.2071 0.3895 -2.0010 0.9779
-5.2211 -0.0768 -2.0010 0.9779
-5.1934 -0.5425 -2.0010 0.9779
-4.8643 -1.8989 -2.0011 0.9779
-4.6755 -2.3255 -2.0011 0.9779
-4.4493 -2.7336 -2.0011 0.9779
-4.1877 -3.1198 -2.0012 0.9779
-3.5664 -3.8148 -2.0013 0.9779
-3.2109 -4.1169 -2.0008 0.9779
-2.3752 -4.5220 -1.9574 0.9784
-1.8825 -4.5247 -1.8780 0.9792
-0.6073 -4.7879 -1.8495 0.9795
0.6829 -4.7782 -1.8497 0.9795
1.1066 -4.6983 -1.8498 0.9795
1.5216 -4.5809 -1.8498 0.9795
2.4066 -4.4113 -1.9257 0.9787
3.2742 -4.0640 -2.0000 0.9779
3.6281 -3.7600 -2.0023 0.9779
3.9493 -3.4213 -2.0024 0.9779
5.2053 -0.4608 -2.0025 0.9779
5.2042 0.4720 -2.0025 0.9779
4.4890 2.6745 -2.0024 0.9779
3.9419 3.4298 -2.0024 0.9779
3.2691 4.0758 -2.0023 0.9779
2.4923 4.5918 -2.0022 0.9779
2.0724 4.7958 -2.0021 0.9779
1.6361 4.9615 -2.0020 0.9779
1.1867 5.0875 -2.0020 0.9779
0.2632 5.2171 -2.0018 0.9779
-0.2034 5.2196 -2.0018 0.9779
-0.6685 5.1805 -2.0017 0.9779
-1.1281 5.1000 -2.0016 0.9779
-1.5787 4.9788 -2.0016 0.9779
-2.0167 4.8178 -2.0015 0.9779
-4.1944 3.1108 -2.0012 0.9779
-4.4552 2.7240 -2.0012 0.9779
-4.8684 1.8884 -2.0011 0.9779
-5.0175 1.4463 -2.0011 0.9779
-5.1265 0.9927 -2.0011 0.9779
-5.2213 0.0655 -2.0010 0.9779
-4.9142 -1.7657 -2.0011 0.9779
-4.7371 -2.1973 -2.0011 0.9779
-4.2711 -3.0046 -2.0012 0.9779
-3.6690 -3.7162 -2.0013 0.9779
-3.3228 -4.0290 -2.0013 0.9779
-2.0286 -4.5242 -1.9001 0.9790
-1.5736 -4.5621 -1.8494 0.9795
-1.1602 -4.6845 -1.8494 0.9795
-0.7375 -4.7695 -1.8495 0.9795
0.9782 -4.7267 -1.8497 0.9795
2.7625 -4.3910 -1.9880 0.9780
3.8546 -3.5276 -2.0023 0.9779
4.1541 -3.1695 -2.0024 0.9779
4.4205 -2.7862 -2.0024 0.9779
4.6516 -2.3806 -2.0025 0.9779
5.0009 -1.5157 -2.0025 0.9779
5.1163 -1.0633 -2.0025 0.9779
5.1908 -0.6024 -2.0025 0.9779
5.2238 -0.1367 -2.0026 0.9779
5.2152 0.3301 -2.0025 0.9779
5.1649 0.7942 -2.0025 0.9779
5.0734 1.2520 -2.0025 0.9779
4.9413 1.6998 -2.0025 0.9779
4.7698 2.1340 -2.0025 0.9779
3.7213 3.6679 -2.0023 0.9779
3.3790 3.9853 -2.0023 0.9779
2.2024 4.7376 -2.0021 0.9779
1.7707 4.9151 -2.0021 0.9779
1.3249 5.0534 -2.0020 0.9779
3.3701 -3.5463 -2.0023 0.9791
3.6733 -3.2315 -2.0023 0.9791
4.1894 -2.5270 -2.0024 0.9791
4.7094 -1.3270 -2.0025 0.9791
4.8090 -0.9014 -2.0025 0.9791
4.8927 -0.0320 -2.0025 0.9791
4.8760 0.4048 -2.0025 0.9791
4.8204 0.8384 -2.0025 0.9791
4.7263 1.2653 -2.0025 0.9791
4.4260 2.0854 -2.0024 0.9791
4.2221 2.4720 -2.0024 0.9791
3.9846 2.8390 -2.0024 0.9791
3.4162 3.5020 -2.0023 0.9791
3.0900 3.7928 -2.0022 0.9791
2.3663 4.2816 -2.0021 0.9791
1.9746 4.4755 -2.0021 0.9791
1.5673 4.6338 -2.0020 0.9791
0.7184 4.8383 -2.0019 0.9791
0.2837 4.8830 -2.0018 0.9791
-0.1532 4.8886 -2.0018 0.9791
-0.5889 4.8553 -2.0017 0.9791
-1.0199 4.7832 -2.0017 0.9791
-1.4427 4.6730 -2.0016 0.9791
-1.8539 4.5254 -2.0015 0.9791
-2.2504 4.3418 -2.0015 0.9791
-2.6288 4.1235 -2.0014 0.9791
-2.9863 3.8723 -2.0014 0.9791
-3.3199 3.5902 -2.0013 0.9791
-3.6270 3.2795 -2.0013 0.9791
-3.9051 2.9426 -2.0012 0.9791
-4.3659 2.2014 -2.0012 0.9791
-4.7930 0.9661 -2.0011 0.9791
-1.9565 0.2152 -0.8056 0.9915
-1.9515 -0.1353 -0.8006 0.9916
-2.0367 -0.3257 -0.8442 0.9911
-4.7399 -1.1999 -2.0011 0.9791
-4.6139 -1.6182 -2.0011 0.9791
-4.4511 -2.0236 -2.0011 0.9791
-3.7562 -3.1306 -2.0012 0.9791
-3.1399 -3.7487 -2.0013 0.9791
-2.7929 -4.0141 -2.0014 0.9791
-2.4200 -4.2411 -1.9985 0.9791
-2.0284 -4.4328 -1.9951 0.9792
-0.3240 -4.5140 -1.8522 0.9806
0.4834 -4.4975 -1.8513 0.9806
0.8879 -4.4614 -1.8617 0.9805
1.3061 -4.4444 -1.8959 0.9802
1.7424 -4.4240 -1.9460 0.9797
2.1842 -4.3584 -1.9953 0.9791
2.5688 -4.1531 -1.9986 0.9791
3.5838 -3.3303 -2.0023 0.9791
4.3383 -2.2621 -2.0024 0.9791
4.6714 -1.4548 -2.0025 0.9791
4.8557 -0.6011 -2.0025 0.9791
4.8900 -0.1653 -2.0025 0.9791
4.7591 1.1360 -2.0025 0.9791
4.4812 1.9640 -2.0024 0.9791
4.2879 2.3561 -2.0024 0.9791
4.0605 2.7293 -2.0024 0.9791
3.1922 3.7073 -2.0023 0.9791
1.6929 4.5894 -2.0020 0.9791
0.4166 4.8735 -2.0019 0.9791
-0.0200 4.8910 -2.0018 0.9791
-0.4564 4.8696 -2.0017 0.9791
-1.7300 4.5743 -2.0015 0.9791
-2.8797 3.9522 -2.0014 0.9791
-3.5363 3.3771 -2.0013 0.9791
-3.8235 3.0480 -2.0012 0.9791
-4.3044 2.3195 -2.0012 0.9791
-4.6481 1.5173 -2.0011 0.9791
-4.7649 1.0964 -2.0011 0.9791
-1.9503 -0.2576 -0.8051 0.9915
-4.6563 -1.4919 -2.0011 0.9791
-4.3169 -2.2960 -2.0012 0.9791
-4.0949 -2.6722 -2.0012 0.9791
-2.1494 -4.3780 -1.9961 0.9791
-1.2834 -4.5030 -1.9163 0.9800
-0.8576 -4.5010 -1.8753 0.9804
-0.0432 -4.5239 -1.8516 0.9806
0.3607 -4.5089 -1.8513 0.9806
0.7635 -4.4694 -1.8557 0.9806
1.1770 -4.4499 -1.8839 0.9803
1.6070 -4.4306 -1.9289 0.9798
2.8255 -3.9910 -2.0013 0.9791
3.4917 -3.4267 -2.0023 0.9791
4.0455 -2.7514 -2.0024 0.9791
4.7528 -1.1620 -2.0025 0.9791
4.8837 -0.2985 -2.0025 0.9791
4.8908 0.1386 -2.0025 0.9791
4.8589 0.5746 -2.0025 0.9791
4.7882 1.0059 -2.0025 0.9791
4.1333 2.6177 -2.0024 0.9791
3.6020 3.3108 -2.0023 0.9791
3.2920 3.6189 -2.0023 0.9791
2.5960 4.1464 -2.0022 0.9791
2.2155 4.3614 -2.0021 0.9791
1.8174 4.5416 -2.0021 0.9791
0.9809 4.7921 -2.0019 0.9791
0.5493 4.8603 -2.0019 0.9791
0.1133 4.8898 -2.0018 0.9791
-0.7578 4.8318 -2.0017 0.9791
-1.1860 4.7447 -2.0016 0.9791
-2.0106 4.4580 -2.0015 0.9791
-2.4003 4.2606 -2.0015 0.9791
-3.1194 3.7658 -2.0013 0.9791
-3.7391 3.1510 -2.0013 0.9791
-4.0053 2.8047 -2.0012 0.9791
-4.6050 1.6434 -2.0011 0.9791
-4.7333 1.2258 -2.0011 0.9791
-1.9538 0.1461 -0.8019 0.9916
-1.9127 -0.0281 -0.7829 0.9918
-1.9573 -0.2045 -0.8054 0.9915
-4.7982 -0.9400 -2.0011 0.9791
-4.5547 -1.7781 -2.0011 0.9791
-4.1661 -2.5596 -2.0012 0.9791
-3.9211 -2.9213 -2.0012 0.9791
-3.6448 -3.2597 -2.0013 0.9791
-3.3394 -3.5720 -2.0013 0.9791
-3.0073 -3.8559 -2.0014 0.9791
-2.6505 -4.1078 -2.0008 0.9791
-1.8715 -4.4982 -1.9940 0.9792
-1.4173 -4.5033 -1.9322 0.9798
-0.9856 -4.5017 -1.8861 0.9803
-0.1664 -4.5217 -1.8519 0.9806
0.2377 -4.5171 -1.8513 0.9806
0.6400 -4.4783 -1.8515 0.9806
1.0494 -4.4551 -1.8733 0.9804
1.4737 -4.4369 -1.9135 0.9800
2.3363 -4.2823 -1.9965 0.9791
3.0692 -3.8096 -2.0022 0.9791
3.3970 -3.5206 -2.0023 0.9791
3.6978 -3.2034 -2.0023 0.9791
4.4145 -2.1095 -2.0024 0.9791
4.8158 -0.8647 -2.0025 0.9791
4.8928 0.0053 -2.0025 0.9791
4.8139 0.8751 -2.0025 0.9791
4.5815 1.7170 -2.0025 0.9791
4.4099 2.1190 -2.0024 0.9791
4.2032 2.5041 -2.0024 0.9791
3.9628 2.8692 -2.0024 0.9791
3.6909 3.2114 -2.0023 0.9791
1.5319 4.6456 -2.0020 0.9791
0.2465 4.8850 -2.0018 0.9791
-0.1905 4.8873 -2.0018 0.9791
-1.8884 4.5111 -2.0015 0.9791
-2.2834 4.3245 -2.0015 0.9791
-2.6602 4.1033 -2.0014 0.9791
-3.0157 3.8494 -2.0014 0.9791
-3.3471 3.5648 -2.0013 0.9791
-4.1717 2.5506 -2.0012 0.9791
-4.3826 2.1681 -2.0012 0.9791
-1.9575 0.2002 -0.8054 0.9915
-1.9106 0.0240 -0.7820 0.9918
-4.7306 -1.2360 -2.0011 0.9791
-3.4355 -3.4797 -2.0013 0.9791
-3.1113 -3.7725 -2.0013 0.9791
-2.7622 -4.0352 -2.0014 0.9791
-1.5534 -4.5034 -1.9497 0.9796
-0.6958 -4.4999 -1.8636 0.9805
-0.2896 -4.5162 -1.8522 0.9806
0.5177 -4.4937 -1.8513 0.9806
0.9230 -4.4600 -1.8641 0.9805
1.3425 -4.4428 -1.8995 0.9801
1.7807 -4.4221 -1.9511 0.9796
2.6008 -4.1341 -1.9989 0.9791
3.6091 -3.3029 -2.0023 0.9791
4.3554 -2.2290 -2.0024 0.9791
4.6824 -1.4191 -2.0025 0.9791
4.8911 -0.1280 -2.0025 0.9791
4.0395 2.7602 -2.0024 0.9791
3.7770 3.1097 -2.0023 0.9791
3.1638 3.7315 -2.0023 0.9791
2.8181 3.9989 -2.0022 0.9791
2.4499 4.2343 -2.0022 0.9791
2.0621 4.4359 -2.0021 0.9791
1.6579 4.6021 -2.0020 0.9791
1.2405 4.7316 -2.0020 0.9791
0.8132 4.8233 -2.0019 0.9791
2.8549 -3.5994 -2.0022 0.9802
3.4495 -3.0346 -2.0023 0.9802
3.9342 -2.3731 -2.0024 0.9802
4.4225 -1.2461 -2.0024 0.9802
4.5790 0.3802 -2.0025 0.9802
4.5267 0.7873 -2.0025 0.9802
3.9649 2.3214 -2.0024 0.9802
3.7418 2.6660 -2.0023 0.9802
3.4889 2.9893 -2.0023 0.9802
3.2081 3.2887 -2.0023 0.9802
2.5722 3.8065 -2.0022 0.9802
1.8544 4.2029 -2.0021 0.9802
0.6747 4.5436 -2.0019 0.9802
0.2664 4.5856 -2.0018 0.9802
-0.5531 4.5596 -2.0017 0.9802
-1.7410 4.2498 -2.0015 0.9802
-2.1133 4.0774 -2.0015 0.9802
-2.4688 3.8724 -2.0014 0.9802
-2.8044 3.6365 -2.0014 0.9802
-3.1177 3.3716 -2.0013 0.9802
-4.2682 1.6931 -2.0012 0.9802
-1.5244 0.1676 -0.6684 0.9933
-1.5263 0.0308 -0.6653 0.9934
-1.5294 -0.1060 -0.6681 0.9933
-1.5471 -0.3917 -0.6955 0.9931
-1.5932 -0.5588 -0.7358 0.9927
-3.9939 -2.2659 -2.0012 0.9802
-3.7758 -2.6134 -2.0012 0.9802
-3.2511 -3.2431 -2.0013 0.9802
-2.2760 -3.9888 -2.0015 0.9802
-1.5270 -4.3200 -1.9969 0.9802
-1.1342 -4.4345 -1.9949 0.9802
0.4788 -4.4541 -1.9524 0.9806
0.8836 -4.4400 -1.9730 0.9804
2.0557 -4.1020 -1.9996 0.9802
2.7557 -3.6758 -2.0022 0.9802
3.0729 -3.4153 -2.0022 0.9802
3.3655 -3.1275 -2.0023 0.9802
3.6313 -2.8147 -2.0023 0.9802
3.8681 -2.4794 -2.0024 0.9802
4.0740 -2.1243 -2.0024 0.9802
4.4913 -0.9692 -2.0024 0.9802
4.5599 -0.5644 -2.0025 0.9802
4.5465 0.6637 -2.0025 0.9802
3.8131 2.5631 -2.0023 0.9802
2.9977 3.4814 -2.0022 0.9802
1.5898 4.3099 -2.0020 0.9802
0.3913 4.5767 -2.0019 0.9802
-2.0015 4.1335 -2.0015 0.9802
-2.7043 3.7116 -2.0014 0.9802
-3.3210 3.1715 -2.0013 0.9802
-1.5310 0.3523 -0.6847 0.9932
-1.5293 0.0726 -0.6672 0.9933
-1.5289 -0.0642 -0.6669 0.9933
-1.5267 -0.3425 -0.6819 0.9932
-3.3382 -3.1533 -2.0013 0.9802
-2.0229 -4.1203 -2.0004 0.9802
-1.6448 -4.2784 -1.9976 0.9802
-0.4440 -4.4747 -1.9597 0.9806
-0.0426 -4.4679 -1.9473 0.9807
0.7593 -4.4447 -1.9651 0.9805
1.9423 -4.1547 -1.9988 0.9802
2.6545 -3.7495 -2.0022 0.9802
3.2790 -3.2180 -2.0023 0.9802
3.5532 -2.9125 -2.0023 0.9802
3.7991 -2.5838 -2.0023 0.9802
4.0146 -2.2345 -2.0024 0.9802
4.1980 -1.8673 -2.0024 0.9802
4.5428 -0.6885 -2.0025 0.9802
4.5862 -0.2803 -2.0025 0.9802
4.5929 0.1302 -2.0025 0.9802
4.4965 0.9447 -2.0024 0.9802
4.3943 1.3422 -2.0024 0.9802
4.2569 1.7290 -2.0024 0.9802
3.8815 2.4582 -2.0024 0.9802
3.6466 2.7948 -2.0023 0.9802
3.3825 3.1091 -2.0023 0.9802
2.7758 3.6608 -2.0022 0.9802
2.0806 4.0957 -2.0021 0.9802
1.3192 4.4002 -2.0020 0.9802
0.5158 4.5643 -2.0019 0.9802
0.1064 4.5920 -2.0018 0.9802
-0.3039 4.5831 -2.0018 0.9802
-0.7117 4.5375 -2.0017 0.9802
-1.5070 4.3384 -2.0016 0.9802
-1.8881 4.1865 -2.0015 0.9802
-2.6022 3.7839 -2.0014 0.9802
-2.9295 3.5365 -2.0014 0.9802
-3.2334 3.2608 -2.0013 0.9802
-1.5948 0.5691 -0.7380 0.9926
-1.5508 0.4016 -0.6982 0.9930
-1.5068 0.2494 -0.6656 0.9934
-1.5291 0.1144 -0.6683 0.9933
-1.5254 -0.0224 -0.6648 0.9934
-4.2774 -1.6698 -2.0012 0.9802
-4.1113 -2.0450 -2.0012 0.9802
-3.6824 -2.7434 -2.0013 0.9802
-3.4229 -3.0612 -2.0013 0.9802
-3.1361 -3.3545 -2.0013 0.9802
-2.1354 -4.0656 -2.0014 0.9802
-1.3749 -4.3688 -1.9960 0.9802
-0.9786 -4.4699 -1.9942 0.9802
-0.1645 -4.4704 -1.9496 0.9807
1.0443 -4.4336 -1.9851 0.9803
2.1987 -4.0302 -2.0008 0.9802
2.5514 -3.8204 -2.0022 0.9802
2.8822 -3.5776 -2.0022 0.9802
3.1901 -3.3061 -2.0023 0.9802
4.3059 -1.6031 -2.0024 0.9802
4.5224 -0.8120 -2.0024 0.9802
4.5768 -0.4051 -2.0025 0.9802
4.5947 0.0050 -2.0025 0.9802
4.5759 0.4150 -2.0025 0.9802
4.5206 0.8218 -2.0024 0.9802
4.1413 1.9899 -2.0024 0.9802
3.7214 2.6944 -2.0023 0.9802
3.1830 3.3130 -2.0023 0.9802
2.8745 3.5838 -2.0022 0.9802
2.1914 4.0376 -2.0021 0.9802
1.4386 4.3626 -2.0020 0.9802
0.2315 4.5875 -2.0018 0.9802
-0.1789 4.5897 -2.0018 0.9802
-0.5878 4.5553 -2.0017 0.9802
-0.9920 4.4845 -2.0017 0.9802
-1.7734 4.2364 -2.0015 0.9802
-2.1443 4.0611 -2.0015 0.9802
-3.9177 2.3953 -2.0012 0.9802
-4.2810 1.6606 -2.0012 0.9802
-1.5679 0.4520 -0.7111 0.9929
-1.5259 0.1560 -0.6685 0.9933
-1.5290 -0.1177 -0.6683 0.9933
-1.5059 -0.2526 -0.6655 0.9934
-1.5523 -0.4056 -0.6992 0.9930
-1.5954 -0.5732 -0.7388 0.9926
-3.9765 -2.2963 -2.0012 0.9802
-3.2263 -3.2678 -2.0013 0.9802
-2.9218 -3.5428 -2.0014 0.9802
-2.2455 -4.0060 -2.0015 0.9802
-1.8769 -4.1859 -1.9993 0.9802
-1.1003 -4.4427 -1.9947 0.9802
-0.2868 -4.4726 -1.9532 0.9806
0.1131 -4.4643 -1.9462 0.9807
0.5130 -4.4530 -1.9535 0.9806
2.0871 -4.0867 -1.9999 0.9802
2.4463 -3.8885 -2.0021 0.9802
3.0988 -3.3918 -2.0022 0.9802
3.3893 -3.1017 -2.0023 0.9802
3.6526 -2.7869 -2.0023 0.9802
4.2606 -1.7198 -2.0024 0.9802
4.3971 -1.3327 -2.0024 0.9802
4.4986 -0.9349 -2.0024 0.9802
4.5641 -0.5297 -2.0025 0.9802
4.5932 -0.1202 -2.0025 0.9802
4.5856 0.2902 -2.0025 0.9802
4.5413 0.6983 -2.0025 0.9802
4.3448 1.4946 -2.0024 0.9802
4.1940 1.8764 -2.0024 0.9802
3.5469 2.9202 -2.0023 0.9802
2.9711 3.5042 -2.0022 0.9802
2.6464 3.7553 -2.0022 0.9802
2.3006 3.9764 -2.0021 0.9802
1.9365 4.1657 -2.0021 0.9802
1.1650 4.4434 -2.0020 0.9802
0.7637 4.5295 -2.0019 0.9802
2.6879 -3.3889 -2.0022 0.9811
3.2477 -2.8571 -2.0023 0.9811
3.4898 -2.5559 -2.0023 0.9811
3.7041 -2.2343 -2.0023 0.9811
4.2519 -0.7969 -2.0024 0.9811
4.2620 0.7413 -2.0024 0.9811
4.1788 1.1187 -2.0024 0.9811
3.7330 2.1857 -2.0023 0.9811
2.4218 3.5838 -2.0021 0.9811
1.7459 3.9571 -2.0021 0.9811
1.3857 4.0971 -2.0020 0.9811
1.0145 4.2043 -2.0019 0.9811
-0.1355 4.3225 -2.0018 0.9811
-0.5207 4.2930 -2.0017 0.9811
-0.9018 4.2293 -2.0017 0.9811
-1.2756 4.1318 -2.0016 0.9811
-1.6392 4.0013 -2.0016 0.9811
-3.4530 2.6019 -2.0013 0.9811
-3.6714 2.2833 -2.0013 0.9811
-3.8604 1.9465 -2.0012 0.9811
-1.3295 0.5274 -0.6620 0.9937
-1.3248 0.3929 -0.6396 0.9939
-1.3346 0.1468 -0.6215 0.9941
-1.3385 -0.0928 -0.6210 0.9941
-1.3227 -0.2115 -0.6200 0.9941
-1.3336 -0.4677 -0.6542 0.9938
-3.5550 -2.4606 -2.0013 0.9811
-3.3213 -2.7681 -2.0013 0.9811
-3.0610 -3.0535 -2.0013 0.9811
-2.7763 -3.3146 -2.0014 0.9811
-2.1429 -3.7556 -2.0015 0.9811
-1.7992 -3.9319 -2.0015 0.9811
-1.0702 -4.1841 -1.9991 0.9811
0.4611 -4.2893 -1.9969 0.9812
0.8424 -4.2328 -1.9977 0.9812
1.5842 -4.0224 -2.0011 0.9811
2.2753 -3.6785 -2.0021 0.9811
3.1687 -2.9445 -2.0023 0.9811
3.4189 -2.6500 -2.0023 0.9811
3.6418 -2.3343 -2.0023 0.9811
3.8357 -2.0000 -2.0023 0.9811
4.1302 -1.2862 -2.0024 0.9811
4.2286 -0.9125 -2.0024 0.9811
4.3235 -0.1461 -2.0024 0.9811
4.3193 0.2403 -2.0024 0.9811
4.2806 0.6249 -2.0024 0.9811
4.1012 1.3759 -2.0024 0.9811
3.9620 1.7365 -2.0024 0.9811
3.7912 2.0831 -2.0023 0.9811
3.1037 3.0129 -2.0022 0.9811
2.8224 3.2778 -2.0022 0.9811
2.1946 3.7272 -2.0021 0.9811
1.8531 3.9081 -2.0021 0.9811
0.7515 4.2591 -2.0019 0.9811
0.3684 4.3090 -2.0019 0.9811
-1.5296 4.0446 -2.0016 0.9811
-2.2242 3.7080 -2.0015 0.9811
-2.5462 3.4946 -2.0014 0.9811
-2.8479 3.2533 -2.0014 0.9811
-3.3808 2.6950 -2.0013 0.9811
-3.6078 2.3825 -2.0013 0.9811
-1.3314 0.4346 -0.6483 0.9938
-1.3013 0.2994 -0.6181 0.9941
-1.3382 0.0635 -0.6202 0.9941
-1.3380 -0.0562 -0.6199 0.9941
-1.3302 -0.1757 -0.6211 0.9941
-1.3246 -0.5591 -0.6655 0.9937
-3.1431 -2.9690 -2.0013 0.9811
-2.8656 -3.2377 -2.0014 0.9811
-2.5652 -3.4806 -2.0014 0.9811
-2.2444 -3.6958 -2.0015 0.9811
-1.9056 -3.8814 -2.0015 0.9811
-1.1841 -4.1545 -1.9996 0.9811
-0.4260 -4.2933 -1.9971 0.9812
0.3440 -4.3000 -1.9967 0.9812
1.4735 -4.0627 -2.0005 0.9811
2.1742 -3.7391 -2.0021 0.9811
3.0872 -3.0298 -2.0022 0.9811
3.7797 -2.1038 -2.0023 0.9811
4.0937 -1.3983 -2.0024 0.9811
4.2022 -1.0274 -2.0024 0.9811
4.2771 -0.6482 -2.0024 0.9811
4.3179 -0.2639 -2.0024 0.9811
4.3242 0.1226 -2.0024 0.9811
4.2960 0.5080 -2.0024 0.9811
4.2335 0.8894 -2.0024 0.9811
4.1372 1.2637 -2.0024 0.9811
4.0079 1.6279 -2.0024 0.9811
3.8465 1.9791 -2.0024 0.9811
3.4333 2.6313 -2.0023 0.9811
2.6134 3.4467 -2.0022 0.9811
1.2420 4.1428 -2.0020 0.9811
0.8673 4.2370 -2.0019 0.9811
-0.2861 4.3151 -2.0018 0.9811
-0.6701 4.2722 -2.0017 0.9811
-1.0487 4.1952 -2.0016 0.9811
-1.7777 3.9417 -2.0015 0.9811
-2.1224 3.7672 -2.0015 0.9811
-2.7582 3.3297 -2.0014 0.9811
-3.0443 3.0702 -2.0014 0.9811
-3.5416 2.4799 -2.0013 0.9811
-1.3136 0.6058 -0.6696 0.9936
-1.3334 0.4758 -0.6553 0.9938
-1.3130 0.3400 -0.6278 0.9940
-1.3210 0.2187 -0.6198 0.9941
-1.3355 -0.0196 -0.6182 0.9941
-1.3102 -0.2567 -0.6180 0.9941
-1.3304 -0.5194 -0.6611 0.9937
-3.4671 -2.5830 -2.0013 0.9811
-3.2228 -2.8822 -2.0013 0.9811
-2.9527 -3.1584 -2.0014 0.9811
-2.3443 -3.6332 -2.0015 0.9811
-2.0107 -3.8280 -2.0015 0.9811
-1.6610 -3.9923 -2.0016 0.9811
-1.2972 -4.1219 -2.0002 0.9811
-0.9234 -4.2176 -1.9985 0.9811
-0.5429 -4.2806 -1.9973 0.9812
-0.1587 -4.3107 -1.9967 0.9812
0.2267 -4.3075 -1.9966 0.9812
0.9897 -4.2019 -1.9982 0.9812
3.0035 -3.1127 -2.0022 0.9811
3.2694 -2.8323 -2.0023 0.9811
3.9031 -1.8651 -2.0024 0.9811
4.1726 -1.1415 -2.0024 0.9811
4.3091 -0.3814 -2.0024 0.9811
4.3260 0.0047 -2.0024 0.9811
4.2562 0.7737 -2.0024 0.9811
4.0508 1.5181 -2.0024 0.9811
3.8991 1.8735 -2.0024 0.9811
3.7162 2.2140 -2.0023 0.9811
1.7157 3.9703 -2.0020 0.9811
1.3545 4.1075 -2.0020 0.9811
0.9824 4.2119 -2.0019 0.9811
0.6026 4.2826 -2.0019 0.9811
-0.5534 4.2889 -2.0017 0.9811
-0.9340 4.2223 -2.0017 0.9811
-1.6697 3.9887 -2.0016 0.9811
-2.0190 3.8237 -2.0015 0.9811
-2.3521 3.6281 -2.0015 0.9811
-2.6665 3.4037 -2.0014 0.9811
-2.9596 3.1520 -2.0014 0.9811
-3.6886 2.2553 -2.0013 0.9811
-3.8751 1.9170 -2.0012 0.9811
-1.3308 0.5162 -0.6607 0.9937
-1.3111 0.2539 -0.6182 0.9941
-1.3203 -0.2215 -0.6197 0.9941
-3.3001 -2.7933 -2.0013 0.9811
-2.7510 -3.3357 -2.0014 0.9811
-1.7692 -3.9455 -2.0015 0.9811
-0.6595 -4.2649 -1.9976 0.9812
-0.2761 -4.3050 -1.9968 0.9812
0.4937 -4.2858 -1.9969 0.9812
1.9672 -3.8519 -2.0021 0.9811
2.3032 -3.6611 -2.0021 0.9811
3.1910 -2.9203 -2.0023 0.9811
4.0114 -1.6192 -2.0024 0.9811
4.3245 -0.1132 -2.0024 0.9811
4.3173 0.2732 -2.0024 0.9811
4.1999 1.0365 -2.0024 0.9811
3.3395 2.7494 -2.0023 0.9811
1.4659 4.0691 -2.0020 0.9811
1.0968 4.1836 -2.0020 0.9811
0.7190 4.2646 -2.0019 0.9811
3.0647 -2.6961 -2.0022 0.9820
3.2932 -2.4119 -2.0023 0.9820
3.4953 -2.1083 -2.0023 0.9820
3.6696 -1.7880 -2.0023 0.9820
3.8146 -1.4533 -2.0023 0.9820
3.9291 -1.1071 -2.0024 0.9820
4.0123 -0.7520 -2.0024 0.9820
4.0634 -0.3909 -2.0024 0.9820
4.0821 -0.0267 -2.0024 0.9820
4.0217 0.6995 -2.0024 0.9820
3.9432 1.0556 -2.0024 0.9820
3.8333 1.4034 -2.0024 0.9820
3.6927 1.7399 -2.0023 0.9820
3.5226 2.0625 -2.0023 0.9820
2.8503 2.9218 -2.0022 0.9820
2.5780 3.1645 -2.0022 0.9820
1.9743 3.5723 -2.0021 0.9820
1.6475 3.7341 -2.0020 0.9820
1.3076 3.8662 -2.0020 0.9820
0.9573 3.9674 -2.0019 0.9820
-0.4914 4.0511 -2.0017 0.9820
-1.5469 3.7759 -2.0016 0.9820
-1.8777 3.6227 -2.0015 0.9820
-2.7701 2.9957 -2.0014 0.9820
-1.1281 0.5688 -0.6197 0.9944
-1.1590 0.3437 -0.5930 0.9946
-1.1739 0.2366 -0.5874 0.9947
-1.1955 -0.0829 -0.5878 0.9947
-1.1582 -0.2932 -0.5860 0.9947
-1.1566 -0.4056 -0.6012 0.9946
-3.5486 -2.0133 -2.0013 0.9820
-3.3548 -2.3220 -2.0013 0.9820
-3.1342 -2.6122 -2.0013 0.9820
-2.8886 -2.8815 -2.0014 0.9820
-2.3304 -3.3493 -2.0015 0.9820
-2.0222 -3.5440 -2.0015 0.9820
-1.6978 -3.7104 -2.0015 0.9820
-1.3599 -3.8472 -2.0016 0.9820
-0.2921 -4.0685 -2.0008 0.9820
0.7965 -4.0022 -2.0017 0.9820
1.1507 -3.9157 -2.0020 0.9820
1.4956 -3.7975 -2.0020 0.9820
2.1471 -3.4712 -2.0021 0.9820
2.7301 -3.0343 -2.0022 0.9820
2.9901 -2.7786 -2.0022 0.9820
3.6195 -1.8873 -2.0023 0.9820
4.0798 -0.1379 -2.0024 0.9820
4.0758 0.2268 -2.0024 0.9820
4.0393 0.5897 -2.0024 0.9820
3.8701 1.2984 -2.0024 0.9820
3.7387 1.6386 -2.0023 0.9820
3.5775 1.9657 -2.0023 0.9820
3.3877 2.2772 -2.0023 0.9820
2.9288 2.8431 -2.0022 0.9820
2.6633 3.0931 -2.0022 0.9820
1.7487 3.6879 -2.0021 0.9820
1.0651 3.9398 -2.0020 0.9820
0.7092 4.0191 -2.0019 0.9820
0.3476 4.0662 -2.0018 0.9820
-0.0167 4.0809 -2.0018 0.9820
-0.3808 4.0630 -2.0017 0.9820
-0.7419 4.0127 -2.0017 0.9820
-1.7783 3.6725 -2.0015 0.9820
-2.4028 3.2977 -2.0015 0.9820
-2.6875 3.0700 -2.0014 0.9820
-2.9507 2.8179 -2.0014 0.9820
-3.1904 2.5432 -2.0013 0.9820
-1.1145 0.6006 -0.6210 0.9944
-1.1582 0.3781 -0.5976 0.9946
-1.1658 0.2682 -0.5868 0.9947
-1.1964 -0.0502 -0.5874 0.9947
-1.1585 -0.3712 -0.5967 0.9946
-3.2042 -2.5258 -2.0013 0.9820
-2.7042 -3.0553 -2.0014 0.9820
-2.4207 -3.2845 -2.0014 0.9820
-0.7638 -4.0086 -2.0017 0.9820
-0.4028 -4.0594 -2.0010 0.9820
-0.0389 -4.0783 -2.0006 0.9820
0.6871 -4.0218 -2.0014 0.9820
1.0436 -3.9456 -2.0019 0.9820
1.3916 -3.8368 -2.0020 0.9820
2.3584 -3.3313 -2.0021 0.9820
3.3753 -2.2956 -2.0023 0.9820
3.5667 -1.9852 -2.0023 0.9820
3.7297 -1.6590 -2.0023 0.9820
3.8629 -1.3195 -2.0024 0.9820
4.0745 -0.2490 -2.0024 0.9820
4.0805 0.1156 -2.0024 0.9820
3.9949 0.8393 -2.0024 0.9820
3.9040 1.1925 -2.0024 0.9820
3.7820 1.5361 -2.0023 0.9820
3.6298 1.8675 -2.0023 0.9820
3.4485 2.1840 -2.0023 0.9820
3.2398 2.4830 -2.0023 0.9820
3.0052 2.7623 -2.0022 0.9820
2.4661 3.2524 -2.0022 0.9820
2.1660 3.4595 -2.0021 0.9820
1.5163 3.7893 -2.0020 0.9820
0.8184 3.9983 -2.0019 0.9820
-0.2700 4.0719 -2.0018 0.9820
-0.6323 4.0315 -2.0017 0.9820
-1.3389 3.8546 -2.0016 0.9820
-2.3121 3.3620 -2.0015 0.9820
-2.6028 3.1421 -2.0014 0.9820
-3.5375 2.0326 -2.0013 0.9820
-1.1580 0.2999 -0.5868 0.9947
-1.1951 0.0894 -0.5879 0.9947
-1.1924 -0.1246 -0.5881 0.9947
-1.1590 -0.3368 -0.5920 0.9946
-1.1521 -0.4498 -0.6067 0.9945
-1.1300 -0.5621 -0.6191 0.9944
-3.4762 -2.1358 -2.0013 0.9820
-3.0412 -2.7199 -2.0014 0.9820
-2.7864 -2.9805 -2.0014 0.9820
-1.8974 -3.6124 -2.0015 0.9820
-1.5675 -3.7674 -2.0016 0.9820
-0.8727 -3.9863 -2.0017 0.9820
-0.5134 -4.0474 -2.0013 0.9820
0.9357 -3.9725 -2.0019 0.9820
1.2865 -3.8732 -2.0020 0.9820
2.2668 -3.3943 -2.0021 0.9820
2.5607 -3.1785 -2.0022 0.9820
2.8343 -2.9373 -2.0022 0.9820
3.0852 -2.6727 -2.0022 0.9820
3.3114 -2.3867 -2.0023 0.9820
3.5113 -2.0816 -2.0023 0.9820
3.9374 -1.0771 -2.0024 0.9820
4.0179 -0.7214 -2.0024 0.9820
4.0662 -0.3599 -2.0024 0.9820
4.0821 0.0044 -2.0024 0.9820
3.9351 1.0857 -2.0024 0.9820
3.6793 1.7679 -2.0023 0.9820
3.5068 2.0893 -2.0023 0.9820
3.0794 2.6794 -2.0022 0.9820
2.8279 2.9434 -2.0022 0.9820
1.2781 3.8760 -2.0020 0.9820
0.2057 4.0758 -2.0018 0.9820
-0.1589 4.0778 -2.0018 0.9820
-0.8814 3.9844 -2.0017 0.9820
-1.2334 3.8897 -2.0016 0.9820
-1.5756 3.7640 -2.0016 0.9820
-2.5163 3.2119 -2.0014 0.9820
-3.0471 2.7133 -2.0014 0.9820
-3.2771 2.4304 -2.0013 0.9820
-3.4809 2.1282 -2.0013 0.9820
-1.1927 0.1220 -0.5881 0.9947
-1.1960 0.0150 -0.5867 0.9947
-1.1582 -0.3026 -0.5872 0.9947
-1.1558 -0.4153 -0.6024 0.9945
-3.3370 -2.3475 -2.0013 0.9820
-2.8666 -2.9034 -2.0014 0.9820
-2.3048 -3.3670 -2.0015 0.9820
-1.6695 -3.7233 -2.0015 0.9820
-0.9810 -3.9610 -2.0016 0.9820
-0.6235 -4.0325 -2.0015 0.9820
0.1033 -4.0772 -2.0006 0.9820
0.4669 -4.0523 -2.0009 0.9820
0.8270 -3.9962 -2.0018 0.9820
1.5245 -3.7860 -2.0020 0.9820
2.1734 -3.4548 -2.0021 0.9820
3.4533 -2.1765 -2.0023 0.9820
3.7853 -1.5279 -2.0023 0.9820
4.0549 -0.4706 -2.0024 0.9820
4.0740 0.2578 -2.0024 0.9820
4.0347 0.6204 -2.0024 0.9820
3.5624 1.9929 -2.0023 0.9820
3.3703 2.3029 -2.0023 0.9820
3.1513 2.5945 -2.0023 0.9820
2.6397 3.1133 -2.0022 0.9820
2.3512 3.3364 -2.0021 0.9820
2.0440 3.5328 -2.0021 0.9820
1.7205 3.7011 -2.0020 0.9820
1.0350 3.9478 -2.0019 0.9820
2.3983 -3.0237 -2.0021 0.9828
