ply
format ascii 1.0
element vertex 1560
property float32 x
property float32 y
property float32 z
property float32 I
end_header
8.0475 -14.7521 2.1883 0.9345
9.0156 -13.4978 2.1137 0.9366
10.9922 -13.6387 2.2811 0.9318
13.6841 -14.1730 2.5655 0.9236
-1.0705 8.0731 1.0605 0.9677
-13.5410 -13.8913 2.5262 0.9247
-11.4904 -14.1181 2.3704 0.9292
-6.1673 -14.0095 1.9933 0.9401
-2.0093 -13.6419 1.7956 0.9459
-0.7896 -13.8993 1.8129 0.9454
4.1961 -13.5078 1.8419 0.9445
5.6610 -13.7454 1.9358 0.9418
8.7698 -13.6929 2.1175 0.9365
8.1554 8.2069 1.5067 0.9544
-18.8208 5.7168 2.5614 0.9237
-7.9468 -13.7703 2.0704 0.9379
-6.4981 -14.0233 2.0127 0.9396
-2.2792 -13.6478 1.8018 0.9457
5.3590 -13.7579 1.9227 0.9422
16.8609 9.2300 2.5031 0.9254
-11.7125 7.7170 1.8265 0.9450
-11.2990 -15.4277 2.4902 0.9258
-6.7190 -13.7978 1.9985 0.9400
-5.7018 -14.9809 2.0873 0.9374
9.5737 -13.3915 2.1437 0.9358
13.8755 -13.4860 2.5197 0.9249
-11.4049 -15.1694 2.0379 0.9265
-8.7227 -14.0627 1.7770 0.9356
-2.7855 -13.9381 1.5263 0.9444
-0.2537 -13.8761 1.4903 0.9457
2.3513 -14.5066 1.5781 0.9426
3.4557 -13.5238 1.4989 0.9454
4.8682 -13.7772 1.5691 0.9429
8.0445 -14.0949 1.7427 0.9368
-7.2477 -13.7552 1.6696 0.9394
8.0481 -14.7532 1.8046 0.9346
10.9913 -13.6375 1.8808 0.9320
-13.5410 -13.8913 2.0831 0.9249
-11.4894 -14.1168 1.9545 0.9294
-3.3480 -13.9391 1.5394 0.9440
-0.7896 -13.8983 1.4948 0.9455
8.7691 -13.6918 1.7459 0.9367
10.3614 -13.3745 1.8167 0.9342
14.7584 -13.2795 2.1319 0.9232
8.1542 8.2057 1.2422 0.9545
-11.9648 -14.1366 1.9887 0.9282
-7.9468 -13.7703 1.7072 0.9380
-1.0370 -13.6209 1.4669 0.9465
5.3586 -13.7569 1.5854 0.9423
8.4026 -13.6923 1.7251 0.9374
9.9621 -13.3831 1.7915 0.9351
-12.4224 -14.1175 2.0193 0.9271
-6.7190 -13.7978 1.6480 0.9401
-5.7023 -14.9822 1.7214 0.9375
-2.6041 -13.9378 1.5226 0.9446
-0.0795 -13.8688 1.4893 0.9457
3.6360 -13.5199 1.5034 0.9452
9.5737 -13.3915 1.7677 0.9359
-12.5160 -13.8691 1.5815 0.9277
-11.4056 -15.1702 1.6067 0.9266
-8.7220 -14.0616 1.4007 0.9357
-6.9094 -13.7479 1.3025 0.9401
-5.7257 -14.4941 1.3192 0.9394
-2.7854 -13.9372 1.2031 0.9445
-0.2537 -13.8751 1.1748 0.9458
2.3518 -14.5095 1.2443 0.9427
4.8679 -13.7762 1.2369 0.9430
9.3258 -13.3969 1.3818 0.9366
13.7319 -13.6857 1.6412 0.9251
-1.2003 7.8850 0.6752 0.9685
-13.0189 -13.8800 1.6110 0.9265
-3.0654 -13.9377 1.2081 0.9443
-1.7412 -13.6362 1.1637 0.9463
-0.5212 -13.8862 1.1763 0.9457
9.0156 -13.4978 1.3740 0.9369
10.9903 -13.6364 1.4826 0.9321
13.7666 -14.2585 1.6778 0.9235
-11.4883 -14.1155 1.5407 0.9295
-0.7895 -13.8974 1.1783 0.9457
2.9689 -13.8137 1.1961 0.9449
4.1961 -13.5078 1.1974 0.9448
8.7684 -13.6907 1.3763 0.9368
10.3614 -13.3745 1.4322 0.9343
14.7584 -13.2795 1.6806 0.9234
8.1530 8.2045 0.9791 0.9546
-7.9469 -13.7703 1.3459 0.9382
-2.2792 -13.6478 1.1713 0.9460
-1.0370 -13.6209 1.1564 0.9466
3.9146 -13.5139 1.1910 0.9451
5.3582 -13.7559 1.2497 0.9425
9.9621 -13.3831 1.4123 0.9352
14.5081 -13.5681 1.6815 0.9234
-11.7106 7.7157 1.1872 0.9453
-2.6039 -13.9368 1.2002 0.9447
-1.3015 -13.6266 1.1588 0.9465
-0.0795 -13.8679 1.1740 0.9459
3.6360 -13.5199 1.1852 0.9453
8.0439 -13.6918 1.3443 0.9382
9.5737 -13.3915 1.3935 0.9361
13.9608 -13.5690 1.6481 0.9248
-12.5160 -13.8691 1.1584 0.9279
-11.4062 -15.1711 1.1770 0.9268
-8.7213 -14.0604 1.0260 0.9358
-6.9094 -13.7479 0.9541 0.9402
-5.7263 -14.4957 0.9665 0.9394
2.3523 -14.5124 0.9117 0.9428
-1.1947 7.8478 0.4923 0.9687
-13.0188 -13.8800 1.1801 0.9266
-11.4336 -14.6137 1.1506 0.9283
-9.1008 -14.0611 1.0386 0.9351
-1.7412 -13.6362 0.8524 0.9464
-0.5212 -13.8853 0.8616 0.9458
9.0156 -13.4978 1.0065 0.9370
-1.0484 7.9061 0.4945 0.9685
-6.1659 -14.0063 0.9490 0.9405
-3.3475 -13.9372 0.8888 0.9442
-2.0093 -13.6420 0.8551 0.9462
5.6597 -13.7424 0.9216 0.9422
8.7677 -13.6896 1.0081 0.9369
10.3613 -13.3745 1.0491 0.9344
14.7584 -13.2795 1.2311 0.9235
-7.9468 -13.7703 0.9859 0.9383
3.9146 -13.5139 0.8725 0.9452
5.3578 -13.7549 0.9154 0.9426
8.4012 -13.6902 0.9960 0.9377
9.9621 -13.3831 1.0346 0.9353
-12.4224 -14.1175 1.1661 0.9274
-2.6037 -13.9359 0.8791 0.9448
-1.3015 -13.6266 0.8488 0.9466
-0.0795 -13.8669 0.8599 0.9459
3.6360 -13.5199 0.8682 0.9454
5.0599 -13.7673 0.9095 0.9429
9.5737 -13.3915 1.0208 0.9362
-11.4069 -15.1721 0.7485 0.9268
-8.7206 -14.0593 0.6524 0.9359
-6.9094 -13.7479 0.6067 0.9403
-5.7270 -14.4973 0.6146 0.9395
-2.7850 -13.9352 0.5603 0.9447
-0.2537 -13.8732 0.5471 0.9460
4.8672 -13.7743 0.5760 0.9432
9.3258 -13.3969 0.6437 0.9367
16.1771 -5.6550 0.6757 0.9337
-1.1882 7.8052 0.3113 0.9689
-13.0189 -13.8800 0.7504 0.9266
-5.8408 -13.9917 0.5979 0.9411
-3.0649 -13.9357 0.5626 0.9445
-0.5211 -13.8843 0.5479 0.9459
4.4806 -13.5016 0.5609 0.9446
9.0156 -13.4978 0.6400 0.9371
-1.0433 7.8674 0.3129 0.9687
-2.0093 -13.6420 0.5437 0.9463
4.1960 -13.5078 0.5577 0.9450
5.6593 -13.7414 0.5860 0.9422
8.7670 -13.6884 0.6410 0.9370
14.7584 -13.2795 0.7828 0.9236
8.1507 8.2022 0.4560 0.9548
-11.9615 -14.1327 0.7301 0.9286
-7.9469 -13.7703 0.6269 0.9383
-2.2792 -13.6478 0.5456 0.9461
3.9146 -13.5139 0.5548 0.9452
5.3574 -13.7539 0.5820 0.9426
-1.4561 7.8745 0.3158 0.9685
-12.4224 -14.1175 0.7415 0.9275
-8.4779 -14.0589 0.6474 0.9364
-5.7039 -14.9863 0.6323 0.9378
-1.3015 -13.6266 0.5398 0.9467
3.6360 -13.5199 0.5520 0.9455
5.0595 -13.7663 0.5783 0.9430
8.0426 -13.6896 0.6261 0.9384
13.9581 -13.5663 0.7675 0.9250
16.8120 -5.6412 0.6992 0.9315
-12.5160 -13.8691 0.3156 0.9280
-11.4076 -15.1730 0.3207 0.9269
-8.7199 -14.0582 0.2794 0.9360
-5.7276 -14.4988 0.2633 0.9395
-2.7848 -13.9343 0.2400 0.9447
3.4557 -13.5238 0.2358 0.9457
4.8668 -13.7733 0.2468 0.9432
9.3258 -13.3969 0.2757 0.9368
19.3536 -4.8759 0.3371 0.9233
-11.4350 -14.6155 0.3135 0.9284
-9.0993 -14.0588 0.2829 0.9352
-7.2477 -13.7552 0.2626 0.9397
-3.0647 -13.9347 0.2410 0.9445
-0.5211 -13.8834 0.2347 0.9459
3.2473 -13.8103 0.2396 0.9448
4.4806 -13.5016 0.2403 0.9447
10.9875 -13.6329 0.2958 0.9323
13.7688 -14.2607 0.3348 0.9238
-13.5410 -13.8913 0.3277 0.9253
-11.4851 -14.1116 0.3073 0.9298
-3.3471 -13.9352 0.2421 0.9443
-0.7894 -13.8945 0.2351 0.9458
4.1961 -13.5078 0.2389 0.9450
5.6589 -13.7404 0.2510 0.9423
8.7663 -13.6874 0.2746 0.9370
10.3614 -13.3745 0.2858 0.9346
16.0169 -4.6973 0.2819 0.9354
-11.9604 -14.1314 0.3127 0.9286
-2.2792 -13.6478 0.2337 0.9461
-1.0370 -13.6209 0.2308 0.9468
3.9146 -13.5139 0.2377 0.9453
5.3570 -13.7529 0.2493 0.9427
9.9621 -13.3831 0.2818 0.9354
14.5038 -13.5641 0.3354 0.9236
16.0225 -5.0356 0.2837 0.9350
-1.4490 7.8362 0.1346 0.9686
-11.7077 7.7138 0.2368 0.9455
-8.4773 -14.0578 0.2773 0.9364
-6.7190 -13.7978 0.2592 0.9405
-5.7044 -14.9878 0.2709 0.9379
3.6360 -13.5199 0.2365 0.9455
5.0592 -13.7653 0.2477 0.9430
13.9567 -13.5650 0.3288 0.9251
16.0285 -5.3783 0.2856 0.9346
-12.5161 -13.8691 -0.1052 0.9280
-11.4083 -15.1739 -0.1069 0.9269
-8.7192 -14.0570 -0.0931 0.9360
-1.4746 -13.6304 -0.0772 0.9466
2.3537 -14.5211 -0.0828 0.9429
4.8665 -13.7723 -0.0822 0.9432
8.0481 -14.1011 -0.0914 0.9371
9.3258 -13.3969 -0.0919 0.9368
-1.1762 7.7264 -0.0440 0.9692
-11.4357 -14.6164 -0.1045 0.9285
-9.0986 -14.0576 -0.0943 0.9352
-3.0645 -13.9338 -0.0803 0.9445
-1.7412 -13.6362 -0.0774 0.9465
4.4806 -13.5016 -0.0801 0.9447
13.7695 -14.2615 -0.1116 0.9238
16.0115 -4.3631 -0.0934 0.9358
-1.0337 7.7955 -0.0443 0.9690
-11.4841 -14.1103 -0.1024 0.9298
-2.0093 -13.6420 -0.0776 0.9463
4.1961 -13.5078 -0.0796 0.9450
5.6585 -13.7394 -0.0837 0.9423
8.1484 8.1999 -0.0651 0.9548
-0.9075 8.0255 -0.0455 0.9682
-11.9593 -14.1301 -0.1042 0.9286
-6.4952 -14.0169 -0.0870 0.9401
-2.2792 -13.6478 -0.0779 0.9462
-1.0370 -13.6209 -0.0769 0.9468
2.6914 -13.8103 -0.0792 0.9453
5.3566 -13.7520 -0.0831 0.9427
14.5023 -13.5627 -0.1118 0.9236
16.0699 -5.0505 -0.0948 0.9348
-12.4224 -14.1175 -0.1059 0.9275
-8.4766 -14.0566 -0.0924 0.9364
-6.7190 -13.7978 -0.0864 0.9405
-1.3015 -13.6266 -0.0771 0.9467
2.4167 -13.8107 -0.0789 0.9455
3.6360 -13.5199 -0.0788 0.9455
5.0588 -13.7644 -0.0826 0.9430
16.0774 -5.3947 -0.0955 0.9344
-12.5160 -13.8691 -0.5260 0.9280
-11.4090 -15.1749 -0.5346 0.9268
-8.7185 -14.0559 -0.4657 0.9360
2.3541 -14.5240 -0.4143 0.9428
3.4557 -13.5238 -0.3930 0.9457
4.8661 -13.7714 -0.4113 0.9432
11.4102 -13.6129 -0.5002 0.9314
13.7362 -13.6900 -0.5461 0.9253
16.1420 -5.6427 -0.4815 0.9339
19.3536 -4.8759 -0.5620 0.9232
-11.4365 -14.6173 -0.5226 0.9284
-5.8395 -13.9886 -0.4268 0.9411
-3.0643 -13.9328 -0.4017 0.9445
-1.7412 -13.6362 -0.3871 0.9465
-0.5210 -13.8815 -0.3911 0.9459
4.4806 -13.5016 -0.4006 0.9447
8.0520 -14.7603 -0.4734 0.9349
9.0156 -13.4978 -0.4571 0.9371
10.9857 -13.6306 -0.4929 0.9323
-3.3466 -13.9332 -0.4035 0.9443
-2.0093 -13.6420 -0.3883 0.9463
-0.7893 -13.8926 -0.3918 0.9458
2.9679 -13.8089 -0.3977 0.9450
4.1961 -13.5078 -0.3983 0.9450
5.6581 -13.7384 -0.4184 0.9423
10.3614 -13.3745 -0.4764 0.9345
16.0626 -4.7107 -0.4713 0.9352
8.1472 8.1987 -0.3255 0.9548
-0.9033 7.9878 -0.2264 0.9683
-7.9469 -13.7703 -0.4477 0.9384
-6.4947 -14.0158 -0.4350 0.9401
-1.0370 -13.6209 -0.3846 0.9468
2.6912 -13.8093 -0.3962 0.9453
3.9146 -13.5139 -0.3962 0.9453
5.3563 -13.7510 -0.4155 0.9427
9.9621 -13.3831 -0.4698 0.9354
16.0699 -5.0505 -0.4743 0.9348
-6.7190 -13.7978 -0.4321 0.9404
-5.7055 -14.9907 -0.4516 0.9378
-1.3015 -13.6267 -0.3854 0.9467
2.4165 -13.8098 -0.3948 0.9454
8.0407 -13.6864 -0.4470 0.9385
13.9540 -13.5623 -0.5479 0.9251
16.0774 -5.3947 -0.4775 0.9344
-12.5161 -13.8691 -0.9474 0.9279
-8.7178 -14.0548 -0.8388 0.9359
-6.9094 -13.7479 -0.7803 0.9402
-5.7295 -14.5037 -0.7909 0.9395
-1.4746 -13.6304 -0.6953 0.9466
2.3546 -14.5270 -0.7463 0.9428
3.4557 -13.5238 -0.7079 0.9456
4.8658 -13.7704 -0.7407 0.9432
8.0496 -14.1037 -0.8236 0.9370
-13.0189 -13.8800 -0.9651 0.9266
-3.0641 -13.9318 -0.7234 0.9445
4.4806 -13.5016 -0.7214 0.9446
8.0526 -14.7615 -0.8528 0.9349
10.9847 -13.6294 -0.8878 0.9323
13.7710 -14.2630 -1.0055 0.9237
-1.0256 7.7345 -0.3957 0.9692
-12.7904 -13.1212 -0.9293 0.9292
-7.5934 -13.7627 -0.7971 0.9390
-6.1635 -14.0010 -0.7758 0.9406
-2.0093 -13.6420 -0.6993 0.9463
-0.7892 -13.8917 -0.7056 0.9458
2.9676 -13.8079 -0.7162 0.9450
14.7584 -13.2795 -1.0069 0.9236
16.0626 -4.7107 -0.8489 0.9352
8.1461 8.1975 -0.5861 0.9548
-0.8965 7.9284 -0.4046 0.9685
-11.9570 -14.1275 -0.9386 0.9286
-7.9469 -13.7703 -0.8063 0.9383
-1.0370 -13.6209 -0.6928 0.9468
2.6910 -13.8084 -0.7135 0.9452
3.9146 -13.5139 -0.7135 0.9452
5.3559 -13.7500 -0.7484 0.9426
16.0699 -5.0505 -0.8543 0.9348
-11.7049 7.7119 -0.7109 0.9454
-8.4752 -14.0544 -0.8323 0.9364
-1.3015 -13.6266 -0.6942 0.9467
-0.0795 -13.8622 -0.7030 0.9460
2.4164 -13.8088 -0.7109 0.9454
8.0401 -13.6853 -0.8049 0.9384
13.9526 -13.5610 -0.9867 0.9250
16.0774 -5.3947 -0.8600 0.9343
-12.5160 -13.8691 -1.3698 0.9278
-8.6818 -13.9967 -1.2077 0.9361
-6.9094 -13.7479 -1.1282 0.9402
-2.7840 -13.9304 -1.0416 0.9446
4.8654 -13.7694 -1.0708 0.9431
16.1420 -5.6427 -1.2538 0.9337
-1.1624 7.6358 -0.5663 0.9695
-13.0188 -13.8800 -1.3953 0.9265
-7.2477 -13.7552 -1.1400 0.9395
4.4806 -13.5017 -1.0431 0.9445
7.9988 -14.6628 -1.2247 0.9352
9.0156 -13.4978 -1.1902 0.9370
10.9393 -13.5730 -1.2782 0.9325
-17.9134 8.7556 -1.4619 0.9231
-12.7914 -13.1223 -1.3436 0.9291
-7.5934 -13.7627 -1.1525 0.9389
-3.3461 -13.9313 -1.0505 0.9442
-2.0093 -13.6420 -1.0110 0.9462
4.1961 -13.5078 -1.0371 0.9448
5.6572 -13.7364 -1.0893 0.9422
10.3614 -13.3745 -1.2405 0.9344
15.0756 6.9251 -1.2164 0.9356
16.5895 9.5005 -1.4017 0.9262
8.1449 8.1964 -0.8472 0.9547
-11.9058 -14.0669 -1.3513 0.9288
-7.9469 -13.7703 -1.1657 0.9382
-2.2792 -13.6478 -1.0145 0.9460
2.6908 -13.8074 -1.0314 0.9451
5.3555 -13.7490 -1.0819 0.9425
8.3625 -13.6271 -1.1723 0.9379
9.9621 -13.3831 -1.2233 0.9353
14.4362 -13.5008 -1.4493 0.9238
16.0540 -5.0455 -1.2339 0.9347
-16.2878 8.7526 -1.3558 0.9285
-12.3941 -14.0853 -1.3757 0.9275
-8.4397 -13.9954 -1.1983 0.9366
-6.7190 -13.7978 -1.1253 0.9403
2.4162 -13.8079 -1.0278 0.9453
3.6360 -13.5199 -1.0265 0.9454
5.0577 -13.7614 -1.0750 0.9429
8.0070 -13.6290 -1.1590 0.9386
13.8938 -13.5039 -1.4206 0.9252
-17.8242 -7.3103 -1.8495 0.9255
-17.0996 -8.8739 -1.8495 0.9255
-9.3446 -5.9656 -1.0644 0.9564
-6.1349 -4.7384 -0.7442 0.9693
-14.1332 -13.0914 -1.8495 0.9255
-11.3588 -15.1081 -1.8147 0.9269
-8.6811 -13.9956 -1.5811 0.9360
-5.6689 -14.3501 -1.4813 0.9399
-1.4746 -13.6304 -1.3162 0.9464
-0.2525 -13.8112 -1.3262 0.9460
1.3705 -19.2153 -1.8494 0.9255
3.4557 -13.5238 -1.3401 0.9455
4.8447 -13.7107 -1.3961 0.9432
8.0155 -17.5170 -1.8494 0.9255
7.9854 -13.9913 -1.5466 0.9373
13.6443 -13.5985 -1.8494 0.9255
14.8050 -12.3247 -1.8494 0.9255
16.7624 -9.4923 -1.8494 0.9255
17.5436 -7.9563 -1.8494 0.9255
17.9661 7.1674 -1.8570 0.9252
17.2537 8.7443 -1.8570 0.9252
-12.6014 8.8894 -1.4805 0.9399
-17.5399 8.1589 -1.8572 0.9252
-14.3824 -12.8172 -1.8495 0.9255
-13.0189 -13.8800 -1.8270 0.9264
-11.3786 -14.5434 -1.7728 0.9285
-9.0597 -13.9976 -1.6008 0.9352
-7.2477 -13.7552 -1.4927 0.9394
-5.8145 -13.9288 -1.4491 0.9412
-1.7412 -13.6362 -1.3198 0.9463
7.6771 -17.6680 -1.8494 0.9255
7.9994 -14.6640 -1.6037 0.9351
9.0156 -13.4978 -1.5583 0.9369
10.9384 -13.5719 -1.6735 0.9324
14.5652 -12.6072 -1.8494 0.9255
16.5768 -9.8129 -1.8494 0.9255
17.3874 -8.2922 -1.8494 0.9255
18.0588 -6.7052 -1.8494 0.9255
16.0115 -4.3631 -1.5932 0.9355
14.4188 6.9623 -1.5372 0.9377
-1.0182 7.6782 -0.7436 0.9694
-12.8749 6.2929 -1.3758 0.9440
-16.2021 6.1938 -1.6653 0.9327
-17.4283 -8.2097 -1.8495 0.9255
-16.6248 -9.7343 -1.8495 0.9255
-15.6883 -11.1810 -1.8495 0.9255
-14.6263 -12.5382 -1.8495 0.9255
-6.1551 -18.2547 -1.8495 0.9255
-0.7858 -13.8314 -1.3300 0.9459
0.6305 -19.2538 -1.8494 0.9255
4.1961 -13.5078 -1.3580 0.9447
8.8983 -17.0855 -1.8494 0.9255
10.3614 -13.3745 -1.6243 0.9343
17.2247 -8.6251 -1.8494 0.9255
12.1682 -4.7863 -1.2553 0.9488
18.9744 -3.7632 -1.8571 0.9252
15.0756 6.9251 -1.5927 0.9355
16.5632 9.4855 -1.8324 0.9262
8.1441 8.1955 -1.1092 0.9546
-0.8866 7.8407 -0.7575 0.9688
-8.1370 8.9295 -1.1598 0.9526
-9.6969 8.8953 -1.2633 0.9485
-17.2131 8.8274 -1.8572 0.9252
-17.9331 7.2538 -1.8572 0.9252
-18.9816 -4.6858 -1.8770 0.9244
-18.2162 -6.2702 -1.8495 0.9255
-17.5829 -7.8729 -1.8495 0.9255
-11.0818 -15.7582 -1.8495 0.9255
-7.9469 -13.7703 -1.5264 0.9381
-6.5050 -18.1330 -1.8495 0.9255
-4.8585 -18.6416 -1.8495 0.9255
-1.0370 -13.6209 -1.3115 0.9466
3.9146 -13.5139 -1.3507 0.9450
5.3334 -13.6922 -1.4107 0.9427
8.5681 -17.2535 -1.8494 0.9255
12.8374 -14.3628 -1.8494 0.9255
14.0696 -13.1580 -1.8494 0.9255
16.1871 -10.4432 -1.8494 0.9255
18.8199 -4.1102 -1.8494 0.9255
17.7293 7.7346 -1.8570 0.9252
-1.4182 7.6693 -0.7488 0.9691
-11.5801 7.6297 -1.3314 0.9458
-16.2878 8.7526 -1.7752 0.9284
-14.5696 6.2220 -1.5210 0.9383
-18.3334 -5.9186 -1.8495 0.9255
-17.7311 -7.5333 -1.8495 0.9255
-12.3930 -14.0840 -1.8011 0.9274
-11.3828 -15.5422 -1.8495 0.9255
-5.6584 -14.8668 -1.5272 0.9381
-2.5916 -13.8708 -1.3547 0.9449
-1.3015 -13.6267 -1.3142 0.9465
2.4063 -13.7513 -1.3403 0.9454
3.6360 -13.5199 -1.3441 0.9453
5.0364 -13.7034 -1.4016 0.9430
8.2346 -17.4151 -1.8494 0.9255
8.0064 -13.6280 -1.5174 0.9385
9.0883 -12.7126 -1.5003 0.9391
12.5588 -14.6070 -1.8494 0.9255
13.8139 -13.4262 -1.8494 0.9255
15.9833 -10.7526 -1.8494 0.9255
18.2628 -6.1280 -1.8494 0.9255
-16.7290 -2.0300 -2.0017 0.9344
-16.4806 -3.5168 -2.0017 0.9344
-13.8201 -7.1720 -1.8495 0.9392
-11.4227 -10.5807 -1.8495 0.9392
-6.9094 -13.7479 -1.8277 0.9399
-5.6695 -14.3518 -1.8330 0.9397
-4.4035 -14.9341 -1.8495 0.9392
-2.7721 -13.8708 -1.6802 0.9446
-1.4746 -13.6304 -1.6285 0.9463
-0.2525 -13.8103 -1.6407 0.9459
1.1077 -15.5302 -1.8495 0.9392
3.4557 -13.5238 -1.6581 0.9453
4.8444 -13.7097 -1.7272 0.9431
12.8080 -8.8519 -1.8494 0.9392
13.5478 -7.6719 -1.8494 0.9392
14.6971 -5.1376 -1.8494 0.9392
16.6424 -2.6400 -2.0016 0.9344
16.8117 -1.1422 -2.0016 0.9344
16.7465 1.8689 -2.0016 0.9344
11.0144 6.8835 -1.5428 0.9490
12.4641 9.4369 -1.8571 0.9390
12.4718 11.3315 -2.0016 0.9344
10.2554 13.3708 -2.0016 0.9344
9.0195 14.2338 -2.0017 0.9344
7.7114 14.9829 -2.0017 0.9344
4.9211 16.1165 -2.0017 0.9344
0.4701 16.8447 -2.0017 0.9344
-1.0371 16.8193 -2.0017 0.9344
-1.1532 7.5751 -0.9102 0.9696
-4.0147 16.3662 -2.0017 0.9344
-5.4612 15.9419 -2.0017 0.9344
-6.8641 15.3902 -2.0017 0.9344
-8.2120 14.7152 -2.0017 0.9344
-10.7004 13.0184 -2.0017 0.9344
-11.8210 12.0100 -2.0017 0.9344
-12.8470 10.9056 -2.0017 0.9344
-12.7756 9.0123 -1.8572 0.9390
-13.5299 7.8345 -1.8572 0.9390
-16.6175 2.8001 -2.0017 0.9344
-16.8012 1.3039 -2.0017 0.9344
-16.8505 -0.2028 -2.0017 0.9344
-16.7649 -1.7078 -2.0017 0.9344
-13.9555 -6.9048 -1.8495 0.9392
-11.6241 -10.3590 -1.8495 0.9392
-10.6518 -11.3563 -1.8495 0.9392
-8.4600 -13.0711 -1.8495 0.9392
-7.2477 -13.7552 -1.8469 0.9393
-4.6899 -14.8467 -1.8495 0.9392
-1.7412 -13.6362 -1.6329 0.9461
-0.5187 -13.8203 -1.6428 0.9458
2.1950 -15.4141 -1.8494 0.9392
3.2321 -13.7458 -1.6773 0.9447
7.4561 -13.6680 -1.8494 0.9392
8.6477 -12.9469 -1.8494 0.9392
9.7701 -12.1223 -1.8494 0.9392
12.6354 -9.0966 -1.8494 0.9392
13.3977 -7.9311 -1.8494 0.9392
15.0215 -4.0933 -1.8494 0.9392
16.5885 -2.9596 -2.0016 0.9344
16.8504 0.0407 -2.0016 0.9344
16.2361 4.5087 -2.0016 0.9344
15.7683 5.9417 -2.0016 0.9344
12.6874 11.0895 -2.0016 0.9344
9.2916 14.0577 -2.0016 0.9344
6.6407 15.4873 -2.0017 0.9344
5.2302 16.0188 -2.0017 0.9344
3.7777 16.4222 -2.0017 0.9344
2.2950 16.6941 -2.0017 0.9344
0.7940 16.8325 -2.0017 0.9344
-0.7134 16.8362 -2.0017 0.9344
-5.1536 16.0440 -2.0017 0.9344
-6.5668 15.5193 -2.0017 0.9344
-4.7931 8.9911 -1.2103 0.9598
-10.4480 13.2217 -2.0017 0.9344
-8.5082 8.9835 -1.4697 0.9514
-12.8748 6.2929 -1.7023 0.9439
-16.5605 3.1192 -2.0017 0.9344
-16.8513 0.1213 -2.0017 0.9344
-16.6037 -2.8804 -2.0017 0.9344
-14.6223 -5.3498 -1.8495 0.9392
-14.0857 -6.6351 -1.8495 0.9392
-12.6795 -9.0366 -1.8495 0.9392
-11.8212 -10.1335 -1.8495 0.9392
-10.8683 -11.1494 -1.8495 0.9392
-8.7098 -12.9059 -1.8495 0.9392
-7.5216 -13.6326 -1.8495 0.9392
-4.9746 -14.7537 -1.8495 0.9392
-0.7857 -13.8304 -1.6455 0.9457
0.5096 -15.5613 -1.8495 0.9392
1.8982 -15.4534 -1.8494 0.9392
2.9546 -13.7473 -1.6703 0.9449
4.1961 -13.5078 -1.6802 0.9446
7.1918 -13.8089 -1.8494 0.9392
9.5351 -12.3080 -1.8494 0.9392
10.5969 -11.4066 -1.8494 0.9392
11.5738 -10.4139 -1.8494 0.9392
12.4581 -9.3380 -1.8494 0.9392
13.9214 -6.9711 -1.8494 0.9392
16.5285 -3.2781 -2.0016 0.9344
16.7554 -1.7879 -2.0016 0.9344
16.6295 2.7204 -2.0016 0.9344
15.8796 5.6373 -2.0016 0.9344
14.4233 6.6254 -1.8854 0.9381
9.8342 6.8671 -1.4248 0.9528
8.0411 8.0919 -1.3551 0.9551
10.7621 12.9664 -2.0016 0.9344
9.5603 13.8764 -2.0016 0.9344
6.9374 15.3567 -2.0017 0.9344
5.5373 15.9153 -2.0017 0.9344
1.1176 16.8141 -2.0017 0.9344
-0.8820 7.8001 -0.9325 0.9689
-3.3823 16.5084 -2.0017 0.9344
-6.2671 15.6427 -2.0017 0.9344
-7.6399 15.0201 -2.0017 0.9344
-9.6968 8.8953 -1.5631 0.9484
-13.3864 10.2363 -2.0017 0.9344
-14.6315 5.9184 -1.8748 0.9384
-16.4975 3.4371 -2.0017 0.9344
-16.7386 1.9491 -2.0017 0.9344
-16.6560 -2.5605 -2.0017 0.9344
-14.2107 -6.3630 -1.8495 0.9392
-13.5852 -7.6075 -1.8495 0.9392
-7.6513 -5.2341 -1.1013 0.9633
-11.0807 -10.9383 -1.8495 0.9392
-10.0588 -11.8847 -1.8495 0.9392
-7.7825 -13.4854 -1.8495 0.9392
-5.2575 -14.6554 -1.8495 0.9392
-3.9268 -15.0665 -1.8495 0.9392
-2.2792 -13.6478 -1.6436 0.9458
-1.0370 -13.6209 -1.6227 0.9465
0.2102 -15.5682 -1.8495 0.9392
1.6006 -15.4871 -1.8494 0.9392
8.1434 -13.2699 -1.8494 0.9392
9.2966 -12.4891 -1.8494 0.9392
11.3713 -10.6346 -1.8494 0.9392
14.3764 -5.9767 -1.8494 0.9392
16.7179 -2.1098 -2.0016 0.9344
16.8264 0.9000 -2.0016 0.9344
16.6787 2.4001 -2.0016 0.9344
16.3975 3.8809 -2.0016 0.9344
15.1943 6.6287 -1.9692 0.9354
13.7133 7.5069 -1.8570 0.9390
10.1401 6.7944 -1.4499 0.9520
8.4381 6.8212 -1.2889 0.9572
11.0095 12.7570 -2.0016 0.9344
8.5627 14.5132 -2.0017 0.9344
7.2315 15.2204 -2.0017 0.9344
4.4065 16.2647 -2.0017 0.9344
2.9354 16.5935 -2.0017 0.9344
1.4407 16.7895 -2.0017 0.9344
-1.4091 7.6201 -0.9205 0.9693
-4.5327 16.2303 -2.0017 0.9344
-5.9650 15.7604 -2.0017 0.9344
-7.3496 15.1643 -2.0017 0.9344
-9.6147 6.3347 -1.3677 0.9547
-14.3783 6.1403 -1.8572 0.9390
-16.0271 5.2069 -2.0017 0.9344
-16.8355 -0.7382 -2.0017 0.9344
-14.8173 -4.7835 -1.8495 0.9392
-13.7290 -7.3448 -1.8495 0.9392
-11.2890 -10.7232 -1.8495 0.9392
-10.2856 -11.6891 -1.8495 0.9392
-9.1998 -12.5614 -1.8495 0.9392
-8.0404 -13.3333 -1.8495 0.9392
-6.7190 -13.7978 -1.8230 0.9401
-4.2158 -14.9882 -1.8495 0.9392
-1.3015 -13.6267 -1.6260 0.9464
-0.0792 -13.8037 -1.6397 0.9459
3.6360 -13.5199 -1.6630 0.9452
9.0547 -12.6656 -1.8494 0.9392
10.1503 -11.8057 -1.8494 0.9392
12.0897 -9.8102 -1.8494 0.9392
12.9181 -8.6905 -1.8494 0.9392
13.6430 -7.5013 -1.8494 0.9392
-9.3446 -5.9656 -1.5708 0.9562
-6.1360 -4.7393 -1.0985 0.9692
-9.5762 -8.8703 -1.8495 0.9486
-6.8804 -11.0925 -1.8495 0.9486
-5.8616 -11.6630 -1.8495 0.9486
-2.5581 -12.7999 -1.8495 0.9486
-1.4040 -12.9772 -1.8495 0.9486
-0.2386 -13.0508 -1.8495 0.9486
2.0884 -12.8847 -1.8495 0.9486
5.4311 -11.8692 -1.8494 0.9486
6.4701 -11.3363 -1.8494 0.9486
7.4573 -10.7127 -1.8494 0.9486
8.3848 -10.0034 -1.8494 0.9486
9.2452 -9.2141 -1.8494 0.9486
10.0316 -8.3510 -1.8494 0.9486
12.3215 -4.3072 -1.8494 0.9486
13.9523 -2.2132 -2.0016 0.9445
14.0943 -0.9575 -2.0016 0.9445
14.1235 0.3058 -2.0016 0.9445
14.0396 1.5668 -2.0016 0.9445
13.8435 2.8152 -2.0016 0.9445
13.5365 4.0410 -2.0016 0.9445
12.6010 6.3862 -2.0016 0.9445
11.1146 6.9460 -1.8571 0.9484
10.4494 7.9115 -1.8571 0.9484
9.7006 8.8137 -1.8571 0.9484
8.8741 9.6453 -1.8571 0.9484
7.5616 11.9330 -2.0017 0.9445
6.4649 12.5610 -2.0017 0.9445
1.6545 14.0300 -2.0017 0.9445
0.3941 14.1218 -2.0017 0.9445
-0.8695 14.1005 -2.0017 0.9445
-1.1472 7.5362 -1.0801 0.9697
-3.0987 9.0456 -1.3548 0.9621
-5.7545 12.9024 -2.0017 0.9445
-7.9595 11.6720 -2.0017 0.9445
-6.3097 6.4106 -1.2745 0.9643
-10.7104 7.5555 -1.8571 0.9484
-13.2909 4.7900 -2.0017 0.9445
-13.9313 2.3475 -2.0017 0.9445
-14.0853 1.0931 -2.0017 0.9445
-14.1266 -0.1700 -2.0017 0.9445
-13.8707 -2.6821 -2.0017 0.9445
-13.5755 -3.9109 -2.0017 0.9445
-11.6996 -5.7887 -1.8495 0.9486
-6.2866 -4.6653 -1.1092 0.9689
-9.7451 -8.6845 -1.8495 0.9486
-8.9300 -9.5206 -1.8495 0.9486
-8.0434 -10.2805 -1.8495 0.9486
-6.0848 -11.5481 -1.8495 0.9486
-5.0284 -12.0457 -1.8495 0.9486
-1.6533 -12.9478 -1.8495 0.9486
0.6780 -13.0353 -1.8495 0.9486
2.9877 -12.7063 -1.8494 0.9486
4.1112 -12.3884 -1.8494 0.9486
5.2019 -11.9714 -1.8494 0.9486
8.1908 -10.1628 -1.8494 0.9486
9.0662 -9.3902 -1.8494 0.9486
9.8691 -8.5424 -1.8494 0.9486
12.2364 -4.5434 -1.8494 0.9486
13.5968 -3.7051 -1.9968 0.9447
14.0733 -1.2284 -2.0016 0.9445
14.1267 0.0341 -2.0016 0.9445
13.6117 3.7799 -2.0016 0.9445
11.2461 6.7310 -1.8571 0.9484
10.5996 7.7091 -1.8571 0.9484
9.0580 9.4729 -1.8571 0.9484
8.8117 11.0420 -2.0016 0.9445
7.7897 11.7853 -2.0017 0.9445
5.0060 9.2831 -1.4944 0.9583
4.3847 13.4295 -2.0017 0.9445
3.1671 13.7676 -2.0017 0.9445
-1.0093 7.6112 -1.0879 0.9695
-2.9280 9.1155 -1.3566 0.9621
-4.7931 8.9911 -1.4437 0.9597
-7.7335 11.8229 -2.0017 0.9445
-9.7146 10.2574 -2.0017 0.9445
-8.7534 6.4306 -1.5390 0.9571
-11.2144 6.7850 -1.8571 0.9484
-13.1963 5.0447 -2.0017 0.9445
-13.8835 2.6150 -2.0017 0.9445
-14.1273 0.1017 -2.0017 0.9445
-14.0798 -1.1612 -2.0017 0.9445
-13.6482 -3.6491 -2.0017 0.9445
-10.6299 -7.5759 -1.8495 0.9486
-9.9103 -8.4955 -1.8495 0.9486
-9.1114 -9.3471 -1.8495 0.9486
-6.3058 -11.4290 -1.8495 0.9486
-5.2592 -11.9467 -1.8495 0.9486
-3.0485 -12.6920 -1.8495 0.9486
-1.9020 -12.9137 -1.8495 0.9486
-0.7404 -13.0319 -1.8495 0.9486
0.4272 -13.0459 -1.8495 0.9486
7.0398 -10.9916 -1.8494 0.9486
9.7030 -8.7306 -1.8494 0.9486
13.2460 -3.8847 -1.9559 0.9458
13.8569 -2.7482 -2.0016 0.9445
12.8373 5.8969 -2.0016 0.9445
6.7912 6.8341 -1.3651 0.9618
8.0149 11.6333 -2.0017 0.9445
6.9432 12.3031 -2.0017 0.9445
5.8160 12.8744 -2.0017 0.9445
2.1929 13.9560 -2.0017 0.9445
-0.3265 14.1235 -2.0017 0.9445
-0.8750 7.7380 -1.1034 0.9690
-4.0610 13.5312 -2.0017 0.9445
-8.1252 8.9165 -1.7092 0.9524
-9.6587 8.8604 -1.8571 0.9484
-10.4119 7.9618 -1.8571 0.9484
-11.6905 5.9952 -1.8615 0.9483
-13.5178 4.1060 -2.0017 0.9445
-14.0328 1.6340 -2.0017 0.9445
-14.1227 0.3734 -2.0017 0.9445
-14.0996 -0.8902 -2.0017 0.9445
-13.9636 -2.1466 -2.0017 0.9445
-13.7159 -3.3859 -2.0017 0.9445
-11.3892 -6.3777 -1.8495 0.9486
-7.5694 -5.1781 -1.2994 0.9636
-10.0719 -8.3033 -1.8495 0.9486
-6.5244 -11.3056 -1.8495 0.9486
-4.4076 -12.2864 -1.8495 0.9486
-3.2920 -12.6311 -1.8495 0.9486
-0.9909 -13.0153 -1.8495 0.9486
2.4968 -12.8118 -1.8494 0.9486
3.6317 -12.5374 -1.8494 0.9486
4.7376 -12.1627 -1.8494 0.9486
6.8271 -11.1250 -1.8494 0.9486
7.7939 -10.4703 -1.8494 0.9486
8.6984 -9.7319 -1.8494 0.9486
9.5333 -8.9156 -1.8494 0.9486
10.2919 -8.0280 -1.8494 0.9486
10.9681 -7.0762 -1.8494 0.9486
11.5566 -6.0676 -1.8494 0.9486
14.0156 -1.7688 -2.0016 0.9445
14.1176 -0.5092 -2.0016 0.9445
14.1066 0.7545 -2.0016 0.9445
13.9828 2.0121 -2.0016 0.9445
12.9483 5.6489 -2.0016 0.9445
11.9774 6.5566 -1.9347 0.9463
8.5632 9.9225 -1.8571 0.9484
7.1786 12.1673 -2.0017 0.9445
1.6296 9.2120 -1.3255 0.9629
1.2079 14.0755 -2.0017 0.9445
-0.0548 14.1272 -2.0017 0.9445
-1.3171 14.0658 -2.0017 0.9445
-1.4025 7.5847 -1.0929 0.9693
-6.1616 12.7130 -2.0017 0.9445
-8.3263 11.4131 -2.0017 0.9445
-9.3130 10.6234 -2.0017 0.9445
-9.4865 9.0445 -1.8571 0.9484
-8.0021 6.3666 -1.4489 0.9595
-12.9925 5.5485 -2.0017 0.9445
-13.4363 4.3652 -2.0017 0.9445
-13.7727 3.1470 -2.0017 0.9445
-13.9988 1.9036 -2.0017 0.9445
-14.1141 -0.6188 -2.0017 0.9445
-14.0023 -1.8777 -2.0017 0.9445
-13.7784 -3.1215 -2.0017 0.9445
-13.4156 -4.3310 -1.9974 0.9446
-12.0140 -5.1043 -1.8495 0.9486
-11.5097 -6.1575 -1.8495 0.9486
-8.6229 -9.7996 -1.8495 0.9486
-6.7407 -11.1780 -1.8495 0.9486
-2.3973 -12.8310 -1.8495 0.9486
-0.0749 -13.0527 -1.8495 0.9486
1.0919 -13.0071 -1.8495 0.9486
3.3899 -12.6049 -1.8494 0.9486
4.5028 -12.2515 -1.8494 0.9486
5.5796 -11.8001 -1.8494 0.9486
8.5096 -9.8974 -1.8494 0.9486
10.1356 -8.2245 -1.8494 0.9486
10.8300 -7.2858 -1.8494 0.9486
11.4378 -6.2888 -1.8494 0.9486
11.9540 -5.2415 -1.8494 0.9486
12.3745 -4.1523 -1.8494 0.9486
-12.0624 -1.4637 -2.0017 0.9519
-11.6091 -3.5876 -2.0017 0.9519
-10.9165 -4.4772 -1.9437 0.9533
-6.1366 -4.7397 -1.2774 0.9691
-8.2363 -7.6292 -1.8495 0.9555
-7.5216 -8.3347 -1.8495 0.9555
-6.7466 -8.9735 -1.8495 0.9555
-4.1248 -10.4415 -1.8495 0.9555
-2.2002 -11.0090 -1.8495 0.9555
-1.2075 -11.1615 -1.8495 0.9555
3.7403 -10.5851 -1.8494 0.9555
7.2116 -8.6038 -1.8494 0.9555
7.9516 -7.9249 -1.8494 0.9555
9.7688 -5.5319 -1.8494 0.9555
11.7821 -2.9684 -2.0016 0.9519
12.0002 -1.9036 -2.0016 0.9519
12.1223 -0.8236 -2.0016 0.9519
12.0753 1.3476 -2.0016 0.9519
10.3037 6.4393 -2.0016 0.9519
8.9874 6.8046 -1.8571 0.9553
8.3433 7.5805 -1.8571 0.9553
5.1471 6.7107 -1.3933 0.9663
6.0338 9.5221 -1.8571 0.9553
4.5727 11.2572 -2.0017 0.9519
3.5484 11.6209 -2.0017 0.9519
2.4957 11.8915 -2.0017 0.9519
1.0872 9.2191 -1.5293 0.9631
0.3389 12.1459 -2.0017 0.9519
-2.2391 9.1276 -1.5483 0.9626
-5.9212 10.6104 -2.0017 0.9519
-6.3513 9.3137 -1.8571 0.9553
-6.3097 6.4106 -1.4818 0.9642
-10.3687 6.0040 -1.9738 0.9526
-11.9820 2.0190 -2.0017 0.9519
-12.1500 -0.1462 -2.0017 0.9519
-10.0626 -4.9787 -1.8495 0.9555
-7.6805 -8.1885 -1.8495 0.9555
-5.2334 -9.9323 -1.8495 0.9555
-4.3249 -10.3603 -1.8495 0.9555
-3.3817 -10.7053 -1.8495 0.9555
-1.4220 -11.1362 -1.8495 0.9555
-0.4211 -11.2187 -1.8495 0.9555
0.5832 -11.2114 -1.8495 0.9555
1.5827 -11.1144 -1.8495 0.9555
2.5697 -10.9285 -1.8495 0.9555
4.4740 -10.2965 -1.8494 0.9555
5.3763 -9.8554 -1.8494 0.9555
6.2355 -9.3355 -1.8494 0.9555
7.0448 -8.7409 -1.8494 0.9555
7.7977 -8.0764 -1.8494 0.9555
8.4883 -7.3472 -1.8494 0.9555
9.6606 -5.7188 -1.8494 0.9555
10.1330 -4.8326 -1.8494 0.9555
10.6717 -3.9624 -1.8753 0.9549
11.7228 -3.1944 -2.0016 0.9519
11.9614 -2.1340 -2.0016 0.9519
12.1042 -1.0566 -2.0016 0.9519
12.1502 0.0294 -2.0016 0.9519
11.9509 2.1918 -2.0016 0.9519
10.4256 6.2399 -2.0016 0.9519
8.4876 7.4186 -1.8571 0.9553
7.7906 8.1475 -1.8571 0.9553
6.2159 9.4042 -1.8571 0.9553
3.5767 6.6327 -1.2414 0.9699
4.7884 11.1672 -2.0017 0.9519
3.7712 11.5505 -2.0017 0.9519
2.7240 11.8413 -2.0017 0.9519
1.6548 12.0374 -2.0017 0.9519
-0.3885 9.1690 -1.5119 0.9635
-4.7931 8.9911 -1.6785 0.9595
-6.1710 9.4341 -1.8571 0.9553
-6.9894 8.8449 -1.8571 0.9553
-9.0851 6.6743 -1.8571 0.9553
-9.9574 6.0246 -1.9173 0.9539
-11.6922 3.3072 -2.0017 0.9519
-11.9409 2.2491 -2.0017 0.9519
-12.0941 1.1730 -2.0017 0.9519
-12.1098 -0.9987 -2.0017 0.9519
-11.9720 -2.0769 -2.0017 0.9519
-11.3975 -4.1700 -1.9993 0.9520
-8.5237 -7.3068 -1.8495 0.9555
-7.8366 -8.0393 -1.8495 0.9555
-7.0868 -8.7074 -1.8495 0.9555
-6.2803 -9.3059 -1.8495 0.9555
-5.4235 -9.8298 -1.8495 0.9555
-4.5233 -10.2752 -1.8495 0.9555
-2.6219 -10.9162 -1.8495 0.9555
-1.6359 -11.1068 -1.8495 0.9555
-0.6368 -11.2085 -1.8495 0.9555
0.3674 -11.2206 -1.8495 0.9555
1.3687 -11.1428 -1.8495 0.9555
3.3304 -10.7212 -1.8494 0.9555
6.0548 -9.4537 -1.8494 0.9555
6.8754 -8.8748 -1.8494 0.9555
7.6410 -8.2249 -1.8494 0.9555
8.3454 -7.5091 -1.8494 0.9555
8.9831 -6.7332 -1.8494 0.9555
10.0382 -5.0266 -1.8494 0.9555
10.4472 -4.1094 -1.8494 0.9555
12.1485 -0.2043 -2.0016 0.9519
12.1182 0.8821 -2.0016 0.9519
11.9909 1.9616 -2.0016 0.9519
11.7676 3.0253 -2.0016 0.9519
11.4502 4.0648 -2.0016 0.9519
11.0411 5.0718 -2.0016 0.9519
6.7912 6.8341 -1.5872 0.9617
5.6111 6.7604 -1.4473 0.9650
3.9927 11.4758 -2.0017 0.9519
1.8861 12.0033 -2.0017 0.9519
0.8058 12.1239 -2.0017 0.9519
-0.2808 12.1474 -2.0017 0.9519
-2.4388 11.9034 -2.0017 0.9519
-4.5189 11.2792 -2.0017 0.9519
-5.5088 10.8303 -2.0017 0.9519
-5.9884 9.5511 -1.8571 0.9553
-8.9551 6.8478 -1.8571 0.9553
-9.5690 6.0440 -1.8645 0.9552
-11.2643 4.5563 -2.0017 0.9519
-11.6264 3.5315 -2.0017 0.9519
-12.1267 -0.7656 -2.0017 0.9519
-11.7967 -2.9121 -2.0017 0.9519
-10.2469 -4.5882 -1.8496 0.9555
-9.7956 -5.4854 -1.8495 0.9555
-8.6626 -7.1415 -1.8495 0.9555
-7.9897 -7.8871 -1.8495 0.9555
-7.2529 -8.5695 -1.8495 0.9555
-6.4581 -9.1834 -1.8495 0.9555
-5.6116 -9.7237 -1.8495 0.9555
-4.7201 -10.1863 -1.8495 0.9555
-3.7909 -10.5673 -1.8495 0.9555
0.1515 -11.2256 -1.8495 0.9555
1.1541 -11.1671 -1.8495 0.9555
2.1475 -11.0193 -1.8495 0.9555
3.1236 -10.7832 -1.8494 0.9555
4.9933 -10.0549 -1.8494 0.9555
5.8718 -9.5684 -1.8494 0.9555
6.7034 -9.0054 -1.8494 0.9555
7.4814 -8.3703 -1.8494 0.9555
8.1994 -7.6682 -1.8494 0.9555
11.8704 -2.5925 -2.0016 0.9519
12.0546 -1.5213 -2.0016 0.9519
12.1423 -0.4380 -2.0016 0.9519
12.1329 0.6489 -2.0016 0.9519
12.0264 1.7306 -2.0016 0.9519
11.8236 2.7984 -2.0016 0.9519
11.5262 3.8439 -2.0016 0.9519
11.1366 4.8585 -2.0016 0.9519
10.6579 5.8343 -2.0016 0.9519
8.4381 6.8212 -1.7875 0.9570
6.5729 9.1582 -1.8571 0.9553
5.7282 9.7090 -1.8571 0.9553
3.3977 9.1921 -1.6144 0.9611
-4.3011 11.3640 -2.0017 0.9519
-5.2994 10.9342 -2.0017 0.9519
-4.7000 6.4425 -1.3137 0.9682
-7.4313 8.4770 -1.8571 0.9553
-8.1592 7.7790 -1.8571 0.9553
-8.0021 6.3666 -1.6846 0.9594
-9.4195 6.2063 -1.8583 0.9553
-11.8456 2.7067 -2.0017 0.9519
-12.0431 -1.6149 -2.0017 0.9519
-11.8506 -2.6847 -2.0017 0.9519
-11.5632 -3.7330 -2.0017 0.9519
-9.8993 -5.2960 -1.8495 0.9555
-7.6819 -5.0409 -1.5137 0.9634
-6.1142 -4.8461 -1.2853 0.9689
-8.1400 -7.7319 -1.8495 0.9555
-7.4164 -8.4284 -1.8495 0.9555
-6.6335 -9.0574 -1.8495 0.9555
-5.7975 -9.6140 -1.8495 0.9555
-3.9935 -10.4924 -1.8495 0.9555
-3.0398 -10.8073 -1.8495 0.9555
-2.0619 -11.0357 -1.8495 0.9555
-1.0674 -11.1758 -1.8495 0.9555
0.9391 -11.1872 -1.8495 0.9555
3.8728 -10.5374 -1.8494 0.9555
4.7989 -10.1491 -1.8494 0.9555
7.3190 -8.5126 -1.8494 0.9555
9.3147 -6.2664 -1.8494 0.9555
9.8375 -5.4089 -1.8494 0.9555
11.4818 -3.8527 -1.9952 0.9521
-10.5721 -1.2829 -2.0017 0.9576
-7.2188 -6.6866 -1.8495 0.9607
-5.9131 -7.8649 -1.8495 0.9607
-5.1866 -8.3618 -1.8495 0.9607
-4.4186 -8.7918 -1.8495 0.9607
-2.7829 -9.4379 -1.8495 0.9607
-0.1799 -9.8380 -1.8495 0.9607
2.4360 -9.5333 -1.8495 0.9607
4.0941 -8.9473 -1.8494 0.9607
4.8773 -8.5456 -1.8494 0.9607
5.6215 -8.0755 -1.8494 0.9607
6.3207 -7.5409 -1.8494 0.9607
6.9693 -6.9458 -1.8494 0.9607
8.5619 -4.8485 -1.8494 0.9607
10.0520 -3.5138 -2.0015 0.9576
10.3265 -2.6017 -2.0016 0.9576
10.5177 -1.6684 -2.0016 0.9576
10.6467 0.2306 -2.0016 0.9576
10.2042 3.0463 -2.0016 0.9576
9.0307 5.6437 -2.0016 0.9576
7.3126 6.6440 -1.8571 0.9606
6.6896 7.2709 -1.8571 0.9606
4.5214 8.7849 -1.8571 0.9606
3.7183 9.1538 -1.8571 0.9606
2.8854 9.4495 -1.8571 0.9606
1.2472 10.5762 -2.0017 0.9576
0.1844 6.6082 -1.2426 0.9735
-1.1396 7.4862 -1.4233 0.9696
-2.3539 9.5958 -1.8571 0.9606
-4.8148 8.6278 -1.8571 0.9606
-6.2738 7.6329 -1.8571 0.9606
-6.3097 6.4106 -1.6907 0.9641
-7.5324 6.3942 -1.8571 0.9606
-8.5737 6.0482 -1.9721 0.9582
-9.2161 5.3366 -2.0017 0.9576
-10.0189 3.6108 -2.0017 0.9576
-10.6177 0.8240 -2.0017 0.9576
-10.4560 -2.0218 -2.0017 0.9576
-9.9290 -3.8508 -2.0017 0.9576
-8.9761 -4.4412 -1.8824 0.9601
-7.3460 -6.5466 -1.8495 0.9607
-6.7316 -7.1768 -1.8495 0.9607
-6.0633 -7.7497 -1.8495 0.9607
-5.3465 -8.2605 -1.8495 0.9607
-3.7905 -9.0803 -1.8495 0.9607
-2.9639 -9.3827 -1.8495 0.9607
-2.1136 -9.6100 -1.8495 0.9607
-1.2463 -9.7604 -1.8495 0.9607
0.5111 -9.8263 -1.8495 0.9607
2.2522 -9.5784 -1.8495 0.9607
3.0991 -9.3387 -1.8494 0.9607
4.7121 -8.6378 -1.8494 0.9607
6.1745 -7.6610 -1.8494 0.9607
6.8344 -7.0786 -1.8494 0.9607
7.4396 -6.4395 -1.8494 0.9607
7.9853 -5.7489 -1.8494 0.9607
8.4671 -5.0123 -1.8494 0.9607
8.8812 -4.2355 -1.8494 0.9607
9.9669 -3.7007 -1.9984 0.9577
10.4836 -1.8704 -2.0016 0.9576
10.6491 0.0257 -2.0016 0.9576
10.2609 2.8494 -2.0016 0.9576
9.9652 3.7550 -2.0016 0.9576
9.5898 4.6305 -2.0016 0.9576
9.1376 5.4690 -2.0016 0.9576
7.4390 6.5021 -1.8571 0.9606
5.4479 8.2424 -1.8571 0.9606
3.5767 6.6327 -1.4164 0.9698
3.8936 9.0806 -1.8571 0.9606
3.0666 9.3923 -1.8571 0.9606
2.2165 9.6355 -1.8584 0.9606
1.4504 10.5502 -2.0017 0.9576
0.3097 6.5666 -1.2356 0.9736
-0.9991 7.5345 -1.4286 0.9695
-2.1689 9.6393 -1.8571 0.9606
-4.6480 8.7188 -1.8571 0.9606
-4.2717 6.5305 -1.4667 0.9687
-6.1259 7.7522 -1.8571 0.9606
-6.7941 7.1737 -1.8571 0.9606
-9.1117 5.5129 -2.0017 0.9576
-9.9476 3.8028 -2.0017 0.9576
-10.2476 2.8986 -2.0017 0.9576
-10.5999 1.0281 -2.0017 0.9576
-10.6136 -0.8753 -2.0017 0.9576
-10.4929 -1.8203 -2.0017 0.9576
-10.2883 -2.7507 -2.0017 0.9576
-8.4913 -4.9719 -1.8495 0.9607
-7.5121 -5.3538 -1.7338 0.9632
-7.4706 -6.4041 -1.8495 0.9607
-5.5044 -8.1562 -1.8495 0.9607
-4.7534 -8.6154 -1.8495 0.9607
-3.1438 -9.3239 -1.8495 0.9607
-2.2980 -9.5676 -1.8495 0.9607
1.1996 -9.7662 -1.8495 0.9607
2.0675 -9.6199 -1.8495 0.9607
2.9190 -9.3966 -1.8495 0.9607
3.7470 -9.0982 -1.8494 0.9607
4.5451 -8.7269 -1.8494 0.9607
5.3068 -8.2858 -1.8494 0.9607
6.6970 -7.2087 -1.8494 0.9607
7.3144 -6.5814 -1.8494 0.9607
8.3691 -5.1742 -1.8494 0.9607
10.2188 -2.9969 -2.0016 0.9576
10.4457 -2.0717 -2.0016 0.9576
10.6477 -0.1791 -2.0016 0.9576
10.6211 0.7732 -2.0016 0.9576
10.3138 2.6516 -2.0016 0.9576
10.0356 3.5626 -2.0016 0.9576
9.6771 4.4452 -2.0016 0.9576
7.6850 6.4607 -1.8871 0.9600
6.7606 6.8033 -1.8028 0.9617
4.8560 8.6045 -1.8571 0.9606
2.3998 9.5843 -1.8571 0.9606
0.7063 10.6260 -2.0017 0.9576
-0.8607 7.6114 -1.4398 0.9693
-1.3380 6.5307 -1.2530 0.9732
-2.8402 9.4633 -1.8571 0.9606
-5.9756 7.8685 -1.8571 0.9606
-6.6549 7.3031 -1.8571 0.9606
-7.2809 6.6791 -1.8571 0.9606
-9.4762 4.8597 -2.0017 0.9576
-9.8726 3.9934 -2.0017 0.9576
-10.1900 3.0952 -2.0017 0.9576
-10.5782 1.2317 -2.0017 0.9576
-10.6285 -0.6710 -2.0017 0.9576
-10.3393 -2.5523 -2.0017 0.9576
-8.5854 -4.8077 -1.8495 0.9607
-7.5268 -5.1489 -1.7141 0.9636
-7.5924 -6.2592 -1.8495 0.9607
-7.0026 -6.9126 -1.8495 0.9607
-5.6602 -8.0488 -1.8495 0.9607
-4.1370 -8.9278 -1.8495 0.9607
-0.7469 -9.8112 -1.8495 0.9607
1.0115 -9.7875 -1.8495 0.9607
1.8822 -9.6579 -1.8495 0.9607
3.5713 -9.1685 -1.8494 0.9607
4.3764 -8.8127 -1.8494 0.9607
5.1464 -8.3863 -1.8494 0.9607
6.5571 -7.3362 -1.8494 0.9607
7.1865 -6.7209 -1.8494 0.9607
7.7583 -6.0517 -1.8494 0.9607
8.2681 -5.3342 -1.8494 0.9607
9.5644 -3.9762 -1.9469 0.9587
10.1592 -3.1929 -2.0016 0.9576
10.4039 -2.2722 -2.0016 0.9576
10.6340 0.5688 -2.0016 0.9576
10.3629 2.4527 -2.0016 0.9576
10.1023 3.3690 -2.0016 0.9576
9.3412 5.1135 -2.0016 0.9576
7.9912 6.4599 -1.9314 0.9590
6.8999 6.6814 -1.8053 0.9617
6.4552 7.4798 -1.8571 0.9606
5.7609 8.0268 -1.8571 0.9606
3.9656 6.7215 -1.4669 0.9687
4.2400 8.9241 -1.8571 0.9606
2.5837 9.5364 -1.8571 0.9606
0.9105 10.6105 -2.0017 0.9576
-0.9929 10.6031 -2.0017 0.9576
-1.3911 7.5226 -1.4379 0.9693
-2.6580 9.5176 -1.8574 0.9606
-5.0866 8.4705 -1.8571 0.9606
-4.7000 6.4425 -1.4989 0.9681
-6.5132 7.4297 -1.8571 0.9606
-7.1511 6.8179 -1.8571 0.9606
-8.8929 5.8592 -2.0017 0.9576
-9.3810 5.0411 -2.0017 0.9576
-10.1285 3.2906 -2.0017 0.9576
-10.6394 -0.4665 -2.0017 0.9576
-10.5552 -1.4154 -2.0017 0.9576
-10.3864 -2.3530 -2.0017 0.9576
-9.7877 -4.1584 -1.9989 0.9576
-6.1143 -4.8462 -1.4665 0.9687
-5.0813 -8.4262 -1.8495 0.9607
-2.6643 -9.4721 -1.8495 0.9607
-0.0564 -9.8395 -1.8495 0.9607
2.5554 -9.5019 -1.8495 0.9607
3.3943 -9.2355 -1.8494 0.9607
4.2061 -8.8952 -1.8494 0.9607
4.9842 -8.4837 -1.8494 0.9607
5.7224 -8.0044 -1.8494 0.9607
7.6405 -6.1998 -1.8494 0.9607
8.6221 -4.7407 -1.8494 0.9607
9.1241 -4.0007 -1.8726 0.9603
-9.4008 -1.1407 -2.0017 0.9620
-8.3774 -4.3475 -1.9951 0.9621
-6.4190 -5.9458 -1.8495 0.9649
-5.8619 -6.4956 -1.8495 0.9649
-5.2580 -6.9935 -1.8495 0.9649
-3.2147 -8.1376 -1.8495 0.9649
-2.4746 -8.3923 -1.8495 0.9649
-1.7147 -8.5798 -1.8495 0.9649
-0.9411 -8.6987 -1.8495 0.9649
-0.1600 -8.7480 -1.8495 0.9649
0.6225 -8.7273 -1.8495 0.9649
1.3999 -8.6367 -1.8495 0.9649
2.9150 -8.2496 -1.8495 0.9649
3.6406 -7.9560 -1.8494 0.9649
4.3370 -7.5988 -1.8494 0.9649
6.1971 -6.1763 -1.8494 0.9649
7.1976 -4.9745 -1.8494 0.9649
8.5978 -3.8992 -1.9956 0.9621
9.1824 -2.3134 -2.0016 0.9620
9.3524 -1.4836 -2.0016 0.9620
9.4110 1.0502 -2.0016 0.9620
9.2794 1.8870 -2.0016 0.9620
8.7953 3.5088 -2.0016 0.9620
8.0302 5.0185 -2.0016 0.9620
7.0086 6.3678 -2.0017 0.9620
4.7025 7.4210 -1.8571 0.9647
4.0205 7.8116 -1.8571 0.9647
2.5657 8.4026 -1.8571 0.9647
1.0289 8.7251 -1.8571 0.9647
0.1844 6.6082 -1.3974 0.9733
-0.4396 7.1285 -1.5097 0.9712
-1.0748 7.0607 -1.5097 0.9712
-3.5786 8.0238 -1.8571 0.9647
-4.9499 7.2586 -1.8571 0.9647
-6.1630 6.2615 -1.8571 0.9647
-7.1624 6.0800 -1.9859 0.9623
-7.7381 5.4587 -2.0017 0.9620
-9.1601 2.4017 -2.0017 0.9620
-9.4414 0.7327 -2.0017 0.9620
-9.4691 -0.1140 -2.0017 0.9620
-9.0996 -2.6215 -2.0017 0.9620
-7.4641 -4.5655 -1.8495 0.9649
-5.9858 -6.3817 -1.8495 0.9649
-5.3915 -6.8911 -1.8495 0.9649
-2.6355 -8.3432 -1.8495 0.9649
-1.8794 -8.5453 -1.8495 0.9649
-1.1082 -8.6790 -1.8495 0.9649
-0.3282 -8.7433 -1.8495 0.9649
1.2335 -8.6621 -1.8495 0.9649
2.0027 -8.5172 -1.8495 0.9649
2.7558 -8.3041 -1.8495 0.9649
3.4869 -8.0246 -1.8494 0.9649
4.8597 -7.2757 -1.8494 0.9649
6.0772 -6.2944 -1.8494 0.9649
6.6154 -5.7261 -1.8494 0.9649
7.1006 -5.1120 -1.8494 0.9649
7.5290 -4.4570 -1.8494 0.9649
8.3904 -4.0015 -1.9649 0.9627
8.8772 -3.2961 -2.0016 0.9620
9.3222 -1.6632 -2.0016 0.9620
9.4335 -0.8234 -2.0016 0.9620
9.4294 0.8690 -2.0016 0.9620
9.3140 1.7082 -2.0016 0.9620
9.1241 2.5337 -2.0016 0.9620
8.1253 4.8631 -2.0016 0.9620
7.1298 6.2319 -2.0016 0.9620
6.1432 6.4246 -1.8789 0.9643
5.4799 6.8670 -1.8571 0.9647
4.8443 7.3292 -1.8571 0.9647
3.5767 6.6327 -1.5929 0.9697
2.8705 6.6945 -1.5397 0.9707
1.5340 6.6686 -1.4464 0.9724
0.3097 6.5666 -1.3896 0.9735
-0.9389 7.0801 -1.5097 0.9712
-1.5778 7.0123 -1.5193 0.9710
-3.4237 8.0911 -1.8571 0.9647
-4.8094 7.3525 -1.8571 0.9647
-5.4472 6.8933 -1.8571 0.9647
-6.9047 6.0936 -1.9466 0.9630
-8.5079 4.1584 -2.0017 0.9620
-8.8454 3.3815 -2.0017 0.9620
-9.1122 2.5775 -2.0017 0.9620
-9.4255 0.9142 -2.0017 0.9620
-9.4695 0.0682 -2.0017 0.9620
-9.3304 -1.6186 -2.0017 0.9620
-8.5615 -4.0330 -2.0005 0.9620
-7.5505 -4.4211 -1.8495 0.9649
-7.1252 -5.0781 -1.8495 0.9649
-6.6429 -5.6945 -1.8495 0.9649
-6.1074 -6.2654 -1.8495 0.9649
-5.5231 -6.7861 -1.8495 0.9649
-4.8945 -7.2525 -1.8495 0.9649
-3.5253 -8.0079 -1.8495 0.9649
-1.2749 -8.6561 -1.8495 0.9649
-0.4963 -8.7354 -1.8495 0.9649
0.2864 -8.7448 -1.8495 0.9649
2.5956 -8.3556 -1.8495 0.9649
3.3319 -8.0902 -1.8495 0.9649
9.0866 -2.6649 -2.0016 0.9620
9.4680 -0.1592 -2.0016 0.9620
4.3180 7.6512 -1.8571 0.9647
3.6169 8.0065 -1.8571 0.9647
2.8870 8.2977 -1.8571 0.9647
1.3637 8.6791 -1.8571 0.9647
-0.2031 8.7833 -1.8571 0.9647
-0.8025 7.0969 -1.5097 0.9712
-2.5255 8.4149 -1.8571 0.9647
-3.9832 7.8309 -1.8571 0.9647
-4.6670 7.4436 -1.8571 0.9647
-5.3136 6.9968 -1.8571 0.9647
-6.6568 6.1065 -1.9095 0.9637
-7.5225 5.7523 -2.0017 0.9620
-8.4263 4.3213 -2.0017 0.9620
-8.7788 3.5510 -2.0017 0.9620
-9.0610 2.7522 -2.0017 0.9620
-9.3598 -1.4389 -2.0017 0.9620
-8.9541 -3.0821 -2.0017 0.9620
-7.8735 -4.4090 -1.9075 0.9638
-7.2216 -4.9401 -1.8495 0.9649
-5.6526 -6.6786 -1.8495 0.9649
-5.0331 -7.1570 -1.8495 0.9649
-4.3734 -7.5782 -1.8495 0.9649
-3.6786 -7.9387 -1.8495 0.9649
-2.9545 -8.2356 -1.8495 0.9649
-2.2067 -8.4667 -1.8495 0.9649
-1.4412 -8.6300 -1.8495 0.9649
-0.6642 -8.7242 -1.8495 0.9649
1.6736 -8.5879 -1.8495 0.9649
2.4344 -8.4039 -1.8495 0.9649
3.1757 -8.1528 -1.8495 0.9649
4.5763 -7.4572 -1.8494 0.9649
5.8306 -6.5234 -1.8494 0.9649
6.3903 -5.9763 -1.8494 0.9649
6.8988 -5.3813 -1.8494 0.9649
7.3521 -4.7432 -1.8494 0.9649
7.7465 -4.0672 -1.8494 0.9649
9.0337 -2.8391 -2.0016 0.9620
9.2513 -2.0205 -2.0016 0.9620
9.3948 -1.1856 -2.0016 0.9620
9.4632 -0.3413 -2.0016 0.9620
9.4558 0.5057 -2.0016 0.9620
8.9830 2.9957 -2.0016 0.9620
8.6794 3.7865 -2.0016 0.9620
8.3063 4.5470 -2.0016 0.9620
7.3642 5.9531 -2.0016 0.9620
6.6331 6.4230 -1.9517 0.9630
5.7400 6.6511 -1.8571 0.9647
4.4643 7.5667 -1.8571 0.9647
3.7702 7.9354 -1.8571 0.9647
2.2974 8.4799 -1.8571 0.9647
1.5304 8.6513 -1.8571 0.9647
-6.4179 6.1189 -1.8744 0.9644
-8.3416 4.4825 -2.0017 0.9620
-8.7089 3.7191 -2.0017 0.9620
-9.0064 2.9260 -2.0017 0.9620
-9.3834 1.2760 -2.0017 0.9620
-9.4607 -0.4148 -2.0017 0.9620
-9.3857 -1.2586 -2.0017 0.9620
-9.0117 -2.9093 -2.0017 0.9620
-7.3153 -4.8003 -1.8495 0.9649
-6.3439 -6.0259 -1.8495 0.9649
-5.7800 -6.5687 -1.8495 0.9649
-4.5183 -7.4927 -1.8495 0.9649
-3.8306 -7.8664 -1.8495 0.9649
-3.1123 -8.1773 -1.8495 0.9649
-0.8319 -8.7099 -1.8495 0.9649
1.5081 -8.6185 -1.8495 0.9649
2.2723 -8.4492 -1.8495 0.9649
3.0183 -8.2123 -1.8495 0.9649
3.7401 -7.9097 -1.8494 0.9649
4.4320 -7.5438 -1.8494 0.9649
5.7041 -6.6344 -1.8494 0.9649
6.7940 -5.5130 -1.8494 0.9649
7.2595 -4.8838 -1.8494 0.9649
8.9774 -3.0124 -2.0016 0.9620
-8.4551 -1.0260 -2.0017 0.9656
-8.3295 -1.7775 -2.0017 0.9656
-8.1374 -2.5147 -2.0017 0.9656
-6.8658 -4.3832 -1.9144 0.9671
-6.1373 -4.7403 -1.8226 0.9686
-5.2722 -5.8422 -1.8495 0.9682
-3.5338 -7.0313 -1.8495 0.9682
-2.8913 -7.3190 -1.8495 0.9682
-0.1439 -7.8680 -1.8495 0.9682
0.5598 -7.8493 -1.8495 0.9682
1.2591 -7.7679 -1.8495 0.9682
5.0550 -6.0309 -1.8494 0.9682
5.5737 -5.5550 -1.8494 0.9682
6.0478 -5.0347 -1.8494 0.9682
7.7564 -3.5176 -2.0016 0.9656
8.0397 -2.8104 -2.0016 0.9656
7.9105 3.1558 -2.0016 0.9656
5.7665 6.2677 -2.0017 0.9656
4.9024 6.3916 -1.8932 0.9674
2.9737 7.3208 -1.8571 0.9681
2.3076 7.5573 -1.8571 0.9681
0.9254 7.8474 -1.8571 0.9681
0.1844 6.6082 -1.5537 0.9732
-0.4397 7.1311 -1.6792 0.9711
-1.0765 7.0716 -1.6811 0.9710
-3.2186 7.2166 -1.8571 0.9681
-3.8507 6.9001 -1.8571 0.9681
-5.9745 6.0701 -2.0017 0.9656
-6.4931 5.5119 -2.0017 0.9656
-6.9597 4.9096 -2.0017 0.9656
-7.3706 4.2680 -2.0017 0.9656
-7.7225 3.5922 -2.0017 0.9656
-8.4915 0.6590 -2.0017 0.9656
-8.5165 -0.1025 -2.0017 0.9656
-8.4732 -0.8632 -2.0017 0.9656
-8.3622 -1.6169 -2.0017 0.9656
-8.1842 -2.3577 -2.0017 0.9656
-7.9408 -3.0797 -2.0017 0.9656
-7.1602 -4.3796 -1.9726 0.9661
-6.2878 -4.6662 -1.8403 0.9683
-4.8491 -6.1978 -1.8495 0.9682
-3.6684 -6.9620 -1.8495 0.9682
-2.3704 -7.5038 -1.8495 0.9682
3.1361 -7.2173 -1.8495 0.9682
3.7685 -6.9082 -1.8494 0.9682
4.3708 -6.5438 -1.8494 0.9682
4.9381 -6.1270 -1.8494 0.9682
5.9499 -5.1500 -1.8494 0.9682
6.3863 -4.5977 -1.8494 0.9682
7.6808 -3.6631 -2.0000 0.9656
8.3844 -1.4959 -2.0016 0.9656
8.4845 -0.7406 -2.0016 0.9656
8.5167 0.0206 -2.0016 0.9656
8.4808 0.7816 -2.0016 0.9656
8.2062 2.2789 -2.0016 0.9656
7.9698 3.0031 -2.0016 0.9656
7.3079 4.3739 -2.0016 0.9656
5.1003 6.3912 -1.9217 0.9670
3.1140 7.2623 -1.8571 0.9681
2.4525 7.5115 -1.8571 0.9681
1.0762 7.8281 -1.8571 0.9681
-0.9394 7.0844 -1.6796 0.9711
-2.4166 7.5232 -1.8571 0.9681
-3.7172 6.9729 -1.8571 0.9681
-4.3255 6.6128 -1.8571 0.9681
-7.9556 3.0413 -2.0017 0.9656
-8.1955 2.3182 -2.0017 0.9656
-8.5169 0.0613 -2.0017 0.9656
-8.4883 -0.7000 -2.0017 0.9656
-8.2280 -2.1999 -2.0017 0.9656
-7.7050 -3.6295 -2.0017 0.9656
-7.3274 -4.2904 -1.9956 0.9657
-6.4084 -4.5673 -1.8495 0.9682
-4.9674 -6.1034 -1.8495 0.9682
-3.1706 -7.2024 -1.8495 0.9682
-1.8378 -7.6517 -1.8495 0.9682
-1.1467 -7.7853 -1.8495 0.9682
-0.4463 -7.8566 -1.8495 0.9682
0.2575 -7.8651 -1.8495 0.9682
4.8193 -6.2208 -1.8494 0.9682
6.6933 -4.1381 -1.8494 0.9682
7.5999 -3.8056 -1.9976 0.9657
8.4687 -0.9037 -2.0016 0.9656
8.4943 0.6183 -2.0016 0.9656
8.4051 1.3750 -2.0016 0.9656
8.2486 2.1206 -2.0016 0.9656
6.9829 4.8761 -2.0016 0.9656
6.5192 5.4806 -2.0017 0.9656
2.5965 7.4629 -1.8571 0.9681
1.9192 7.6651 -1.8571 0.9681
0.5240 7.8844 -1.8571 0.9681
-0.1826 7.8997 -1.8571 0.9681
-0.8025 7.0972 -1.6786 0.9711
-1.3380 6.5307 -1.5668 0.9730
-2.9387 7.3351 -1.8571 0.9681
-3.5824 7.0431 -1.8571 0.9681
-4.1975 6.6948 -1.8571 0.9681
-4.7790 6.2929 -1.8571 0.9681
-5.5820 6.1257 -1.9478 0.9665
-6.2763 5.7575 -2.0017 0.9656
-7.2010 4.5483 -2.0017 0.9656
-8.1494 2.4754 -2.0017 0.9656
-8.3380 1.7372 -2.0017 0.9656
-8.4599 0.9851 -2.0017 0.9656
-8.5141 0.2251 -2.0017 0.9656
-8.4182 -1.2941 -2.0017 0.9656
-8.2688 -2.0412 -2.0017 0.9656
-8.0533 -2.7720 -2.0017 0.9656
-7.4173 -4.1536 -1.9979 0.9657
-5.6004 -5.5284 -1.8495 0.9682
-5.0839 -6.0068 -1.8495 0.9682
-4.5268 -6.4370 -1.8495 0.9682
-1.2962 -7.7618 -1.8495 0.9682
4.1159 -6.7070 -1.8494 0.9682
4.6988 -6.3124 -1.8494 0.9682
7.8642 -3.2694 -2.0016 0.9656
8.1249 -2.5535 -2.0016 0.9656
8.3206 -1.8172 -2.0016 0.9656
8.5112 -0.3070 -2.0016 0.9656
8.2878 1.9616 -2.0016 0.9656
7.8063 3.4056 -2.0016 0.9656
7.0753 4.7408 -2.0016 0.9656
4.6073 6.4195 -1.8571 0.9681
4.0152 6.8055 -1.8571 0.9681
3.3910 7.1371 -1.8571 0.9681
2.0663 7.6268 -1.8571 0.9681
1.3765 7.7809 -1.8571 0.9681
-2.7971 7.3902 -1.8571 0.9681
-4.6571 6.3836 -1.8571 0.9681
-5.3792 6.1362 -1.9178 0.9670
-8.3031 1.8972 -2.0017 0.9656
-8.4394 1.1476 -2.0017 0.9656
-8.4415 -1.1320 -2.0017 0.9656
-8.1052 -2.6166 -2.0017 0.9656
-7.8389 -3.3305 -2.0017 0.9656
-5.7057 -5.4197 -1.8495 0.9682
-5.1985 -5.9079 -1.8495 0.9682
-3.4453 -7.0751 -1.8495 0.9682
-2.1308 -7.5754 -1.8495 0.9682
-0.7482 -7.8337 -1.8495 0.9682
-0.0451 -7.8692 -1.8495 0.9682
1.3564 -7.7515 -1.8495 0.9682
3.9861 -6.7849 -1.8494 0.9682
4.5765 -6.4016 -1.8494 0.9682
5.6430 -5.4846 -1.8494 0.9682
6.1105 -4.9584 -1.8494 0.9682
6.5292 -4.3925 -1.8494 0.9682
8.0743 -2.7093 -2.0016 0.9656
-7.5608 -1.6134 -2.0017 0.9686
-7.3864 -2.2826 -2.0017 0.9686
-6.5030 -4.1515 -1.9976 0.9686
-5.6583 -4.3703 -1.8511 0.9709
-4.2926 -5.7095 -1.8495 0.9709
-3.2076 -6.3824 -1.8495 0.9709
-2.0202 -6.8515 -1.8495 0.9709
1.1429 -7.0510 -1.8495 0.9709
1.7684 -6.9207 -1.8495 0.9709
4.0809 -5.8625 -1.8494 0.9709
5.0594 -5.0423 -1.8494 0.9709
5.9060 -4.0818 -1.8588 0.9708
7.0406 -3.1930 -2.0016 0.9686
7.2978 -2.5510 -2.0016 0.9686
7.4965 -1.8887 -2.0016 0.9686
7.7290 0.1674 -2.0016 0.9686
7.4078 2.2114 -2.0016 0.9686
7.1805 2.8646 -2.0016 0.9686
6.1635 4.6666 -2.0017 0.9686
5.2344 5.6893 -2.0017 0.9686
4.7050 6.1343 -2.0017 0.9686
4.0301 6.3599 -1.9495 0.9694
3.2823 6.3774 -1.8571 0.9708
1.4732 7.0196 -1.8571 0.9708
0.8400 7.1232 -1.8571 0.9708
-1.7051 6.9509 -1.8531 0.9709
-2.9216 6.5506 -1.8571 0.9708
-3.4953 6.2633 -1.8571 0.9708
-4.2023 6.1624 -1.9312 0.9697
-5.4231 5.5099 -2.0017 0.9686
-6.6903 3.8741 -2.0017 0.9686
-7.0098 3.2607 -2.0017 0.9686
-7.2731 2.6212 -2.0017 0.9686
-7.4783 1.9608 -2.0017 0.9686
-7.4289 -2.1402 -2.0017 0.9686
-6.9293 -3.4284 -2.0017 0.9686
-6.5885 -4.0299 -1.9997 0.9686
-5.3328 -4.7524 -1.8495 0.9709
-4.8868 -5.2100 -1.8495 0.9709
-4.4016 -5.6259 -1.8495 0.9709
-3.3298 -6.3195 -1.8495 0.9709
-2.1516 -6.8113 -1.8495 0.9709
