ply
format ascii 1.0
element vertex 1594
property float32 x
property float32 y
property float32 z
property float32 I
end_header
0.1063 -6.5404 -1.8518 0.9732
1.8375 -6.2788 -1.8520 0.9732
4.0840 -5.4552 -1.9292 0.9721
5.1844 -4.8219 -2.0043 0.9710
5.9593 -3.8216 -2.0041 0.9710
6.5435 -2.6994 -2.0038 0.9710
6.7579 -2.1036 -2.0037 0.9710
7.0231 -0.8668 -2.0033 0.9710
7.0717 -0.2357 -2.0031 0.9710
7.0637 0.3971 -2.0028 0.9710
6.8785 1.6478 -2.0023 0.9710
6.4736 2.8452 -2.0018 0.9710
6.1927 3.4119 -2.0016 0.9710
5.8622 3.9512 -2.0013 0.9710
4.6025 5.3625 -2.0006 0.9710
4.1044 5.7517 -2.0003 0.9711
3.5736 6.0948 -2.0001 0.9711
3.0143 6.3891 -1.9999 0.9711
2.4310 6.6322 -1.9997 0.9711
1.2114 6.9578 -1.9993 0.9711
-0.6774 7.0285 -1.9989 0.9711
-1.3027 6.9396 -1.9989 0.9711
-1.9176 6.7952 -1.9988 0.9711
-2.5171 6.5965 -1.9987 0.9711
-4.1766 5.6926 -1.9988 0.9711
-6.5026 2.7562 -1.9994 0.9711
-7.0027 0.9330 -1.9999 0.9711
-7.0588 0.3035 -2.0001 0.9711
-7.0585 -0.3285 -2.0004 0.9711
-5.9017 -3.8955 -2.0019 0.9710
-5.5307 -4.4079 -2.0021 0.9710
-5.1153 -4.8851 -2.0024 0.9710
-4.1650 -5.7191 -2.0029 0.9710
-3.6376 -6.0691 -2.0031 0.9710
-3.0811 -6.3706 -2.0033 0.9710
-0.6044 -6.5128 -1.8516 0.9732
1.1449 -6.4409 -1.8519 0.9732
1.7159 -6.3130 -1.8520 0.9732
2.8124 -5.9069 -1.8521 0.9732
3.3290 -5.6320 -1.8521 0.9732
4.6221 -5.3469 -2.0008 0.9710
5.0904 -4.9212 -2.0044 0.9710
5.5095 -4.4464 -2.0043 0.9710
5.8845 -3.9360 -2.0042 0.9710
6.2123 -3.3942 -2.0040 0.9710
6.7162 -2.2337 -2.0037 0.9710
6.8883 -1.6244 -2.0035 0.9710
7.0660 -0.3722 -2.0031 0.9710
6.7453 2.1259 -2.0021 0.9710
6.5275 2.7198 -2.0019 0.9710
6.2575 3.2918 -2.0016 0.9710
5.9376 3.8374 -2.0014 0.9710
5.1583 4.8318 -2.0009 0.9710
0.7204 7.0252 -1.9992 0.9711
-0.5416 7.0404 -1.9990 0.9711
-1.7861 6.8310 -1.9988 0.9711
-3.5338 6.1123 -1.9987 0.9711
-5.0288 4.9564 -1.9989 0.9711
-5.4518 4.4874 -1.9989 0.9711
-5.8313 3.9824 -1.9991 0.9711
-6.1643 3.4456 -1.9992 0.9711
-6.6803 2.2936 -1.9995 0.9711
-7.0514 0.4397 -2.0001 0.9711
-7.0633 -0.1922 -2.0003 0.9711
-6.9179 -1.4469 -2.0008 0.9710
-6.5515 -2.6559 -2.0013 0.9710
-5.6146 -4.3002 -2.0021 0.9710
-5.2085 -4.7853 -2.0023 0.9710
-4.7606 -5.2323 -2.0026 0.9710
-3.7540 -5.9976 -2.0030 0.9710
-3.2034 -6.3098 -2.0033 0.9710
-0.7300 -6.4998 -1.8516 0.9732
0.3980 -5.9201 -1.6797 0.9756
1.5937 -6.3449 -1.8520 0.9732
2.6979 -5.9601 -1.8521 0.9732
3.2197 -5.6952 -1.8521 0.9732
4.9945 -5.0185 -2.0044 0.9710
5.4227 -4.5519 -2.0043 0.9710
5.8075 -4.0489 -2.0042 0.9710
6.6720 -2.3630 -2.0037 0.9710
-6.5029 -0.0971 -2.0004 0.9731
-6.4690 -0.6780 -2.0006 0.9731
-6.3832 -1.2535 -2.0008 0.9731
-6.2464 -1.8191 -2.0011 0.9731
-5.5421 -3.4119 -2.0018 0.9731
-5.2156 -3.8940 -2.0020 0.9731
-4.4402 -4.7614 -2.0025 0.9731
-3.9973 -5.1397 -2.0027 0.9731
-3.5224 -5.4769 -2.0029 0.9731
-2.4917 -6.0177 -2.0033 0.9731
-1.2992 -5.9897 -1.8851 0.9747
-0.7452 -5.9730 -1.8514 0.9751
0.3272 -5.9587 -1.8355 0.9753
0.8659 -5.9577 -1.8517 0.9751
1.3949 -5.8567 -1.8518 0.9751
2.4153 -5.5151 -1.8519 0.9751
2.8985 -5.2772 -1.8519 0.9751
4.5394 -4.6746 -2.0042 0.9731
4.9388 -4.2501 -2.0041 0.9731
5.2986 -3.7915 -2.0040 0.9731
5.6159 -3.3027 -2.0039 0.9731
6.1132 -2.2499 -2.0036 0.9731
6.2893 -1.6944 -2.0034 0.9731
6.4893 -0.5477 -2.0031 0.9731
6.4818 0.6161 -2.0026 0.9731
6.4001 1.1927 -2.0024 0.9731
6.2671 1.7597 -2.0022 0.9731
6.0841 2.3125 -2.0019 0.9731
5.8524 2.8466 -2.0017 0.9731
5.2510 3.8420 -2.0012 0.9731
4.8860 4.2954 -2.0010 0.9731
4.4821 4.7143 -2.0008 0.9731
4.0424 5.0954 -2.0006 0.9731
3.0702 5.7325 -2.0001 0.9732
2.5454 5.9833 -1.9999 0.9732
2.0003 6.1863 -1.9998 0.9732
0.8670 6.4426 -1.9995 0.9732
0.2878 6.4938 -1.9993 0.9732
-0.2937 6.4932 -1.9992 0.9732
-0.8728 6.4407 -1.9991 0.9732
-1.4448 6.3367 -1.9990 0.9732
-2.0052 6.1821 -1.9990 0.9732
-2.5496 5.9780 -1.9990 0.9732
-4.0440 5.0877 -1.9990 0.9732
-4.8854 4.2869 -1.9991 0.9732
-5.2492 3.8333 -1.9992 0.9732
-5.5710 3.3491 -1.9993 0.9732
-6.3933 1.1854 -2.0000 0.9732
-6.5035 0.0284 -2.0003 0.9732
-6.4807 -0.5530 -2.0006 0.9731
-6.4060 -1.1300 -2.0008 0.9731
-6.2801 -1.6982 -2.0010 0.9731
-6.1040 -2.2529 -2.0012 0.9731
-5.8789 -2.7896 -2.0015 0.9731
-4.9302 -4.2506 -2.0022 0.9731
-4.5311 -4.6747 -2.0024 0.9731
-4.0957 -5.0615 -2.0026 0.9731
-3.6274 -5.4078 -2.0029 0.9731
-3.1299 -5.7109 -2.0031 0.9731
-2.0590 -6.1638 -1.9988 0.9732
-1.4344 -6.0472 -1.9116 0.9743
-0.8620 -5.9690 -1.8550 0.9751
-0.3245 -6.0109 -1.8515 0.9751
0.7508 -5.9733 -1.8517 0.9751
2.3084 -5.5606 -1.8519 0.9751
3.9995 -5.1328 -2.0014 0.9731
4.4483 -4.7614 -2.0042 0.9731
5.5511 -3.4105 -2.0039 0.9731
5.8333 -2.9006 -2.0038 0.9731
6.2556 -1.8156 -2.0035 0.9731
6.4926 0.4909 -2.0027 0.9731
6.1277 2.1947 -2.0020 0.9731
5.6379 3.2497 -2.0015 0.9731
5.3243 3.7400 -2.0013 0.9731
4.1401 5.0166 -2.0006 0.9731
2.6604 5.9332 -2.0000 0.9732
2.1194 6.1466 -1.9998 0.9732
1.5615 6.3109 -1.9996 0.9732
0.9912 6.4247 -1.9995 0.9732
0.4131 6.4872 -1.9994 0.9732
-1.3222 6.3634 -1.9991 0.9732
-5.5053 3.4559 -1.9993 0.9732
-5.7925 2.9503 -1.9994 0.9732
-6.0334 2.4210 -1.9996 0.9732
-6.2261 1.8723 -1.9997 0.9732
-6.5016 0.1539 -2.0003 0.9732
-6.3116 -1.5766 -2.0010 0.9731
-5.6694 -3.1953 -2.0017 0.9731
-5.0112 -4.1545 -2.0021 0.9731
-4.1925 -4.9813 -2.0026 0.9731
-3.7310 -5.3367 -2.0028 0.9731
-3.2395 -5.6493 -2.0030 0.9731
-2.7220 -5.9168 -2.0032 0.9731
-2.1792 -6.1276 -2.0004 0.9732
-1.5735 -6.1062 -1.9395 0.9740
-0.4405 -6.0034 -1.8515 0.9751
0.0978 -6.0191 -1.8516 0.9751
0.6174 -5.8180 -1.7995 0.9758
1.6910 -5.7783 -1.8518 0.9751
2.2007 -5.6042 -1.8519 0.9751
2.6927 -5.3851 -1.8519 0.9751
3.2753 -5.3046 -1.9175 0.9742
5.4844 -3.5170 -2.0039 0.9731
5.7764 -3.0127 -2.0038 0.9731
6.0220 -2.4842 -2.0037 0.9731
6.3670 -1.3723 -2.0033 0.9731
6.4636 -0.7978 -2.0031 0.9731
6.5010 0.3655 -2.0027 0.9731
6.1691 2.0760 -2.0021 0.9731
5.9582 2.6187 -2.0018 0.9731
4.6610 4.5380 -2.0009 0.9731
4.2363 4.9358 -2.0006 0.9731
3.7778 5.2941 -2.0004 0.9731
2.2377 6.1047 -1.9998 0.9732
1.6830 6.2797 -1.9997 0.9732
1.1150 6.4045 -1.9995 0.9732
0.5382 6.4781 -1.9994 0.9732
-1.1991 6.3878 -1.9991 0.9732
-1.7651 6.2549 -1.9990 0.9732
-2.3170 6.0720 -1.9990 0.9732
-2.8503 5.8406 -1.9990 0.9732
-4.2975 4.8756 -1.9990 0.9732
-4.7162 4.4722 -1.9991 0.9732
-5.4375 3.5615 -1.9993 0.9732
-5.7344 3.0615 -1.9994 0.9732
-6.1887 1.9921 -1.9997 0.9732
-6.3425 1.4312 -1.9999 0.9732
-6.4969 -0.3024 -2.0005 0.9731
-6.4446 -0.8819 -2.0007 0.9731
-6.1861 -2.0155 -2.0011 0.9731
-5.9819 -2.5605 -2.0014 0.9731
-5.7298 -3.0852 -2.0016 0.9731
-5.0903 -4.0569 -2.0021 0.9731
-4.7079 -4.4961 -2.0023 0.9731
-3.3479 -5.5856 -2.0030 0.9731
-2.8356 -5.8630 -2.0032 0.9731
-1.7204 -6.1800 -1.9731 0.9735
-0.5562 -5.9937 -1.8515 0.9751
2.5882 -5.4361 -1.8519 0.9751
4.2613 -4.9296 -2.0042 0.9731
5.7172 -3.1236 -2.0038 0.9731
6.1810 -2.0557 -2.0035 0.9731
6.3395 -1.4950 -2.0034 0.9731
6.5070 0.2400 -2.0028 0.9731
6.4588 0.8204 -2.0026 0.9731
6.3590 1.3942 -2.0023 0.9731
6.2082 1.9566 -2.0021 0.9731
5.1268 4.0057 -2.0012 0.9731
4.7478 4.4473 -2.0009 0.9731
4.3309 4.8533 -2.0007 0.9731
3.3970 5.5455 -2.0003 0.9732
2.8876 5.8263 -2.0001 0.9732
2.3551 6.0605 -1.9999 0.9732
1.8040 6.2462 -1.9997 0.9732
0.6631 6.4666 -1.9994 0.9732
0.0826 6.4995 -1.9993 0.9732
-0.4985 6.4806 -1.9992 0.9732
-1.6441 6.2879 -1.9990 0.9732
-2.1994 6.1156 -1.9990 0.9732
-2.7371 5.8946 -1.9990 0.9732
-3.7427 5.3132 -1.9990 0.9732
-4.2026 4.9576 -1.9990 0.9732
-5.0184 4.1306 -1.9992 0.9732
-5.3677 3.6658 -1.9993 0.9732
-6.4277 0.9830 -2.0000 0.9732
-6.5014 -0.1769 -2.0004 0.9731
-6.2237 -1.8957 -2.0011 0.9731
-6.0301 -2.4445 -2.0013 0.9731
-5.1675 -3.9578 -2.0020 0.9731
-4.7937 -4.4043 -2.0023 0.9731
-2.9482 -5.8071 -2.0031 0.9731
-2.4177 -6.0479 -2.0033 0.9731
-1.8611 -6.2182 -1.9964 0.9732
-1.2151 -5.9539 -1.8690 0.9749
-0.1346 -6.0183 -1.8516 0.9751
0.9390 -5.9467 -1.8517 0.9751
1.9827 -5.6849 -1.8518 0.9751
2.9819 -5.2744 -1.8636 0.9750
4.5964 -4.6185 -2.0042 0.9731
4.9905 -4.1891 -2.0041 0.9731
5.3447 -3.7262 -2.0040 0.9731
6.1403 -2.1747 -2.0036 0.9731
6.4954 -0.4680 -2.0030 0.9731
6.5106 0.1143 -2.0028 0.9731
-6.0009 0.4482 -2.0003 0.9750
-5.9860 -0.6273 -2.0007 0.9749
-5.9066 -1.1599 -2.0009 0.9749
-5.7799 -1.6833 -2.0011 0.9749
-5.3892 -2.6859 -2.0015 0.9749
-5.1281 -3.1571 -2.0018 0.9749
-4.4852 -4.0204 -2.0022 0.9749
-4.1084 -4.4056 -2.0024 0.9749
-3.6986 -4.7556 -2.0026 0.9749
-3.2592 -5.0676 -2.0028 0.9749
-0.7157 -5.7371 -1.9218 0.9759
-0.1931 -5.5732 -1.8537 0.9768
0.8012 -5.5122 -1.8515 0.9768
1.2906 -5.4188 -1.8516 0.9768
2.8787 -5.2411 -1.9877 0.9751
3.3588 -4.9975 -2.0015 0.9749
3.7967 -4.6832 -2.0040 0.9749
4.1999 -4.3250 -2.0040 0.9749
4.9024 -3.5080 -2.0038 0.9749
5.4479 -2.5790 -2.0036 0.9749
6.0250 0.0318 -2.0028 0.9749
5.9974 0.5701 -2.0026 0.9749
5.7989 1.6282 -2.0021 0.9749
5.6296 2.1397 -2.0019 0.9749
5.1577 3.1070 -2.0015 0.9749
4.8588 3.5551 -2.0013 0.9749
4.5212 3.9747 -2.0010 0.9749
3.7407 4.7150 -2.0006 0.9749
3.3040 5.0300 -2.0004 0.9750
2.8410 5.3046 -2.0002 0.9750
2.3554 5.5368 -2.0001 0.9750
1.8510 5.7246 -1.9999 0.9750
1.3320 5.8667 -1.9998 0.9750
0.8023 5.9619 -1.9996 0.9750
-1.3370 5.8640 -1.9992 0.9750
-1.8556 5.7209 -1.9992 0.9750
-2.3594 5.5321 -1.9992 0.9750
-2.8443 5.2991 -1.9992 0.9750
-3.3065 5.0237 -1.9992 0.9750
-4.1482 4.3550 -1.9992 0.9750
-4.5209 3.9671 -1.9993 0.9750
-4.8575 3.5473 -1.9994 0.9750
-5.1554 3.0992 -1.9995 0.9750
-5.4121 2.6263 -1.9996 0.9750
-5.7940 1.6211 -1.9999 0.9750
-5.9910 0.5639 -2.0003 0.9750
-6.0180 0.0263 -2.0004 0.9750
-5.9969 -0.5117 -2.0006 0.9749
-5.9278 -1.0456 -2.0008 0.9749
-5.8112 -1.5714 -2.0011 0.9749
-5.1880 -3.0574 -2.0017 0.9749
-4.8945 -3.5092 -2.0019 0.9749
-2.8960 -5.2841 -2.0030 0.9749
-1.9094 -5.7162 -2.0033 0.9749
4.4928 -4.0198 -2.0039 0.9749
4.8338 -3.6020 -2.0038 0.9749
5.1361 -3.1555 -2.0037 0.9749
5.3972 -2.6837 -2.0036 0.9749
5.6151 -2.1905 -2.0035 0.9749
5.9144 -1.1558 -2.0032 0.9749
6.0074 0.4542 -2.0026 0.9749
5.8294 1.5161 -2.0022 0.9749
5.6700 2.0307 -2.0020 0.9749
5.4652 2.5290 -2.0018 0.9749
4.5972 3.8867 -2.0011 0.9749
3.4005 4.9654 -2.0005 0.9750
2.9429 5.2489 -2.0003 0.9750
2.4619 5.4904 -2.0001 0.9750
1.9612 5.6879 -1.9999 0.9750
1.4450 5.8400 -1.9998 0.9750
0.3822 6.0031 -1.9995 0.9750
-0.1558 6.0130 -1.9994 0.9750
-0.6925 5.9747 -1.9993 0.9750
-1.2236 5.8887 -1.9993 0.9750
-1.7449 5.7557 -1.9992 0.9750
-2.2522 5.5766 -1.9992 0.9750
-2.7415 5.3530 -1.9992 0.9750
-3.2089 5.0866 -1.9992 0.9750
-4.4435 4.0536 -1.9993 0.9750
-4.7881 3.6404 -1.9994 0.9750
-5.0945 3.1981 -1.9995 0.9750
-5.5832 2.2404 -1.9997 0.9750
-5.7615 1.7326 -1.9999 0.9750
-5.8937 1.2109 -2.0000 0.9750
-5.9789 0.6794 -2.0002 0.9750
-5.9467 -0.9310 -2.0008 0.9749
-5.8403 -1.4589 -2.0010 0.9749
-5.6872 -1.9752 -2.0012 0.9749
-5.2459 -2.9567 -2.0017 0.9749
-4.6368 -3.8441 -2.0021 0.9749
-3.8793 -4.6091 -2.0025 0.9749
-3.4522 -4.9378 -2.0027 0.9749
-2.5185 -5.4745 -2.0031 0.9749
-2.0194 -5.6782 -2.0033 0.9749
-1.5010 -5.8247 -1.9994 0.9750
0.0905 -5.5691 -1.8514 0.9768
2.0552 -5.2337 -1.8691 0.9766
2.6171 -5.2340 -1.9452 0.9756
3.1596 -5.1171 -1.9991 0.9750
3.6132 -4.8263 -2.0040 0.9749
5.3445 -2.7874 -2.0036 0.9749
5.9805 -0.7382 -2.0030 0.9749
6.0220 -0.2007 -2.0028 0.9749
6.0152 0.3382 -2.0026 0.9749
5.9603 0.8743 -2.0024 0.9749
5.7083 1.9209 -2.0020 0.9749
5.2740 2.9058 -2.0016 0.9749
4.9927 3.3651 -2.0014 0.9749
3.0438 5.1912 -2.0003 0.9750
2.5674 5.4419 -2.0001 0.9750
1.0318 5.9266 -1.9997 0.9750
0.4980 5.9947 -1.9995 0.9750
-0.0397 6.0149 -1.9994 0.9750
-1.6334 5.7883 -1.9992 0.9750
-2.6377 5.4049 -1.9992 0.9750
-5.5388 2.3477 -1.9997 0.9750
-5.7269 1.8435 -1.9998 0.9750
-5.9646 0.7947 -2.0002 0.9750
-6.0119 -0.2798 -2.0006 0.9750
-5.8673 -1.3458 -2.0010 0.9749
-5.5352 -2.3693 -2.0014 0.9749
-5.3019 -2.8548 -2.0016 0.9749
-5.0261 -3.3175 -2.0018 0.9749
-4.7100 -3.7538 -2.0021 0.9749
-4.3562 -4.1602 -2.0023 0.9749
-3.5468 -4.8702 -2.0027 0.9749
-3.0977 -5.1682 -2.0029 0.9749
-2.1286 -5.6380 -2.0032 0.9749
-1.6141 -5.7981 -2.0006 0.9749
-1.0800 -5.8676 -1.9832 0.9752
-0.5266 -5.6738 -1.8941 0.9763
3.9426 -4.5609 -2.0040 0.9749
4.3343 -4.1902 -2.0040 0.9749
4.6913 -3.7860 -2.0039 0.9749
5.0106 -3.3515 -2.0038 0.9749
5.2898 -2.8901 -2.0037 0.9749
5.7190 -1.9020 -2.0034 0.9749
5.8656 -1.3832 -2.0032 0.9749
5.9762 0.7591 -2.0025 0.9749
5.7444 1.8104 -2.0021 0.9749
5.3292 2.8035 -2.0016 0.9749
5.0568 3.2682 -2.0014 0.9749
4.0075 4.4909 -2.0008 0.9749
3.5898 4.8306 -2.0006 0.9750
1.1460 5.9057 -1.9997 0.9750
0.6137 5.9841 -1.9996 0.9750
0.0764 6.0146 -1.9995 0.9750
-0.9954 5.9316 -1.9993 0.9750
-1.5214 5.8188 -1.9992 0.9750
-3.0102 5.2067 -1.9992 0.9750
-3.4635 4.9169 -1.9992 0.9750
-3.8891 4.5877 -1.9992 0.9750
-4.2836 4.2220 -1.9993 0.9750
-4.6440 3.8224 -1.9993 0.9750
-5.2508 2.9350 -1.9995 0.9750
-6.0160 -0.1637 -2.0005 0.9750
-5.9780 -0.7008 -2.0007 0.9749
-5.7589 -1.7541 -2.0011 0.9749
-5.5797 -2.2620 -2.0013 0.9749
-4.0541 -4.4558 -2.0024 0.9749
-3.6400 -4.8007 -2.0026 0.9749
-2.2369 -5.5958 -2.0032 0.9749
-0.1245 -5.5683 -1.8514 0.9768
1.3570 -5.4025 -1.8516 0.9768
1.8344 -5.2598 -1.8517 0.9768
4.6174 -3.8759 -2.0039 0.9749
4.9450 -3.4476 -2.0038 0.9749
5.6813 -2.0121 -2.0034 0.9749
6.0240 0.1058 -2.0027 0.9749
5.9899 0.6436 -2.0025 0.9749
-5.5182 0.9134 -2.0002 0.9765
-5.5783 0.4166 -2.0004 0.9765
-5.5643 -0.5832 -2.0007 0.9765
-5.4905 -1.0782 -2.0009 0.9765
-5.3727 -1.5647 -2.0011 0.9765
-3.8188 -4.0950 -2.0023 0.9765
-3.0294 -4.7103 -2.0027 0.9765
-2.5965 -4.9626 -2.0029 0.9765
-0.1921 -5.5432 -1.9835 0.9767
2.2411 -5.1173 -1.9978 0.9765
3.1258 -4.6508 -2.0039 0.9765
3.5289 -4.3528 -2.0039 0.9765
4.5565 -3.2606 -2.0037 0.9765
4.8294 -2.8402 -2.0036 0.9765
5.2573 -1.9349 -2.0033 0.9765
5.4088 -1.4572 -2.0032 0.9765
5.5809 -0.4710 -2.0029 0.9765
5.6001 0.0296 -2.0027 0.9765
5.5044 1.0258 -2.0023 0.9765
5.3902 1.5135 -2.0021 0.9765
5.2328 1.9889 -2.0019 0.9765
5.0336 2.4483 -2.0017 0.9765
4.7942 2.8881 -2.0015 0.9765
3.4772 4.3829 -2.0007 0.9765
2.6409 4.9310 -2.0003 0.9765
2.1895 5.1469 -2.0002 0.9765
1.7207 5.3215 -2.0000 0.9765
1.2382 5.4536 -1.9999 0.9765
-0.7508 5.5406 -1.9995 0.9765
-1.2429 5.4512 -1.9994 0.9765
-2.1933 5.1427 -1.9993 0.9765
-2.6441 4.9261 -1.9993 0.9765
-4.2027 3.6878 -1.9995 0.9765
-4.5156 3.2976 -1.9996 0.9765
-4.7924 2.8810 -1.9996 0.9765
-5.2294 1.9821 -1.9999 0.9765
-5.3860 1.5070 -2.0000 0.9765
-5.4995 1.0197 -2.0002 0.9765
-5.5941 0.0244 -2.0005 0.9765
-5.5102 -0.9720 -2.0009 0.9765
-5.4018 -1.4607 -2.0011 0.9765
-5.2502 -1.9377 -2.0013 0.9765
-5.0565 -2.3994 -2.0015 0.9765
-4.8224 -2.8420 -2.0017 0.9765
-4.5496 -3.2619 -2.0019 0.9765
-3.8970 -4.0205 -2.0023 0.9765
-3.5225 -4.3530 -2.0025 0.9765
-3.1197 -4.6508 -2.0027 0.9765
-1.7748 -5.3130 -2.0032 0.9765
-1.2930 -5.4508 -2.0033 0.9765
0.1938 -5.4501 -1.9502 0.9771
1.1503 -5.2799 -1.9324 0.9773
1.6396 -5.2261 -1.9587 0.9770
2.1412 -5.1579 -1.9971 0.9766
2.5984 -4.9551 -2.0008 0.9765
3.0355 -4.7103 -2.0039 0.9765
4.1758 -3.7362 -2.0038 0.9765
4.4928 -3.3479 -2.0037 0.9765
5.0165 -2.4944 -2.0035 0.9765
5.2190 -2.0360 -2.0033 0.9765
5.4973 -1.0743 -2.0031 0.9765
5.5708 -0.5787 -2.0029 0.9765
5.5998 -0.0785 -2.0027 0.9765
5.4185 1.4092 -2.0021 0.9765
4.5795 3.2169 -2.0013 0.9765
3.1610 4.6156 -2.0006 0.9765
2.7357 4.8792 -2.0004 0.9765
2.2885 5.1037 -2.0002 0.9765
1.8231 5.2874 -2.0001 0.9765
1.3432 5.4288 -1.9999 0.9765
0.8526 5.5267 -1.9998 0.9765
-0.6437 5.5541 -1.9995 0.9765
-1.1374 5.4742 -1.9994 0.9765
-1.6220 5.3505 -1.9994 0.9765
-2.5485 4.9762 -1.9993 0.9765
-2.9831 4.7285 -1.9993 0.9765
-4.1307 3.7682 -1.9995 0.9765
-4.4510 3.3841 -1.9995 0.9765
-4.7359 2.9729 -1.9996 0.9765
-5.5578 0.6316 -2.0003 0.9765
-5.5825 -0.3679 -2.0007 0.9765
-5.5278 -0.8654 -2.0009 0.9765
-5.4289 -1.3561 -2.0011 0.9765
-5.2865 -1.8360 -2.0013 0.9765
-4.3100 -3.5732 -2.0021 0.9765
-3.6058 -4.2842 -2.0025 0.9765
-2.7860 -4.8585 -2.0028 0.9765
-1.3979 -5.4247 -2.0033 0.9765
-0.9061 -5.5193 -2.0001 0.9765
-0.4085 -5.5682 -1.9966 0.9766
0.0890 -5.4749 -1.9581 0.9770
1.0462 -5.2911 -1.9288 0.9773
1.5328 -5.2377 -1.9516 0.9771
2.5011 -5.0021 -1.9999 0.9765
2.9440 -4.7680 -2.0039 0.9765
5.1788 -2.1364 -2.0034 0.9765
5.3487 -1.6649 -2.0032 0.9765
5.4756 -1.1802 -2.0031 0.9765
5.5911 0.3143 -2.0026 0.9765
5.5401 0.8127 -2.0024 0.9765
5.4448 1.3044 -2.0022 0.9765
5.1246 2.2523 -2.0018 0.9765
4.9023 2.7010 -2.0016 0.9765
4.0091 3.9034 -2.0010 0.9765
3.2496 4.5538 -2.0006 0.9765
2.3866 5.0587 -2.0002 0.9765
1.9249 5.2513 -2.0001 0.9765
1.4478 5.4019 -1.9999 0.9765
0.4630 5.5727 -1.9997 0.9765
-0.0369 5.5915 -1.9996 0.9765
-0.5364 5.5655 -1.9995 0.9765
-1.0316 5.4952 -1.9994 0.9765
-1.5185 5.3808 -1.9994 0.9765
-1.9932 5.2235 -1.9993 0.9765
-2.4520 5.0245 -1.9993 0.9765
-3.3073 4.5078 -1.9993 0.9765
-4.3849 3.4694 -1.9995 0.9765
-4.6776 3.0638 -1.9996 0.9765
-5.3236 1.7137 -2.0000 0.9765
-5.5445 0.7387 -2.0003 0.9765
-5.5888 0.2403 -2.0004 0.9765
-5.5433 -0.7586 -2.0008 0.9765
-5.3208 -1.7336 -2.0012 0.9765
-5.1451 -2.2024 -2.0014 0.9765
-4.9282 -2.6536 -2.0016 0.9765
-4.0491 -3.8669 -2.0022 0.9765
-3.6877 -4.2137 -2.0024 0.9765
-2.4386 -5.0422 -2.0030 0.9765
-1.5023 -5.3966 -2.0033 0.9765
-1.0129 -5.5031 -2.0010 0.9765
-0.5161 -5.5613 -1.9973 0.9766
2.4031 -5.0472 -1.9991 0.9765
2.8506 -4.8225 -2.0033 0.9765
3.2711 -4.5498 -2.0039 0.9765
4.3603 -3.5189 -2.0037 0.9765
5.4519 -1.2857 -2.0031 0.9765
5.5446 -0.7933 -2.0030 0.9765
5.5928 -0.2946 -2.0028 0.9765
5.5962 0.2064 -2.0026 0.9765
5.3395 1.6828 -2.0020 0.9765
5.1672 2.1530 -2.0018 0.9765
4.4097 3.4454 -2.0012 0.9765
3.3370 4.4903 -2.0006 0.9765
2.9221 4.7702 -2.0005 0.9765
2.4839 5.0118 -2.0003 0.9765
2.0259 5.2133 -2.0001 0.9765
1.0653 5.4899 -1.9998 0.9765
0.5705 5.5628 -1.9997 0.9765
-0.9253 5.5141 -1.9994 0.9765
-1.4143 5.4092 -1.9994 0.9765
-3.9821 3.9248 -1.9994 0.9765
-4.3170 3.5533 -1.9995 0.9765
-4.8811 2.7283 -1.9997 0.9765
-5.1057 2.2813 -1.9998 0.9765
-5.5923 -0.1522 -2.0006 0.9765
-5.4769 -1.1455 -2.0010 0.9765
-5.3532 -1.6305 -2.0012 0.9765
-5.1866 -2.1026 -2.0014 0.9765
-4.7304 -2.9929 -2.0018 0.9765
-4.1229 -3.7879 -2.0022 0.9765
-3.7683 -4.1416 -2.0024 0.9765
-1.1194 -5.4849 -2.0019 0.9765
-0.6236 -5.5524 -1.9980 0.9765
0.3637 -5.4098 -1.9389 0.9772
0.8406 -5.3234 -1.9273 0.9774
1.8202 -5.2189 -1.9766 0.9768
2.3043 -5.0905 -1.9982 0.9765
2.7556 -4.8743 -2.0023 0.9765
3.9526 -3.9717 -2.0038 0.9765
5.0926 -2.3347 -2.0034 0.9765
5.2806 -1.8702 -2.0033 0.9765
5.4262 -1.3907 -2.0032 0.9765
5.5862 -0.4025 -2.0028 0.9765
5.5993 0.0983 -2.0027 0.9765
5.4913 1.0933 -2.0023 0.9765
-5.2057 0.3888 -2.0005 0.9779
-5.2200 -0.0780 -2.0006 0.9779
-5.1237 -1.0061 -2.0010 0.9779
-4.4481 -2.7384 -2.0017 0.9779
-4.1860 -3.1253 -2.0019 0.9779
-3.8903 -3.4872 -2.0021 0.9779
-2.8268 -4.3953 -2.0026 0.9779
-2.4229 -4.6307 -2.0028 0.9779
-1.9995 -4.8291 -2.0030 0.9779
-1.5601 -4.9888 -2.0031 0.9779
-1.1081 -5.1086 -2.0032 0.9779
-0.6472 -5.1875 -2.0034 0.9779
-0.1808 -5.2186 -2.0010 0.9779
0.2860 -5.2094 -1.9994 0.9779
0.7502 -5.1615 -1.9987 0.9779
1.6586 -4.9502 -2.0006 0.9779
2.0971 -4.7884 -2.0033 0.9779
2.5172 -4.5829 -2.0037 0.9779
2.9167 -4.3396 -2.0037 0.9779
3.6425 -3.7510 -2.0037 0.9779
3.9630 -3.4104 -2.0036 0.9779
4.2517 -3.0424 -2.0035 0.9779
4.9056 -1.8055 -2.0032 0.9779
5.0470 -1.3597 -2.0031 0.9779
5.2019 0.4945 -2.0024 0.9779
5.1364 0.9572 -2.0023 0.9779
4.8830 1.8560 -2.0019 0.9779
4.6972 2.2847 -2.0017 0.9779
4.2147 3.0838 -2.0013 0.9779
3.5977 3.7841 -2.0009 0.9779
3.2449 4.0901 -2.0008 0.9779
2.8661 4.3634 -2.0006 0.9779
2.4645 4.6016 -2.0004 0.9779
1.6058 4.9661 -2.0001 0.9779
1.1555 5.0894 -2.0000 0.9779
0.2310 5.2133 -1.9998 0.9779
-0.2358 5.2128 -1.9997 0.9779
-0.7007 5.1707 -1.9996 0.9779
-2.0469 4.7993 -1.9995 0.9779
-3.2466 4.0846 -1.9995 0.9779
-3.5987 3.7782 -1.9996 0.9779
-3.9221 3.4416 -1.9996 0.9779
-4.2141 3.0774 -1.9997 0.9779
-4.4724 2.6886 -1.9998 0.9779
-4.8802 1.8498 -2.0000 0.9779
-5.0263 1.4063 -2.0001 0.9779
-5.1971 0.4892 -2.0004 0.9779
-5.2021 -0.4439 -2.0008 0.9779
-5.1420 -0.9070 -2.0009 0.9779
-5.0409 -1.3631 -2.0011 0.9779
-4.8994 -1.8083 -2.0013 0.9779
-4.7186 -2.2391 -2.0015 0.9779
-4.2455 -3.0438 -2.0019 0.9779
-3.9568 -3.4114 -2.0021 0.9779
-2.9111 -4.3399 -2.0026 0.9779
-2.0923 -4.7895 -2.0029 0.9779
-1.6561 -4.9577 -2.0031 0.9779
-1.2065 -5.0862 -2.0032 0.9779
0.1855 -5.2148 -1.9997 0.9779
1.1104 -5.0968 -1.9990 0.9779
1.5624 -4.9802 -2.0002 0.9779
2.8324 -4.3951 -2.0037 0.9779
3.5694 -3.8206 -2.0037 0.9779
3.8964 -3.4862 -2.0036 0.9779
4.1922 -3.1240 -2.0035 0.9779
4.4544 -2.7367 -2.0035 0.9779
4.6810 -2.3276 -2.0034 0.9779
4.8699 -1.8998 -2.0032 0.9779
5.0199 -1.4569 -2.0031 0.9779
5.1983 -0.5400 -2.0028 0.9779
5.2105 0.3940 -2.0025 0.9779
5.1540 0.8579 -2.0023 0.9779
5.0563 1.3150 -2.0021 0.9779
4.7405 2.1937 -2.0017 0.9779
3.9878 3.3715 -2.0012 0.9779
3.6702 3.7140 -2.0010 0.9779
3.3233 4.0268 -2.0008 0.9779
2.5529 4.5533 -2.0005 0.9779
2.1357 4.7629 -2.0003 0.9779
1.7014 4.9343 -2.0002 0.9779
0.3316 5.2079 -1.9998 0.9779
-0.1351 5.2164 -1.9997 0.9779
-1.0615 5.1087 -1.9996 0.9779
-1.9539 4.8380 -1.9995 0.9779
-2.3784 4.6440 -1.9995 0.9779
-2.7839 4.4129 -1.9995 0.9779
-3.1672 4.1465 -1.9995 0.9779
-4.6502 2.3685 -1.9999 0.9779
-5.1866 0.5894 -2.0004 0.9779
-5.2190 0.1236 -2.0006 0.9779
-5.2096 -0.3434 -2.0007 0.9779
-4.9332 -1.7133 -2.0013 0.9779
-4.5503 -2.5646 -2.0017 0.9779
-3.7081 -3.6807 -2.0022 0.9779
-2.9942 -4.2828 -2.0026 0.9779
-1.7514 -4.9247 -2.0030 0.9779
-1.3044 -5.0619 -2.0032 0.9779
-0.3823 -5.2104 -2.0021 0.9779
0.0848 -5.2183 -2.0000 0.9779
1.0118 -5.1168 -1.9988 0.9779
1.9095 -4.8628 -2.0021 0.9779
2.7470 -4.4490 -2.0037 0.9779
4.1312 -3.2043 -2.0036 0.9779
4.4008 -2.8222 -2.0035 0.9779
5.1870 -0.6402 -2.0028 0.9779
5.2230 -0.1741 -2.0027 0.9779
5.2173 0.2933 -2.0025 0.9779
4.5747 2.5205 -2.0016 0.9779
4.3307 2.9189 -2.0014 0.9779
4.0522 3.2940 -2.0012 0.9779
3.7412 3.6426 -2.0010 0.9779
3.0325 4.2496 -2.0007 0.9779
0.8951 5.1414 -1.9999 0.9779
-0.5006 5.1940 -1.9996 0.9779
-0.9627 5.1283 -1.9996 0.9779
-1.4171 5.0216 -1.9995 0.9779
-2.6982 4.4658 -1.9995 0.9779
-3.0865 4.2068 -1.9995 0.9779
-3.4502 3.9142 -1.9995 0.9779
-4.0921 3.2377 -1.9997 0.9779
-4.6035 2.4578 -1.9998 0.9779
-4.9681 1.5992 -2.0001 0.9779
-5.0915 1.1489 -2.0002 0.9779
-5.2155 0.2243 -2.0005 0.9779
-5.2151 -0.2427 -2.0007 0.9779
-4.8013 -2.0552 -2.0014 0.9779
-4.0854 -3.2560 -2.0020 0.9779
-3.4412 -3.9320 -2.0024 0.9779
-3.0763 -4.2241 -2.0025 0.9779
-2.2756 -4.7050 -2.0029 0.9779
-1.8461 -4.8899 -2.0030 0.9779
-0.4829 -5.2036 -2.0027 0.9779
0.9128 -5.1352 -1.9987 0.9779
1.8148 -4.8974 -2.0015 0.9779
2.2477 -4.7209 -2.0037 0.9779
3.4193 -3.9556 -2.0037 0.9779
4.0686 -3.2835 -2.0036 0.9779
4.3456 -2.9067 -2.0035 0.9779
4.5877 -2.5066 -2.0034 0.9779
4.9601 -1.6496 -2.0032 0.9779
5.0873 -1.1997 -2.0030 0.9779
5.1738 -0.7402 -2.0029 0.9779
5.1835 0.6584 -2.0024 0.9779
5.1035 1.1189 -2.0022 0.9779
4.8219 2.0091 -2.0018 0.9779
4.6226 2.4318 -2.0016 0.9779
4.1151 3.2152 -2.0012 0.9779
3.4764 3.8957 -2.0009 0.9779
3.1140 4.1904 -2.0007 0.9779
1.8906 4.8651 -2.0002 0.9779
0.9942 5.1233 -2.0000 0.9779
0.0663 5.2179 -1.9997 0.9779
-0.8635 5.1459 -1.9996 0.9779
-1.3199 5.0480 -1.9995 0.9779
-1.7657 4.9098 -1.9995 0.9779
-2.1974 4.7323 -1.9995 0.9779
-3.0047 4.2656 -1.9995 0.9779
-3.3740 3.9801 -1.9995 0.9779
-3.7162 3.6627 -1.9996 0.9779
-4.3092 2.9429 -1.9997 0.9779
-4.5552 2.5461 -1.9998 0.9779
-4.7648 2.1290 -1.9999 0.9779
-4.9362 1.6948 -2.0000 0.9779
-5.1598 0.7891 -2.0003 0.9779
-5.2187 -0.1420 -2.0007 0.9779
-5.1110 -1.0690 -2.0010 0.9779
-4.9955 -1.5216 -2.0012 0.9779
-4.4142 -2.7929 -2.0018 0.9779
-4.1474 -3.1765 -2.0020 0.9779
-3.1572 -4.1639 -2.0025 0.9779
-2.3659 -4.6602 -2.0028 0.9779
-0.5835 -5.1951 -2.0034 0.9779
-0.1167 -5.2197 -2.0008 0.9779
1.2710 -5.0601 -1.9994 0.9779
1.7195 -4.9302 -2.0010 0.9779
2.1561 -4.7632 -2.0037 0.9779
2.5733 -4.5517 -2.0037 0.9779
2.9697 -4.3035 -2.0037 0.9779
3.3424 -4.0208 -2.0037 0.9779
3.6882 -3.7060 -2.0037 0.9779
4.7520 -2.1786 -2.0033 0.9779
5.2126 -0.3756 -2.0027 0.9779
5.2249 0.0917 -2.0026 0.9779
5.1953 0.5583 -2.0024 0.9779
-1.9538 0.1459 -0.8019 0.9916
-1.9573 -0.2051 -0.8055 0.9915
-4.7976 -0.9421 -2.0010 0.9791
-4.6946 -1.3672 -2.0012 0.9791
-4.1649 -2.5641 -2.0017 0.9791
-3.6426 -3.2651 -2.0021 0.9791
-3.0037 -3.8621 -2.0024 0.9791
-1.8722 -4.5215 -2.0029 0.9791
-1.4607 -4.6710 -2.0030 0.9791
-1.0375 -4.7831 -2.0031 0.9791
-0.6059 -4.8570 -2.0032 0.9791
-0.1695 -4.8919 -2.0033 0.9791
0.2684 -4.8877 -2.0034 0.9791
2.7308 -4.0631 -2.0036 0.9791
3.9808 -2.8486 -2.0034 0.9791
4.4239 -2.0942 -2.0032 0.9791
4.7255 -1.2731 -2.0030 0.9791
4.8200 -0.8457 -2.0028 0.9791
4.8759 -0.4115 -2.0027 0.9791
4.8928 0.0259 -2.0025 0.9791
4.8706 0.4630 -2.0024 0.9791
4.7095 1.3224 -2.0020 0.9791
4.5721 1.7378 -2.0019 0.9791
4.1890 2.5235 -2.0015 0.9791
3.9464 2.8875 -2.0013 0.9791
3.3687 3.5433 -2.0010 0.9791
2.6837 4.0857 -2.0007 0.9791
1.9133 4.4975 -2.0004 0.9791
1.0820 4.7657 -2.0001 0.9791
0.6517 4.8430 -2.0000 0.9791
-1.0861 4.7637 -1.9997 0.9791
-1.9167 4.4941 -1.9996 0.9791
-2.6861 4.0811 -1.9996 0.9791
-3.0401 3.8248 -1.9996 0.9791
-3.3698 3.5379 -1.9997 0.9791
-3.6726 3.2227 -1.9997 0.9791
-4.1879 2.5176 -1.9999 0.9791
-4.3964 2.1334 -2.0000 0.9791
-4.5697 1.7321 -2.0001 0.9791
-4.7065 1.3168 -2.0002 0.9791
-2.1905 0.4061 -0.9118 0.9904
-1.9579 0.1843 -0.8049 0.9915
-4.5875 -1.6931 -2.0013 0.9791
-3.9751 -2.8500 -2.0019 0.9791
-3.7049 -3.1941 -2.0020 0.9791
-2.3518 -4.2911 -2.0027 0.9791
-1.1296 -4.7621 -2.0031 0.9791
-0.6996 -4.8443 -2.0032 0.9791
1.0421 -4.7831 -2.0035 0.9791
1.4654 -4.6710 -2.0036 0.9791
1.8770 -4.5214 -2.0036 0.9791
2.2735 -4.3356 -2.0036 0.9791
3.0090 -3.8615 -2.0036 0.9791
3.3419 -3.5771 -2.0035 0.9791
3.6481 -3.2641 -2.0035 0.9791
3.9251 -2.9249 -2.0034 0.9791
4.7001 -1.3641 -2.0030 0.9791
4.8925 -0.0686 -2.0026 0.9791
4.8258 0.8033 -2.0023 0.9791
4.4387 2.0540 -2.0017 0.9791
4.2370 2.4422 -2.0015 0.9791
4.0015 2.8108 -2.0014 0.9791
3.7339 3.1569 -2.0012 0.9791
2.7622 4.0332 -2.0007 0.9791
2.3905 4.2636 -2.0005 0.9791
1.9998 4.4598 -2.0004 0.9791
1.5931 4.6204 -2.0003 0.9791
0.3105 4.8766 -1.9999 0.9791
-0.1265 4.8846 -1.9998 0.9791
-0.5625 4.8536 -1.9998 0.9791
-1.4175 4.6757 -1.9997 0.9791
-3.6097 3.2929 -1.9997 0.9791
-4.5354 1.8199 -2.0001 0.9791
-4.6801 1.4074 -2.0002 0.9791
-1.9559 0.2223 -0.8056 0.9915
-1.9499 -0.1285 -0.7998 0.9916
-2.0099 -0.3147 -0.8326 0.9912
-4.7437 -1.1849 -2.0011 0.9791
-4.6192 -1.6043 -2.0013 0.9791
-4.4578 -2.0108 -2.0015 0.9791
-4.2606 -2.4013 -2.0017 0.9791
-4.0293 -2.7727 -2.0018 0.9791
-3.7658 -3.1220 -2.0020 0.9791
-2.4341 -4.2448 -2.0027 0.9791
-1.2213 -4.7394 -2.0031 0.9791
-0.7929 -4.8298 -2.0032 0.9791
0.5166 -4.8678 -2.0035 0.9791
1.7894 -4.5567 -2.0036 0.9791
4.1204 -2.6424 -2.0034 0.9791
4.3399 -2.2635 -2.0033 0.9791
4.6729 -1.4546 -2.0030 0.9791
4.8904 -0.1630 -2.0026 0.9791
4.8405 0.7100 -2.0023 0.9791
4.6360 1.5601 -2.0019 0.9791
4.2834 2.3600 -2.0016 0.9791
4.0550 2.7331 -2.0014 0.9791
3.5031 3.4107 -2.0011 0.9791
2.8395 3.9792 -2.0007 0.9791
2.4724 4.2167 -2.0006 0.9791
0.8382 4.8144 -2.0000 0.9791
-0.0322 4.8862 -1.9998 0.9791
-0.9015 4.8021 -1.9997 0.9791
-1.3270 4.7022 -1.9997 0.9791
-1.7418 4.5647 -1.9996 0.9791
-2.1428 4.3908 -1.9996 0.9791
-2.8902 3.9392 -1.9996 0.9791
-3.2307 3.6653 -1.9997 0.9791
-3.5454 3.3620 -1.9997 0.9791
-3.8318 3.0318 -1.9998 0.9791
-4.0876 2.6773 -1.9999 0.9791
-4.4993 1.9071 -2.0001 0.9791
-1.9362 0.0833 -0.7932 0.9917
-4.7656 -1.0931 -2.0011 0.9791
-3.8252 -3.0487 -2.0020 0.9791
-3.5378 -3.3786 -2.0021 0.9791
-3.2220 -3.6815 -2.0023 0.9791
-2.8803 -3.9551 -2.0025 0.9791
-1.3125 -4.7149 -2.0031 0.9791
-0.8860 -4.8136 -2.0032 0.9791
-0.4523 -4.8738 -2.0033 0.9791
-0.0150 -4.8949 -2.0034 0.9791
0.8567 -4.8197 -2.0035 0.9791
1.7011 -4.5904 -2.0036 0.9791
2.1045 -4.4201 -2.0036 0.9791
2.4911 -4.2143 -2.0036 0.9791
3.5195 -3.4025 -2.0035 0.9791
3.8094 -3.0743 -2.0035 0.9791
4.0687 -2.7214 -2.0034 0.9791
4.2954 -2.3468 -2.0033 0.9791
4.4877 -1.9535 -2.0032 0.9791
4.6441 -1.5445 -2.0031 0.9791
4.7632 -1.1233 -2.0029 0.9791
4.8442 -0.6931 -2.0028 0.9791
4.8864 -0.2574 -2.0026 0.9791
4.8894 0.1803 -2.0025 0.9791
4.7785 1.0476 -2.0022 0.9791
4.5148 1.8812 -2.0018 0.9791
3.8531 3.0105 -2.0013 0.9791
3.5684 3.3425 -2.0011 0.9791
2.9159 3.9237 -2.0008 0.9791
2.1705 4.3794 -2.0005 0.9791
0.0621 4.8860 -1.9999 0.9791
-1.2360 4.7270 -1.9997 0.9791
-2.0576 4.4313 -1.9996 0.9791
-2.4454 4.2297 -1.9996 0.9791
-3.1594 3.7269 -1.9997 0.9791
-3.4799 3.4298 -1.9997 0.9791
-4.0351 2.7557 -1.9998 0.9791
-4.4616 1.9936 -2.0000 0.9791
-4.7458 1.1676 -2.0003 0.9791
-1.9816 0.3030 -0.8204 0.9914
-1.9240 -0.0524 -0.7877 0.9917
-4.6775 -1.4247 -2.0012 0.9791
-3.8833 -2.9742 -2.0019 0.9791
-3.6023 -3.3096 -2.0021 0.9791
-2.5961 -4.1476 -2.0026 0.9791
-2.2152 -4.3633 -2.0028 0.9791
-1.4033 -4.6886 -2.0030 0.9791
-0.9787 -4.7955 -2.0031 0.9791
-0.5463 -4.8641 -2.0033 0.9791
-0.1094 -4.8937 -2.0034 0.9791
0.3283 -4.8841 -2.0034 0.9791
0.7635 -4.8353 -2.0035 0.9791
2.0188 -4.4599 -2.0036 0.9791
2.4093 -4.2616 -2.0036 0.9791
2.7805 -4.0292 -2.0036 0.9791
3.1294 -3.7646 -2.0036 0.9791
3.4532 -3.4698 -2.0035 0.9791
3.7493 -3.1472 -2.0035 0.9791
4.0154 -2.7995 -2.0034 0.9791
4.2494 -2.4293 -2.0033 0.9791
4.4492 -2.0398 -2.0032 0.9791
4.7407 -1.2150 -2.0030 0.9791
4.8645 0.5227 -2.0024 0.9791
-1.5068 0.2494 -0.6656 0.9934
-1.5291 0.1142 -0.6683 0.9933
-1.5694 -0.4571 -0.7124 0.9929
-4.2767 -1.6729 -2.0014 0.9802
-3.9112 -2.4079 -2.0017 0.9802
-0.9743 -4.4916 -2.0030 0.9801
1.0651 -4.4719 -2.0034 0.9801
1.8442 -4.2109 -2.0035 0.9801
2.2131 -4.0293 -2.0035 0.9801
3.2025 -3.2979 -2.0034 0.9801
3.4843 -2.9984 -2.0034 0.9801
3.7382 -2.6749 -2.0033 0.9801
3.9621 -2.3301 -2.0032 0.9801
4.1543 -1.9666 -2.0031 0.9801
4.3132 -1.5874 -2.0030 0.9801
4.5947 0.0243 -2.0025 0.9802
4.5738 0.4348 -2.0023 0.9802
4.5163 0.8417 -2.0022 0.9802
4.1303 2.0089 -2.0017 0.9802
3.9339 2.3698 -2.0015 0.9802
2.8534 3.5967 -2.0009 0.9802
2.5204 3.8370 -2.0007 0.9802
2.1673 4.0466 -2.0006 0.9802
0.2032 4.5846 -2.0000 0.9802
-2.1701 4.0429 -1.9997 0.9802
-2.5227 3.8328 -1.9997 0.9802
-2.8551 3.5921 -1.9998 0.9802
-3.1648 3.3226 -1.9998 0.9802
-3.4491 3.0266 -1.9999 0.9802
-3.7059 2.7063 -1.9999 0.9802
-3.9331 2.3644 -2.0000 0.9802
-1.4977 0.2777 -0.6639 0.9934
-1.5272 0.1437 -0.6685 0.9933
-1.5232 0.0067 -0.6638 0.9934
-1.5282 -0.1304 -0.6685 0.9933
-1.5020 -0.2650 -0.6647 0.9934
-1.5578 -0.4212 -0.7033 0.9930
-4.1491 -1.9688 -2.0015 0.9802
-3.9569 -2.3319 -2.0017 0.9802
-3.1975 -3.2988 -2.0022 0.9802
-2.8901 -3.5716 -2.0023 0.9802
-2.5596 -3.8159 -2.0025 0.9802
-2.2085 -4.0296 -2.0026 0.9801
-1.0608 -4.4719 -2.0030 0.9801
-0.6569 -4.5491 -2.0031 0.9801
-0.2478 -4.5898 -2.0032 0.9801
1.3761 -4.3862 -2.0035 0.9801
1.7626 -4.2457 -2.0035 0.9801
2.8255 -3.6261 -2.0035 0.9801
3.4258 -3.0651 -2.0034 0.9801
3.6859 -2.7466 -2.0033 0.9801
4.4137 -1.2810 -2.0029 0.9801
4.5706 -0.4748 -2.0027 0.9801
4.5944 -0.0644 -2.0025 0.9802
4.5318 0.7544 -2.0022 0.9802
4.1684 1.9289 -2.0017 0.9802
3.7578 2.6397 -2.0014 0.9802
3.5066 2.9647 -2.0012 0.9802
3.2273 3.2659 -2.0011 0.9802
2.5940 3.7877 -2.0007 0.9802
1.8781 4.1884 -2.0005 0.9802
1.1023 4.4552 -2.0002 0.9802
0.6998 4.5357 -2.0001 0.9802
-0.1188 4.5874 -1.9999 0.9802
-0.5283 4.5583 -1.9999 0.9802
-1.7183 4.2546 -1.9997 0.9802
-3.1000 3.3831 -1.9998 0.9802
-3.8867 2.4399 -2.0000 0.9802
-1.5742 0.4734 -0.7164 0.9929
-1.5269 0.0361 -0.6656 0.9934
-1.5295 -0.1008 -0.6680 0.9933
-1.5105 -0.2365 -0.6663 0.9934
-4.1863 -1.8884 -2.0015 0.9802
-4.0011 -2.2551 -2.0017 0.9802
-3.7839 -2.6038 -2.0018 0.9802
-1.9206 -4.1748 -2.0027 0.9801
-1.1469 -4.4506 -2.0030 0.9801
0.0747 -4.5960 -2.0033 0.9801
0.4851 -4.5711 -2.0033 0.9801
0.8917 -4.5096 -2.0034 0.9801
1.2911 -4.4119 -2.0034 0.9801
1.6803 -4.2790 -2.0035 0.9801
2.0560 -4.1117 -2.0035 0.9801
2.4152 -3.9115 -2.0035 0.9801
3.0728 -3.4190 -2.0034 0.9801
3.3660 -3.1307 -2.0034 0.9801
3.6322 -2.8173 -2.0033 0.9801
3.8693 -2.4813 -2.0032 0.9801
4.2488 -1.7527 -2.0031 0.9801
4.3882 -1.3659 -2.0029 0.9801
4.5607 -0.5629 -2.0027 0.9801
4.5873 0.2579 -2.0024 0.9802
4.4675 1.0702 -2.0021 0.9802
4.3536 1.4651 -2.0019 0.9802
4.0226 2.2163 -2.0016 0.9802
2.9902 3.4840 -2.0009 0.9802
1.9586 4.1514 -2.0005 0.9802
1.1881 4.4332 -2.0002 0.9802
0.7872 4.5214 -2.0001 0.9802
0.3800 4.5734 -2.0000 0.9802
-0.8466 4.5099 -1.9998 0.9802
-1.2462 4.4161 -1.9998 0.9802
-2.0124 4.1236 -1.9997 0.9802
-2.3729 3.9273 -1.9997 0.9802
-2.7144 3.6996 -1.9998 0.9802
-3.0342 3.4422 -1.9998 0.9802
-3.8388 2.5144 -2.0000 0.9802
-4.2255 1.7910 -2.0001 0.9802
-1.5185 0.2023 -0.6676 0.9933
-1.5292 -0.0712 -0.6672 0.9933
-1.5305 -0.3511 -0.6843 0.9932
-4.2219 -1.8072 -2.0014 0.9802
-4.0438 -2.1774 -2.0016 0.9802
-3.8334 -2.5303 -2.0018 0.9802
-3.5922 -2.8630 -2.0019 0.9802
-3.3223 -3.1728 -2.0021 0.9802
-3.0257 -3.4573 -2.0023 0.9802
-2.3623 -3.9413 -2.0026 0.9802
-1.6232 -4.2994 -2.0028 0.9801
-0.8320 -4.5202 -2.0031 0.9801
0.3968 -4.5796 -2.0033 0.9801
0.8045 -4.5259 -2.0034 0.9801
1.5974 -4.3106 -2.0035 0.9801
3.0063 -3.4777 -2.0034 0.9801
3.3050 -3.1951 -2.0034 0.9801
3.8207 -2.5556 -2.0033 0.9801
4.0336 -2.2038 -2.0032 0.9801
4.5490 -0.6508 -2.0027 0.9801
4.5886 -0.2417 -2.0026 0.9801
4.5915 0.1693 -2.0024 0.9802
4.5577 0.5789 -2.0023 0.9802
4.3811 1.3808 -2.0020 0.9802
3.8570 2.4928 -2.0015 0.9802
3.3511 3.1390 -2.0011 0.9802
3.0569 3.4257 -2.0010 0.9802
2.7384 3.6849 -2.0008 0.9802
2.3979 3.9145 -2.0007 0.9802
2.0384 4.1129 -2.0005 0.9802
1.6626 4.2783 -2.0004 0.9802
0.8743 4.5054 -2.0002 0.9802
0.4682 4.5653 -2.0001 0.9802
-1.1608 4.4394 -1.9998 0.9802
-1.5528 4.3178 -1.9998 0.9802
-2.2966 3.9724 -1.9997 0.9802
-2.6424 3.7513 -1.9997 0.9802
-3.2681 3.2211 -1.9998 0.9802
-3.5430 2.9162 -1.9999 0.9802
-1.5118 0.2312 -0.6666 0.9933
-1.5296 0.0954 -0.6679 0.9933
-1.5228 -0.1785 -0.6682 0.9933
-1.5760 -0.4800 -0.7180 0.9928
-3.6468 -2.7930 -2.0019 0.9802
-3.3829 -3.1080 -2.0021 0.9802
-3.0918 -3.3982 -2.0022 0.9802
-2.7760 -3.6612 -2.0024 0.9802
-1.7058 -4.2672 -2.0028 0.9801
-0.9191 -4.5033 -2.0031 0.9801
-0.5130 -4.5676 -2.0032 0.9801
-0.1028 -4.5954 -2.0032 0.9801
1.1199 -4.4585 -2.0034 0.9801
1.8957 -4.1880 -2.0035 0.9801
2.9386 -3.5351 -2.0034 0.9801
3.2427 -3.2583 -2.0034 0.9801
3.5208 -2.9554 -2.0034 0.9801
4.3323 -1.5343 -2.0030 0.9801
4.4518 -1.1410 -2.0029 0.9801
4.5357 -0.7385 -2.0027 0.9801
4.5832 -0.3302 -2.0026 0.9801
4.5940 0.0807 -2.0025 0.9802
4.5056 0.8970 -2.0022 0.9802
-1.3210 0.2186 -0.6198 0.9941
-1.3100 -0.2573 -0.6180 0.9941
-3.8701 -1.9288 -2.0016 0.9811
-3.4655 -2.5873 -2.0019 0.9811
-2.9500 -3.1634 -2.0022 0.9811
-2.6557 -3.4146 -2.0023 0.9811
-2.0057 -3.8333 -2.0026 0.9811
-1.6552 -3.9975 -2.0027 0.9811
-1.2914 -4.1297 -2.0028 0.9811
-0.1498 -4.3249 -2.0031 0.9811
0.2373 -4.3212 -2.0032 0.9811
0.6225 -4.2828 -2.0033 0.9811
1.0028 -4.2101 -2.0033 0.9811
1.3750 -4.1037 -2.0034 0.9811
1.7362 -3.9645 -2.0034 0.9811
2.0836 -3.7935 -2.0034 0.9811
2.4142 -3.5921 -2.0034 0.9811
3.9112 -1.8515 -2.0030 0.9811
4.1779 -1.1256 -2.0028 0.9811
4.2615 -0.7477 -2.0027 0.9811
4.3259 0.0229 -2.0024 0.9811
4.1640 1.1692 -2.0020 0.9811
4.0425 1.5365 -2.0018 0.9811
3.8888 1.8915 -2.0017 0.9811
3.7039 2.2312 -2.0015 0.9811
3.4894 2.5531 -2.0014 0.9811
2.9787 3.1330 -2.0011 0.9811
2.6866 3.3864 -2.0009 0.9811
2.0406 3.8100 -2.0006 0.9811
1.3296 4.1119 -2.0004 0.9811
0.9568 4.2141 -2.0003 0.9811
0.5763 4.2825 -2.0002 0.9811
-0.5802 4.2815 -2.0000 0.9811
-0.9604 4.2124 -1.9999 0.9811
-1.3330 4.1097 -1.9999 0.9811
-1.6949 3.9741 -1.9999 0.9811
-2.3753 3.6089 -1.9999 0.9811
-2.6883 3.3822 -1.9999 0.9811
-2.9799 3.1285 -1.9999 0.9811
-3.4894 2.5482 -2.0000 0.9811
-1.3201 0.3693 -0.6345 0.9940
-1.3340 0.0058 -0.6175 0.9941
-1.3170 -0.3561 -0.6315 0.9940
-3.5147 -2.5199 -2.0018 0.9811
-3.2757 -2.8241 -2.0020 0.9811
-2.4098 -3.5926 -2.0024 0.9811
-0.2333 -4.3212 -2.0031 0.9811
0.1538 -4.3249 -2.0032 0.9811
1.2955 -4.1295 -2.0033 0.9811
2.0100 -3.8330 -2.0034 0.9811
2.6602 -3.4139 -2.0034 0.9811
2.9546 -3.1625 -2.0033 0.9811
4.2463 -0.8298 -2.0027 0.9811
4.3032 -0.4470 -2.0026 0.9811
4.3134 0.3261 -2.0023 0.9811
3.9246 1.8161 -2.0017 0.9811
3.3016 2.7913 -2.0012 0.9811
3.0387 3.0750 -2.0011 0.9811
2.4424 3.5663 -2.0008 0.9811
1.7683 3.9436 -2.0005 0.9811
0.6589 4.2706 -2.0002 0.9811
-0.1119 4.3193 -2.0000 0.9811
-0.4974 4.2919 -2.0000 0.9811
-0.8789 4.2302 -1.9999 0.9811
-1.2534 4.1346 -1.9999 0.9811
-1.6179 4.0060 -1.9999 0.9811
-1.9694 3.8454 -1.9998 0.9811
-2.6225 3.4334 -1.9999 0.9811
-2.9189 3.1854 -1.9999 0.9811
-3.1920 2.9119 -1.9999 0.9811
-3.4395 2.6151 -2.0000 0.9811
-3.8504 1.9612 -2.0002 0.9811
-1.3287 0.5332 -0.6627 0.9937
-1.3259 0.3987 -0.6409 0.9939
-1.3365 0.0316 -0.6188 0.9941
-1.3385 -0.0882 -0.6209 0.9941
-1.3237 -0.2072 -0.6202 0.9941
-1.3095 -0.3271 -0.6248 0.9941
-1.3336 -0.4632 -0.6535 0.9938
-1.3168 -0.5940 -0.6687 0.9937
-3.7672 -2.1232 -2.0016 0.9811
-3.3295 -2.7603 -2.0020 0.9811
-2.7854 -3.3095 -2.0023 0.9811
-2.4787 -3.5454 -2.0024 0.9811
-2.1521 -3.7530 -2.0025 0.9811
-1.4498 -4.0766 -2.0028 0.9811
-0.7010 -4.2701 -2.0030 0.9811
0.0703 -4.3270 -2.0032 0.9811
0.4567 -4.3036 -2.0032 0.9811
0.8395 -4.2457 -2.0033 0.9811
1.2156 -4.1537 -2.0033 0.9811
2.2738 -3.6826 -2.0034 0.9811
3.1690 -2.9475 -2.0033 0.9811
3.4196 -2.6524 -2.0032 0.9811
3.6428 -2.3361 -2.0032 0.9811
3.8369 -2.0011 -2.0031 0.9811
4.0002 -1.6502 -2.0030 0.9811
4.1314 -1.2860 -2.0029 0.9811
4.3190 0.2428 -2.0024 0.9811
4.2797 0.6278 -2.0022 0.9811
4.2062 1.0076 -2.0021 0.9811
4.0990 1.3794 -2.0019 0.9811
3.9590 1.7400 -2.0017 0.9811
3.7874 2.0867 -2.0016 0.9811
3.5854 2.4166 -2.0014 0.9811
3.3549 2.7271 -2.0013 0.9811
2.8154 3.2803 -2.0010 0.9811
2.1862 3.7286 -2.0007 0.9811
1.8441 3.9088 -2.0006 0.9811
1.1187 4.1741 -2.0003 0.9811
0.7412 4.2572 -2.0002 0.9811
-0.0285 4.3207 -2.0000 0.9811
-0.4145 4.3008 -2.0000 0.9811
-1.5403 4.0365 -1.9999 0.9811
-2.2342 3.6978 -1.9998 0.9811
-3.1352 2.9729 -1.9999 0.9811
-1.3242 0.5613 -0.6657 0.9937
-1.3305 0.4283 -0.6470 0.9939
-1.3299 0.1772 -0.6210 0.9941
-1.3380 0.0575 -0.6199 0.9941
-1.3290 -0.1819 -0.6209 0.9941
-1.3010 -0.2984 -0.6178 0.9941
-1.3312 -0.4337 -0.6481 0.9938
-3.3821 -2.6955 -2.0019 0.9811
-2.8487 -3.2550 -2.0022 0.9811
-2.2241 -3.7107 -2.0025 0.9811
-1.5282 -4.0478 -2.0028 0.9811
-1.1604 -4.1685 -2.0029 0.9811
-0.7833 -4.2557 -2.0030 0.9811
-0.3999 -4.3089 -2.0031 0.9811
0.3736 -4.3116 -2.0032 0.9811
1.5039 -4.0583 -2.0034 0.9811
1.8605 -3.9077 -2.0034 0.9811
2.2023 -3.7258 -2.0034 0.9811
2.8303 -3.2742 -2.0033 0.9811
3.9676 -1.7271 -2.0030 0.9811
4.1059 -1.3655 -2.0029 0.9811
4.2112 -0.9931 -2.0028 0.9811
4.2829 -0.6128 -2.0027 0.9811
4.3202 -0.2276 -2.0025 0.9811
4.3229 0.1594 -2.0024 0.9811
4.2911 0.5451 -2.0022 0.9811
4.2249 0.9263 -2.0021 0.9811
4.1249 1.3000 -2.0019 0.9811
3.9919 1.6633 -2.0018 0.9811
3.8270 2.0132 -2.0016 0.9811
3.4069 2.6619 -2.0013 0.9811
2.8782 3.2254 -2.0010 0.9811
1.1991 4.1518 -2.0003 0.9811
0.8232 4.2421 -2.0002 0.9811
0.4408 4.2985 -2.0001 0.9811
-0.3314 4.3080 -2.0000 0.9811
-0.7150 4.2610 -1.9999 0.9811
-1.4621 4.0655 -1.9999 0.9811
-1.3181 0.5890 -0.6683 0.9937
-1.3248 0.2026 -0.6203 0.9941
-1.3369 -0.0364 -0.6191 0.9941
-1.3333 -0.1563 -0.6214 0.9941
-1.3049 -0.2729 -0.6171 0.9941
-1.3268 -0.4041 -0.6420 0.9939
-2.9110 -3.1994 -2.0022 0.9811
-2.6136 -3.4470 -2.0023 0.9811
-2.2953 -3.6670 -2.0025 0.9811
-1.6060 -4.0175 -2.0027 0.9811
-0.4830 -4.3003 -2.0031 0.9811
0.6750 -4.2749 -2.0033 0.9811
1.7848 -3.9429 -2.0034 0.9811
2.4581 -3.5622 -2.0034 0.9811
3.0529 -3.0676 -2.0033 0.9811
3.5500 -2.4750 -2.0032 0.9811
3.7568 -2.1478 -2.0031 0.9811
4.1913 -1.0742 -2.0028 0.9811
4.3151 -0.3109 -2.0026 0.9811
4.3009 0.4621 -2.0023 0.9811
-1.1824 0.1957 -0.5879 0.9947
-1.1961 -0.0179 -0.5868 0.9947
-1.1590 -0.3375 -0.5921 0.9946
-1.1520 -0.4506 -0.6068 0.9945
-1.1297 -0.5630 -0.6192 0.9944
-3.4750 -2.1394 -2.0017 0.9820
-3.2702 -2.4415 -2.0019 0.9820
-2.7837 -2.9851 -2.0021 0.9820
-2.5060 -3.2221 -2.0023 0.9820
-2.2082 -3.4334 -2.0024 0.9820
-1.8926 -3.6173 -2.0025 0.9820
-1.5619 -3.7721 -2.0027 0.9820
-0.5055 -4.0519 -2.0030 0.9820
0.2239 -4.0775 -2.0031 0.9820
0.5874 -4.0413 -2.0032 0.9820
1.2975 -3.8723 -2.0033 0.9820
1.6383 -3.7409 -2.0033 0.9820
2.2781 -3.3895 -2.0033 0.9820
2.5719 -3.1723 -2.0032 0.9820
2.8450 -2.9298 -2.0032 0.9820
3.0954 -2.6637 -2.0032 0.9820
3.5199 -2.0700 -2.0030 0.9820
3.8318 -1.4103 -2.0029 0.9820
4.0212 -0.7055 -2.0026 0.9820
4.0679 -0.3433 -2.0025 0.9820
4.0821 0.0216 -2.0024 0.9820
4.0125 0.7478 -2.0021 0.9820
3.9293 1.1033 -2.0020 0.9820
3.8147 1.4499 -2.0018 0.9820
3.4952 2.1055 -2.0015 0.9820
3.2928 2.4093 -2.0014 0.9820
3.0641 2.6937 -2.0012 0.9820
2.2394 3.4092 -2.0008 0.9820
0.5439 4.0414 -2.0003 0.9820
0.1805 4.0736 -2.0002 0.9820
-0.5475 4.0404 -2.0000 0.9820
-0.9064 3.9753 -2.0000 0.9820
-1.5995 3.7503 -2.0000 0.9820
-1.9282 3.5924 -1.9999 0.9820
-2.5370 3.1918 -2.0000 0.9820
-2.8121 2.9523 -2.0000 0.9820
-3.0648 2.6893 -2.0001 0.9820
-3.4948 2.1009 -2.0002 0.9820
-1.1536 0.4373 -0.6052 0.9945
-1.1588 0.3242 -0.5903 0.9947
-1.1779 0.2184 -0.5877 0.9947
-1.1935 0.1123 -0.5880 0.9947
-1.1957 0.0052 -0.5865 0.9947
-1.1943 -0.1019 -0.5880 0.9947
-1.1800 -0.2082 -0.5878 0.9947
-1.1586 -0.3133 -0.5887 0.9947
-1.1548 -0.4262 -0.6038 0.9945
-3.3166 -2.3779 -2.0018 0.9820
-3.0911 -2.6650 -2.0020 0.9820
-2.8408 -2.9308 -2.0021 0.9820
-2.5677 -3.1731 -2.0023 0.9820
-2.2740 -3.3901 -2.0024 0.9820
-1.9621 -3.5800 -2.0025 0.9820
-1.6344 -3.7412 -2.0026 0.9820
-1.2936 -3.8725 -2.0028 0.9820
-0.5836 -4.0414 -2.0030 0.9820
0.1451 -4.0810 -2.0031 0.9820
0.8694 -3.9902 -2.0032 0.9820
1.2225 -3.8966 -2.0032 0.9820
1.5658 -3.7718 -2.0033 0.9820
2.2123 -3.4329 -2.0033 0.9820
2.7880 -2.9841 -2.0032 0.9820
3.2745 -2.4401 -2.0031 0.9820
3.8039 -1.4840 -2.0029 0.9820
4.0069 -0.7830 -2.0027 0.9820
4.0606 -0.4218 -2.0025 0.9820
4.0818 -0.0572 -2.0024 0.9820
4.0703 0.3077 -2.0023 0.9820
3.9500 1.0273 -2.0020 0.9820
3.7035 1.7138 -2.0017 0.9820
3.5352 2.0377 -2.0016 0.9820
3.1156 2.6341 -2.0013 0.9820
2.8675 2.9018 -2.0011 0.9820
2.5965 3.1462 -2.0010 0.9820
2.3048 3.3654 -2.0008 0.9820
1.9947 3.5577 -2.0007 0.9820
1.3294 3.8555 -2.0005 0.9820
0.9795 3.9587 -2.0004 0.9820
0.6218 4.0302 -2.0003 0.9820
-0.8295 3.9920 -2.0000 0.9820
-1.1829 3.9019 -2.0000 0.9820
-1.8585 3.6289 -1.9999 0.9820
-2.7546 3.0061 -2.0000 0.9820
-3.2459 2.4678 -2.0001 0.9820
-1.1267 0.5739 -0.6202 0.9944
-1.1505 0.4617 -0.6081 0.9945
-1.1590 0.3485 -0.5936 0.9946
-1.1728 0.2410 -0.5873 0.9947
-1.1963 0.0283 -0.5870 0.9947
-1.1593 -0.2896 -0.5862 0.9947
-1.1569 -0.4018 -0.6007 0.9946
-3.5549 -2.0036 -2.0016 0.9820
-2.8968 -2.8753 -2.0021 0.9820
-2.3390 -3.3456 -2.0024 0.9820
-1.0189 -3.9539 -2.0028 0.9820
-0.6615 -4.0293 -2.0029 0.9820
0.0663 -4.0830 -2.0031 0.9820
0.4310 -4.0609 -2.0032 0.9820
1.1470 -3.9195 -2.0032 0.9820
1.8265 -3.6528 -2.0033 0.9820
2.1456 -3.4749 -2.0033 0.9820
2.4475 -3.2693 -2.0033 0.9820
2.7298 -3.0374 -2.0032 0.9820
3.2268 -2.5028 -2.0031 0.9820
3.4374 -2.2044 -2.0031 0.9820
3.7746 -1.5571 -2.0029 0.9820
3.8985 -1.2135 -2.0028 0.9820
3.9911 -0.8602 -2.0027 0.9820
4.0800 -0.1360 -2.0024 0.9820
4.0756 0.2291 -2.0023 0.9820
4.0385 0.5924 -2.0022 0.9820
3.7359 1.6420 -2.0017 0.9820
3.5740 1.9691 -2.0016 0.9820
3.3834 2.2805 -2.0014 0.9820
3.1659 2.5735 -2.0013 0.9820
2.9230 2.8459 -2.0011 0.9820
2.6568 3.0955 -2.0010 0.9820
2.0631 3.5186 -2.0007 0.9820
1.7403 3.6886 -2.0006 0.9820
1.4036 3.8292 -2.0005 0.9820
1.0557 3.9391 -2.0004 0.9820
0.6994 4.0174 -2.0003 0.9820
-0.3911 4.0586 -2.0001 0.9820
-1.1073 3.9240 -2.0000 0.9820
-1.4536 3.8093 -2.0000 0.9820
-2.1084 3.4897 -1.9999 0.9820
-2.9586 2.8055 -2.0000 0.9820
-3.1976 2.5300 -2.0001 0.9820
-3.4110 2.2342 -2.0001 0.9820
-1.1671 0.2634 -0.5869 0.9947
-1.1963 -0.0557 -0.5875 0.9947
-1.1660 -0.2675 -0.5868 0.9947
-1.1582 -0.3774 -0.5975 0.9946
-1.1459 -0.4905 -0.6114 0.9945
-1.1147 -0.6002 -0.6210 0.9944
-3.1915 -2.5436 -2.0019 0.9820
-2.9517 -2.8189 -2.0021 0.9820
-2.4031 -3.2997 -2.0023 0.9820
-2.0987 -3.5015 -2.0025 0.9820
-1.4421 -3.8196 -2.0027 0.9820
-1.0950 -3.9334 -2.0028 0.9820
-0.7391 -4.0158 -2.0029 0.9820
-0.0125 -4.0835 -2.0031 0.9820
0.7147 -4.0208 -2.0032 0.9820
1.4191 -3.8295 -2.0033 0.9820
2.0781 -3.5157 -2.0033 0.9820
2.3840 -3.3159 -2.0033 0.9820
3.1779 -2.5647 -2.0031 0.9820
3.3943 -2.2703 -2.0031 0.9820
3.5834 -1.9578 -2.0030 0.9820
3.8744 -1.2885 -2.0028 0.9820
4.0767 -0.2147 -2.0025 0.9820
3.9868 0.8741 -2.0021 0.9820
3.8924 1.2268 -2.0019 0.9820
3.7670 1.5696 -2.0018 0.9820
3.6114 1.8998 -2.0016 0.9820
1.8111 3.6544 -2.0006 0.9820
1.4772 3.8014 -2.0005 0.9820
1.1316 3.9180 -2.0004 0.9820
0.7769 4.0032 -2.0003 0.9820
0.4160 4.0565 -2.0002 0.9820
0.0518 4.0773 -2.0002 0.9820
-0.3127 4.0654 -2.0001 0.9820
-1.0314 3.9446 -2.0000 0.9820
-1.3798 3.8366 -2.0000 0.9820
-2.0407 3.5297 -1.9999 0.9820
-2.3480 3.3332 -2.0000 0.9820
-2.6365 3.1101 -2.0000 0.9820
-3.1482 2.5912 -2.0001 0.9820
-3.3672 2.2996 -2.0001 0.9820
-1.1054 0.6179 -0.6212 0.9944
-1.1422 0.5104 -0.6137 0.9944
-1.1572 0.3973 -0.6001 0.9946
-1.1606 0.2855 -0.5863 0.9947
-1.1958 0.0746 -0.5877 0.9947
-1.1964 -0.0326 -0.5871 0.9947
-1.1718 -0.2451 -0.5872 0.9947
-1.1589 -0.3530 -0.5943 0.9946
-1.1499 -0.4662 -0.6086 0.9945
-3.2400 -2.4815 -2.0019 0.9820
-2.7469 -3.0191 -2.0022 0.9820
-1.5155 -3.7911 -2.0027 0.9820
-1.1707 -3.9115 -2.0028 0.9820
-0.0913 -4.0825 -2.0031 0.9820
0.2739 -4.0745 -2.0031 0.9820
0.6369 -4.0338 -2.0032 0.9820
0.9949 -3.9608 -2.0032 0.9820
2.6106 -3.1405 -2.0032 0.9820
3.1278 -2.6255 -2.0032 0.9820
3.5450 -2.0267 -2.0030 0.9820
3.7118 -1.7017 -2.0029 0.9820
3.9550 -1.0137 -2.0027 0.9820
4.0296 -0.6561 -2.0026 0.9820
4.0718 -0.2934 -2.0025 0.9820
4.0815 0.0717 -2.0024 0.9820
4.0585 0.4361 -2.0022 0.9820
-1.1027 -0.1156 -0.5752 0.9950
-1.0637 -0.3098 -0.5747 0.9950
-1.0551 -0.4127 -0.5878 0.9949
-0.9818 -0.6044 -0.5981 0.9948
-2.8736 -2.5758 -2.0020 0.9828
-2.6321 -2.8225 -2.0021 0.9828
-2.3695 -3.0466 -2.0022 0.9828
-1.4768 -3.5666 -2.0026 0.9828
-1.1522 -3.6845 -2.0027 0.9828
-0.8184 -3.7729 -2.0028 0.9828
-0.4780 -3.8311 -2.0029 0.9828
-0.1337 -3.8586 -2.0030 0.9828
0.5554 -3.8210 -2.0031 0.9828
0.8946 -3.7562 -2.0031 0.9828
1.2267 -3.6613 -2.0032 0.9828
1.5490 -3.5370 -2.0032 0.9828
2.1539 -3.2048 -2.0032 0.9828
2.4317 -2.9994 -2.0032 0.9828
2.6899 -2.7701 -2.0031 0.9828
3.3280 -1.9572 -2.0030 0.9828
3.6230 -1.3334 -2.0028 0.9828
3.8463 -0.3246 -2.0025 0.9828
3.8597 0.0204 -2.0023 0.9828
3.8422 0.3652 -2.0022 0.9828
3.7939 0.7071 -2.0021 0.9828
3.7153 1.0432 -2.0019 0.9828
3.6069 1.3709 -2.0018 0.9828
3.4698 1.6877 -2.0017 0.9828
3.3048 1.9908 -2.0015 0.9828
2.8972 2.5470 -2.0013 0.9828
2.6579 2.7955 -2.0011 0.9828
2.3972 3.0217 -2.0010 0.9828
1.1864 3.6692 -2.0005 0.9828
0.8537 3.7603 -2.0004 0.9828
-0.1742 3.8516 -2.0002 0.9828
-0.5177 3.8205 -2.0001 0.9828
-0.8570 3.7589 -2.0001 0.9828
-1.8233 3.3969 -2.0000 0.9828
-2.3989 3.0181 -2.0001 0.9828
-2.8979 2.5429 -2.0001 0.9828
-3.1137 2.2738 -2.0002 0.9828
-1.0354 0.5025 -0.5971 0.9948
-1.0568 0.4006 -0.5863 0.9949
-1.0638 0.2976 -0.5731 0.9950
-1.1038 0.1039 -0.5752 0.9950
-1.1045 -0.0942 -0.5751 0.9950
-1.0914 -0.1925 -0.5749 0.9950
-1.0655 -0.2881 -0.5726 0.9950
-1.0581 -0.3905 -0.5851 0.9949
-1.0389 -0.4930 -0.5966 0.9948
-3.1360 -2.2484 -2.0018 0.9828
-2.6860 -2.7711 -2.0021 0.9828
-2.4278 -3.0002 -2.0022 0.9828
-0.8910 -3.7564 -2.0028 0.9828
-0.5518 -3.8211 -2.0029 0.9828
-0.2081 -3.8553 -2.0030 0.9828
0.1372 -3.8586 -2.0030 0.9828
0.8220 -3.7727 -2.0031 0.9828
1.4805 -3.5662 -2.0032 0.9828
2.8775 -2.5746 -2.0031 0.9828
3.0960 -2.3071 -2.0030 0.9828
3.2897 -2.0211 -2.0030 0.9828
3.4570 -1.7190 -2.0029 0.9828
3.5966 -1.4031 -2.0028 0.9828
3.7074 -1.0760 -2.0027 0.9828
3.8394 -0.3988 -2.0025 0.9828
3.8485 0.2910 -2.0022 0.9828
3.6328 1.3011 -2.0018 0.9828
3.5017 1.6204 -2.0017 0.9828
3.3427 1.9267 -2.0016 0.9828
3.1569 2.2176 -2.0014 0.9828
2.4551 2.9749 -2.0010 0.9828
2.1793 3.1822 -2.0009 0.9828
1.8861 3.3640 -2.0008 0.9828
-0.4439 3.8298 -2.0001 0.9828
-1.1185 3.6895 -2.0001 0.9828
-1.4437 3.5748 -2.0000 0.9828
-1.7574 3.4314 -2.0000 0.9828
-2.0570 3.2606 -2.0000 0.9828
-2.3402 3.0638 -2.0001 0.9828
-2.6047 2.8425 -2.0001 0.9828
-1.0634 0.3198 -0.5761 0.9950
