ply
format ascii 1.0
element vertex 1595
property float32 x
property float32 y
property float32 z
property float32 I
end_header
-0.9655 -3.6958 -1.0814 0.9842
-0.6575 -3.9228 -1.1260 0.9836
-0.2285 -2.9776 -0.8454 0.9877
0.0341 -2.6510 -0.7505 0.9890
0.2709 -2.6380 -0.7507 0.9890
0.5097 -2.6251 -0.7570 0.9889
1.0500 -2.7014 -0.8205 0.9880
1.7849 -3.6010 -1.1378 0.9834
4.3496 -4.8745 -1.8494 0.9732
4.9592 -4.6458 -1.9237 0.9721
5.5639 -4.3478 -1.9990 0.9711
6.2596 -3.2938 -2.0024 0.9710
6.7471 -2.1276 -2.0028 0.9710
6.9108 -1.5164 -2.0029 0.9710
7.0671 0.3706 -2.0034 0.9710
6.7169 2.2317 -2.0037 0.9710
5.8852 3.9334 -2.0039 0.9710
4.6316 5.3533 -2.0040 0.9710
2.2850 6.1565 -1.8590 0.9731
1.7257 6.3358 -1.8590 0.9731
-0.0161 6.5654 -1.8586 0.9731
-0.6026 6.5373 -1.8585 0.9731
-2.8532 5.9101 -1.8579 0.9731
-3.3778 5.6448 -1.8622 0.9730
-4.0767 5.6066 -1.9624 0.9716
-4.6531 5.3251 -2.0019 0.9710
-5.5255 4.4111 -2.0015 0.9710
-6.2212 3.3566 -2.0012 0.9710
-6.4956 2.7871 -2.0010 0.9710
-6.7180 2.1954 -2.0008 0.9710
-7.0592 -0.2966 -2.0002 0.9711
-7.0040 -0.9260 -2.0001 0.9711
-5.5442 -4.3765 -1.9996 0.9711
-5.1133 -4.8375 -1.9927 0.9712
-4.3224 -4.8921 -1.8480 0.9732
-1.0431 -3.6783 -1.0824 0.9842
-0.7392 -3.9095 -1.1264 0.9836
-0.0211 -2.6539 -0.7513 0.9890
0.2158 -2.6412 -0.7502 0.9890
0.4538 -2.6281 -0.7550 0.9890
0.9592 -2.6285 -0.7921 0.9884
3.7864 -5.3229 -1.8492 0.9732
4.7687 -4.6572 -1.8870 0.9727
5.4672 -4.4584 -1.9971 0.9711
6.1896 -3.4232 -2.0024 0.9710
6.4713 -2.8568 -2.0025 0.9710
6.8776 -1.6597 -2.0029 0.9710
7.0253 0.8546 -2.0035 0.9710
6.9213 1.4790 -2.0036 0.9710
6.2821 3.2618 -2.0038 0.9710
5.9657 3.8101 -2.0039 0.9710
4.7419 5.2558 -2.0040 0.9710
3.5970 5.8001 -1.9321 0.9720
2.4126 6.1077 -1.8591 0.9731
1.2869 6.4390 -1.8589 0.9731
0.7065 6.5279 -1.8588 0.9731
-2.7297 5.9683 -1.8579 0.9731
-3.2518 5.7000 -1.8577 0.9731
-4.5415 5.4208 -2.0020 0.9710
-5.0072 4.9929 -2.0018 0.9710
-6.1501 3.4854 -2.0012 0.9710
-6.9789 1.1100 -2.0005 0.9711
-7.0496 0.4820 -2.0004 0.9711
-7.0640 -0.1497 -2.0002 0.9711
-7.0219 -0.7802 -2.0001 0.9711
-5.6341 -4.2602 -1.9996 0.9711
-4.5000 -4.8846 -1.8802 0.9728
-3.9755 -5.1758 -1.8476 0.9732
-1.7178 -3.3317 -1.0612 0.9845
-1.1204 -3.6591 -1.0833 0.9842
-0.8200 -3.8917 -1.1259 0.9836
-0.4110 -3.4612 -0.9867 0.9856
0.1608 -2.6441 -0.7499 0.9890
0.3981 -2.6309 -0.7533 0.9890
0.6398 -2.6183 -0.7630 0.9889
4.5878 -4.6709 -1.8534 0.9731
5.7747 -4.0830 -2.0021 0.9710
6.8415 -1.8024 -2.0029 0.9710
6.9757 -1.1840 -2.0030 0.9710
7.0542 -0.5561 -2.0032 0.9710
7.0761 0.0764 -2.0033 0.9710
7.0415 0.7083 -2.0035 0.9710
6.9504 1.3347 -2.0036 0.9710
6.8038 1.9504 -2.0037 0.9710
5.6903 4.2105 -2.0039 0.9710
5.2914 4.7021 -2.0040 0.9710
4.3701 5.5687 -2.0039 0.9710
1.9878 6.2587 -1.8590 0.9731
1.3545 6.1126 -1.7724 0.9743
0.8421 6.5118 -1.8588 0.9731
-0.3070 6.0947 -1.7275 0.9750
-0.9147 6.5007 -1.8584 0.9731
-1.4917 6.3924 -1.8583 0.9731
-2.0567 6.2331 -1.8581 0.9731
-2.6051 6.0239 -1.8580 0.9731
-3.1326 5.7665 -1.8578 0.9731
-3.7420 5.6241 -1.9124 0.9723
-4.9023 5.0961 -2.0018 0.9710
-5.7299 4.1415 -2.0014 0.9710
-6.3743 3.0550 -2.0011 0.9710
-6.6212 2.4731 -2.0009 0.9710
-7.0367 -0.6340 -2.0001 0.9711
-6.3676 -3.0579 -1.9997 0.9711
-6.0688 -3.6145 -1.9997 0.9711
-5.3197 -4.6291 -1.9963 0.9711
-4.6895 -4.8825 -1.9165 0.9722
-3.6111 -5.4364 -1.8476 0.9732
-1.8549 -3.4210 -1.1017 0.9840
-1.1973 -3.6383 -1.0843 0.9842
-0.8824 -3.7948 -1.1029 0.9839
-0.5508 -3.9370 -1.1254 0.9836
0.3427 -2.6336 -0.7518 0.9890
0.5830 -2.6212 -0.7602 0.9889
0.8322 -2.6131 -0.7763 0.9887
1.3841 -3.2942 -1.0115 0.9853
1.8929 -3.5726 -1.1446 0.9833
2.2473 -3.4549 -1.1668 0.9830
5.2185 -4.6300 -1.9749 0.9714
6.3466 -3.1233 -2.0025 0.9710
6.8024 -1.9443 -2.0028 0.9710
6.9494 -1.3288 -2.0030 0.9710
7.0409 -0.7027 -2.0031 0.9710
7.0761 -0.0708 -2.0033 0.9710
6.8428 1.8084 -2.0037 0.9710
6.6541 2.4127 -2.0037 0.9710
5.7766 4.0912 -2.0039 0.9710
5.3881 4.5910 -2.0039 0.9710
3.9392 5.7987 -1.9845 0.9713
3.2239 5.8008 -1.8787 0.9728
2.6645 6.0022 -1.8591 0.9731
2.1175 6.2160 -1.8590 0.9731
1.4788 6.0726 -1.7694 0.9744
0.9774 6.4930 -1.8588 0.9731
0.3933 6.5540 -1.8587 0.9731
-2.4793 6.0769 -1.8580 0.9731
-4.3039 5.5944 -1.9982 0.9711
-5.6427 4.2598 -2.0015 0.9710
-6.0001 3.7383 -2.0013 0.9710
-6.3095 3.1870 -2.0011 0.9710
-6.5684 2.6103 -2.0009 0.9710
-7.0237 0.7748 -2.0004 0.9711
-7.0485 -0.4875 -2.0001 0.9711
-6.9763 -1.1152 -2.0000 0.9711
-6.4299 -2.9248 -1.9997 0.9711
-5.6742 -3.1747 -1.9998 0.9732
-5.0184 -4.1337 -1.9998 0.9732
-4.6234 -4.5600 -1.9973 0.9732
-2.1632 -3.0729 -1.1559 0.9844
-1.4828 -3.1956 -1.0836 0.9854
-1.1703 -3.2566 -1.0644 0.9856
-0.6049 -3.6088 -1.1255 0.9848
-0.2111 -2.7509 -0.8486 0.9885
0.0334 -2.6007 -0.8000 0.9892
0.2660 -2.5909 -0.8011 0.9892
0.5007 -2.5787 -0.8080 0.9891
1.0016 -2.5768 -0.8503 0.9885
1.5189 -3.0643 -1.0520 0.9858
1.9476 -3.1792 -1.1468 0.9845
2.2664 -3.0497 -1.1687 0.9842
4.7396 -4.4400 -1.9976 0.9732
5.1288 -4.0077 -2.0020 0.9731
5.4668 -3.5338 -2.0022 0.9731
5.7611 -3.0315 -2.0024 0.9731
6.0095 -2.5049 -2.0025 0.9731
6.2097 -1.9581 -2.0027 0.9731
6.3603 -1.3956 -2.0028 0.9731
6.5081 -0.2414 -2.0031 0.9731
4.6856 4.5262 -2.0038 0.9731
4.2625 4.9267 -2.0038 0.9731
2.1421 5.7716 -1.8935 0.9746
1.0609 5.9493 -1.8587 0.9750
-0.0149 6.0424 -1.8585 0.9750
-0.5546 6.0165 -1.8584 0.9750
-1.0899 5.9425 -1.8583 0.9750
-1.6163 5.8209 -1.8581 0.9750
-2.7257 5.6460 -1.9284 0.9741
-3.3427 5.5861 -2.0023 0.9731
-3.8280 5.2646 -2.0021 0.9731
-5.0857 4.0600 -2.0016 0.9731
-5.4276 3.5890 -2.0014 0.9731
-5.7260 3.0895 -2.0012 0.9731
-5.9787 2.5653 -2.0010 0.9731
-6.3388 1.4601 -2.0007 0.9731
-6.4434 0.8879 -2.0006 0.9731
-6.1917 -1.9860 -2.0000 0.9732
-5.9893 -2.5311 -1.9999 0.9732
-5.7390 -3.0560 -1.9999 0.9732
-3.5793 -4.8662 -1.8580 0.9750
-1.5564 -3.1791 -1.0887 0.9853
-0.9590 -3.3817 -1.0811 0.9854
-0.6798 -3.5954 -1.1254 0.9848
-0.0207 -2.6026 -0.8005 0.9892
0.2119 -2.5934 -0.8003 0.9892
0.4458 -2.5818 -0.8059 0.9891
0.6851 -2.5707 -0.8183 0.9889
0.9419 -2.5809 -0.8450 0.9886
1.8727 -3.2047 -1.1417 0.9846
2.1929 -3.0827 -1.1636 0.9843
5.0442 -4.1134 -2.0020 0.9731
5.3920 -3.6467 -2.0021 0.9731
5.9559 -2.6293 -2.0025 0.9731
6.3298 -1.5275 -2.0028 0.9731
6.5016 -0.3767 -2.0031 0.9731
6.5096 0.2057 -2.0032 0.9731
6.3698 1.3611 -2.0035 0.9731
6.2230 1.9249 -2.0035 0.9731
5.7815 3.0019 -2.0037 0.9731
5.4903 3.5065 -2.0037 0.9731
5.1552 3.9831 -2.0038 0.9731
3.4334 5.5363 -2.0037 0.9731
2.2800 5.7721 -1.9089 0.9744
0.6502 6.0078 -1.8587 0.9750
-0.4294 6.0268 -1.8584 0.9750
-1.4949 5.8534 -1.8582 0.9750
-2.0117 5.6959 -1.8580 0.9750
-5.3519 3.7012 -2.0014 0.9731
-5.9241 2.6892 -2.0011 0.9731
-6.3071 1.5917 -2.0008 0.9731
-6.5020 -0.1378 -2.0003 0.9732
-6.0407 -2.4060 -1.9999 0.9732
-5.8014 -2.9360 -1.9999 0.9732
-5.5157 -3.4425 -1.9998 0.9732
-4.8149 -4.3690 -1.9998 0.9732
-4.3920 -4.7673 -1.9937 0.9732
-3.7366 -4.8648 -1.8867 0.9747
-1.6266 -3.1547 -1.0917 0.9853
-1.0300 -3.3638 -1.0821 0.9854
-0.7584 -3.5996 -1.1315 0.9847
-0.0749 -2.6056 -0.8017 0.9892
0.6285 -2.5722 -0.8144 0.9890
0.8818 -2.5819 -0.8392 0.9886
1.2812 -2.8799 -0.9695 0.9869
2.1190 -3.1140 -1.1585 0.9844
4.5437 -4.6260 -1.9944 0.9732
5.3149 -3.7579 -2.0021 0.9731
5.6299 -3.2683 -2.0023 0.9731
6.1227 -2.2146 -2.0026 0.9731
6.2966 -1.6588 -2.0028 0.9731
6.5124 0.0703 -2.0032 0.9731
6.3967 1.2283 -2.0034 0.9731
6.2617 1.7950 -2.0035 0.9731
5.8427 2.8810 -2.0037 0.9731
5.2369 3.8750 -2.0038 0.9731
4.0219 5.1250 -2.0038 0.9731
3.0455 5.7587 -2.0037 0.9731
2.4201 5.7725 -1.9252 0.9741
1.8334 5.7726 -1.8629 0.9750
0.7750 5.9930 -1.8587 0.9750
-0.8418 5.9829 -1.8583 0.9750
-1.8929 5.7367 -1.8580 0.9750
-2.4472 5.6587 -1.8963 0.9745
-3.6059 5.4195 -2.0022 0.9731
-4.5121 4.6904 -2.0018 0.9731
-5.2738 3.8118 -2.0015 0.9731
-5.5928 3.3251 -2.0013 0.9731
-5.8670 2.8119 -2.0011 0.9731
-6.0943 2.2762 -2.0010 0.9731
-6.2728 1.7225 -2.0008 0.9731
-6.4011 1.1551 -2.0006 0.9731
-6.4782 0.5786 -2.0005 0.9731
-6.3986 -1.1598 -2.0001 0.9732
-6.2690 -1.7268 -2.0000 0.9732
-6.0894 -2.2799 -2.0000 0.9732
-5.8612 -2.8147 -1.9999 0.9732
-5.5861 -3.3270 -1.9998 0.9732
-5.2665 -3.8127 -1.9998 0.9732
-4.9047 -4.2680 -1.9998 0.9732
-3.8988 -4.8631 -1.9171 0.9743
-1.0830 -3.2908 -1.0656 0.9856
-0.8358 -3.5945 -1.1351 0.9847
-0.4614 -3.2981 -1.0243 0.9862
0.3367 -2.5875 -0.8026 0.9891
0.8208 -2.5773 -0.8319 0.9887
2.0447 -3.1434 -1.1534 0.9844
3.7156 -4.7271 -1.8493 0.9752
4.3829 -4.6520 -1.9659 0.9736
4.8632 -4.3148 -1.9997 0.9732
5.2355 -3.8676 -2.0021 0.9731
5.5606 -3.3847 -2.0022 0.9731
6.0752 -2.3414 -2.0026 0.9731
6.3959 -1.2230 -2.0029 0.9731
6.5124 -0.0652 -2.0032 0.9731
6.4926 0.5169 -2.0033 0.9731
6.1239 2.2204 -2.0036 0.9731
5.9013 2.7588 -2.0037 0.9731
5.6314 3.2751 -2.0037 0.9731
5.3163 3.7652 -2.0038 0.9731
4.5614 4.6513 -2.0038 0.9731
4.1276 5.0402 -2.0038 0.9731
2.5627 5.7728 -1.9427 0.9739
1.9658 5.7707 -1.8751 0.9748
1.4299 5.8717 -1.8588 0.9750
0.8995 5.9757 -1.8587 0.9750
0.3620 6.0318 -1.8586 0.9750
-1.2502 5.9107 -1.8582 0.9750
-3.4925 5.4934 -2.0022 0.9731
-3.9690 5.1590 -2.0020 0.9731
-5.1935 3.9207 -2.0015 0.9731
-6.0457 2.4026 -2.0010 0.9731
-6.5023 0.1327 -2.0004 0.9731
-3.8829 -4.5835 -1.9968 0.9750
-1.1018 -3.0661 -1.0830 0.9864
-0.1983 -2.5833 -0.8612 0.9891
0.0331 -2.5758 -0.8563 0.9892
0.2634 -2.5656 -0.8573 0.9892
0.9889 -2.5442 -0.9073 0.9886
1.7904 -2.9225 -1.1393 0.9857
3.9999 -4.4825 -1.9970 0.9750
4.3950 -4.1172 -2.0018 0.9749
4.7456 -3.7084 -2.0020 0.9749
5.0584 -3.2698 -2.0021 0.9749
5.3307 -2.8050 -2.0023 0.9749
5.7457 -1.8118 -2.0026 0.9749
5.8851 -1.2913 -2.0028 0.9749
6.0179 0.3156 -2.0031 0.9749
5.9660 0.8520 -2.0033 0.9749
5.8663 1.3817 -2.0033 0.9749
5.0113 3.3493 -2.0036 0.9749
4.6921 3.7837 -2.0036 0.9749
4.3353 4.1878 -2.0036 0.9749
3.0695 5.1874 -2.0036 0.9749
2.0972 5.6505 -2.0035 0.9749
1.0229 5.7362 -1.9368 0.9757
-0.0141 5.7175 -1.9005 0.9762
-1.0432 5.6883 -1.9224 0.9759
-1.5741 5.6691 -1.9557 0.9755
-2.1240 5.6376 -2.0026 0.9749
-2.6190 5.4249 -2.0024 0.9749
-3.5421 4.8714 -2.0021 0.9749
-4.3518 4.1625 -2.0017 0.9749
-4.7059 3.7568 -2.0016 0.9749
-5.0223 3.3210 -2.0014 0.9749
-5.2985 2.8588 -2.0013 0.9749
-5.5323 2.3738 -2.0011 0.9749
-5.8655 1.3511 -2.0008 0.9749
-5.9624 0.8216 -2.0007 0.9749
-6.0116 0.2856 -2.0005 0.9750
-5.9657 -0.7888 -2.0003 0.9750
-5.8711 -1.3186 -2.0002 0.9750
-5.5423 -2.3422 -2.0001 0.9750
-5.3107 -2.8279 -2.0000 0.9750
-5.0367 -3.2910 -2.0000 0.9750
-4.3705 -4.1348 -1.9999 0.9750
-3.9801 -4.5048 -1.9982 0.9750
-0.9087 -3.2045 -1.1072 0.9861
-0.6290 -3.3270 -1.1255 0.9858
-0.2625 -2.6864 -0.8972 0.9887
-0.0205 -2.5783 -0.8571 0.9892
0.2098 -2.5681 -0.8565 0.9892
0.6775 -2.5423 -0.8746 0.9890
2.0134 -2.8305 -1.1546 0.9855
3.9031 -4.5617 -1.9956 0.9750
4.3080 -4.2073 -2.0016 0.9749
4.6674 -3.8062 -2.0019 0.9749
4.9892 -3.3742 -2.0021 0.9749
5.2711 -2.9152 -2.0023 0.9749
6.0157 -0.3485 -2.0030 0.9749
6.0231 0.1903 -2.0031 0.9749
5.9824 0.7277 -2.0032 0.9749
5.7579 1.7810 -2.0034 0.9749
5.0799 3.2444 -2.0036 0.9749
4.7698 3.6853 -2.0036 0.9749
4.4215 4.0967 -2.0036 0.9749
3.6218 4.8182 -2.0036 0.9749
2.2143 5.6057 -2.0035 0.9749
1.6933 5.7427 -1.9902 0.9751
0.6201 5.7302 -1.9159 0.9760
-0.4066 5.7076 -1.9021 0.9762
-1.4491 5.6739 -1.9466 0.9756
-1.9962 5.6519 -1.9925 0.9751
-2.9848 5.2321 -2.0023 0.9749
-3.4401 4.9441 -2.0021 0.9749
-3.8677 4.6166 -2.0019 0.9749
-4.2643 4.2522 -2.0018 0.9749
-4.6268 3.8539 -2.0016 0.9749
-5.2380 2.9684 -2.0013 0.9749
-5.8363 1.4728 -2.0008 0.9749
-5.9441 0.9454 -2.0007 0.9749
-6.0044 0.4106 -2.0006 0.9750
-5.3684 -2.7169 -2.0000 0.9750
-4.7990 -3.6288 -1.9999 0.9750
-2.1395 -2.7854 -1.1675 0.9853
-1.7714 -2.7912 -1.0989 0.9862
-1.5004 -2.9099 -1.0883 0.9863
-0.0742 -2.5806 -0.8581 0.9892
0.1563 -2.5705 -0.8560 0.9892
1.6057 -2.8839 -1.0972 0.9862
2.2301 -2.7188 -1.1689 0.9853
4.5871 -3.9024 -2.0019 0.9749
4.9179 -3.4772 -2.0021 0.9749
5.2093 -3.0242 -2.0022 0.9749
5.4591 -2.5469 -2.0024 0.9749
5.9403 -1.0083 -2.0028 0.9749
6.0070 -0.4736 -2.0030 0.9749
6.0257 0.0650 -2.0031 0.9749
5.9961 0.6032 -2.0032 0.9749
5.7936 1.6608 -2.0034 0.9749
5.4059 2.6656 -2.0035 0.9749
5.1462 3.1380 -2.0036 0.9749
4.1300 4.3904 -2.0036 0.9749
2.8178 5.3282 -2.0036 0.9749
1.8242 5.7435 -2.0031 0.9749
0.2241 5.7228 -1.9037 0.9761
-0.2876 5.7108 -1.9007 0.9762
-1.8667 5.6574 -1.9803 0.9752
-2.3912 5.5293 -2.0025 0.9749
-2.8754 5.2931 -2.0023 0.9749
-3.7709 4.6961 -2.0020 0.9749
-4.1751 4.3401 -2.0018 0.9749
-4.8800 3.5271 -2.0015 0.9749
-5.1752 3.0768 -2.0013 0.9749
-5.4290 2.6019 -2.0012 0.9749
-5.8045 1.5939 -2.0009 0.9749
-5.9233 1.0689 -2.0007 0.9749
-5.9947 0.5354 -2.0006 0.9749
-5.6350 -2.1097 -2.0001 0.9750
-5.1693 -3.0788 -2.0000 0.9750
-4.5387 -3.9495 -1.9999 0.9750
-3.7542 -4.6828 -1.9951 0.9750
-1.5621 -2.8810 -1.0894 0.9863
-1.2939 -2.9984 -1.0855 0.9863
-1.0174 -3.0917 -1.0819 0.9864
-0.7677 -3.3014 -1.1267 0.9858
-0.4153 -2.9685 -0.9963 0.9874
-0.1282 -2.5860 -0.8607 0.9891
0.1028 -2.5727 -0.8559 0.9892
0.3334 -2.5622 -0.8589 0.9892
0.5674 -2.5512 -0.8688 0.9890
1.4775 -2.7886 -1.0490 0.9868
1.8787 -2.8883 -1.1453 0.9856
2.1651 -2.7545 -1.1646 0.9853
4.1234 -4.3766 -1.9988 0.9750
4.5049 -3.9969 -2.0019 0.9749
5.9958 -0.5984 -2.0029 0.9749
6.0257 -0.0603 -2.0031 0.9749
5.9408 1.0132 -2.0033 0.9749
5.8268 1.5399 -2.0034 0.9749
5.6662 2.0545 -2.0035 0.9749
5.2104 3.0303 -2.0036 0.9749
4.9189 3.4837 -2.0036 0.9749
3.8190 4.6634 -2.0036 0.9749
1.3979 5.7403 -1.9639 0.9754
0.8631 5.7340 -1.9275 0.9759
0.3436 5.7252 -1.9065 0.9761
-0.6814 5.6998 -1.9081 0.9761
-1.7387 5.6626 -1.9690 0.9753
-2.7648 5.3519 -2.0023 0.9749
-3.2316 5.0830 -2.0022 0.9749
-3.6725 4.7736 -2.0020 0.9749
-4.4627 4.0431 -2.0017 0.9749
-5.1102 3.1838 -2.0014 0.9749
-5.5943 2.2232 -2.0010 0.9749
-6.0036 -0.4152 -2.0004 0.9750
-5.8332 -1.4769 -2.0002 0.9750
-5.4769 -2.4913 -2.0000 0.9750
-4.3169 -3.5559 -2.0001 0.9765
-2.1205 -2.5031 -1.1732 0.9862
-1.8201 -2.5855 -1.1307 0.9867
-1.5695 -2.7164 -1.1219 0.9868
-1.2781 -2.7543 -1.0858 0.9872
-1.0234 -2.8478 -1.0822 0.9872
-0.8026 -3.0722 -1.1355 0.9866
-0.4896 -2.9209 -1.0591 0.9875
0.2609 -2.5405 -0.9133 0.9892
0.7277 -2.5188 -0.9376 0.9889
1.2378 -2.4973 -0.9967 0.9882
1.6356 -2.6699 -1.1197 0.9868
2.1307 -2.3878 -1.1444 0.9865
4.4112 -3.4470 -2.0020 0.9765
5.1685 -2.1543 -2.0024 0.9765
5.3407 -1.6841 -2.0026 0.9765
5.4701 -1.2003 -2.0027 0.9765
5.5936 0.2933 -2.0030 0.9765
5.4526 1.2843 -2.0032 0.9765
5.3162 1.7663 -2.0033 0.9765
5.1373 2.2343 -2.0034 0.9765
4.9173 2.6844 -2.0034 0.9765
4.6579 3.1131 -2.0035 0.9765
4.3612 3.5168 -2.0035 0.9765
3.6657 4.2369 -2.0035 0.9765
2.8530 4.8215 -2.0034 0.9765
0.9834 5.5147 -2.0032 0.9765
0.4867 5.5802 -2.0031 0.9765
-0.0138 5.6011 -2.0030 0.9765
-1.0103 5.5086 -2.0028 0.9765
-1.9743 5.2401 -2.0025 0.9765
-2.4344 5.0424 -2.0024 0.9765
-2.8749 4.8044 -2.0022 0.9765
-3.6835 4.2154 -2.0019 0.9765
-4.3743 3.4920 -2.0016 0.9765
-4.6684 3.0870 -2.0014 0.9765
-5.1425 2.2066 -2.0011 0.9765
-5.5424 0.7637 -2.0007 0.9765
-5.5456 -0.7332 -2.0004 0.9765
-5.1520 -2.1773 -2.0002 0.9765
-4.9368 -2.6288 -2.0001 0.9765
-4.6821 -3.0593 -2.0001 0.9765
-4.3900 -3.4653 -2.0001 0.9765
-4.0628 -3.8437 -2.0000 0.9765
-3.7031 -4.1913 -2.0000 0.9765
-1.6432 -2.7123 -1.1341 0.9866
-1.0832 -2.8280 -1.0829 0.9872
-0.8660 -3.0537 -1.1351 0.9866
-0.2504 -2.5630 -0.9209 0.9891
-0.0203 -2.5541 -0.9134 0.9892
0.4374 -2.5333 -0.9193 0.9891
1.1730 -2.4956 -0.9861 0.9884
2.0660 -2.4145 -1.1364 0.9866
4.0047 -3.9111 -2.0018 0.9765
4.3384 -3.5379 -2.0019 0.9765
4.8996 -2.7097 -2.0022 0.9765
5.1225 -2.2613 -2.0024 0.9765
5.5399 -0.8222 -2.0028 0.9765
5.5915 -0.3240 -2.0029 0.9765
5.5605 0.6764 -2.0031 0.9765
5.4781 1.1706 -2.0032 0.9765
5.3518 1.6554 -2.0033 0.9765
4.9720 2.5816 -2.0034 0.9765
4.1096 3.8078 -2.0035 0.9765
3.3663 4.4784 -2.0035 0.9765
2.9527 4.7611 -2.0035 0.9765
2.5155 5.0058 -2.0034 0.9765
2.0581 5.2104 -2.0034 0.9765
1.5843 5.3732 -2.0033 0.9765
0.6027 5.5690 -2.0031 0.9765
0.1027 5.6002 -2.0030 0.9765
-0.3980 5.5867 -2.0029 0.9765
-1.8649 5.2801 -2.0025 0.9765
-2.3290 5.0921 -2.0024 0.9765
-2.7744 4.8633 -2.0022 0.9765
-3.1976 4.5956 -2.0021 0.9765
-4.3008 3.5823 -2.0016 0.9765
-4.6033 3.1835 -2.0015 0.9765
-5.0956 2.3131 -2.0012 0.9765
-5.2815 1.8484 -2.0010 0.9765
-5.5254 0.8789 -2.0008 0.9765
-5.5815 0.3817 -2.0006 0.9765
-5.5930 -0.1185 -2.0005 0.9765
-5.5597 -0.6177 -2.0004 0.9765
-5.4820 -1.1119 -2.0003 0.9765
-5.1962 -2.0697 -2.0002 0.9765
-4.9904 -2.5256 -2.0001 0.9765
-4.1419 -3.7583 -2.0000 0.9765
-1.9325 -2.5160 -1.1345 0.9866
-1.6927 -2.6671 -1.1296 0.9867
-1.1426 -2.8069 -1.0837 0.9872
-0.9070 -2.9620 -1.1078 0.9869
-0.6489 -3.0799 -1.1256 0.9867
-0.3111 -2.6197 -0.9434 0.9889
0.8576 -2.5110 -0.9489 0.9888
1.1125 -2.5009 -0.9788 0.9884
1.7947 -2.6374 -1.1408 0.9865
2.0021 -2.4408 -1.1289 0.9867
4.5712 -3.2321 -2.0021 0.9765
4.8421 -2.8110 -2.0022 0.9765
5.0742 -2.3673 -2.0023 0.9765
5.2257 2.0187 -2.0033 0.9765
5.0246 2.4776 -2.0034 0.9765
4.7833 2.9167 -2.0034 0.9765
4.1879 3.7215 -2.0035 0.9765
3.0511 4.6987 -2.0035 0.9765
2.6191 4.9524 -2.0034 0.9765
1.6957 5.3392 -2.0033 0.9765
0.7184 5.5553 -2.0031 0.9765
0.2192 5.5970 -2.0031 0.9765
-2.6727 4.9200 -2.0023 0.9765
-3.5051 4.3651 -2.0020 0.9765
-4.5361 3.2786 -2.0015 0.9765
-4.8106 2.8600 -2.0014 0.9765
-5.3956 1.4816 -2.0009 0.9765
-5.5724 0.4977 -2.0007 0.9765
-5.5943 -0.0022 -2.0006 0.9765
-5.5714 -0.5020 -2.0005 0.9765
-5.5040 -0.9977 -2.0004 0.9765
-5.3927 -1.4854 -2.0003 0.9765
-5.0419 -2.4212 -2.0001 0.9765
-4.2191 -3.6714 -2.0000 0.9765
-3.8742 -4.0337 -2.0000 0.9765
-1.4754 -2.7210 -1.1069 0.9869
-1.2016 -2.7845 -1.0845 0.9872
-0.7130 -3.0665 -1.1259 0.9867
1.3563 -2.5598 -1.0359 0.9878
1.9940 -2.5368 -1.1539 0.9864
2.2428 -2.3804 -1.1696 0.9862
4.1874 -3.7152 -2.0019 0.9765
5.0238 -2.4723 -2.0023 0.9765
5.3844 -1.5390 -2.0026 0.9765
5.5007 -1.0518 -2.0027 0.9765
5.5730 -0.5562 -2.0029 0.9765
5.5837 0.4446 -2.0031 0.9765
5.5219 0.9417 -2.0032 0.9765
5.4159 1.4313 -2.0033 0.9765
5.2665 1.9096 -2.0033 0.9765
5.0750 2.3725 -2.0034 0.9765
4.2644 3.6336 -2.0035 0.9765
3.5497 4.3345 -2.0035 0.9765
3.1482 4.6343 -2.0035 0.9765
2.7215 4.8969 -2.0034 0.9765
2.2730 5.1203 -2.0034 0.9765
1.8064 5.3028 -2.0033 0.9765
1.3254 5.4428 -2.0033 0.9765
0.8338 5.5392 -2.0032 0.9765
0.3355 5.5913 -2.0031 0.9765
-0.1653 5.5986 -2.0030 0.9765
-1.1589 5.4791 -2.0027 0.9765
-1.6437 5.3533 -2.0026 0.9765
-2.1153 5.1847 -2.0025 0.9765
-2.5699 4.9746 -2.0023 0.9765
-3.4137 4.4372 -2.0020 0.9765
-3.7961 4.1141 -2.0019 0.9765
-4.1482 3.7582 -2.0017 0.9765
-4.9952 2.5231 -2.0012 0.9765
-5.2002 2.0666 -2.0011 0.9765
-5.3637 1.5936 -2.0010 0.9765
-5.5932 0.1142 -2.0006 0.9765
-5.5237 -0.8830 -2.0004 0.9765
-5.2779 -1.8518 -2.0002 0.9765
-5.0912 -2.3159 -2.0002 0.9765
-4.3091 -2.9453 -2.0002 0.9779
-4.0287 -3.3184 -2.0002 0.9779
-3.7161 -3.6651 -2.0002 0.9779
-2.0941 -2.4719 -1.2415 0.9862
-1.7418 -2.4743 -1.1596 0.9871
-0.4526 -2.7003 -1.0492 0.9883
-0.1945 -2.5342 -0.9740 0.9892
0.4868 -2.5069 -0.9786 0.9891
0.7214 -2.4970 -0.9960 0.9889
1.2180 -2.4574 -1.0511 0.9883
1.7714 -2.3837 -1.1381 0.9874
2.0979 -2.3511 -1.2075 0.9866
4.6237 -2.4330 -2.0022 0.9779
4.8230 -2.0103 -2.0024 0.9779
4.9836 -1.5715 -2.0025 0.9779
5.1044 -1.1200 -2.0026 0.9779
5.2228 -0.1937 -2.0029 0.9779
5.1744 0.7390 -2.0031 0.9779
5.0879 1.1984 -2.0031 0.9779
4.7937 2.0849 -2.0033 0.9779
4.3463 2.9049 -2.0034 0.9779
4.0695 3.2816 -2.0034 0.9779
3.4205 3.9535 -2.0034 0.9779
2.6622 4.4990 -2.0033 0.9779
2.2496 4.7188 -2.0033 0.9779
0.9176 5.1459 -2.0031 0.9779
-0.9427 5.1403 -2.0027 0.9779
-3.4373 3.9337 -2.0019 0.9779
-3.7748 3.6106 -2.0017 0.9779
-4.0820 3.2587 -2.0016 0.9779
-4.3565 2.8807 -2.0015 0.9779
-4.5961 2.4798 -2.0013 0.9779
-4.7989 2.0591 -2.0012 0.9779
-5.2149 0.2477 -2.0007 0.9779
-4.9704 -1.5942 -2.0003 0.9779
-4.8080 -2.0319 -2.0003 0.9779
-4.0968 -3.2339 -2.0002 0.9779
-3.7915 -3.5870 -2.0002 0.9779
-1.8166 -2.4697 -1.1749 0.9870
-1.2846 -2.6240 -1.1196 0.9876
-1.0286 -2.6853 -1.1020 0.9878
-0.5345 -2.8269 -1.1025 0.9878
-0.2478 -2.5364 -0.9766 0.9891
-0.0201 -2.5295 -0.9694 0.9892
0.4333 -2.5092 -0.9758 0.9892
1.1577 -2.4631 -1.0430 0.9884
1.4568 -2.4931 -1.1066 0.9877
2.0178 -2.3582 -1.1894 0.9868
3.7371 -3.6497 -2.0018 0.9779
4.5721 -2.5286 -2.0022 0.9779
5.0799 -1.2259 -2.0026 0.9779
5.2176 -0.3023 -2.0028 0.9779
5.1117 1.0923 -2.0031 0.9779
3.1412 4.1788 -2.0034 0.9779
2.7552 4.4427 -2.0033 0.9779
2.3472 4.6710 -2.0033 0.9779
1.9205 4.8619 -2.0033 0.9779
1.4784 5.0139 -2.0032 0.9779
1.0245 5.1257 -2.0031 0.9779
-0.3714 5.2132 -2.0028 0.9779
-0.8356 5.1588 -2.0027 0.9779
-2.1733 4.7517 -2.0023 0.9779
-4.2957 2.9708 -2.0015 0.9779
-4.5436 2.5749 -2.0014 0.9779
-4.9287 1.7249 -2.0011 0.9779
-5.1563 0.8201 -2.0008 0.9779
-5.1884 -0.5765 -2.0005 0.9779
-4.6572 -2.3569 -2.0002 0.9779
-4.4279 -2.7635 -2.0002 0.9779
-4.1632 -3.1480 -2.0002 0.9779
-3.5364 -3.8387 -2.0002 0.9779
-1.8949 -2.4670 -1.1921 0.9868
-1.5795 -2.4887 -1.1296 0.9875
-1.0911 -2.6804 -1.1090 0.9877
-0.8603 -2.8097 -1.1261 0.9875
-0.6056 -2.8742 -1.1256 0.9875
-0.3013 -2.5368 -0.9790 0.9891
0.6111 -2.5010 -0.9866 0.9890
0.8475 -2.4816 -1.0049 0.9888
1.3718 -2.4639 -1.0807 0.9880
1.9405 -2.3658 -1.1726 0.9870
3.6603 -3.7266 -2.0017 0.9779
3.9789 -3.3849 -2.0019 0.9779
4.2657 -3.0161 -2.0020 0.9779
4.9138 -1.7773 -2.0024 0.9779
5.2101 -0.4107 -2.0028 0.9779
5.1333 0.9857 -2.0031 0.9779
4.6886 2.3119 -2.0033 0.9779
4.4633 2.7216 -2.0033 0.9779
3.2274 4.1126 -2.0034 0.9779
2.8470 4.3844 -2.0034 0.9779
1.5823 4.9821 -2.0032 0.9779
1.1309 5.1034 -2.0031 0.9779
0.6703 5.1838 -2.0031 0.9779
0.2045 5.2227 -2.0030 0.9779
-0.2629 5.2198 -2.0029 0.9779
-2.4941 4.5911 -2.0022 0.9779
-3.2709 4.0734 -2.0020 0.9779
-4.2330 3.0595 -2.0015 0.9779
-4.4891 2.6689 -2.0014 0.9779
-5.2002 0.4644 -2.0007 0.9779
-5.1993 -0.4684 -2.0005 0.9779
-5.0325 -1.3862 -2.0004 0.9779
-4.7052 -2.2596 -2.0003 0.9779
-3.6155 -3.7643 -2.0002 0.9779
-1.9764 -2.4652 -1.2108 0.9866
-1.1551 -2.6766 -1.1172 0.9876
-0.8983 -2.7297 -1.1013 0.9878
-0.1256 -2.5328 -0.9718 0.9892
0.1008 -2.5239 -0.9680 0.9892
0.5568 -2.5037 -0.9829 0.9891
0.7928 -2.4893 -1.0011 0.9889
1.2987 -2.4511 -1.0630 0.9882
1.5782 -2.4262 -1.1092 0.9877
2.2140 -2.3499 -1.2372 0.9863
3.9075 -3.4669 -2.0019 0.9779
4.4628 -2.7165 -2.0021 0.9779
4.6880 -2.3070 -2.0023 0.9779
4.8757 -1.8791 -2.0024 0.9779
5.2103 0.4148 -2.0030 0.9779
5.0537 1.3356 -2.0032 0.9779
4.7356 2.2139 -2.0033 0.9779
4.2662 3.0214 -2.0034 0.9779
2.5395 4.5694 -2.0033 0.9779
1.2368 5.0788 -2.0032 0.9779
0.7780 5.1688 -2.0031 0.9779
-0.1543 5.2242 -2.0029 0.9779
-0.6204 5.1893 -2.0028 0.9779
-1.0815 5.1128 -2.0027 0.9779
-1.9739 4.8381 -2.0024 0.9779
-2.8030 4.4089 -2.0021 0.9779
-3.8710 3.5071 -2.0017 0.9779
-4.1685 3.1470 -2.0016 0.9779
-4.8528 1.9285 -2.0011 0.9779
-5.2196 0.1065 -2.0007 0.9779
-5.2080 -0.3602 -2.0006 0.9779
-5.1547 -0.8240 -2.0005 0.9779
-4.0349 -2.7579 -2.0003 0.9791
-3.4796 -3.4319 -2.0003 0.9791
-2.0920 -2.4695 -1.3246 0.9861
-1.4212 -2.4598 -1.1627 0.9878
-0.9208 -2.5623 -1.1144 0.9883
-0.1924 -2.5072 -1.0292 0.9892
0.4819 -2.4816 -1.0346 0.9891
0.7146 -2.4735 -1.0537 0.9889
0.9514 -2.4476 -1.0748 0.9887
1.1936 -2.4080 -1.1000 0.9885
1.7505 -2.3556 -1.2012 0.9874
4.3293 -2.2781 -2.0022 0.9791
4.5158 -1.8823 -2.0023 0.9791
4.6662 -1.4714 -2.0025 0.9791
4.7793 -1.0487 -2.0026 0.9791
4.8541 -0.6175 -2.0027 0.9791
4.8901 -0.1814 -2.0028 0.9791
4.8870 0.2563 -2.0029 0.9791
4.7638 1.1220 -2.0031 0.9791
4.6446 1.5432 -2.0031 0.9791
4.4883 1.9521 -2.0032 0.9791
4.2961 2.3453 -2.0032 0.9791
2.8590 3.9729 -2.0033 0.9791
2.1062 4.4181 -2.0032 0.9791
1.7030 4.5885 -2.0031 0.9791
0.8592 4.8181 -2.0030 0.9791
0.4252 4.8754 -2.0029 0.9791
-0.0120 4.8936 -2.0028 0.9791
-0.4492 4.8727 -2.0027 0.9791
-1.3091 4.7145 -2.0025 0.9791
-1.7249 4.5784 -2.0024 0.9791
-2.5119 4.1978 -2.0022 0.9791
-2.8767 3.9563 -2.0020 0.9791
-3.2185 3.6832 -2.0019 0.9791
-4.4935 1.9281 -2.0012 0.9791
-1.9478 0.2684 -0.8047 0.9915
-1.9355 -0.0813 -0.7928 0.9917
-1.9502 -0.2578 -0.8051 0.9915
-4.5021 -1.9026 -2.0004 0.9791
-4.3140 -2.2972 -2.0003 0.9791
-4.0914 -2.6734 -2.0003 0.9791
-3.8362 -3.0282 -2.0003 0.9791
-1.8012 -2.4488 -1.2441 0.9869
-1.2110 -2.4736 -1.1272 0.9882
-0.4961 -2.6239 -1.0929 0.9885
-0.2371 -2.4267 -0.9979 0.9895
0.2037 -2.4934 -1.0239 0.9892
0.4289 -2.4839 -1.0317 0.9892
0.6592 -2.4736 -1.0477 0.9890
0.8953 -2.4533 -1.0688 0.9888
1.6806 -2.3625 -1.1866 0.9875
4.0520 -2.7404 -2.0020 0.9791
4.4756 -1.9758 -2.0023 0.9791
4.6345 -1.5681 -2.0024 0.9791
4.8853 -0.2830 -2.0028 0.9791
4.8912 0.1546 -2.0029 0.9791
4.8581 0.5910 -2.0030 0.9791
4.7861 1.0227 -2.0030 0.9791
4.6757 1.4463 -2.0031 0.9791
4.3439 2.2554 -2.0032 0.9791
3.8733 2.9926 -2.0033 0.9791
3.2788 3.6342 -2.0033 0.9791
2.9410 3.9126 -2.0033 0.9791
2.5797 4.1596 -2.0032 0.9791
2.1977 4.3734 -2.0032 0.9791
1.7981 4.5522 -2.0032 0.9791
1.3842 4.6945 -2.0031 0.9791
0.0897 4.8929 -2.0029 0.9791
-0.3477 4.8811 -2.0028 0.9791
-0.7824 4.8302 -2.0027 0.9791
-2.0349 4.4491 -2.0023 0.9791
-2.4241 4.2492 -2.0022 0.9791
-3.4634 3.4536 -2.0018 0.9791
-3.7579 3.1301 -2.0016 0.9791
-4.0222 2.7817 -2.0015 0.9791
-1.9187 -0.0407 -0.7855 0.9917
-1.9564 -0.2174 -0.8056 0.9915
-4.5407 -1.8086 -2.0004 0.9791
-4.1462 -2.5877 -2.0003 0.9791
-3.8983 -2.9478 -2.0003 0.9791
-3.6194 -3.2842 -2.0003 0.9791
-3.3115 -3.5945 -2.0003 0.9791
-1.8825 -2.4509 -1.2649 0.9867
-1.0251 -2.5182 -1.1127 0.9883
-0.5671 -2.6913 -1.1257 0.9882
-0.2981 -2.5103 -1.0346 0.9891
0.1518 -2.4962 -1.0235 0.9892
0.3762 -2.4861 -1.0291 0.9892
1.0862 -2.4416 -1.0937 0.9885
1.3321 -2.3924 -1.1207 0.9882
1.6122 -2.3693 -1.1729 0.9877
1.9191 -2.3396 -1.2385 0.9870
3.7255 -3.1694 -2.0019 0.9791
3.9941 -2.8240 -2.0020 0.9791
4.4335 -2.0684 -2.0023 0.9791
4.7314 -1.2465 -2.0025 0.9791
4.8241 -0.8188 -2.0026 0.9791
4.8783 -0.3846 -2.0027 0.9791
3.9347 2.9114 -2.0033 0.9791
3.6588 3.2513 -2.0033 0.9791
3.3537 3.5652 -2.0033 0.9791
2.6656 4.1051 -2.0033 0.9791
1.8924 4.5138 -2.0032 0.9791
1.0588 4.7782 -2.0031 0.9791
0.6276 4.8535 -2.0030 0.9791
0.1915 4.8900 -2.0029 0.9791
-0.2461 4.8873 -2.0028 0.9791
-0.6818 4.8455 -2.0027 0.9791
-1.5331 4.6463 -2.0025 0.9791
-1.9420 4.4905 -2.0023 0.9791
-3.3909 3.5249 -2.0018 0.9791
-4.2034 2.4990 -2.0014 0.9791
-4.4095 2.1133 -2.0013 0.9791
-4.7147 1.2947 -2.0010 0.9791
-1.8982 -0.0007 -0.7769 0.9918
-4.4059 -2.1158 -2.0004 0.9791
-4.1991 -2.5009 -2.0003 0.9791
-3.9588 -2.8660 -2.0003 0.9791
-3.6869 -3.2083 -2.0003 0.9791
-3.3855 -3.5248 -2.0003 0.9791
-1.6285 -2.4517 -1.2046 0.9874
-1.3364 -2.4647 -1.1475 0.9880
-0.8519 -2.5885 -1.1153 0.9883
-0.6229 -2.6789 -1.1257 0.9882
-0.3512 -2.5105 -1.0375 0.9891
0.0998 -2.4989 -1.0236 0.9892
0.3237 -2.4881 -1.0269 0.9892
1.0268 -2.4438 -1.0849 0.9886
1.2704 -2.3977 -1.1106 0.9883
2.1990 -2.3340 -1.3125 0.9862
4.3894 -2.1601 -2.0022 0.9791
4.5652 -1.7594 -2.0024 0.9791
4.7044 -1.3446 -2.0025 0.9791
4.8060 -0.9190 -2.0026 0.9791
4.8691 -0.4859 -2.0027 0.9791
4.8933 -0.0490 -2.0028 0.9791
4.8784 0.3884 -2.0029 0.9791
4.8244 0.8228 -2.0030 0.9791
4.6012 1.6683 -2.0031 0.9791
4.4339 2.0728 -2.0032 0.9791
3.7257 3.1745 -2.0033 0.9791
3.4272 3.4947 -2.0033 0.9791
2.7504 4.0488 -2.0033 0.9791
2.3777 4.2783 -2.0032 0.9791
1.9859 4.4735 -2.0032 0.9791
0.7285 4.8395 -2.0030 0.9791
0.2932 4.8850 -2.0029 0.9791
-0.1444 4.8914 -2.0028 0.9791
-0.5809 4.8587 -2.0027 0.9791
-1.4361 4.6773 -2.0025 0.9791
-2.2454 4.3465 -2.0022 0.9791
-2.6245 4.1282 -2.0021 0.9791
-3.6245 3.2838 -2.0017 0.9791
-4.5439 1.8057 -2.0012 0.9791
-4.7922 0.9681 -2.0009 0.9791
-1.9565 0.2158 -0.8056 0.9915
-2.0362 -0.3255 -0.8439 0.9911
-4.7383 -1.1997 -2.0005 0.9791
-4.4489 -2.0237 -2.0004 0.9791
-4.0057 -2.2412 -2.0004 0.9802
-3.7894 -2.5900 -2.0004 0.9802
-3.2679 -3.2231 -2.0004 0.9802
-2.1071 -2.4873 -1.4207 0.9859
-1.4076 -2.4362 -1.2262 0.9878
-0.8829 -2.4569 -1.1378 0.9887
-0.4163 -2.4838 -1.0976 0.9891
-0.1904 -2.4803 -1.0841 0.9892
0.0318 -2.4752 -1.0788 0.9893
0.4773 -2.4583 -1.0914 0.9891
0.9335 -2.4016 -1.1230 0.9888
1.4443 -2.3576 -1.2049 0.9880
3.3521 -3.1402 -2.0018 0.9802
3.6195 -2.8284 -2.0019 0.9802
4.0656 -2.1393 -2.0022 0.9802
4.2407 -1.7676 -2.0023 0.9802
4.3819 -1.3818 -2.0024 0.9802
4.5496 0.6497 -2.0029 0.9801
4.4735 1.0537 -2.0030 0.9801
3.8214 2.5540 -2.0032 0.9801
3.3059 3.1934 -2.0032 0.9801
3.0074 3.4760 -2.0032 0.9801
2.6848 3.7308 -2.0032 0.9801
2.3407 3.9557 -2.0031 0.9801
1.2079 4.4344 -2.0030 0.9801
-0.0113 4.5954 -2.0028 0.9801
-0.4218 4.5758 -2.0027 0.9801
-0.8289 4.5196 -2.0026 0.9801
-1.6199 4.2995 -2.0024 0.9802
-2.3589 3.9421 -2.0021 0.9802
-3.0225 3.4589 -2.0019 0.9802
-3.3192 3.1748 -2.0018 0.9802
-3.5893 2.8654 -2.0016 0.9802
-4.0415 2.1806 -2.0014 0.9802
-4.2199 1.8107 -2.0013 0.9802
-1.5853 0.5181 -0.7269 0.9927
-1.5312 0.3527 -0.6848 0.9932
-1.5188 -0.2008 -0.6677 0.9933
-1.5269 -0.3429 -0.6820 0.9932
-1.7972 -2.4434 -1.3219 0.9869
-1.4754 -2.4353 -1.2409 0.9877
-0.9399 -2.4539 -1.1452 0.9886
-0.2324 -2.3782 -1.0414 0.9896
-0.0197 -2.4767 -1.0794 0.9893
0.6530 -2.4503 -1.1052 0.9890
1.1218 -2.3868 -1.1494 0.9886
1.3811 -2.3635 -1.1930 0.9881
1.9963 -2.3332 -1.3382 0.9867
4.3522 -1.4726 -2.0024 0.9802
4.5453 -0.6746 -2.0026 0.9801
4.5621 0.5550 -2.0029 0.9801
4.4944 0.9604 -2.0030 0.9801
4.0792 2.1180 -2.0031 0.9801
3.6372 2.8102 -2.0032 0.9801
3.0790 3.4127 -2.0032 0.9801
2.0637 4.1069 -2.0031 0.9801
1.6885 4.2747 -2.0031 0.9801
0.9007 4.5067 -2.0030 0.9801
0.4945 4.5690 -2.0029 0.9801
0.0843 4.5947 -2.0028 0.9801
-0.3266 4.5837 -2.0027 0.9801
-1.1370 4.4519 -2.0025 0.9802
-1.9109 4.1780 -2.0023 0.9802
-2.2764 3.9904 -2.0022 0.9802
-2.6237 3.7708 -2.0020 0.9802
-2.9499 3.5211 -2.0019 0.9802
-3.5290 2.9395 -2.0017 0.9802
-4.1814 1.8981 -2.0013 0.9802
-1.5265 -0.0324 -0.6654 0.9934
-1.5242 -0.1693 -0.6683 0.9933
-1.5094 -0.3062 -0.6712 0.9933
-4.2644 -1.6985 -2.0005 0.9802
-4.0955 -2.0727 -2.0004 0.9802
-3.8938 -2.4302 -2.0004 0.9802
-3.3991 -3.0844 -2.0004 0.9802
-3.1099 -3.3757 -2.0004 0.9802
-1.5446 -2.4337 -1.2562 0.9875
-1.2588 -2.4415 -1.1971 0.9881
-0.9977 -2.4509 -1.1533 0.9885
-0.5234 -2.4839 -1.1063 0.9890
-0.2950 -2.4838 -1.0901 0.9891
-0.0712 -2.4780 -1.0804 0.9892
1.0638 -2.3914 -1.1407 0.9886
1.3190 -2.3689 -1.1817 0.9882
1.9147 -2.3343 -1.3158 0.9869
3.2185 -3.2768 -2.0017 0.9802
3.9730 -2.3065 -2.0021 0.9802
4.1634 -1.9424 -2.0022 0.9802
4.3206 -1.5628 -2.0024 0.9802
4.4432 -1.1706 -2.0025 0.9802
4.5302 -0.7690 -2.0026 0.9801
4.5810 -0.3611 -2.0027 0.9801
4.5952 0.0496 -2.0028 0.9801
4.5134 0.8667 -2.0029 0.9801
4.2873 1.6562 -2.0031 0.9801
4.1223 2.0327 -2.0031 0.9801
3.9243 2.3929 -2.0031 0.9801
3.6949 2.7340 -2.0032 0.9801
2.8376 3.6159 -2.0032 0.9801
2.1487 4.0631 -2.0031 0.9801
1.7771 4.2387 -2.0031 0.9801
1.3912 4.3804 -2.0030 0.9801
0.1798 4.5920 -2.0028 0.9801
-0.6402 4.5503 -2.0026 0.9801
-3.7222 2.6903 -2.0016 0.9802
-4.1411 1.9847 -2.0013 0.9802
-1.5603 0.4285 -0.7052 0.9930
-1.5278 0.1364 -0.6685 0.9933
-1.5223 -0.0006 -0.6634 0.9934
-1.4997 -0.2718 -0.6643 0.9934
-1.5608 -0.4299 -0.7056 0.9930
-1.5987 -0.5985 -0.7440 0.9926
-3.9436 -2.3487 -2.0004 0.9802
-1.9686 -2.4555 -1.3716 0.9864
-0.8096 -2.4603 -1.1288 0.9888
-0.5796 -2.4928 -1.1154 0.9889
0.0988 -2.4730 -1.0786 0.9893
0.3205 -2.4629 -1.0824 0.9892
0.5463 -2.4561 -1.0966 0.9891
0.7792 -2.4468 -1.1191 0.9889
1.5286 -2.3500 -1.2218 0.9878
1.8359 -2.3356 -1.2947 0.9871
2.1957 -2.3305 -1.3954 0.9861
3.4359 -3.0484 -2.0018 0.9802
4.1221 -2.0285 -2.0022 0.9802
4.4178 -1.2627 -2.0025 0.9802
4.5725 -0.4563 -2.0027 0.9801
4.5304 0.7726 -2.0029 0.9801
4.1637 1.9465 -2.0031 0.9801
3.9732 2.3107 -2.0031 0.9801
3.4986 2.9810 -2.0032 0.9801
3.2183 3.2817 -2.0032 0.9801
2.2328 4.0175 -2.0031 0.9801
0.6841 4.5446 -2.0029 0.9801
0.2753 4.5873 -2.0028 0.9801
-0.1356 4.5934 -2.0028 0.9801
-1.3486 4.3923 -2.0024 0.9802
-2.1086 4.0817 -2.0022 0.9802
-2.8010 3.6408 -2.0020 0.9802
-1.5724 0.4672 -0.7149 0.9929
-1.5087 0.3048 -0.6708 0.9933
-1.5243 0.1682 -0.6684 0.9933
-1.5264 0.0312 -0.6654 0.9934
-1.5294 -0.1058 -0.6681 0.9933
-1.5471 -0.3917 -0.6955 0.9931
-1.5932 -0.5590 -0.7358 0.9927
-3.7716 -2.1102 -2.0005 0.9811
-3.3358 -2.7477 -2.0004 0.9811
-3.0769 -3.0347 -2.0004 0.9811
-1.7946 -2.5492 -1.4431 0.9864
-1.3990 -2.4214 -1.2944 0.9877
-1.1262 -2.4271 -1.2385 0.9883
-0.8734 -2.4306 -1.1955 0.9887
-0.6361 -2.4350 -1.1650 0.9890
-0.4090 -2.4404 -1.1454 0.9892
0.2495 -2.4302 -1.1308 0.9893
0.4694 -2.4176 -1.1400 0.9892
0.6947 -2.4047 -1.1586 0.9890
1.4299 -2.3342 -1.2671 0.9880
1.7342 -2.3336 -1.3458 0.9873
2.0824 -2.3336 -1.4477 0.9863
3.1561 -2.9566 -2.0018 0.9811
3.9927 -1.6642 -2.0023 0.9811
4.1256 -1.3009 -2.0024 0.9811
4.3235 -0.1604 -2.0027 0.9811
4.2117 0.9920 -2.0029 0.9811
3.1125 3.0066 -2.0031 0.9811
2.8314 3.2726 -2.0031 0.9811
2.5277 3.5125 -2.0031 0.9811
2.2037 3.7242 -2.0031 0.9811
1.5057 4.0568 -2.0030 0.9811
1.1372 4.1750 -2.0029 0.9811
0.7596 4.2597 -2.0029 0.9811
0.3760 4.3104 -2.0028 0.9811
-0.0106 4.3266 -2.0027 0.9811
-0.7804 4.2552 -2.0025 0.9811
-1.5251 4.0480 -2.0023 0.9811
-2.2209 3.7115 -2.0021 0.9811
-2.5435 3.4981 -2.0020 0.9811
-3.1251 2.9892 -2.0018 0.9811
-3.3795 2.6979 -2.0016 0.9811
-1.3288 0.1831 -0.6209 0.9941
-1.3383 0.0636 -0.6202 0.9941
-1.3301 -0.1759 -0.6211 0.9941
-1.3303 -0.4267 -0.6467 0.9939
-3.8147 -2.0313 -2.0005 0.9811
-3.1394 -2.9701 -2.0004 0.9811
-2.1955 -2.4849 -1.5348 0.9855
-1.7864 -2.4287 -1.3956 0.9868
-1.4670 -2.4213 -1.3104 0.9876
-0.9304 -2.4290 -1.2040 0.9886
-0.6903 -2.4343 -1.1713 0.9889
-0.2386 -2.4414 -1.1354 0.9892
1.1130 -2.3681 -1.2112 0.9885
1.3669 -2.3392 -1.2541 0.9881
1.6583 -2.3312 -1.3243 0.9875
1.9963 -2.3331 -1.4214 0.9866
3.3517 -2.7332 -2.0019 0.9811
3.5827 -2.4230 -2.0020 0.9811
4.3192 -0.2502 -2.0027 0.9811
4.3245 0.1367 -2.0027 0.9811
4.2952 0.5225 -2.0028 0.9811
3.8405 1.9940 -2.0030 0.9811
3.4244 2.6458 -2.0031 0.9811
3.1743 2.9412 -2.0031 0.9811
2.8988 3.2130 -2.0031 0.9811
1.9430 3.8666 -2.0030 0.9811
0.8480 4.2431 -2.0029 0.9811
0.4655 4.3017 -2.0028 0.9811
0.0793 4.3259 -2.0027 0.9811
-0.3074 4.3155 -2.0027 0.9811
-0.6917 4.2706 -2.0026 0.9811
-1.4406 4.0789 -2.0024 0.9811
-2.1433 3.7570 -2.0021 0.9811
-2.7774 3.3152 -2.0019 0.9811
-3.0623 3.0536 -2.0018 0.9811
-3.3227 2.7676 -2.0017 0.9811
-3.5564 2.4595 -2.0015 0.9811
-1.3159 0.5973 -0.6689 0.9937
-1.3336 0.4667 -0.6540 0.9938
-1.3105 0.3307 -0.6257 0.9941
-1.3385 0.0915 -0.6210 0.9941
-1.3345 -0.1483 -0.6215 0.9941
-1.3252 -0.3948 -0.6401 0.9939
-1.3292 -0.5294 -0.6623 0.9937
-3.6663 -2.2882 -2.0005 0.9811
-1.5752 -2.4820 -1.3607 0.9871
-0.9881 -2.4274 -1.2131 0.9885
-0.7451 -2.4333 -1.1780 0.9888
-0.5137 -2.4379 -1.1533 0.9891
0.1481 -2.4353 -1.1293 0.9893
0.5890 -2.4107 -1.1487 0.9891
0.8189 -2.3977 -1.1728 0.9889
1.3062 -2.3459 -1.2429 0.9882
1.5858 -2.3305 -1.3048 0.9877
1.9143 -2.3338 -1.3972 0.9868
3.2940 -2.8023 -2.0019 0.9811
3.7406 -2.1716 -2.0021 0.9811
4.0678 -1.4713 -2.0023 0.9811
4.3130 -0.3400 -2.0026 0.9811
4.3264 0.0467 -2.0027 0.9811
4.3050 0.4330 -2.0028 0.9811
4.0365 1.5593 -2.0030 0.9811
3.6947 2.2529 -2.0031 0.9811
3.4787 2.5740 -2.0031 0.9811
3.2348 2.8745 -2.0031 0.9811
2.9650 3.1520 -2.0031 0.9811
1.6731 3.9907 -2.0030 0.9811
-0.6028 4.2841 -2.0026 0.9811
-0.9831 4.2129 -2.0025 0.9811
-1.3555 4.1080 -2.0024 0.9811
-2.0647 3.8008 -2.0022 0.9811
-2.9982 3.1166 -2.0018 0.9811
-1.3184 0.3620 -0.6329 0.9940
-1.3160 0.2375 -0.6190 0.9941
-1.3375 0.1195 -0.6216 0.9941
-1.3334 -0.0005 -0.6172 0.9941
-1.3157 -0.2385 -0.6189 0.9941
-1.3187 -0.3632 -0.6331 0.9940
-1.3323 -0.4988 -0.6585 0.9937
-3.8959 -1.8709 -2.0005 0.9811
-3.5006 -2.5343 -2.0005 0.9811
-3.2602 -2.8369 -2.0004 0.9811
-2.9937 -3.1169 -2.0004 0.9811
-1.9697 -2.4569 -1.4576 0.9862
-1.6451 -2.4766 -1.3762 0.9870
-1.0471 -2.4265 -1.2233 0.9884
-0.8004 -2.4322 -1.1852 0.9888
0.0974 -2.4373 -1.1291 0.9893
0.3158 -2.4269 -1.1328 0.9893
0.5369 -2.4138 -1.1446 0.9892
1.0007 -2.3818 -1.1958 0.9887
1.2466 -2.3528 -1.2325 0.9883
1.5162 -2.3310 -1.2872 0.9878
3.4787 -2.5698 -2.0020 0.9811
3.6946 -2.2489 -2.0021 0.9811
3.8810 -1.9099 -2.0022 0.9811
4.1594 -1.1888 -2.0024 0.9811
4.2492 -0.8125 -2.0025 0.9811
4.3263 -0.0433 -2.0027 0.9811
4.3131 0.3434 -2.0028 0.9811
4.1834 1.1056 -2.0029 0.9811
4.0680 1.4750 -2.0030 0.9811
3.9201 1.8326 -2.0030 0.9811
3.7407 2.1755 -2.0031 0.9811
3.5314 2.5011 -2.0031 0.9811
3.2939 2.8066 -2.0031 0.9811
3.0300 3.0897 -2.0031 0.9811
2.4317 3.5796 -2.0031 0.9811
2.1021 3.7824 -2.0031 0.9811
1.7557 3.9551 -2.0030 0.9811
1.3953 4.0960 -2.0030 0.9811
-0.5136 4.2958 -2.0026 0.9811
-0.8953 4.2325 -2.0025 0.9811
-2.6372 3.4279 -2.0020 0.9811
-2.9327 3.1784 -2.0018 0.9811
-3.4512 2.6054 -2.0016 0.9811
-3.6699 2.2865 -2.0015 0.9811
-1.3294 0.5283 -0.6622 0.9937
-1.3362 0.0273 -0.6186 0.9941
-1.3336 -0.4679 -0.6542 0.9938
-1.3156 -0.5985 -0.6690 0.9936
-2.9037 -2.8638 -2.0005 0.9820
-1.7206 -2.4442 -1.4662 0.9868
-1.4181 -2.4544 -1.3905 0.9875
-1.1258 -2.4263 -1.3120 0.9882
-0.8683 -2.4161 -1.2594 0.9886
-0.4048 -2.4150 -1.2011 0.9891
0.9246 -2.3788 -1.2519 0.9887
2.1016 -2.3552 -1.5484 0.9860
2.9783 -2.7900 -2.0018 0.9820
3.2158 -2.5129 -2.0019 0.9820
4.0772 0.2138 -2.0027 0.9820
3.8749 1.2874 -2.0029 0.9820
3.5841 1.9566 -2.0030 0.9820
3.3950 2.2690 -2.0030 0.9820
-0.7364 4.0154 -2.0025 0.9820
-1.4392 3.8199 -2.0023 0.9820
-2.6854 3.0731 -2.0019 0.9820
-3.1891 2.5459 -2.0016 0.9820
-1.1142 0.6012 -0.6210 0.9944
-1.1582 0.3785 -0.5977 0.9946
-1.1657 0.2685 -0.5868 0.9947
-1.1877 0.1637 -0.5881 0.9947
-1.1964 -0.0503 -0.5874 0.9947
-1.1584 -0.3716 -0.5968 0.9946
-1.1469 -0.4847 -0.6108 0.9945
-1.1173 -0.5950 -0.6209 0.9944
-2.9626 -2.8028 -2.0005 0.9820
-2.7003 -3.0563 -2.0005 0.9820
-1.8621 -2.5316 -1.5416 0.9861
-1.4780 -2.4395 -1.3991 0.9874
-1.1883 -2.4273 -1.3257 0.9880
-0.9258 -2.4172 -1.2697 0.9885
-0.2360 -2.4148 -1.1901 0.9892
0.1966 -2.4062 -1.1842 0.9893
0.8693 -2.3820 -1.2438 0.9888
1.1063 -2.3537 -1.2757 0.9885
1.6515 -2.3217 -1.3976 0.9874
2.9196 -2.8513 -2.0018 0.9820
3.7341 -1.6484 -2.0022 0.9820
3.8667 -1.3083 -2.0023 0.9820
4.0382 -0.5993 -2.0025 0.9820
3.9008 1.2066 -2.0029 0.9820
3.7775 1.5503 -2.0029 0.9820
3.6240 1.8816 -2.0030 0.9820
3.2313 2.4966 -2.0030 0.9820
2.9953 2.7753 -2.0030 0.9820
1.5001 3.7977 -2.0029 0.9820
1.1548 3.9165 -2.0029 0.9820
0.4393 4.0592 -2.0028 0.9820
0.0749 4.0821 -2.0027 0.9820
-0.2901 4.0723 -2.0026 0.9820
-0.6528 4.0299 -2.0025 0.9820
-1.3594 3.8490 -2.0023 0.9820
-2.0225 3.5452 -2.0021 0.9820
-2.3310 3.3502 -2.0020 0.9820
-2.6209 3.1284 -2.0019 0.9820
-2.8897 2.8815 -2.0018 0.9820
-3.1355 2.6117 -2.0017 0.9820
-1.1406 0.5178 -0.6145 0.9944
-1.1838 0.1883 -0.5880 0.9947
-1.1955 0.0817 -0.5878 0.9947
-1.1963 -0.0254 -0.5869 0.9947
-1.1916 -0.1324 -0.5881 0.9947
-2.7633 -2.9995 -2.0005 0.9820
-0.7391 -2.4140 -1.2384 0.9888
-0.5088 -2.4150 -1.2106 0.9891
-0.2868 -2.4149 -1.1929 0.9892
0.3631 -2.3995 -1.1904 0.9892
0.5840 -2.3899 -1.2068 0.9891
1.2995 -2.3339 -1.3103 0.9882
1.5839 -2.3277 -1.3811 0.9875
2.8596 -2.9114 -2.0018 0.9820
3.1084 -2.6444 -2.0019 0.9820
3.3324 -2.3562 -2.0020 0.9820
4.0624 0.4086 -2.0027 0.9820
3.9250 1.1252 -2.0029 0.9820
3.2825 2.4289 -2.0030 0.9820
3.0524 2.7124 -2.0030 0.9820
2.5209 3.2124 -2.0030 0.9820
1.9089 3.6097 -2.0030 0.9820
1.2360 3.8916 -2.0029 0.9820
0.8833 3.9864 -2.0028 0.9820
0.5236 4.0492 -2.0028 0.9820
0.1598 4.0797 -2.0027 0.9820
-0.2054 4.0775 -2.0026 0.9820
-0.5688 4.0426 -2.0025 0.9820
-0.9277 3.9755 -2.0024 0.9820
-1.2791 3.8765 -2.0023 0.9820
-2.2609 3.3980 -2.0020 0.9820
-3.5072 2.0852 -2.0015 0.9820
-1.1543 0.4311 -0.6044 0.9945
-1.1587 0.3182 -0.5894 0.9947
-1.1940 0.1066 -0.5880 0.9947
-1.1954 -0.0005 -0.5864 0.9947
-1.1939 -0.1076 -0.5880 0.9947
-1.1789 -0.2137 -0.5877 0.9947
-1.1587 -0.3192 -0.5895 0.9947
-1.1542 -0.4321 -0.6045 0.9945
-3.3035 -2.3916 -2.0005 0.9820
-2.8251 -2.9413 -2.0005 0.9820
-1.0448 -2.4212 -1.2935 0.9883
-0.7947 -2.4147 -1.2470 0.9887
-0.5613 -2.4140 -1.2157 0.9890
0.0962 -2.4095 -1.1829 0.9893
0.9955 -2.3692 -1.2606 0.9886
1.2373 -2.3352 -1.2963 0.9883
1.6962 -2.6078 -1.5260 0.9862
2.7984 -2.9702 -2.0017 0.9820
3.6623 -1.8023 -2.0022 0.9820
3.8088 -1.4679 -2.0023 0.9820
3.9249 -1.1218 -2.0024 0.9820
4.0249 0.6864 -2.0028 0.9820
3.9476 1.0433 -2.0029 0.9820
3.6990 1.7293 -2.0030 0.9820
3.5298 2.0529 -2.0030 0.9820
3.1082 2.6484 -2.0030 0.9820
1.9836 3.5692 -2.0030 0.9820
1.6568 3.7321 -2.0030 0.9820
1.3167 3.8651 -2.0029 0.9820
0.6077 4.0375 -2.0028 0.9820
0.2446 4.0755 -2.0027 0.9820
-0.8448 3.9939 -2.0025 0.9820
-1.1982 3.9023 -2.0024 0.9820
-1.5420 3.7795 -2.0023 0.9820
-2.7675 2.9993 -2.0018 0.9820
-3.0242 2.7399 -2.0017 0.9820
-3.2567 2.4586 -2.0016 0.9820
-3.4632 2.1577 -2.0015 0.9820
-1.1511 0.4574 -0.6076 0.9945
-1.1963 0.0244 -0.5869 0.9947
-1.1582 -0.2932 -0.5860 0.9947
-1.1566 -0.4058 -0.6012 0.9946
-1.1404 -0.5188 -0.6146 0.9944
-1.0062 -0.5630 -0.5982 0.9948
-2.9766 -2.4518 -2.0006 0.9828
-2.4927 -2.9424 -2.0006 0.9828
-1.4065 -2.4344 -1.4585 0.9874
-0.8688 -2.4175 -1.3327 0.9885
-0.4044 -2.4128 -1.2692 0.9890
-0.1843 -2.4012 -1.2493 0.9892
0.4632 -2.3854 -1.2606 0.9891
0.6905 -2.3901 -1.2906 0.9889
0.9262 -2.3829 -1.3263 0.9885
1.1576 -2.3354 -1.3522 0.9883
1.4523 -2.3706 -1.4423 0.9876
1.7329 -2.3319 -1.5072 0.9870
2.8160 -2.6380 -2.0018 0.9828
3.4153 -1.7971 -2.0021 0.9828
3.6810 -1.1607 -2.0023 0.9828
3.8291 -0.4871 -2.0025 0.9828
3.8575 -0.1431 -2.0026 0.9828
3.5404 1.5398 -2.0029 0.9828
3.3887 1.8500 -2.0029 0.9828
3.0055 2.4236 -2.0030 0.9828
2.7769 2.6824 -2.0030 0.9828
2.5079 2.8987 -1.9885 0.9829
2.2552 3.1338 -2.0029 0.9828
-0.6963 3.7966 -2.0025 0.9828
-1.3608 3.6117 -2.0023 0.9828
-1.9816 3.3116 -2.0021 0.9828
-2.2694 3.1211 -2.0020 0.9828
-2.7884 2.6671 -2.0018 0.9828
-3.2182 2.1281 -2.0015 0.9828
-1.0487 0.4500 -0.5920 0.9949
-1.1065 0.0526 -0.5747 0.9950
-1.0795 -0.2424 -0.5740 0.9950
-1.0499 -0.4437 -0.5913 0.9949
-1.0173 -0.5417 -0.5979 0.9948
-1.1876 -2.4258 -1.4012 0.9879
-0.9263 -2.4184 -1.3435 0.9884
-0.4563 -2.4136 -1.2743 0.9890
-0.0190 -2.3975 -1.2438 0.9893
0.6352 -2.3836 -1.2797 0.9889
0.8784 -2.4072 -1.3294 0.9885
1.6768 -2.3572 -1.5007 0.9870
2.7605 -2.6960 -2.0018 0.9828
2.9905 -2.4387 -2.0019 0.9828
3.3772 -1.8678 -2.0021 0.9828
3.5307 -1.5586 -2.0022 0.9828
3.7521 -0.9055 -2.0024 0.9828
3.8182 -0.5667 -2.0025 0.9828
3.6882 1.1408 -2.0028 0.9828
3.2539 2.0781 -2.0029 0.9828
3.0552 2.3606 -2.0030 0.9828
2.3199 3.0862 -2.0030 0.9828
1.4184 3.5908 -2.0029 0.9828
0.7566 3.7857 -2.0028 0.9828
0.0708 3.8596 -2.0026 0.9828
-2.9647 2.4694 -2.0017 0.9828
-3.1733 2.1946 -2.0016 0.9828
-1.0436 0.4737 -0.5946 0.9948
-1.0602 0.3711 -0.5827 0.9950
-1.1057 0.0756 -0.5749 0.9950
-1.1065 -0.0235 -0.5742 0.9950
-1.1020 -0.1224 -0.5752 0.9950
-0.9780 -0.6104 -0.5981 0.9948
-2.8558 -2.5914 -2.0006 0.9828
-2.6129 -2.8362 -2.0006 0.9828
-1.9584 -2.5497 -1.6679 0.9856
-1.2464 -2.4174 -1.4110 0.9878
-0.7400 -2.4166 -1.3112 0.9887
-0.2859 -2.4073 -1.2576 0.9891
0.8222 -2.4073 -1.3197 0.9886
1.0457 -2.3506 -1.3347 0.9885
1.7277 -2.5389 -1.5932 0.9863
3.1509 -2.2279 -2.0020 0.9828
3.3375 -1.9376 -2.0021 0.9828
3.8055 -0.6459 -2.0025 0.9828
3.8482 -0.3034 -2.0025 0.9828
3.8600 0.0417 -2.0026 0.9828
3.8410 0.3864 -2.0027 0.9828
3.7111 1.0639 -2.0028 0.9828
3.6013 1.3912 -2.0029 0.9828
3.2964 2.0100 -2.0029 0.9828
3.1036 2.2965 -2.0029 0.9828
2.6454 2.8122 -2.0030 0.9828
2.1026 3.2381 -2.0029 0.9828
1.8049 3.4129 -2.0029 0.9828
1.4927 3.5605 -2.0029 0.9828
0.8352 3.7691 -2.0028 0.9828
0.1511 3.8574 -2.0027 0.9828
-0.1942 3.8553 -2.0026 0.9828
-0.8771 3.7589 -2.0024 0.9828
-1.2094 3.6653 -2.0023 0.9828
-2.1377 3.2129 -2.0020 0.9828
-2.4161 3.0089 -2.0019 0.9828
-2.6751 2.7808 -2.0018 0.9828
-2.9127 2.5306 -2.0017 0.9828
-3.1270 2.2601 -2.0016 0.9828
-1.0376 0.4973 -0.5969 0.9948
-1.0576 0.3950 -0.5857 0.9949
-1.0905 0.1968 -0.5749 0.9950
-1.1042 0.0986 -0.5751 0.9950
-1.1042 -0.0995 -0.5751 0.9950
-1.0903 -0.1976 -0.5749 0.9950
-1.0638 -0.2930 -0.5724 0.9950
-1.0574 -0.3959 -0.5858 0.9949
-2.9091 -2.5315 -2.0006 0.9828
-2.6713 -2.7812 -2.0006 0.9828
-1.0451 -2.4218 -1.3683 0.9882
-0.3372 -2.4103 -1.2626 0.9891
0.0957 -2.3956 -1.2438 0.9893
0.3110 -2.3900 -1.2503 0.9892
1.2607 -2.3795 -1.3970 0.9879
2.6460 -2.8084 -2.0017 0.9828
3.2965 -2.0065 -2.0020 0.9828
3.4628 -1.7041 -2.0021 0.9828
3.7111 -1.0607 -2.0023 0.9828
3.7912 -0.7249 -2.0024 0.9828
3.8482 0.3064 -2.0027 0.9828
3.8055 0.6490 -2.0027 0.9828
3.7324 0.9864 -2.0028 0.9828
3.6295 1.3160 -2.0028 0.9828
3.1507 2.2314 -2.0029 0.9828
2.7033 2.7566 -2.0030 0.9828
1.8755 3.3747 -2.0029 0.9828
1.5665 3.5287 -2.0029 0.9828
1.2449 3.6545 -2.0028 0.9828
0.5746 3.8175 -2.0027 0.9828
0.2313 3.8534 -2.0027 0.9828
-0.4582 3.8328 -2.0025 0.9828
-1.7713 3.4288 -2.0021 0.9828
-2.0705 3.2567 -2.0020 0.9828
-2.8595 2.5907 -2.0017 0.9828
-3.0794 2.3247 -2.0016 0.9828
-1.0542 0.4189 -0.5885 0.9949
-1.1021 0.1216 -0.5752 0.9950
-1.1065 0.0226 -0.5741 0.9950
-1.1056 -0.0765 -0.5749 0.9950
-1.0601 -0.3720 -0.5828 0.9950
-1.0434 -0.4746 -0.5947 0.9948
-2.6007 -2.5650 -2.0006 0.9835
-1.7278 -2.4543 -1.6439 0.9864
-0.8682 -2.4160 -1.4061 0.9884
-0.4049 -2.4157 -1.3415 0.9889
0.4687 -2.4141 -1.3469 0.9888
0.6972 -2.4132 -1.3758 0.9886
0.9272 -2.3856 -1.4018 0.9884
1.7534 -2.3594 -1.6100 0.9867
2.4333 -2.7269 -2.0017 0.9835
2.6673 -2.4987 -2.0018 0.9835
2.8800 -2.2505 -2.0019 0.9835
3.3742 -1.4064 -2.0022 0.9835
3.4866 -1.0994 -2.0023 0.9835
3.5710 -0.7836 -2.0024 0.9835
3.6269 -0.4614 -2.0025 0.9835
3.6513 0.1915 -2.0026 0.9835
3.5592 0.8383 -2.0027 0.9835
3.4702 1.1530 -2.0028 0.9835
3.2097 1.7522 -2.0029 0.9835
-0.3356 3.6407 -2.0025 0.9835
-0.6595 3.5961 -2.0024 0.9835
-0.9781 3.5226 -2.0023 0.9835
-1.2889 3.4210 -2.0022 0.9835
-1.5893 3.2920 -2.0022 0.9835
-1.8770 3.1367 -2.0021 0.9835
-2.1496 2.9563 -2.0020 0.9835
-2.4050 2.7523 -2.0019 0.9835
-2.6411 2.5263 -2.0018 0.9835
-2.8561 2.2801 -2.0017 0.9835
-0.8803 0.5821 -0.5780 0.9952
-0.9293 0.5014 -0.5783 0.9952
-0.9650 0.4141 -0.5751 0.9952
-0.9790 0.3199 -0.5641 0.9953
-1.0274 0.0488 -0.5634 0.9953
-1.0275 -0.0432 -0.5633 0.9953
-1.0207 -0.1349 -0.5639 0.9953
-0.9662 -0.4083 -0.5745 0.9952
-2.8672 -2.2633 -2.0007 0.9835
-2.6535 -2.5104 -2.0006 0.9835
-2.4186 -2.7374 -2.0006 0.9835
-1.7971 -2.4432 -1.6612 0.9863
-1.1932 -2.4374 -1.4864 0.9877
-0.6848 -2.4150 -1.3748 0.9886
0.1973 -2.4147 -1.3269 0.9890
0.4169 -2.4142 -1.3418 0.9889
0.6432 -2.4135 -1.3680 0.9887
2.3760 -2.7769 -2.0017 0.9835
2.8326 -2.3099 -2.0019 0.9835
3.4629 -1.1717 -2.0023 0.9835
3.5539 -0.8576 -2.0024 0.9835
3.6501 -0.2115 -2.0025 0.9835
3.6545 0.1155 -2.0026 0.9835
3.6297 0.4415 -2.0027 0.9835
3.4934 1.0805 -2.0028 0.9835
3.3829 1.3884 -2.0028 0.9835
3.0819 1.9683 -2.0029 0.9835
2.8938 2.2358 -2.0029 0.9835
2.4497 2.7152 -2.0029 0.9835
2.1973 2.9231 -2.0029 0.9835
1.9273 3.1077 -2.0029 0.9835
1.0342 3.5074 -2.0028 0.9835
0.7166 3.5857 -2.0027 0.9835
0.3934 3.6352 -2.0027 0.9835
-0.9047 3.5422 -2.0024 0.9835
-1.8113 3.1751 -2.0021 0.9835
-2.0877 3.0004 -2.0020 0.9835
-2.3473 2.8017 -2.0019 0.9835
-2.5881 2.5807 -2.0018 0.9835
-0.9589 0.4353 -0.5767 0.9952
-1.0165 0.1617 -0.5637 0.9953
-1.0267 0.0702 -0.5636 0.9953
-1.0275 -0.0218 -0.5629 0.9953
-1.0232 -0.1137 -0.5639 0.9953
-1.0075 -0.2043 -0.5630 0.9953
-0.9704 -0.3865 -0.5721 0.9952
-0.8959 -0.5591 -0.5784 0.9952
-2.9136 -2.2031 -2.0007 0.9835
-2.7051 -2.4546 -2.0006 0.9835
-1.9584 -2.5497 -1.7609 0.9854
-1.5853 -2.4979 -1.6204 0.9866
-0.7394 -2.4149 -1.3833 0.9885
0.3653 -2.4143 -1.3374 0.9889
0.5898 -2.4137 -1.3609 0.9887
0.8237 -2.4118 -1.3959 0.9884
1.3488 -2.4225 -1.5186 0.9874
1.6134 -2.3710 -1.5707 0.9870
1.9959 -2.4333 -1.7237 0.9857
2.7839 -2.3683 -2.0019 0.9835
2.9845 -2.1102 -2.0020 0.9835
3.1613 -1.8352 -2.0021 0.9835
3.6561 0.0395 -2.0026 0.9835
3.5151 1.0076 -2.0028 0.9835
3.1222 1.9038 -2.0029 0.9835
1.9915 3.0670 -2.0029 0.9835
1.7095 3.2326 -2.0029 0.9835
0.4689 3.6263 -2.0027 0.9835
-0.1839 3.6516 -2.0025 0.9835
-0.5094 3.6204 -2.0025 0.9835
-1.4510 3.3553 -2.0022 0.9835
-1.7449 3.2121 -2.0021 0.9835
-2.0248 3.0432 -2.0020 0.9835
-2.7589 2.3970 -2.0017 0.9835
-0.9740 0.3638 -0.5695 0.9953
-0.9880 0.2713 -0.5612 0.9953
-1.0124 0.1827 -0.5634 0.9953
-1.0252 -0.0924 -0.5638 0.9953
-0.9878 -0.2721 -0.5612 0.9953
-0.9504 -0.4564 -0.5774 0.9952
