ply
format ascii 1.0
element vertex 1566
property float32 x
property float32 y
property float32 z
property float32 I
end_header
-7.1649 -13.7547 -0.0873 0.9398
-5.7647 -13.9890 -0.0852 0.9413
-1.6838 -13.6362 -0.0774 0.9465
3.2993 -13.8094 -0.0799 0.9448
4.5323 -13.5018 -0.0802 0.9446
8.1117 -14.7587 -0.0948 0.9349
9.0760 -13.4999 -0.0916 0.9370
11.0513 -13.6316 -0.0988 0.9322
13.8303 -14.2463 -0.1118 0.9236
16.0715 -4.3469 -0.0937 0.9356
-1.0210 7.7722 -0.0441 0.9691
-13.6745 -13.8955 -0.1098 0.9250
-7.6885 -13.7660 -0.0888 0.9389
-6.2564 -14.0095 -0.0864 0.9405
-2.0899 -13.6450 -0.0777 0.9463
2.8771 -13.8101 -0.0794 0.9451
4.1017 -13.5112 -0.0795 0.9451
5.5556 -13.7462 -0.0835 0.9424
10.2155 -13.3790 -0.0948 0.9349
16.1264 -4.8699 -0.0948 0.9348
-8.3969 -14.0566 -0.0922 0.9366
-6.6583 -13.8142 -0.0863 0.9405
-1.2539 -13.6269 -0.0770 0.9467
-0.0335 -13.8647 -0.0781 0.9461
3.6781 -13.5203 -0.0789 0.9455
14.0126 -13.5637 -0.1098 0.9250
-12.8321 -13.8772 -0.1064 0.9272
-8.9630 -14.0575 -0.0939 0.9355
-7.1301 -13.7540 -0.0872 0.9399
-5.7320 -13.9877 -0.0851 0.9413
-2.9732 -13.9337 -0.0802 0.9446
-0.4380 -13.8815 -0.0782 0.9460
3.3281 -13.8093 -0.0800 0.9448
8.1135 -14.6933 -0.0945 0.9351
9.0747 -13.4407 -0.0913 0.9372
13.8315 -14.1914 -0.1116 0.9238
16.1742 -4.3405 -0.0943 0.9352
-1.0356 7.7651 -0.0441 0.9692
-13.6196 -13.8943 -0.1095 0.9251
-7.6525 -13.7653 -0.0887 0.9389
-6.2227 -14.0081 -0.0863 0.9405
-2.0623 -13.6444 -0.0777 0.9463
-0.8442 -13.8984 -0.0784 0.9458
2.9055 -13.8100 -0.0795 0.9451
4.1306 -13.5105 -0.0795 0.9451
14.7853 -13.4468 -0.1125 0.9232
-7.1649 -13.7547 -0.4367 0.9398
8.1123 -14.7599 -0.4742 0.9348
9.0760 -13.4999 -0.4580 0.9370
16.0715 -4.3469 -0.4688 0.9355
-13.6745 -13.8955 -0.5489 0.9250
-11.6045 -14.1166 -0.5146 0.9295
-7.6885 -13.7660 -0.4440 0.9389
-0.8717 -13.8986 -0.3921 0.9458
2.8769 -13.8091 -0.3972 0.9451
4.1017 -13.5111 -0.3976 0.9451
10.2155 -13.3790 -0.4740 0.9349
16.1264 -4.8699 -0.4743 0.9348
8.2409 8.1336 -0.3260 0.9547
-8.3962 -14.0555 -0.4610 0.9366
-6.6583 -13.8142 -0.4318 0.9405
-2.5511 -13.9320 -0.3988 0.9449
-0.0335 -13.8637 -0.3904 0.9460
2.4598 -13.8098 -0.3950 0.9454
3.6781 -13.5203 -0.3945 0.9455
8.0863 -13.6864 -0.4476 0.9384
9.6211 -13.3918 -0.4643 0.9361
16.1376 -5.3909 -0.4791 0.9342
-12.8321 -13.8772 -0.5322 0.9272
-8.9622 -14.0564 -0.4694 0.9355
-7.1301 -13.7540 -0.4362 0.9399
-5.7315 -13.9866 -0.4256 0.9413
-1.6564 -13.6356 -0.3868 0.9465
3.3278 -13.8084 -0.3999 0.9447
4.5617 -13.5012 -0.4013 0.9446
8.1141 -14.6945 -0.4727 0.9350
9.0747 -13.4407 -0.4566 0.9372
11.0935 -13.6286 -0.4948 0.9321
-13.6196 -13.8943 -0.5478 0.9251
-11.5563 -14.1146 -0.5137 0.9296
-7.6525 -13.7653 -0.4435 0.9389
-0.8441 -13.8974 -0.3920 0.9458
2.9053 -13.8091 -0.3973 0.9451
10.2566 -13.3781 -0.4747 0.9348
-7.1649 -13.7547 -0.7865 0.9398
-1.6838 -13.6362 -0.6968 0.9465
8.1130 -14.7611 -0.8542 0.9348
9.0760 -13.4999 -0.8250 0.9369
11.0494 -13.6292 -0.8898 0.9321
16.0716 -4.3469 -0.8443 0.9355
-1.0128 7.7101 -0.3944 0.9693
-7.6885 -13.7660 -0.7996 0.9388
-6.2555 -14.0073 -0.7780 0.9404
-0.8716 -13.8976 -0.7062 0.9458
2.8767 -13.8082 -0.7153 0.9451
4.1017 -13.5111 -0.7161 0.9450
5.5548 -13.7442 -0.7518 0.9424
10.2155 -13.3790 -0.8537 0.9348
8.2402 8.1329 -0.5872 0.9547
-12.3360 -14.1457 -0.9519 0.9276
-6.6583 -13.8141 -0.7777 0.9404
-5.6447 -15.0060 -0.8131 0.9378
-1.2539 -13.6269 -0.6940 0.9467
-0.0335 -13.8628 -0.7030 0.9460
3.6781 -13.5203 -0.7106 0.9454
5.1014 -13.7631 -0.7444 0.9429
8.0856 -13.6853 -0.8061 0.9383
9.1346 -12.7146 -0.7940 0.9392
14.0099 -13.5610 -0.9888 0.9249
-12.8321 -13.8772 -0.9585 0.9271
-8.9615 -14.0552 -0.8454 0.9354
-7.1301 -13.7540 -0.7857 0.9398
-5.7311 -13.9855 -0.7665 0.9413
-1.6564 -13.6356 -0.6966 0.9465
-0.4379 -13.8796 -0.7042 0.9459
4.5618 -13.5012 -0.7227 0.9445
8.1148 -14.6957 -0.8514 0.9350
9.0748 -13.4407 -0.8225 0.9371
13.8331 -14.1931 -1.0051 0.9237
-11.5553 -14.1133 -0.9250 0.9295
-7.6525 -13.7653 -0.7987 0.9389
-2.0623 -13.6444 -0.6998 0.9462
4.1306 -13.5105 -0.7165 0.9450
5.5858 -13.7429 -0.7523 0.9423
10.2566 -13.3781 -0.8549 0.9347
-7.1649 -13.7547 -1.1371 0.9397
-5.7634 -13.9859 -1.1091 0.9411
-3.0013 -13.9308 -1.0449 0.9444
8.0592 -14.6632 -1.2268 0.9351
9.0760 -13.4999 -1.1927 0.9368
13.7744 -14.1887 -1.4500 0.9238
16.0716 -4.3469 -1.2207 0.9354
-16.1201 6.2164 -1.2668 0.9331
-12.8792 -13.0873 -1.3463 0.9290
-2.0899 -13.6450 -1.0121 0.9461
5.5544 -13.7432 -1.0869 0.9423
8.5956 -13.6261 -1.1813 0.9374
10.2155 -13.3790 -1.2342 0.9347
8.2395 8.1323 -0.8488 0.9546
-0.8084 7.9379 -0.5850 0.9685
-1.5182 7.8588 -0.5869 0.9684
-6.6582 -13.8141 -1.1244 0.9403
-2.5507 -13.9301 -1.0384 0.9448
-1.2539 -13.6269 -1.0034 0.9466
2.4595 -13.8079 -1.0284 0.9453
5.1010 -13.7621 -1.0762 0.9428
9.1351 -12.7154 -1.1480 0.9391
-1.2468 7.6429 -0.5678 0.9694
-11.3206 -14.6787 -1.3592 0.9283
-5.7307 -13.9845 -1.1081 0.9412
-2.9726 -13.9308 -1.0444 0.9445
-0.4379 -13.8786 -1.0181 0.9458
3.3274 -13.8064 -1.0413 0.9446
9.0748 -13.4407 -1.1891 0.9370
11.0468 -13.5713 -1.2831 0.9322
16.1742 -4.3405 -1.2279 0.9350
18.4349 7.0069 -1.4460 0.9239
-1.0235 7.6744 -0.5677 0.9694
-17.8569 8.7458 -1.4579 0.9233
-16.1474 6.1904 -1.2680 0.9330
-11.5069 -14.0542 -1.3318 0.9297
-7.6525 -13.7653 -1.1548 0.9388
-0.8440 -13.8955 -1.0207 0.9457
5.5854 -13.7419 -1.0876 0.9422
8.6330 -13.6259 -1.1827 0.9374
-5.7397 -13.9282 -1.4463 0.9413
-5.7216 -18.3959 -1.8495 0.9255
-2.9889 -13.8733 -1.3625 0.9446
-1.6838 -13.6362 -1.3191 0.9463
2.7868 -19.0612 -1.8494 0.9255
8.0598 -14.6643 -1.6065 0.9350
11.0028 -13.5717 -1.6773 0.9322
13.4172 -13.8207 -1.8493 0.9255
14.5967 -12.5684 -1.8493 0.9255
16.0716 -4.3469 -1.5984 0.9353
18.0927 6.8361 -1.8568 0.9252
16.5898 9.9431 -1.8569 0.9252
-12.8088 6.3047 -1.3706 0.9442
-18.6328 -4.9039 -1.8498 0.9255
-18.1208 -6.5468 -1.8497 0.9255
-15.7397 -11.1118 -1.8497 0.9255
-12.8798 -13.0879 -1.7629 0.9289
-11.5537 -14.0547 -1.7467 0.9295
-10.8577 -15.9151 -1.8496 0.9255
-7.6885 -13.7660 -1.5138 0.9386
-6.2283 -13.9466 -1.4664 0.9405
-2.0899 -13.6450 -1.3253 0.9460
-0.8678 -13.8368 -1.3310 0.9458
2.2306 -19.1343 -1.8494 0.9255
2.8644 -13.7491 -1.3483 0.9451
4.1017 -13.5112 -1.3556 0.9448
8.5949 -13.6250 -1.5466 0.9373
10.2155 -13.3790 -1.6161 0.9346
13.0090 -14.2056 -1.8493 0.9255
14.2245 -12.9881 -1.8493 0.9255
16.3063 -10.2529 -1.8492 0.9255
18.4391 -5.5683 -1.8492 0.9255
18.8623 -3.9009 -1.8492 0.9255
17.6486 7.9126 -1.8568 0.9252
11.4537 9.4436 -1.4252 0.9421
8.2388 8.1316 -1.1113 0.9545
-0.8044 7.8987 -0.7622 0.9686
-1.5113 7.8233 -0.7650 0.9685
-11.2882 8.8555 -1.3774 0.9440
-17.8406 7.4837 -1.8574 0.9252
-18.4373 5.8621 -1.8574 0.9252
-18.3038 -6.0163 -1.8497 0.9255
-16.9428 -9.1737 -1.8497 0.9255
-9.2801 -6.1546 -1.0691 0.9562
-13.9080 -13.3328 -1.8497 0.9255
-12.2805 -14.0821 -1.7938 0.9277
-8.3596 -13.9942 -1.5650 0.9366
-6.6582 -13.8141 -1.4722 0.9402
-5.5971 -14.8795 -1.5262 0.9381
-2.5399 -13.8708 -1.3538 0.9449
-1.2539 -13.6269 -1.3138 0.9465
-0.0334 -13.8052 -1.3254 0.9460
1.6725 -19.1912 -1.8494 0.9255
3.6781 -13.5203 -1.3452 0.9453
5.0795 -13.7041 -1.4031 0.9430
8.0518 -13.6280 -1.5197 0.9384
12.5899 -14.5785 -1.8493 0.9255
16.0009 -10.7235 -1.8492 0.9255
16.8937 -9.2530 -1.8492 0.9255
18.2692 -6.1029 -1.8492 0.9255
18.7408 -4.4485 -1.8492 0.9255
17.1405 8.9604 -1.8569 0.9252
12.1799 9.4603 -1.4806 0.9399
10.0456 9.3533 -1.3178 0.9463
8.3795 9.3309 -1.2040 0.9509
-1.2418 7.6120 -0.7404 0.9695
-12.9053 8.9239 -1.5063 0.9389
-17.7309 6.2115 -1.8037 0.9273
-17.2029 -8.6765 -1.8497 0.9255
-9.3999 -5.8472 -1.0628 0.9565
-8.9245 -13.9972 -1.5937 0.9355
-5.7071 -13.9270 -1.4450 0.9413
-5.6853 -18.4071 -1.8495 0.9255
-2.9603 -13.8731 -1.3619 0.9446
-1.6564 -13.6356 -1.3187 0.9463
-0.4360 -13.8205 -1.3275 0.9460
1.1129 -19.2319 -1.8494 0.9255
4.5618 -13.5012 -1.3682 0.9443
7.7698 -17.6266 -1.8493 0.9255
8.0612 -14.5987 -1.6010 0.9352
13.4444 -13.7943 -1.8493 0.9255
14.6214 -12.5396 -1.8493 0.9255
15.6818 -11.1849 -1.8492 0.9255
16.1742 -4.3405 -1.6077 0.9349
17.3941 8.4575 -1.8569 0.9252
-1.0200 7.6483 -0.7408 0.9695
-14.5574 8.8209 -1.6341 0.9339
-18.1079 -6.5825 -1.8497 0.9255
-15.7177 -11.1428 -1.8497 0.9255
-12.8335 -13.0924 -1.7601 0.9290
-10.8263 -15.9364 -1.8496 0.9255
-2.0623 -13.6444 -1.3248 0.9461
-0.8404 -13.8357 -1.3307 0.9458
0.5524 -19.2562 -1.8495 0.9255
2.8927 -13.7490 -1.3489 0.9451
8.8165 -17.1269 -1.8493 0.9255
8.6323 -13.6248 -1.5485 0.9372
14.2501 -12.9601 -1.8493 0.9255
-4.6243 -14.8678 -1.8495 0.9392
-0.4633 -13.8205 -1.6426 0.9458
0.8688 -15.5454 -1.8495 0.9392
3.2841 -13.7458 -1.6788 0.9447
4.5323 -13.5018 -1.6918 0.9442
6.2517 -14.2586 -1.8494 0.9392
7.4989 -13.6438 -1.8494 0.9392
9.8044 -12.0935 -1.8493 0.9392
11.7976 -10.1582 -1.8493 0.9392
12.6568 -9.0650 -1.8493 0.9392
14.0663 -6.6710 -1.8493 0.9392
15.0280 -4.0646 -1.8493 0.9392
16.7759 1.5685 -2.0014 0.9344
16.5691 3.0590 -2.0014 0.9344
16.2301 4.5252 -2.0014 0.9344
15.7617 5.9553 -2.0015 0.9344
14.0720 6.8079 -1.8569 0.9390
12.6829 11.0931 -2.0015 0.9344
11.6426 12.1805 -2.0015 0.9344
10.5095 13.1709 -2.0015 0.9344
9.2925 14.0562 -2.0016 0.9344
6.6463 15.4843 -2.0016 0.9344
5.2383 16.0158 -2.0016 0.9344
2.3083 16.6922 -2.0017 0.9344
-0.6953 16.8371 -2.0017 0.9344
-1.0013 7.6221 -0.9132 0.9695
-3.6769 16.4458 -2.0018 0.9344
-5.1296 16.0523 -2.0018 0.9344
-4.7753 8.9963 -1.2099 0.9598
-9.1979 14.1210 -2.0018 0.9344
-8.4735 8.9866 -1.4672 0.9515
-16.2029 4.6367 -2.0019 0.9344
-16.5520 3.1725 -2.0019 0.9344
-16.7690 1.6830 -2.0019 0.9344
-16.8523 0.1800 -2.0019 0.9344
-14.1146 -6.5767 -1.8497 0.9392
-12.7208 -8.9805 -1.8497 0.9392
-11.8687 -10.0796 -1.8496 0.9392
-10.9219 -11.0983 -1.8496 0.9392
-9.8880 -12.0285 -1.8496 0.9392
-6.2279 -13.9456 -1.8142 0.9403
-2.0899 -13.6450 -1.6397 0.9459
-0.8677 -13.8358 -1.6467 0.9457
1.8028 -15.4648 -1.8494 0.9392
7.0984 -13.8565 -1.8494 0.9392
12.3875 -9.4297 -1.8493 0.9392
13.1794 -8.2868 -1.8493 0.9392
16.4915 -3.4106 -2.0004 0.9344
16.6511 2.5752 -2.0014 0.9344
16.3550 4.0507 -2.0014 0.9344
15.9284 5.4938 -2.0015 0.9344
13.6368 7.6425 -1.8569 0.9390
12.9006 8.8289 -1.8569 0.9390
6.9484 6.8580 -1.1597 0.9614
6.5740 9.3410 -1.3568 0.9550
7.0944 15.2842 -2.0016 0.9344
5.7024 15.8564 -2.0016 0.9344
2.7934 16.6178 -2.0017 0.9344
1.2996 16.8010 -2.0017 0.9344
-0.2047 16.8501 -2.0017 0.9344
-1.5037 7.7839 -0.9417 0.9686
-4.6600 16.1948 -2.0018 0.9344
-6.0864 15.7146 -2.0018 0.9344
-7.4644 15.1090 -2.0018 0.9344
-8.7828 14.3829 -2.0018 0.9344
-7.9649 8.9560 -1.4237 0.9529
-12.2786 11.5436 -2.0019 0.9344
-14.4187 6.0483 -1.8573 0.9390
-16.4526 3.6531 -2.0019 0.9344
-16.8399 0.6707 -2.0019 0.9344
-16.8326 -0.8345 -2.0019 0.9344
-16.6910 -2.3331 -2.0019 0.9344
-14.7931 -4.8624 -1.8497 0.9392
-13.6932 -7.4142 -1.8497 0.9392
-11.2405 -10.7756 -1.8496 0.9392
-7.9852 -13.3673 -1.8496 0.9392
-6.6582 -13.8141 -1.8216 0.9401
-5.4820 -14.5735 -1.8495 0.9392
-2.5397 -13.8699 -1.6749 0.9448
2.4492 -13.7504 -1.6591 0.9453
3.6781 -13.5203 -1.6644 0.9451
5.0792 -13.7031 -1.7360 0.9428
6.6920 -14.0573 -1.8494 0.9392
9.0838 -12.6439 -1.8493 0.9392
10.1756 -11.7828 -1.8493 0.9392
11.1862 -10.8278 -1.8493 0.9392
13.6542 -7.4786 -1.8493 0.9392
14.2669 -6.2305 -1.8493 0.9392
14.7659 -4.9326 -1.8493 0.9392
16.6754 -2.4131 -2.0014 0.9344
16.8388 0.5892 -2.0014 0.9344
13.4639 7.0384 -1.8047 0.9406
12.3460 9.5893 -1.8569 0.9390
8.3795 9.3309 -1.4897 0.9507
10.0950 13.4913 -2.0015 0.9344
8.8510 14.3383 -2.0016 0.9344
6.1617 15.6835 -2.0016 0.9344
4.7379 16.1710 -2.0016 0.9344
3.2762 16.5294 -2.0017 0.9344
0.2861 16.8489 -2.0017 0.9344
-4.1864 16.3236 -2.0018 0.9344
-7.0212 15.3199 -2.0018 0.9344
-11.9372 11.8962 -2.0019 0.9344
-11.5076 7.9574 -1.6619 0.9452
-14.2365 6.4656 -1.8573 0.9390
-15.9055 5.5720 -2.0019 0.9344
-16.8498 -0.3440 -2.0019 0.9344
-16.7519 -1.8460 -2.0019 0.9344
-16.5203 -3.3334 -2.0019 0.9344
-13.9033 -7.0123 -1.8497 0.9392
-6.4650 -4.8722 -0.9616 0.9679
-9.5092 -12.3300 -1.8496 0.9392
-7.1301 -13.7540 -1.8403 0.9395
-1.6564 -13.6356 -1.6316 0.9462
0.8995 -15.5436 -1.8495 0.9392
3.3127 -13.7457 -1.6795 0.9446
8.7117 -12.9031 -1.8493 0.9392
9.8282 -12.0742 -1.8493 0.9392
12.6746 -9.0400 -1.8493 0.9392
13.4306 -7.8731 -1.8493 0.9392
14.0795 -6.6433 -1.8493 0.9392
15.0359 -4.0350 -1.8493 0.9392
16.5980 -2.8977 -2.0014 0.9344
16.7903 -1.4051 -2.0014 0.9344
16.8487 0.0986 -2.0014 0.9344
16.7728 1.6015 -2.0014 0.9344
16.5630 3.0917 -2.0014 0.9344
15.7499 5.9864 -2.0015 0.9344
13.3927 8.0628 -1.8569 0.9390
12.6610 11.1180 -2.0015 0.9344
11.6186 12.2035 -2.0015 0.9344
10.4835 13.1916 -2.0015 0.9344
6.6158 15.4974 -2.0016 0.9344
2.2754 16.6967 -2.0017 0.9344
-3.7093 16.4385 -2.0018 0.9344
-10.4474 13.2236 -2.0019 0.9344
-11.5857 12.2388 -2.0019 0.9344
-12.6073 9.2719 -1.8590 0.9389
-13.3724 8.1029 -1.8573 0.9390
-12.8254 6.2815 -1.6964 0.9441
-16.5582 3.1398 -2.0019 0.9344
-16.7985 -1.3574 -2.0019 0.9344
-16.6104 -2.8509 -2.0019 0.9344
-16.2668 -4.3155 -1.9991 0.9345
-14.6347 -5.3199 -1.8497 0.9392
-14.1016 -6.6045 -1.8497 0.9392
-12.7031 -9.0056 -1.8497 0.9392
-11.8488 -10.1030 -1.8496 0.9392
-7.5657 -13.6091 -1.8496 0.9392
-6.1944 -13.9443 -1.8125 0.9404
-5.0263 -14.7368 -1.8495 0.9392
-0.8403 -13.8348 -1.6464 0.9457
7.1257 -13.8424 -1.8494 0.9392
8.3323 -13.1513 -1.8493 0.9392
9.4725 -12.3553 -1.8493 0.9392
10.5370 -11.4608 -1.8493 0.9392
11.5175 -10.4748 -1.8493 0.9392
-2.7492 -12.7605 -1.8495 0.9486
-1.5996 -12.9548 -1.8495 0.9486
0.7284 -13.0326 -1.8495 0.9486
1.8883 -12.9155 -1.8494 0.9486
3.0331 -12.6954 -1.8494 0.9486
6.2868 -11.4385 -1.8494 0.9486
7.2823 -10.8319 -1.8494 0.9486
8.2197 -10.1388 -1.8493 0.9486
10.6111 -7.5998 -1.8493 0.9486
11.2468 -6.6227 -1.8493 0.9486
11.7928 -5.5928 -1.8493 0.9486
13.6059 -3.6800 -1.9971 0.9446
13.9105 -2.4567 -2.0015 0.9445
14.0742 -1.2058 -2.0015 0.9445
13.2142 4.9928 -2.0015 0.9445
11.2413 6.7375 -1.8569 0.9484
10.5954 7.7137 -1.8570 0.9484
9.0558 9.4742 -1.8570 0.9484
5.3321 6.6824 -1.2113 0.9661
7.7905 11.7842 -2.0016 0.9445
6.7080 12.4324 -2.0016 0.9445
3.1761 13.7654 -2.0017 0.9445
1.9352 13.9940 -2.0017 0.9445
0.6789 14.1110 -2.0017 0.9445
-0.9965 7.5856 -1.0840 0.9696
-3.0825 13.7873 -2.0017 0.9445
-5.4840 13.0202 -2.0018 0.9445
-4.7753 8.9963 -1.4431 0.9597
-7.7110 11.8383 -2.0018 0.9445
-9.6925 10.2794 -2.0018 0.9445
-8.7158 6.4364 -1.5352 0.9572
-11.1972 6.8150 -1.8573 0.9484
-13.1825 5.0836 -2.0019 0.9445
-13.8762 2.6596 -2.0019 0.9445
-14.0581 1.4109 -2.0019 0.9445
-14.1279 0.1509 -2.0019 0.9445
-13.9298 -2.3626 -2.0019 0.9445
-13.6634 -3.5960 -2.0019 0.9445
-12.5326 -4.5278 -1.8881 0.9476
-11.8328 -5.5135 -1.8497 0.9486
-11.2937 -6.5473 -1.8496 0.9486
-7.4908 -5.2883 -1.2992 0.9636
-8.2896 -10.0840 -1.8496 0.9486
-4.2381 -12.3463 -1.8495 0.9486
-3.1196 -12.6751 -1.8495 0.9486
-1.9762 -12.9027 -1.8495 0.9486
-0.8170 -13.0275 -1.8495 0.9486
0.3486 -13.0483 -1.8495 0.9486
2.6622 -12.7783 -1.8494 0.9486
4.8909 -12.1015 -1.8494 0.9486
6.9638 -11.0394 -1.8494 0.9486
7.9210 -10.3739 -1.8494 0.9486
11.0492 -6.9474 -1.8493 0.9486
11.6250 -5.9338 -1.8493 0.9486
13.8331 -2.8608 -2.0015 0.9445
14.0331 -1.6151 -2.0015 0.9445
14.1213 -0.3566 -2.0015 0.9445
13.9599 2.1590 -2.0015 0.9445
13.3539 4.6059 -2.0015 0.9445
11.6958 6.5547 -1.8997 0.9473
10.8155 7.4018 -1.8569 0.9484
10.1120 8.3374 -1.8570 0.9484
6.8533 6.7641 -1.3643 0.9618
8.1303 11.5523 -2.0016 0.9445
5.9477 12.8137 -2.0016 0.9445
4.7807 13.2934 -2.0016 0.9445
-0.7934 7.7906 -1.1096 0.9689
-1.5016 7.7727 -1.1217 0.9685
-6.2577 12.6666 -2.0018 0.9445
-7.3630 12.0578 -2.0018 0.9445
-8.4096 11.3528 -2.0018 0.9445
-10.3132 8.0906 -1.8573 0.9484
-10.9940 7.1382 -1.8573 0.9484
-13.0288 5.4653 -2.0019 0.9445
-13.4646 4.2810 -2.0019 0.9445
-14.0111 1.8197 -2.0019 0.9445
-13.3858 -4.3998 -1.9964 0.9447
-11.9884 -5.1666 -1.8497 0.9486
-6.0538 -4.8451 -1.0987 0.9692
-9.4234 -9.0337 -1.8496 0.9486
-8.5797 -9.8384 -1.8496 0.9486
-7.6676 -10.5646 -1.8496 0.9486
-4.5958 -12.2177 -1.8495 0.9486
-3.4874 -12.5789 -1.8495 0.9486
-2.3511 -12.8398 -1.8495 0.9486
-1.1961 -12.9982 -1.8495 0.9486
-0.0315 -13.0530 -1.8495 0.9486
1.1332 -13.0036 -1.8495 0.9486
2.2889 -12.8505 -1.8494 0.9486
3.4264 -12.5949 -1.8494 0.9486
4.5364 -12.2388 -1.8494 0.9486
5.6103 -11.7852 -1.8494 0.9486
6.6394 -11.2375 -1.8494 0.9486
7.6155 -10.6002 -1.8494 0.9486
10.1507 -8.2047 -1.8493 0.9486
11.4473 -6.2698 -1.8493 0.9486
11.9610 -5.2234 -1.8493 0.9486
12.3793 -4.1354 -1.8493 0.9486
13.7439 -3.2624 -2.0015 0.9445
14.1172 0.4939 -2.0015 0.9445
14.0168 1.7516 -2.0015 0.9445
13.4824 4.2150 -2.0015 0.9445
13.0526 5.4012 -2.0015 0.9445
11.0264 7.0837 -1.8569 0.9484
10.3504 8.0394 -1.8570 0.9484
8.3795 9.3309 -1.7770 0.9506
8.4632 11.3106 -2.0016 0.9445
7.4204 12.0207 -2.0016 0.9445
6.3183 12.6350 -2.0016 0.9445
3.9720 13.5571 -2.0016 0.9445
1.8139 9.1520 -1.3220 0.9630
-1.0214 14.0905 -2.0017 0.9445
-3.5097 13.6849 -2.0018 0.9445
-4.7167 13.3173 -2.0018 0.9445
-5.8862 12.8434 -2.0018 0.9445
-6.3011 9.0458 -1.5620 0.9564
-9.0776 10.8262 -2.0018 0.9445
-10.0732 8.3875 -1.8573 0.9484
-11.1385 6.3133 -1.8141 0.9496
-12.8641 5.8423 -2.0019 0.9445
-13.3342 4.6713 -2.0019 0.9445
-14.0437 -1.5476 -2.0019 0.9445
-13.8496 -2.7945 -2.0019 0.9445
-6.1989 -4.6717 -1.0998 0.9691
-9.6825 -8.7554 -1.8496 0.9486
-8.8626 -9.5844 -1.8496 0.9486
-7.9720 -10.3368 -1.8496 0.9486
-7.0179 -11.0068 -1.8496 0.9486
-4.9497 -12.0787 -1.8495 0.9486
-3.8522 -12.4720 -1.8495 0.9486
-2.7240 -12.7659 -1.8495 0.9486
3.0581 -12.6894 -1.8494 0.9486
4.1781 -12.3658 -1.8494 0.9486
5.2647 -11.9436 -1.8494 0.9486
6.3094 -11.4261 -1.8494 0.9486
8.2396 -10.1226 -1.8493 0.9486
10.6260 -7.5789 -1.8493 0.9486
11.8038 -5.5695 -1.8493 0.9486
12.2536 -4.4941 -1.8493 0.9486
13.9153 -2.4293 -2.0015 0.9445
14.0766 -1.1780 -2.0015 0.9445
14.1256 0.0826 -2.0015 0.9445
14.0618 1.3427 -2.0015 0.9445
13.8860 2.5920 -2.0015 0.9445
12.7039 6.1770 -2.0015 0.9445
11.2280 6.7596 -1.8569 0.9484
9.8479 8.6477 -1.8570 0.9484
5.3015 6.6709 -1.2073 0.9662
5.5464 12.9924 -2.0016 0.9445
1.9076 13.9978 -2.0017 0.9445
0.6511 14.1123 -2.0017 0.9445
-0.6107 14.1142 -2.0017 0.9445
-1.0106 7.5779 -1.0832 0.9696
-3.1097 13.7812 -2.0017 0.9445
-5.5097 13.0093 -2.0018 0.9445
-9.7128 10.2603 -2.0018 0.9445
-8.7443 6.4309 -1.5380 0.9571
-11.2106 6.7930 -1.8573 0.9484
-12.1849 5.9678 -1.9224 0.9467
-13.1925 5.0576 -2.0019 0.9445
-13.5912 3.8603 -2.0019 0.9445
-13.8814 2.6323 -2.0019 0.9445
-14.0609 1.3832 -2.0019 0.9445
-14.1282 0.1231 -2.0019 0.9445
-14.0828 -1.1380 -2.0019 0.9445
-13.9251 -2.3900 -2.0019 0.9445
-13.6563 -3.6229 -2.0019 0.9445
-11.8220 -5.5368 -1.8497 0.9486
-10.6495 -7.5498 -1.8496 0.9486
-9.9333 -8.4698 -1.8496 0.9486
-9.1379 -9.3223 -1.8496 0.9486
-6.3427 -11.4092 -1.8496 0.9486
-4.2138 -12.3546 -1.8495 0.9486
-0.7914 -13.0291 -1.8495 0.9486
0.3743 -13.0476 -1.8495 0.9486
3.8163 -12.4822 -1.8494 0.9486
4.9147 -12.0919 -1.8494 0.9486
5.9740 -11.6050 -1.8494 0.9486
7.9414 -10.3583 -1.8494 0.9486
-4.2776 -10.3802 -1.8495 0.9555
-2.3645 -10.9751 -1.8495 0.9555
-0.3761 -11.2204 -1.8495 0.9555
1.6241 -11.1084 -1.8494 0.9555
2.6088 -10.9191 -1.8494 0.9555
6.2634 -9.3164 -1.8494 0.9555
7.8195 -8.0547 -1.8494 0.9555
9.1265 -6.5366 -1.8493 0.9555
9.6733 -5.6962 -1.8493 0.9555
11.9644 -2.1130 -2.0015 0.9519
12.1052 -1.0371 -2.0015 0.9519
12.1494 0.0471 -2.0015 0.9519
11.7032 3.2631 -2.0015 0.9519
10.9370 5.2912 -2.0015 0.9519
9.1130 6.6345 -1.8570 0.9553
7.7888 8.1486 -1.8570 0.9553
5.3321 6.6824 -1.4084 0.9659
6.2165 9.4034 -1.8570 0.9553
4.7924 11.1652 -2.0016 0.9519
3.7771 11.5483 -2.0016 0.9519
-0.9894 7.5316 -1.2514 0.9697
-2.6512 11.8582 -2.0017 0.9519
-4.7167 11.1983 -2.0018 0.9519
-6.1530 9.4464 -1.8572 0.9553
-8.4352 7.4797 -1.8572 0.9553
-9.0690 6.6973 -1.8572 0.9553
-9.9007 6.0259 -1.9094 0.9541
-11.3379 4.3722 -2.0019 0.9519
-12.0910 1.2135 -2.0019 0.9519
-12.1141 -0.9549 -2.0019 0.9519
-11.9806 -2.0320 -2.0019 0.9519
-10.1771 -4.7420 -1.8496 0.9555
-9.7134 -5.6311 -1.8496 0.9555
-7.8751 -8.0023 -1.8496 0.9555
-5.4745 -9.8020 -1.8496 0.9555
-4.5781 -10.2513 -1.8495 0.9555
-2.6831 -10.9016 -1.8495 0.9555
-1.6997 -11.0974 -1.8495 0.9555
0.2998 -11.2226 -1.8495 0.9555
1.2999 -11.1510 -1.8495 0.9555
2.2897 -10.9905 -1.8494 0.9555
3.2612 -10.7423 -1.8494 0.9555
4.2066 -10.4084 -1.8494 0.9555
5.9895 -9.4948 -1.8494 0.9555
6.8127 -8.9225 -1.8494 0.9555
8.2900 -7.5695 -1.8494 0.9555
9.5033 -5.9754 -1.8493 0.9555
10.4140 -4.1912 -1.8493 0.9555
12.0698 -1.3892 -2.0015 0.9519
12.1456 -0.3067 -2.0015 0.9519
12.1246 0.7782 -2.0015 0.9519
12.0068 1.8570 -2.0015 0.9519
11.0864 4.9705 -2.0015 0.9519
9.5003 6.5017 -1.8965 0.9544
6.4877 9.2183 -1.8570 0.9553
5.6394 9.7605 -1.8570 0.9553
5.1155 11.0209 -2.0016 0.9519
3.0753 11.7548 -2.0016 0.9519
2.0142 11.9824 -2.0017 0.9519
-0.1476 12.1498 -2.0017 0.9519
-1.4909 7.7177 -1.2949 0.9686
-5.3821 10.8942 -2.0018 0.9519
-6.3327 10.3706 -2.0018 0.9519
-7.4920 8.4242 -1.8572 0.9553
-8.2138 7.7222 -1.8572 0.9553
-11.5805 3.6820 -2.0019 0.9519
-12.0505 1.5651 -2.0019 0.9519
-11.5440 -3.7944 -2.0019 0.9519
-7.6019 -5.0416 -1.5027 0.9637
-6.5947 -9.0863 -1.8496 0.9555
-4.8747 -10.1136 -1.8495 0.9555
-3.9528 -10.5082 -1.8495 0.9555
-2.9994 -10.8189 -1.8495 0.9555
0.9747 -11.1842 -1.8495 0.9555
1.9687 -11.0525 -1.8494 0.9555
3.9017 -10.5265 -1.8494 0.9555
5.7105 -9.6652 -1.8494 0.9555
6.5500 -9.1171 -1.8494 0.9555
8.7305 -7.0568 -1.8493 0.9555
9.3253 -6.2496 -1.8493 0.9555
10.2876 -4.4926 -1.8493 0.9555
11.4879 -3.8376 -1.9953 0.9521
12.0243 -1.7400 -2.0015 0.9519
12.1316 -0.6602 -2.0015 0.9519
12.1421 0.4248 -2.0015 0.9519
11.2264 4.6455 -2.0015 0.9519
10.7672 5.6287 -2.0015 0.9519
10.1195 6.5011 -1.9815 0.9524
8.2499 7.6814 -1.8570 0.9553
7.5317 8.3869 -1.8570 0.9553
5.4343 10.8672 -2.0016 0.9519
1.8139 9.1520 -1.5370 0.9629
0.1548 9.1178 -1.5023 0.9637
-0.8785 12.1190 -2.0017 0.9519
-2.3403 9.1253 -1.5519 0.9625
-4.0568 11.4539 -2.0018 0.9519
-2.9702 6.4808 -1.1744 0.9715
-6.0280 10.5506 -2.0018 0.9519
-7.2435 8.6388 -1.8572 0.9553
-8.6637 7.2139 -1.8572 0.9553
-9.2728 6.4121 -1.8572 0.9553
-10.5716 5.9920 -2.0018 0.9519
-11.7811 2.9783 -2.0019 0.9519
-12.1229 0.8370 -2.0019 0.9519
-12.1492 -0.2480 -2.0019 0.9519
-11.9116 -2.4035 -2.0019 0.9519
-11.2528 -4.4657 -1.9944 0.9521
-10.0247 -5.0561 -1.8496 0.9555
-6.1993 -4.6720 -1.2788 0.9690
-7.6225 -8.2433 -1.8496 0.9555
-4.2571 -10.3886 -1.8495 0.9555
-3.3132 -10.7270 -1.8495 0.9555
-0.3540 -11.2211 -1.8495 0.9555
0.6486 -11.2079 -1.8495 0.9555
2.6303 -10.9140 -1.8494 0.9555
4.5281 -10.2725 -1.8494 0.9555
7.0868 -8.7064 -1.8494 0.9555
7.8353 -8.0393 -1.8494 0.9555
8.5214 -7.3081 -1.8493 0.9555
9.6845 -5.6771 -1.8493 0.9555
11.9685 -2.0895 -2.0015 0.9519
12.1493 0.0711 -2.0015 0.9519
12.0945 1.1548 -2.0015 0.9519
11.9433 2.2293 -2.0015 0.9519
11.6968 3.2861 -2.0015 0.9519
10.9265 5.3128 -2.0015 0.9519
10.4089 6.2665 -2.0015 0.9519
9.1060 6.6569 -1.8582 0.9553
8.4701 7.4378 -1.8570 0.9553
7.7727 8.1640 -1.8570 0.9553
5.3015 6.6709 -1.4037 0.9660
6.1980 9.4156 -1.8570 0.9553
4.7704 11.1746 -2.0016 0.9519
0.5600 12.1377 -2.0017 0.9519
-0.3971 9.1786 -1.5135 0.9634
-1.0038 7.5268 -1.2509 0.9697
-1.9272 8.5408 -1.4424 0.9651
-4.7388 11.1890 -2.0018 0.9519
-4.8098 9.0184 -1.6838 0.9594
-6.1716 9.4342 -1.8572 0.9553
-7.7503 8.1872 -1.8572 0.9553
-8.4499 7.4631 -1.8572 0.9553
-10.9130 5.3449 -2.0019 0.9519
-11.6893 3.3201 -2.0019 0.9519
-12.0933 1.1896 -2.0019 0.9519
-8.5434 -7.2847 -1.8496 0.9555
-7.1125 -8.6870 -1.8496 0.9555
-5.4552 -9.8128 -1.8496 0.9555
-4.5578 -10.2603 -1.8495 0.9555
-3.6242 -10.6260 -1.8495 0.9555
-2.6616 -10.9068 -1.8495 0.9555
-0.6806 -11.2061 -1.8495 0.9555
1.3219 -11.1484 -1.8495 0.9555
3.2823 -10.7358 -1.8494 0.9555
5.1381 -9.9813 -1.8494 0.9555
8.3049 -7.5531 -1.8494 0.9555
-4.5459 -8.7270 -1.8495 0.9607
-3.7491 -9.0978 -1.8495 0.9607
-2.9224 -9.3959 -1.8495 0.9607
-1.2058 -9.7656 -1.8495 0.9607
-0.3297 -9.8342 -1.8495 0.9607
0.5491 -9.8243 -1.8495 0.9607
3.1312 -9.3279 -1.8494 0.9607
4.7392 -8.6227 -1.8494 0.9607
7.4560 -6.4199 -1.8494 0.9607
7.9991 -5.7291 -1.8494 0.9607
10.2793 -2.7803 -2.0015 0.9576
10.6098 -0.9090 -2.0015 0.9576
10.6486 0.0413 -2.0015 0.9576
10.6024 0.9913 -2.0015 0.9576
9.5859 4.6376 -2.0015 0.9576
7.4366 6.5043 -1.8570 0.9606
6.8266 7.1420 -1.8570 0.9606
5.4485 8.2417 -1.8570 0.9606
3.5851 6.6445 -1.4191 0.9697
3.8970 9.0790 -1.8571 0.9606
3.0714 9.3906 -1.8571 0.9606
2.2229 9.6341 -1.8584 0.9606
-0.3059 7.4082 -1.3936 0.9703
-0.9876 7.5178 -1.4252 0.9696
-2.1558 9.6424 -1.8571 0.9606
-3.0076 9.4117 -1.8572 0.9606
-2.7669 6.5691 -1.3398 0.9714
-5.3928 8.2793 -1.8572 0.9606
-6.7786 7.1890 -1.8572 0.9606
-7.3930 6.5556 -1.8572 0.9606
-8.2132 6.0653 -1.9191 0.9593
-9.0976 5.5372 -2.0018 0.9576
-10.4599 2.0048 -2.0018 0.9576
-10.6497 0.1138 -2.0018 0.9576
-8.5132 -4.9354 -1.8496 0.9607
-7.5004 -6.3698 -1.8496 0.9607
-5.5456 -8.1286 -1.8496 0.9607
-4.7981 -8.5910 -1.8495 0.9607
-4.0124 -8.9847 -1.8495 0.9607
-3.1948 -9.3069 -1.8495 0.9607
-2.3516 -9.5547 -1.8495 0.9607
-1.4897 -9.7264 -1.8495 0.9607
2.8583 -9.4151 -1.8494 0.9607
4.4861 -8.7571 -1.8494 0.9607
5.2496 -8.3218 -1.8494 0.9607
5.9711 -7.8202 -1.8494 0.9607
6.6450 -7.2562 -1.8494 0.9607
7.8289 -5.9596 -1.8494 0.9607
8.7634 -4.4732 -1.8493 0.9607
9.8412 -3.9606 -1.9939 0.9577
10.1940 -3.0784 -2.0015 0.9576
10.4280 -2.1566 -2.0015 0.9576
10.5788 -1.2175 -2.0015 0.9576
10.6452 -0.2688 -2.0015 0.9576
10.3364 2.5600 -2.0015 0.9576
9.7168 4.3565 -2.0015 0.9576
9.2894 5.2061 -2.0016 0.9576
8.7879 6.0142 -2.0016 0.9576
7.8336 6.4589 -1.9084 0.9595
6.3844 7.5399 -1.8570 0.9606
5.6862 8.0795 -1.8570 0.9606
3.3435 9.2971 -1.8571 0.9606
-0.1294 10.6488 -2.0017 0.9576
-0.7789 7.6481 -1.4450 0.9692
-1.2636 6.5409 -1.2522 0.9733
-2.7322 9.4953 -1.8572 0.9606
-3.5686 9.2137 -1.8572 0.9606
-4.3764 8.8586 -1.8572 0.9606
-5.1494 8.4328 -1.8572 0.9606
-5.8813 7.9398 -1.8572 0.9606
-6.5663 7.3834 -1.8572 0.9606
-7.1990 6.7681 -1.8572 0.9606
-8.9325 5.7997 -2.0018 0.9576
-10.1496 3.2270 -2.0018 0.9576
-10.3971 2.3086 -2.0018 0.9576
-10.5616 1.3717 -2.0018 0.9576
-10.6419 0.4238 -2.0018 0.9576
-10.5478 -1.4744 -2.0018 0.9576
-7.5491 -5.0066 -1.7026 0.9638
-6.0539 -4.8451 -1.4575 0.9689
-7.1034 -6.8097 -1.8496 0.9607
-6.4675 -7.4163 -1.8496 0.9607
-5.7799 -7.9637 -1.8496 0.9607
-5.0463 -8.4476 -1.8495 0.9607
-4.2724 -8.8641 -1.8495 0.9607
-1.7723 -9.6789 -1.8495 0.9607
-0.0238 -9.8396 -1.8495 0.9607
0.8543 -9.8024 -1.8495 0.9607
2.5829 -9.4944 -1.8494 0.9607
5.7409 -7.9908 -1.8494 0.9607
7.0696 -6.8431 -1.8494 0.9607
8.1733 -5.4776 -1.8494 0.9607
8.6294 -4.7265 -1.8493 0.9607
9.1598 -4.0001 -1.8787 0.9601
10.1000 -3.3740 -2.0015 0.9576
10.5389 -1.5251 -2.0015 0.9576
10.6329 -0.5787 -2.0015 0.9576
10.6421 0.3724 -2.0015 0.9576
10.5665 1.3204 -2.0015 0.9576
10.1636 3.1775 -2.0015 0.9576
9.8396 4.0716 -2.0015 0.9576
9.4371 4.9334 -2.0015 0.9576
8.9593 5.7557 -2.0016 0.9576
6.6012 7.3508 -1.8570 0.9606
5.9191 7.9105 -1.8570 0.9606
5.1897 8.4071 -1.8570 0.9606
3.3530 6.7051 -1.4091 0.9699
3.6128 9.1958 -1.8571 0.9606
1.9353 6.6055 -1.2938 0.9724
1.8139 9.1520 -1.7537 0.9627
0.1548 9.1178 -1.7140 0.9636
-2.9702 6.4808 -1.3400 0.9714
-4.9017 8.5792 -1.8572 0.9606
-4.5381 6.5148 -1.4923 0.9682
-6.3485 7.5714 -1.8572 0.9606
-6.9988 6.9748 -1.8572 0.9606
-7.5933 6.3226 -1.8572 0.9606
-10.0514 3.5212 -2.0018 0.9576
-10.6481 -0.2174 -2.0018 0.9576
-10.5862 -1.1666 -2.0018 0.9576
-9.8992 -3.9285 -2.0018 0.9576
-8.3557 -5.1976 -1.8496 0.9607
-7.2987 -6.5999 -1.8496 0.9607
-5.2902 -8.2971 -1.8496 0.9607
-4.5287 -8.7360 -1.8495 0.9607
-2.9039 -9.4017 -1.8495 0.9607
-1.1866 -9.7680 -1.8495 0.9607
-0.3103 -9.8348 -1.8495 0.9607
0.5684 -9.8232 -1.8495 0.9607
2.3053 -9.5656 -1.8494 0.9607
3.9687 -9.0035 -1.8494 0.9607
4.7562 -8.6134 -1.8494 0.9607
5.5057 -8.1546 -1.8494 0.9607
6.2113 -7.6308 -1.8494 0.9607
8.0103 -5.7133 -1.8494 0.9607
8.4881 -4.9758 -1.8494 0.9607
9.9845 -3.6619 -1.9989 0.9576
10.2847 -2.7600 -2.0015 0.9576
10.4900 -1.8313 -2.0015 0.9576
10.6115 -0.8881 -2.0015 0.9576
10.6004 1.0122 -2.0015 0.9576
9.9539 3.7834 -2.0015 0.9576
9.1231 5.4924 -2.0016 0.9576
8.5967 6.2845 -2.0016 0.9576
6.8125 7.1554 -1.8570 0.9606
5.3015 6.6709 -1.6016 0.9659
3.8791 9.0867 -1.8571 0.9606
3.0529 9.3966 -1.8571 0.9606
2.2030 9.6344 -1.8576 0.9606
-0.3472 8.0245 -1.5097 0.9678
-1.0020 7.5128 -1.4246 0.9696
-2.7801 6.5642 -1.3399 0.9714
-6.7927 7.1757 -1.8572 0.9606
-7.4059 6.5410 -1.8572 0.9606
-8.2450 6.0637 -1.9237 0.9592
-9.9445 3.8124 -2.0018 0.9576
-10.2451 2.9099 -2.0018 0.9576
-10.5992 1.0427 -2.0018 0.9576
-10.6157 -0.8578 -2.0018 0.9576
-10.2942 -2.7310 -2.0018 0.9576
-9.4783 -4.4391 -1.9673 0.9583
-8.5035 -4.9521 -1.8496 0.9607
-7.4879 -6.3846 -1.8496 0.9607
-3.9947 -8.9926 -1.8495 0.9607
-2.3328 -9.5593 -1.8495 0.9607
-1.4705 -9.7293 -1.8495 0.9607
-0.5966 -9.8216 -1.8495 0.9607
2.0258 -9.6287 -1.8494 0.9607
2.8768 -9.4095 -1.8494 0.9607
3.7049 -9.1152 -1.8494 0.9607
5.2659 -8.3115 -1.8494 0.9607
5.9865 -7.8084 -1.8494 0.9607
-4.0423 -7.7601 -1.8495 0.9649
-3.3337 -8.0898 -1.8495 0.9649
-2.5986 -8.3549 -1.8495 0.9649
-1.8428 -8.5534 -1.8495 0.9649
-1.0722 -8.6837 -1.8495 0.9649
-0.2932 -8.7446 -1.8495 0.9649
0.4883 -8.7359 -1.8495 0.9649
2.0332 -8.5099 -1.8494 0.9649
4.8815 -7.2608 -1.8494 0.9649
5.5098 -6.7963 -1.8494 0.9649
6.0942 -6.2775 -1.8494 0.9649
8.4350 -4.0003 -1.9733 0.9626
8.8835 -3.2780 -2.0015 0.9620
9.1405 -2.4722 -2.0015 0.9620
9.3246 -1.6468 -2.0015 0.9620
9.4344 -0.8083 -2.0015 0.9620
9.4689 0.0367 -2.0015 0.9620
9.4278 0.8815 -2.0015 0.9620
9.3116 1.7191 -2.0015 0.9620
8.8578 3.3468 -2.0016 0.9620
8.1220 4.8679 -2.0016 0.9620
7.6553 5.5732 -2.0016 0.9620
7.1275 6.2340 -2.0016 0.9620
6.1395 6.4231 -1.8782 0.9643
5.3168 6.6633 -1.8019 0.9657
2.8740 6.6957 -1.5402 0.9706
2.7311 8.3502 -1.8571 0.9647
1.9752 8.5606 -1.8571 0.9647
0.3154 6.5564 -1.3875 0.9735
-0.2947 7.1360 -1.5097 0.9712
-1.5667 7.0077 -1.5179 0.9711
-2.6744 8.3689 -1.8572 0.9647
-5.4331 6.9048 -1.8572 0.9647
-6.8723 6.0939 -1.9415 0.9631
-8.4967 4.1822 -2.0018 0.9620
-8.8360 3.4074 -2.0018 0.9620
-9.1048 2.6054 -2.0018 0.9620
-9.3010 1.7827 -2.0018 0.9620
-9.4410 -0.7442 -2.0018 0.9620
-8.9067 -3.2179 -2.0018 0.9620
-8.5814 -3.9985 -2.0012 0.9620
-7.6122 -4.4130 -1.8599 0.9647
-5.5564 -6.7592 -1.8496 0.9649
-3.5679 -7.9893 -1.8495 0.9649
-2.8408 -8.2757 -1.8495 0.9649
-1.3246 -8.6488 -1.8495 0.9649
-0.5477 -8.7324 -1.8495 0.9649
0.2337 -8.7464 -1.8495 0.9649
2.5416 -8.3721 -1.8494 0.9649
3.2784 -8.1118 -1.8494 0.9649
3.9891 -7.7869 -1.8494 0.9649
4.6680 -7.3999 -1.8494 0.9649
5.9088 -6.4523 -1.8494 0.9649
6.9615 -5.2993 -1.8494 0.9649
7.4066 -4.6570 -1.8494 0.9649
7.8985 -4.0317 -1.8745 0.9644
8.7843 -3.5352 -2.0015 0.9620
9.3577 1.4472 -2.0015 0.9620
6.5067 6.4220 -1.9325 0.9633
5.0563 7.1844 -1.8570 0.9647
3.6988 7.9688 -1.8571 0.9647
1.4564 8.6640 -1.8571 0.9647
0.6776 8.7595 -1.8571 0.9647
-0.1067 8.7850 -1.8571 0.9647
-0.7230 7.0990 -1.5083 0.9712
-1.2636 6.5409 -1.4082 0.9731
-3.1732 8.1928 -1.8572 0.9647
-3.8916 7.8771 -1.8572 0.9647
-4.5789 7.4985 -1.8572 0.9647
-5.2297 7.0601 -1.8572 0.9647
-5.8388 6.5653 -1.8572 0.9647
-7.4510 5.8452 -2.0018 0.9620
-7.9428 5.1571 -2.0018 0.9620
-8.3713 4.4279 -2.0018 0.9620
-8.7330 3.6633 -2.0018 0.9620
-9.2451 2.0528 -2.0018 0.9620
-9.3914 1.2197 -2.0018 0.9620
-8.9967 -2.9571 -2.0018 0.9620
-8.6969 -3.7481 -2.0018 0.9620
-6.3164 -6.0552 -1.8496 0.9649
-5.1395 -7.0814 -1.8496 0.9649
-4.4872 -7.5117 -1.8495 0.9649
-2.3376 -8.4317 -1.8495 0.9649
-1.5759 -8.6065 -1.8495 0.9649
-0.8017 -8.7128 -1.8495 0.9649
-0.0211 -8.7495 -1.8495 0.9649
3.0408 -8.2039 -1.8494 0.9649
3.7607 -7.8998 -1.8494 0.9649
4.4505 -7.5327 -1.8494 0.9649
5.1048 -7.1055 -1.8494 0.9649
5.7184 -6.6217 -1.8494 0.9649
7.2678 -4.8708 -1.8494 0.9649
7.6734 -4.2028 -1.8494 0.9649
8.9811 -3.0002 -2.0015 0.9620
9.2536 2.0078 -2.0015 0.9620
8.3916 4.3868 -2.0016 0.9620
6.8958 6.4206 -1.9916 0.9622
-0.5160 7.1183 -1.5086 0.9712
-1.1500 7.0490 -1.5097 0.9712
-1.6906 6.5921 -1.4385 0.9726
-2.9702 6.4808 -1.5069 0.9713
-5.6451 6.7325 -1.8572 0.9647
-7.7893 5.3862 -2.0018 0.9620
-8.2388 4.6698 -2.0018 0.9620
-8.6226 3.9160 -2.0018 0.9620
-8.9377 3.1311 -2.0018 0.9620
-9.3519 1.4927 -2.0018 0.9620
-9.4478 0.6523 -2.0018 0.9620
-9.2832 -1.8731 -2.0018 0.9620
-8.8024 -3.4932 -2.0018 0.9620
-8.4344 -4.2540 -1.9968 0.9621
-6.4901 -5.8687 -1.8496 0.9649
-5.9405 -6.4243 -1.8496 0.9649
-3.3178 -8.0963 -1.8495 0.9649
-1.0551 -8.6857 -1.8495 0.9649
2.8007 -8.2890 -1.8494 0.9649
3.5290 -8.0060 -1.8494 0.9649
4.2293 -7.6591 -1.8494 0.9649
5.5232 -6.7854 -1.8494 0.9649
6.1066 -6.2655 -1.8494 0.9649
7.5478 -4.4245 -1.8494 0.9649
8.8899 -3.2604 -2.0015 0.9620
9.1454 -2.4542 -2.0015 0.9620
9.4688 0.0554 -2.0015 0.9620
9.4261 0.9000 -2.0015 0.9620
8.8512 3.3642 -2.0016 0.9620
5.2992 6.6681 -1.8004 0.9658
4.8305 7.3381 -1.8570 0.9647
3.5734 6.6541 -1.5965 0.9696
2.7146 8.3555 -1.8571 0.9647
1.9583 8.5645 -1.8571 0.9647
0.3026 6.5598 -1.3881 0.9735
-1.5810 7.0064 -1.5182 0.9711
-3.4264 8.0902 -1.8572 0.9647
-4.8098 7.3525 -1.8572 0.9647
-6.0401 6.3806 -1.8572 0.9647
-7.6291 5.6108 -2.0018 0.9620
-8.5049 4.1655 -2.0018 0.9620
-9.1099 2.5875 -2.0018 0.9620
-9.3045 1.7644 -2.0018 0.9620
-9.4248 0.9271 -2.0018 0.9620
-9.4395 -0.7628 -2.0018 0.9620
-9.3338 -1.6020 -2.0018 0.9620
-9.1536 -2.4284 -2.0018 0.9620
-8.9004 -3.2354 -2.0018 0.9620
-8.5723 -4.0148 -2.0009 0.9620
-7.5818 -4.4153 -1.8546 0.9648
-6.6582 -5.6772 -1.8496 0.9649
-6.1251 -6.2486 -1.8496 0.9649
-5.5431 -6.7702 -1.8496 0.9649
-3.5521 -7.9963 -1.8495 0.9649
-2.8245 -8.2813 -1.8495 0.9649
-2.0743 -8.5002 -1.8495 0.9649
-0.5305 -8.7335 -1.8495 0.9649
0.2509 -8.7459 -1.8495 0.9649
1.0302 -8.6886 -1.8495 0.9649
3.2944 -8.1054 -1.8494 0.9649
4.6825 -7.3907 -1.8494 0.9649
5.3233 -6.9434 -1.8494 0.9649
6.4726 -5.8866 -1.8494 0.9649
-3.6356 -6.9794 -1.8495 0.9682
-2.9983 -7.2759 -1.8495 0.9682
-0.9644 -7.8101 -1.8495 0.9682
-0.2637 -7.8649 -1.8495 0.9682
0.4391 -7.8570 -1.8495 0.9682
1.1384 -7.7865 -1.8495 0.9682
1.8286 -7.6538 -1.8494 0.9682
2.5042 -7.4601 -1.8494 0.9682
5.9631 -5.1345 -1.8494 0.9682
7.9899 -2.9482 -2.0016 0.9656
8.3866 -1.4812 -2.0016 0.9656
8.4853 -0.7270 -2.0016 0.9656
8.5164 0.0330 -2.0016 0.9656
7.3049 4.3782 -2.0016 0.9656
6.4105 5.6069 -2.0016 0.9656
4.3575 6.5914 -1.8570 0.9681
3.1166 7.2610 -1.8571 0.9681
2.4564 7.5102 -1.8571 0.9681
1.0824 7.8273 -1.8571 0.9681
0.3154 6.5564 -1.5427 0.9734
-1.5695 7.0198 -1.6906 0.9709
-2.4053 7.5270 -1.8571 0.9681
-4.8865 6.2101 -1.8572 0.9681
-6.8516 5.0598 -2.0018 0.9656
-7.2758 4.4283 -2.0018 0.9656
-8.3652 1.6033 -2.0018 0.9656
-8.4912 -0.6693 -2.0018 0.9656
-8.2370 -2.1679 -2.0018 0.9656
-8.0107 -2.8941 -2.0018 0.9656
-7.7205 -3.5973 -2.0018 0.9656
-5.9984 -5.0943 -1.8496 0.9682
-4.9974 -6.0792 -1.8496 0.9682
-4.4351 -6.5009 -1.8495 0.9682
-2.5550 -7.4432 -1.8495 0.9682
-1.8807 -7.6414 -1.8495 0.9682
-0.4926 -7.8539 -1.8495 0.9682
0.2101 -7.8665 -1.8495 0.9682
0.9112 -7.8163 -1.8495 0.9682
1.6050 -7.7038 -1.8495 0.9682
2.2859 -7.5299 -1.8494 0.9682
2.9486 -7.2958 -1.8494 0.9682
5.8110 -5.3059 -1.8494 0.9682
6.6615 -4.1886 -1.8494 0.9682
8.1528 -2.4620 -2.0016 0.9656
8.4606 -0.9737 -2.0016 0.9656
8.5137 -0.2150 -2.0016 0.9656
8.2667 2.0474 -2.0016 0.9656
7.4293 4.1636 -2.0016 0.9656
7.0282 4.8099 -2.0016 0.9656
6.5711 5.4179 -2.0016 0.9656
5.4097 6.3888 -1.9675 0.9662
3.3268 7.1672 -1.8571 0.9681
1.9999 7.6444 -1.8571 0.9681
1.3099 7.7924 -1.8571 0.9681
-0.0960 7.9013 -1.8571 0.9681
-0.7230 7.0990 -1.6771 0.9711
-3.5001 7.0846 -1.8572 0.9681
-4.7036 6.3498 -1.8572 0.9681
-6.2056 5.8341 -2.0018 0.9656
-7.8544 3.2947 -2.0018 0.9656
-8.3150 1.8463 -2.0018 0.9656
-8.4466 1.0970 -2.0018 0.9656
-7.8220 -3.3710 -2.0018 0.9656
-6.0540 -4.8452 -1.8224 0.9686
-5.1724 -5.9311 -1.8496 0.9682
-4.6225 -6.3690 -1.8495 0.9682
-4.0358 -6.7560 -1.8495 0.9682
-0.7211 -7.8363 -1.8495 0.9682
-0.0190 -7.8693 -1.8495 0.9682
2.0657 -7.5932 -1.8494 0.9682
2.7349 -7.3786 -1.8494 0.9682
3.3824 -7.1051 -1.8494 0.9682
4.0028 -6.7749 -1.8494 0.9682
4.5913 -6.3907 -1.8494 0.9682
5.1432 -5.9556 -1.8494 0.9682
5.6540 -5.4729 -1.8494 0.9682
6.1198 -4.9466 -1.8494 0.9682
6.5367 -4.3808 -1.8494 0.9682
7.3529 -4.0273 -1.9703 0.9661
8.2862 -1.9669 -2.0016 0.9656
8.4286 -1.2197 -2.0016 0.9656
8.5038 -0.4628 -2.0016 0.9656
8.5112 0.2978 -2.0016 0.9656
8.3228 1.8058 -2.0016 0.9656
8.1285 2.5412 -2.0016 0.9656
7.8693 3.2564 -2.0016 0.9656
6.2331 5.8035 -2.0016 0.9656
4.1505 6.7237 -1.8570 0.9681
3.5340 7.0672 -1.8571 0.9681
2.8894 7.3544 -1.8571 0.9681
1.9353 6.6055 -1.6177 0.9721
1.5363 7.7509 -1.8571 0.9681
-0.4800 6.6208 -1.5601 0.9731
-1.1515 7.0589 -1.6809 0.9710
-1.7903 6.9806 -1.6937 0.9708
-2.9702 6.4808 -1.6755 0.9711
-4.5167 6.4841 -1.8572 0.9681
-6.0330 6.0123 -2.0018 0.9656
-6.5454 5.4501 -2.0018 0.9656
-7.4100 4.2000 -2.0018 0.9656
-8.2577 2.0876 -2.0018 0.9656
-8.4110 1.3425 -2.0018 0.9656
-8.4662 -0.9330 -2.0018 0.9656
-8.3492 -1.6847 -2.0018 0.9656
-8.1656 -2.4229 -2.0018 0.9656
-7.9168 -3.1418 -2.0018 0.9656
-4.8060 -6.2317 -1.8495 0.9682
-4.2308 -6.6356 -1.8495 0.9682
-2.9840 -7.2818 -1.8495 0.9682
-2.3224 -7.5190 -1.8495 0.9682
-0.9490 -7.8120 -1.8495 0.9682
0.4546 -7.8562 -1.8495 0.9682
1.1538 -7.7842 -1.8495 0.9682
1.8437 -7.6502 -1.8494 0.9682
3.1740 -7.2006 -1.8494 0.9682
3.8038 -6.8887 -1.8494 0.9682
4.4033 -6.5217 -1.8494 0.9682
5.4923 -5.6352 -1.8494 0.9682
7.9957 -2.9325 -2.0016 0.9656
8.2254 -2.2074 -2.0016 0.9656
8.3895 -1.4646 -2.0016 0.9656
8.5163 0.0498 -2.0016 0.9656
8.3718 1.5627 -2.0016 0.9656
8.1990 2.3035 -2.0016 0.9656
7.9608 3.0258 -2.0016 0.9656
7.6591 3.7241 -2.0016 0.9656
6.8753 5.0261 -2.0016 0.9656
6.3994 5.6195 -2.0016 0.9656
5.0781 6.3898 -1.9182 0.9670
3.5734 6.6541 -1.7751 0.9694
3.1023 7.2671 -1.8571 0.9681
2.4416 7.5150 -1.8571 0.9681
1.0670 7.8294 -1.8571 0.9681
-0.3088 7.1377 -1.6791 0.9711
-1.5837 7.0185 -1.6910 0.9709
-2.4201 7.5222 -1.8571 0.9681
-3.0817 7.2763 -1.8572 0.9681
-3.7186 6.9724 -1.8572 0.9681
-5.7873 6.1135 -1.9785 0.9660
-6.3839 5.6384 -2.0018 0.9656
-6.8616 5.0463 -2.0018 0.9656
-7.2845 4.4140 -2.0018 0.9656
-7.6493 3.7464 -2.0018 0.9656
-8.1934 2.3272 -2.0018 0.9656
-8.5172 0.0742 -2.0018 0.9656
-8.4898 -0.6860 -2.0018 0.9656
-6.4201 -4.5514 -1.8496 0.9682
-5.5089 -5.6200 -1.8496 0.9682
-4.9854 -6.0891 -1.8496 0.9682
-4.4222 -6.5096 -1.8495 0.9682
-3.8238 -6.8782 -1.8495 0.9682
-3.1948 -7.1919 -1.8495 0.9682
-2.5403 -7.4482 -1.8495 0.9682
-0.4771 -7.8549 -1.8495 0.9682
0.2257 -7.8661 -1.8495 0.9682
5.3259 -5.7928 -1.8494 0.9682
-3.3001 -6.3353 -1.8495 0.9709
-2.7216 -6.6045 -1.8495 0.9709
-1.5044 -6.9830 -1.8495 0.9709
-0.8754 -7.0893 -1.8495 0.9709
-0.2393 -7.1391 -1.8495 0.9709
0.3986 -7.1319 -1.8495 0.9709
2.8682 -6.5418 -1.8494 0.9709
3.4405 -6.2597 -1.8494 0.9709
3.9853 -5.9278 -1.8494 0.9709
4.9754 -5.1250 -1.8494 0.9709
5.4128 -4.6606 -1.8494 0.9709
6.6433 -3.9119 -1.9961 0.9686
6.9848 -3.3126 -2.0016 0.9686
7.6127 -1.3445 -2.0016 0.9686
7.6970 0.7196 -2.0016 0.9686
7.4465 2.0762 -2.0016 0.9686
7.2316 2.7324 -2.0016 0.9686
6.9590 3.3667 -2.0016 0.9686
6.6308 3.9742 -2.0016 0.9686
5.3416 5.5884 -2.0016 0.9686
4.8217 6.0428 -2.0016 0.9686
4.2034 6.3582 -1.9735 0.9690
2.8290 6.5909 -1.8571 0.9708
2.2297 6.8171 -1.8571 0.9708
0.9825 7.1049 -1.8571 0.9708
0.3154 6.5564 -1.6995 0.9732
-0.2922 7.0774 -1.8340 0.9712
-0.9220 7.0185 -1.8328 0.9712
-1.5559 6.9592 -1.8463 0.9710
-2.1833 6.8323 -1.8571 0.9708
-2.7842 6.6103 -1.8572 0.9708
-5.3039 5.6251 -2.0018 0.9686
-6.6043 4.0196 -2.0018 0.9686
-6.9366 3.4143 -2.0018 0.9686
-7.2136 2.7818 -2.0018 0.9686
-7.4330 2.1271 -2.0018 0.9686
-7.5932 1.4554 -2.0018 0.9686
-7.6928 0.7721 -2.0018 0.9686
-7.7310 0.0826 -2.0018 0.9686
-7.7075 -0.6075 -2.0018 0.9686
-7.6225 -1.2928 -2.0018 0.9686
-7.4768 -1.9678 -2.0018 0.9686
-7.2714 -2.6270 -2.0018 0.9686
-7.0080 -3.2653 -2.0018 0.9686
-5.0105 -5.0915 -1.8496 0.9709
-3.4832 -6.2365 -1.8495 0.9709
-2.9128 -6.5224 -1.8495 0.9709
-2.3192 -6.7563 -1.8495 0.9709
-1.7071 -6.9362 -1.8495 0.9709
-1.0814 -7.0608 -1.8495 0.9709
0.8271 -7.0950 -1.8495 0.9709
1.4569 -6.9929 -1.8495 0.9709
2.0750 -6.8350 -1.8494 0.9709
3.8110 -6.0413 -1.8494 0.9709
5.6834 -4.3264 -1.8494 0.9709
6.8854 -3.5146 -2.0016 0.9686
7.1715 -2.8862 -2.0016 0.9686
7.4004 -2.2348 -2.0016 0.9686
7.7280 -0.1951 -2.0016 0.9686
7.7146 0.4952 -2.0016 0.9686
7.3081 2.5206 -2.0016 0.9686
6.7437 3.7794 -2.0016 0.9686
5.9647 4.9179 -2.0016 0.9686
4.4493 6.3220 -2.0016 0.9686
3.0211 6.5087 -1.8579 0.9708
0.5532 7.1512 -1.8571 0.9708
-0.0871 7.1721 -1.8571 0.9708
-0.7167 7.0377 -1.8316 0.9712
-1.2636 6.5409 -1.7249 0.9728
-1.9834 6.8930 -1.8571 0.9708
-2.5906 6.6886 -1.8571 0.9708
-3.1770 6.4308 -1.8572 0.9708
-3.7748 6.1817 -1.8754 0.9705
-4.5508 6.1435 -1.9795 0.9689
-6.4844 4.2102 -2.0018 0.9686
-6.8342 3.6149 -2.0018 0.9686
-7.3679 2.3426 -2.0018 0.9686
-7.5476 1.6759 -2.0018 0.9686
-7.6670 0.9957 -2.0018 0.9686
-7.7253 0.3077 -2.0018 0.9686
-7.7219 -0.3828 -2.0018 0.9686
-7.1001 -3.0599 -2.0018 0.9686
-6.4240 -4.2604 -1.9958 0.9687
-5.1567 -4.9434 -1.8496 0.9709
-4.6950 -5.3838 -1.8495 0.9709
-4.1959 -5.7812 -1.8495 0.9709
-2.5150 -6.6859 -1.8495 0.9709
-1.9084 -6.8836 -1.8495 0.9709
0.6201 -7.1161 -1.8495 0.9709
1.2526 -7.0323 -1.8495 0.9709
1.8751 -6.8925 -1.8494 0.9709
4.6686 -5.4060 -1.8494 0.9709
5.1323 -4.9678 -1.8494 0.9709
6.0768 -4.0725 -1.8941 0.9702
6.7731 -3.7098 -1.9995 0.9686
7.3322 -2.4494 -2.0016 0.9686
7.6508 -1.1072 -2.0016 0.9686
7.7191 -0.4201 -2.0016 0.9686
7.7258 0.2703 -2.0016 0.9686
7.6709 0.9586 -2.0016 0.9686
7.5547 1.6392 -2.0016 0.9686
7.3784 2.3067 -2.0016 0.9686
5.6579 5.2680 -2.0016 0.9686
3.2079 6.4150 -1.8571 0.9708
1.9353 6.6055 -1.7822 0.9720
1.3945 7.0356 -1.8571 0.9708
0.1218 7.1716 -1.8571 0.9708
-0.5116 7.0568 -1.8319 0.9712
-1.7794 6.9383 -1.8546 0.9708
-2.3947 6.7612 -1.8571 0.9708
-2.9571 6.4522 -1.8377 0.9711
-3.5583 6.2279 -1.8572 0.9708
-4.9674 5.9243 -2.0018 0.9686
-5.4762 5.4575 -2.0018 0.9686
-5.9413 4.9471 -2.0018 0.9686
-6.3591 4.3973 -2.0018 0.9686
-7.0394 3.1970 -2.0018 0.9686
-7.6348 1.2186 -2.0018 0.9686
-7.7298 -0.1578 -2.0018 0.9686
-7.6849 -0.8469 -2.0018 0.9686
-7.4120 -2.1993 -2.0018 0.9686
-7.1862 -2.8518 -2.0018 0.9686
-6.5556 -4.0779 -1.9990 0.9686
-5.7923 -4.3652 -1.8779 0.9705
-4.8498 -5.2448 -1.8496 0.9709
-2.7086 -6.6098 -1.8495 0.9709
-2.1080 -6.8251 -1.8495 0.9709
1.0473 -7.0658 -1.8495 0.9709
2.8811 -6.5361 -1.8494 0.9709
4.9854 -5.1152 -1.8494 0.9709
6.6517 -3.8992 -1.9963 0.9686
7.2578 -2.6618 -2.0016 0.9686
7.4663 -2.0037 -2.0016 0.9686
7.7036 -0.6447 -2.0016 0.9686
7.5993 1.4185 -2.0016 0.9686
7.4424 2.0909 -2.0016 0.9686
7.2262 2.7466 -2.0016 0.9686
6.9523 3.3804 -2.0016 0.9686
4.8098 6.0522 -2.0016 0.9686
4.1854 6.3583 -1.9709 0.9690
3.4146 6.3584 -1.8687 0.9706
2.2162 6.8215 -1.8571 0.9708
-0.3062 7.0761 -1.8338 0.9712
-0.9359 7.0172 -1.8330 0.9712
-2.1968 6.8280 -1.8571 0.9708
-2.7973 6.6048 -1.8572 0.9708
-4.0357 6.1692 -1.9087 0.9700
-5.7948 5.1180 -2.0018 0.9686
-6.2283 4.5806 -2.0018 0.9686
-7.4372 2.1124 -2.0018 0.9686
-7.5960 1.4404 -2.0018 0.9686
-7.7063 -0.6227 -2.0018 0.9686
-7.6200 -1.3078 -2.0018 0.9686
-7.2662 -2.6414 -2.0018 0.9686
-6.1504 -4.3602 -1.9520 0.9693
-5.4357 -4.6348 -1.8496 0.9709
-5.0005 -5.1013 -1.8496 0.9709
-4.0141 -5.9088 -1.8495 0.9709
-3.4709 -6.2434 -1.8495 0.9709
-2.8999 -6.5281 -1.8495 0.9709
-2.3059 -6.7608 -1.8495 0.9709
-1.6935 -6.9396 -1.8495 0.9709
-1.0675 -7.0629 -1.8495 0.9709
-0.4331 -7.1300 -1.8495 0.9709
0.8411 -7.0934 -1.8495 0.9709
2.0884 -6.8309 -1.8494 0.9709
-2.4892 -6.0404 -1.8495 0.9732
-1.9403 -6.2384 -1.8495 0.9732
-1.3760 -6.3866 -1.8495 0.9732
0.3646 -6.5229 -1.8495 0.9732
2.0790 -6.1934 -1.8494 0.9732
3.6449 -5.4216 -1.8494 0.9732
4.9539 -4.2656 -1.8507 0.9732
6.3884 -3.0297 -2.0016 0.9710
6.6332 -2.4476 -2.0016 0.9710
6.9626 -1.2297 -2.0016 0.9710
7.0446 -0.6035 -2.0016 0.9710
7.0397 0.6582 -2.0016 0.9710
6.9529 1.2837 -2.0016 0.9710
6.8106 1.8989 -2.0016 0.9710
6.6141 2.4990 -2.0016 0.9710
6.0646 3.6348 -2.0016 0.9710
5.7161 4.1615 -2.0016 0.9710
4.4100 5.5267 -2.0016 0.9710
3.3575 6.2226 -2.0016 0.9710
2.7155 6.3265 -1.9490 0.9718
2.0680 6.3228 -1.8833 0.9727
1.4748 6.3921 -1.8571 0.9731
-0.8544 6.5042 -1.8571 0.9731
-1.9969 6.2489 -1.8571 0.9731
-2.6133 6.2044 -1.9059 0.9724
-3.2776 6.1747 -1.9790 0.9714
-4.3726 5.5570 -2.0018 0.9710
-4.8510 5.1447 -2.0018 0.9710
-5.2907 4.6914 -2.0018 0.9710
-6.7983 1.9454 -2.0018 0.9710
-6.9447 1.3311 -2.0018 0.9710
-7.0358 0.7061 -2.0018 0.9710
-6.6504 -2.4027 -2.0018 0.9710
-6.4095 -2.9865 -2.0018 0.9710
-6.1174 -3.5464 -2.0018 0.9710
-5.7678 -4.0719 -1.9987 0.9711
-4.1488 -5.0469 -1.8495 0.9732
-3.6820 -5.3970 -1.8495 0.9732
-2.6641 -5.9654 -1.8495 0.9732
-1.5614 -6.3439 -1.8495 0.9732
-0.9891 -6.4579 -1.8495 0.9732
-0.4089 -6.5203 -1.8495 0.9732
1.8978 -6.2513 -1.8494 0.9732
3.9646 -5.1924 -1.8494 0.9732
6.2975 -3.2145 -2.0016 0.9710
6.7685 -2.0440 -2.0016 0.9710
6.9239 -1.4319 -2.0016 0.9710
7.0681 -0.1785 -2.0016 0.9710
7.0559 0.4529 -2.0016 0.9710
6.8630 1.6998 -2.0016 0.9710
6.6840 2.3054 -2.0016 0.9710
5.8349 3.9932 -2.0016 0.9710
5.4553 4.4979 -2.0016 0.9710
4.5690 5.3960 -2.0016 0.9710
4.0694 5.7821 -2.0016 0.9710
1.6603 6.3464 -1.8571 0.9731
1.0875 6.4692 -1.8571 0.9731
-0.6646 6.5264 -1.8571 0.9731
-3.0556 6.1849 -1.9529 0.9717
-3.6851 6.0348 -2.0017 0.9710
-4.2089 5.6819 -2.0018 0.9710
-5.1518 4.8434 -2.0018 0.9710
-6.7387 2.1425 -2.0018 0.9710
-7.0122 0.9107 -2.0018 0.9710
-7.0030 -0.9789 -2.0018 0.9710
-6.7175 -2.2080 -2.0018 0.9710
-6.2181 -3.3668 -2.0018 0.9710
-5.8923 -3.9078 -2.0016 0.9710
-5.4226 -4.3398 -1.9662 0.9715
-4.7163 -4.5212 -1.8495 0.9732
-4.2940 -4.9240 -1.8495 0.9732
-3.3505 -5.6088 -1.8495 0.9732
-1.7454 -6.2957 -1.8495 0.9732
-0.5986 -6.5057 -1.8495 0.9732
0.5672 -6.5084 -1.8495 0.9732
1.1456 -6.4318 -1.8495 0.9732
1.7149 -6.3039 -1.8495 0.9732
3.3231 -5.6246 -1.8494 0.9732
4.6940 -4.5436 -1.8494 0.9732
5.8577 -3.9257 -1.9962 0.9711
6.4795 -2.8296 -2.0016 0.9710
6.9975 -1.0126 -2.0016 0.9710
7.0599 -0.3842 -2.0016 0.9710
7.0158 0.8767 -2.0016 0.9710
6.9096 1.4992 -2.0016 0.9710
6.7483 2.1097 -2.0016 0.9710
5.9487 3.8216 -2.0016 0.9710
5.1747 4.8181 -2.0016 0.9710
4.7242 5.2606 -2.0016 0.9710
3.1624 6.3240 -2.0016 0.9710
0.6962 6.5230 -1.8571 0.9731
0.1114 6.5591 -1.8571 0.9731
-0.4743 6.5429 -1.8571 0.9731
-1.0562 6.4745 -1.8571 0.9731
-1.6297 6.3545 -1.8571 0.9731
-2.2035 6.2214 -1.8684 0.9729
-2.8390 6.1946 -1.9291 0.9721
-3.5078 6.1395 -2.0017 0.9710
-4.0416 5.8021 -2.0017 0.9710
-5.0086 4.9914 -2.0018 0.9710
-5.4340 4.5246 -2.0018 0.9710
-6.1517 3.4868 -2.0018 0.9710
-6.4382 2.9240 -2.0018 0.9710
-6.6735 2.3379 -2.0018 0.9710
-6.9828 1.1145 -2.0018 0.9710
-6.7790 -2.0115 -2.0018 0.9710
-6.3135 -3.1843 -2.0018 0.9710
-6.0042 -3.7349 -2.0018 0.9710
-5.6301 -4.2430 -1.9958 0.9711
-4.8459 -4.3820 -1.8496 0.9732
-3.9899 -5.1735 -1.8495 0.9732
-3.5124 -5.5088 -1.8495 0.9732
-3.0068 -5.8002 -1.8495 0.9732
-2.4773 -6.0453 -1.8495 0.9732
-1.9280 -6.2422 -1.8495 0.9732
-1.3634 -6.3893 -1.8495 0.9732
-0.7878 -6.4855 -1.8495 0.9732
-0.2060 -6.5299 -1.8495 0.9732
0.3774 -6.5222 -1.8495 0.9732
1.5306 -6.3512 -1.8495 0.9732
2.0912 -6.1893 -1.8494 0.9732
2.6351 -5.9780 -1.8494 0.9732
3.1580 -5.7190 -1.8494 0.9732
3.6556 -5.4144 -1.8494 0.9732
4.1241 -5.0666 -1.8494 0.9732
4.5597 -4.6784 -1.8494 0.9732
5.7000 -4.0654 -1.9820 0.9713
6.0997 -3.5756 -2.0016 0.9710
6.8288 -1.8326 -2.0016 0.9710
6.9650 -1.2160 -2.0016 0.9710
7.0703 0.0414 -2.0016 0.9710
7.0384 0.6720 -2.0016 0.9710
6.9504 1.2974 -2.0016 0.9710
6.8069 1.9123 -2.0016 0.9710
6.6091 2.5121 -2.0016 0.9710
6.3586 3.0917 -2.0016 0.9710
6.0574 3.6468 -2.0016 0.9710
5.3128 4.6654 -2.0016 0.9710
4.8754 5.1208 -2.0016 0.9710
4.3991 5.5354 -2.0016 0.9710
2.7007 6.3264 -1.9473 0.9718
1.4622 6.3950 -1.8571 0.9731
-0.8672 6.5025 -1.8571 0.9731
-1.4442 6.4003 -1.8574 0.9731
-3.8710 5.9173 -2.0017 0.9710
-4.3835 5.5484 -2.0018 0.9710
-5.2999 4.6809 -2.0018 0.9710
-6.0475 3.6644 -2.0018 0.9710
-6.3504 3.1102 -2.0018 0.9710
-6.8021 1.9320 -2.0018 0.9710
-7.0709 0.0616 -2.0018 0.9710
-7.0482 -0.5695 -2.0018 0.9710
-6.8347 -1.8132 -2.0018 0.9710
-6.6456 -2.4158 -2.0018 0.9710
-6.4036 -2.9991 -2.0018 0.9710
-5.7593 -4.0829 -1.9985 0.9711
-4.1389 -5.0551 -1.8495 0.9732
