ply
format ascii 1.0
element vertex 1594
property float32 x
property float32 y
property float32 z
property float32 I
end_header
-5.2555 5.6699 -2.0017 0.9686
-5.7396 5.1787 -2.0016 0.9686
-6.5672 4.0770 -2.0014 0.9686
-7.1861 2.8461 -2.0012 0.9686
-7.4108 2.1942 -2.0011 0.9686
-7.6821 0.8436 -2.0010 0.9686
-7.7265 0.1556 -2.0009 0.9686
-7.7094 -0.5336 -2.0009 0.9686
-6.7239 -3.8081 -2.0008 0.9686
-5.9410 -4.9414 -2.0008 0.9686
-5.4770 -5.4513 -2.0008 0.9686
-4.9695 -5.9178 -2.0008 0.9686
-3.7018 -6.4648 -1.9288 0.9697
-1.7827 -6.9150 -1.8490 0.9709
-0.5267 -7.1222 -1.8491 0.9709
0.1101 -7.1411 -1.8492 0.9709
1.3763 -7.0088 -1.8494 0.9709
1.9956 -6.8586 -1.8495 0.9709
5.1530 -5.7656 -2.0021 0.9686
6.4956 -4.1977 -2.0024 0.9685
6.8442 -3.6022 -2.0025 0.9685
7.3756 -2.3301 -2.0027 0.9685
7.5542 -1.6635 -2.0028 0.9685
7.7300 -0.2960 -2.0029 0.9685
7.6602 1.0812 -2.0030 0.9685
7.5335 1.7596 -2.0030 0.9685
7.3468 2.4240 -2.0031 0.9685
6.4439 4.2812 -2.0031 0.9685
5.5813 5.3572 -2.0031 0.9685
5.0816 5.8332 -2.0030 0.9685
4.5414 6.2628 -2.0030 0.9685
2.0665 7.4541 -2.0028 0.9685
0.0210 7.7342 -2.0025 0.9685
-1.3523 7.6144 -2.0023 0.9686
-2.0255 7.4632 -2.0022 0.9686
-3.9270 6.6605 -2.0019 0.9686
-5.0465 5.8568 -2.0017 0.9686
-6.7737 3.7235 -2.0013 0.9686
-7.5164 1.7987 -2.0011 0.9686
-7.6466 1.1216 -2.0010 0.9686
-7.7159 0.4357 -2.0010 0.9686
-7.7238 -0.2537 -2.0009 0.9686
-7.6702 -0.9411 -2.0009 0.9686
-6.8575 -3.5618 -2.0008 0.9686
-6.1163 -4.7227 -2.0008 0.9686
-5.1808 -5.7337 -2.0008 0.9686
-4.0697 -6.5450 -1.9955 0.9687
-2.6342 -6.6371 -1.8489 0.9709
-1.4141 -6.9998 -1.8490 0.9709
-0.7846 -7.0983 -1.8491 0.9709
-0.1489 -7.1403 -1.8491 0.9709
0.4881 -7.1255 -1.8492 0.9709
1.7455 -6.9263 -1.8494 0.9709
2.3560 -6.7435 -1.8495 0.9709
2.9478 -6.5070 -1.8496 0.9709
3.5162 -6.2188 -1.8497 0.9709
4.1494 -6.0154 -1.8921 0.9703
4.9383 -5.9460 -2.0012 0.9686
5.4512 -5.4848 -2.0022 0.9686
6.7090 -3.8479 -2.0025 0.9685
5.2580 -4.7305 -2.0022 0.9710
6.0148 -3.7222 -2.0024 0.9710
6.7860 -1.9987 -2.0027 0.9710
6.9374 -1.3860 -2.0027 0.9710
7.0736 -0.1323 -2.0028 0.9710
6.9850 1.1257 -2.0029 0.9710
6.8570 1.7438 -2.0030 0.9710
5.8156 4.0300 -2.0030 0.9710
5.4332 4.5322 -2.0030 0.9710
2.9451 6.4326 -2.0028 0.9710
2.3600 6.6693 -2.0028 0.9710
1.7562 6.8529 -2.0027 0.9710
1.1384 6.9819 -2.0026 0.9710
0.5116 7.0553 -2.0025 0.9710
-0.7490 7.0335 -2.0024 0.9710
-3.7101 6.0202 -2.0019 0.9710
-4.7195 5.2654 -2.0017 0.9710
-5.1697 4.8236 -2.0016 0.9710
-5.5788 4.3434 -2.0015 0.9710
-5.9435 3.8288 -2.0015 0.9710
-6.5283 2.7125 -2.0013 0.9710
-6.7438 2.1199 -2.0012 0.9710
-7.0586 -0.3702 -2.0010 0.9710
-6.9973 -0.9978 -2.0009 0.9710
-6.8804 -1.6175 -2.0009 0.9710
-6.7088 -2.2242 -2.0009 0.9710
-6.4839 -2.8132 -2.0009 0.9710
-6.2073 -3.3799 -2.0009 0.9710
-5.8814 -3.9197 -2.0009 0.9710
-5.5087 -4.4282 -2.0009 0.9710
-4.1411 -5.7280 -2.0009 0.9710
-2.2901 -6.1166 -1.8489 0.9732
-0.5905 -6.5052 -1.8491 0.9732
0.5738 -6.5072 -1.8493 0.9732
1.7201 -6.3025 -1.8495 0.9732
2.2751 -6.1244 -1.8495 0.9732
3.3672 -5.6924 -1.8723 0.9729
5.0829 -4.9179 -2.0022 0.9710
6.7090 -2.2434 -2.0026 0.9710
6.8824 -1.6366 -2.0027 0.9710
7.0011 -1.0167 -2.0028 0.9710
7.0641 -0.3887 -2.0028 0.9710
7.0212 0.8716 -2.0029 0.9710
6.7551 2.1044 -2.0030 0.9710
5.5940 4.3322 -2.0030 0.9710
4.2485 5.6575 -2.0029 0.9710
3.1765 6.3217 -2.0028 0.9710
2.6004 6.5794 -2.0028 0.9710
2.0036 6.7848 -2.0027 0.9710
1.3909 6.9361 -2.0027 0.9710
0.7671 7.0322 -2.0026 0.9710
0.1374 7.0723 -2.0025 0.9710
-1.1203 6.9837 -2.0023 0.9710
-1.7382 6.8558 -2.0022 0.9710
-2.3422 6.6733 -2.0021 0.9710
-3.4894 6.1509 -2.0020 0.9710
-4.0235 5.8151 -2.0019 0.9710
-4.5256 5.4331 -2.0018 0.9710
-4.9915 5.0079 -2.0017 0.9710
-6.1377 3.5086 -2.0014 0.9710
-6.4257 2.9475 -2.0013 0.9710
-6.6626 2.3630 -2.0012 0.9710
-6.8464 1.7598 -2.0012 0.9710
-6.9758 1.1426 -2.0011 0.9710
-7.0496 0.5163 -2.0010 0.9710
-7.0290 -0.7434 -2.0010 0.9710
-6.9346 -1.3669 -2.0009 0.9710
-6.5816 -2.5763 -2.0009 0.9710
-6.0196 -3.7038 -2.0009 0.9710
-4.8255 -5.1644 -2.0009 0.9710
-4.3461 -5.5740 -2.0009 0.9710
-3.8321 -5.9393 -2.0010 0.9710
-2.5103 -6.0295 -1.8489 0.9732
-1.9631 -6.2294 -1.8490 0.9732
-0.7638 -5.9919 -1.7100 0.9752
0.3375 -6.5236 -1.8493 0.9732
2.5963 -5.9955 -1.8496 0.9732
3.1204 -5.7406 -1.8497 0.9732
3.9031 -5.8656 -1.9945 0.9711
4.9011 -5.0989 -2.0022 0.9710
5.3363 -4.6420 -2.0023 0.9710
5.7290 -4.1482 -2.0024 0.9710
6.6231 -2.4851 -2.0026 0.9710
6.8185 -1.8850 -2.0027 0.9710
6.9596 -1.2699 -2.0027 0.9710
7.0453 -0.6446 -2.0028 0.9710
7.0749 -0.0141 -2.0029 0.9710
7.0481 0.6165 -2.0029 0.9710
6.6343 2.4591 -2.0030 0.9710
4.9234 5.0813 -2.0030 0.9710
3.4037 6.2024 -2.0029 0.9710
2.2483 6.7077 -2.0027 0.9710
1.6415 6.8812 -2.0027 0.9710
1.0216 6.9999 -2.0026 0.9710
0.3937 7.0628 -2.0025 0.9710
-2.0987 6.7540 -2.0022 0.9710
-2.6922 6.5397 -2.0021 0.9710
-3.2641 6.2735 -2.0020 0.9710
-4.3256 5.5938 -2.0018 0.9710
-4.8067 5.1858 -2.0017 0.9710
-5.2495 4.7365 -2.0016 0.9710
-5.6505 4.2496 -2.0015 0.9710
-6.3147 3.1786 -2.0014 0.9710
-6.5726 2.6031 -2.0013 0.9710
-6.7782 2.0069 -2.0012 0.9710
-6.9298 1.3948 -2.0011 0.9710
-7.0264 0.7716 -2.0011 0.9710
-7.0670 0.1423 -2.0010 0.9710
-7.0514 -0.4881 -2.0010 0.9710
-6.9797 -1.1146 -2.0009 0.9710
-6.8524 -1.7321 -2.0009 0.9710
-6.6707 -2.3359 -2.0009 0.9710
-6.4360 -2.9211 -2.0009 0.9710
-6.1500 -3.4831 -2.0009 0.9710
-5.8151 -4.0173 -2.0009 0.9710
-5.4339 -4.5196 -2.0009 0.9710
-4.0449 -5.7963 -2.0009 0.9710
-2.7414 -5.9651 -1.8585 0.9731
-1.6305 -6.3247 -1.8490 0.9732
0.6824 -6.4968 -1.8493 0.9732
1.2588 -6.4104 -1.8494 0.9732
2.3771 -6.0856 -1.8496 0.9732
4.2196 -5.6660 -1.9999 0.9711
6.2596 -3.2945 -2.0025 0.9710
6.7455 -2.1310 -2.0026 0.9710
7.0172 -0.8996 -2.0028 0.9710
7.0696 -0.2707 -2.0028 0.9710
7.0057 0.9888 -2.0029 0.9710
6.8898 1.6093 -2.0030 0.9710
6.7191 2.2169 -2.0030 0.9710
6.2188 3.3746 -2.0030 0.9710
4.6475 5.3348 -2.0030 0.9710
4.1534 5.7277 -2.0029 0.9710
3.0704 6.3738 -2.0028 0.9710
2.4901 6.6219 -2.0028 0.9710
1.8900 6.8173 -2.0027 0.9710
1.2748 6.9583 -2.0026 0.9710
0.6496 7.0440 -2.0026 0.9710
0.0192 7.0736 -2.0025 0.9710
-1.2368 6.9640 -2.0023 0.9710
-1.8525 6.8258 -2.0022 0.9710
-3.5916 6.0917 -2.0019 0.9710
-4.1200 5.7471 -2.0018 0.9710
-4.6156 5.3568 -2.0017 0.9710
-5.4928 4.4518 -2.0016 0.9710
-6.4740 2.8398 -2.0013 0.9710
-6.8748 1.6452 -2.0012 0.9710
-7.0572 0.3985 -2.0010 0.9710
-6.9108 -1.4825 -2.0009 0.9710
-5.9569 -3.8038 -2.0009 0.9710
-4.2524 -5.6458 -2.0009 0.9710
-3.7309 -6.0002 -2.0002 0.9711
-1.2934 -6.4023 -1.8491 0.9732
1.0255 -6.4517 -1.8494 0.9732
1.5965 -6.3349 -1.8494 0.9732
4.0038 -5.8044 -1.9962 0.9711
4.5185 -5.4405 -2.0021 0.9710
4.9856 -5.0164 -2.0022 0.9710
5.4131 -4.5523 -2.0023 0.9710
5.7976 -4.0519 -2.0024 0.9710
6.1359 -3.5193 -2.0025 0.9710
4.4319 -4.7676 -2.0021 0.9731
4.8393 -4.3538 -2.0022 0.9731
5.5359 -3.4258 -2.0024 0.9731
6.2456 -1.8395 -2.0026 0.9731
6.3849 -1.2756 -2.0027 0.9731
6.4954 0.4589 -2.0028 0.9731
6.1428 2.1610 -2.0029 0.9731
5.9258 2.6998 -2.0029 0.9731
5.6616 3.2172 -2.0029 0.9731
4.6088 4.6003 -2.0029 0.9731
4.1804 4.9927 -2.0029 0.9731
3.7188 5.3453 -2.0028 0.9731
2.7106 5.9203 -2.0027 0.9731
1.6164 6.3071 -2.0026 0.9731
1.0478 6.4259 -2.0026 0.9731
-0.1097 6.5094 -2.0024 0.9731
-1.8275 6.2477 -2.0022 0.9731
-2.3770 6.0597 -2.0021 0.9731
-3.8948 5.2143 -2.0018 0.9731
-4.3438 4.8462 -2.0017 0.9731
-4.7583 4.4396 -2.0017 0.9731
-5.1348 3.9977 -2.0016 0.9731
-5.7625 3.0224 -2.0014 0.9731
-6.0087 2.4967 -2.0013 0.9731
-6.3561 1.3901 -2.0012 0.9731
-6.5016 0.2396 -2.0011 0.9731
-6.4969 -0.3408 -2.0011 0.9731
-6.3330 -1.4888 -2.0010 0.9731
-6.1750 -2.0472 -2.0010 0.9731
-5.9679 -2.5894 -2.0009 0.9731
-5.7134 -3.1110 -2.0009 0.9731
-5.4134 -3.6078 -2.0009 0.9731
-5.0703 -4.0759 -2.0009 0.9731
-4.6870 -4.5116 -2.0010 0.9731
-4.2663 -4.9114 -2.0010 0.9731
-3.8116 -5.2722 -2.0010 0.9731
-2.8071 -5.8484 -1.9953 0.9732
-2.1397 -5.7150 -1.8770 0.9748
-1.0729 -5.9041 -1.8457 0.9752
-0.5435 -5.9875 -1.8492 0.9752
-0.0077 -6.0123 -1.8493 0.9752
0.5282 -5.9893 -1.8493 0.9752
1.0599 -5.9186 -1.8494 0.9752
2.0940 -5.6369 -1.8496 0.9751
2.6071 -5.4677 -1.8631 0.9750
3.8000 -5.2846 -2.0020 0.9731
5.0632 -4.0916 -2.0023 0.9731
5.7096 -3.1279 -2.0024 0.9731
6.3344 -1.5062 -2.0026 0.9731
6.4436 -0.9357 -2.0027 0.9731
6.5015 -0.3578 -2.0027 0.9731
6.5077 0.2231 -2.0028 0.9731
6.4620 0.8022 -2.0028 0.9731
6.2171 1.9368 -2.0029 0.9731
6.0198 2.4832 -2.0029 0.9731
5.7746 3.0098 -2.0029 0.9731
5.1485 3.9872 -2.0029 0.9731
1.2801 6.3838 -2.0026 0.9731
0.1264 6.5092 -2.0025 0.9731
-0.4542 6.4943 -2.0024 0.9731
-1.5998 6.3100 -2.0022 0.9731
-2.6944 5.9252 -2.0020 0.9731
-3.7032 5.3522 -2.0019 0.9731
-4.5942 4.6093 -2.0017 0.9731
-5.3391 3.7202 -2.0015 0.9731
-5.6492 3.2294 -2.0014 0.9731
-6.3016 1.6197 -2.0012 0.9731
-6.4887 0.4752 -2.0011 0.9731
-6.5050 -0.1050 -2.0011 0.9731
-6.4697 -0.6843 -2.0010 0.9731
-6.3828 -1.2581 -2.0010 0.9731
-6.2452 -1.8220 -2.0010 0.9731
-6.0579 -2.3713 -2.0010 0.9731
-5.8225 -2.9017 -2.0009 0.9731
-5.5407 -3.4091 -2.0009 0.9731
-5.2148 -3.8893 -2.0009 0.9731
-4.8474 -4.3387 -2.0010 0.9731
-4.4415 -4.7535 -2.0010 0.9731
-4.0003 -5.1305 -2.0010 0.9731
-3.5272 -5.4667 -2.0010 0.9731
-1.2887 -5.8721 -1.8491 0.9752
-0.7602 -5.9637 -1.8492 0.9752
-0.2257 -6.0080 -1.8492 0.9752
0.3106 -6.0044 -1.8493 0.9752
0.8446 -5.9531 -1.8494 0.9752
1.8882 -5.7090 -1.8495 0.9751
2.3896 -5.5183 -1.8496 0.9751
3.6019 -5.4130 -1.9998 0.9732
4.0745 -5.0761 -2.0021 0.9731
4.5109 -4.6930 -2.0021 0.9731
4.9114 -4.2725 -2.0022 0.9731
5.2729 -3.8179 -2.0023 0.9731
5.5924 -3.3329 -2.0024 0.9731
5.8674 -2.8213 -2.0025 0.9731
6.0957 -2.2872 -2.0025 0.9731
6.2755 -1.7349 -2.0026 0.9731
6.4053 -1.1688 -2.0027 0.9731
6.4842 -0.5933 -2.0027 0.9731
6.5114 -0.0130 -2.0028 0.9731
6.2832 1.7100 -2.0029 0.9731
6.1059 2.2633 -2.0029 0.9731
5.6071 3.3113 -2.0029 0.9731
5.2897 3.7979 -2.0029 0.9731
4.5313 4.6766 -2.0029 0.9731
4.0964 5.0618 -2.0029 0.9731
3.1326 5.7084 -2.0028 0.9731
0.9403 6.4425 -2.0026 0.9731
0.3624 6.5004 -2.0025 0.9731
-0.2184 6.5066 -2.0024 0.9731
-0.7974 6.4610 -2.0023 0.9731
-1.3700 6.3639 -2.0022 0.9731
-1.9316 6.2162 -2.0022 0.9731
-2.4778 6.0191 -2.0021 0.9731
-3.9813 5.1485 -2.0018 0.9731
-5.2008 3.9114 -2.0016 0.9731
-5.5285 3.4322 -2.0015 0.9731
-5.8121 2.9257 -2.0014 0.9731
-6.0495 2.3960 -2.0013 0.9731
-6.3784 1.2838 -2.0012 0.9731
-6.4672 0.7102 -2.0011 0.9731
-6.4243 -1.0259 -2.0010 0.9731
-6.3072 -1.5943 -2.0010 0.9731
-6.1400 -2.1501 -2.0010 0.9731
-5.9239 -2.6887 -2.0009 0.9731
-5.3524 -3.6977 -2.0009 0.9731
-4.6110 -4.5893 -2.0010 0.9731
-3.7231 -5.3351 -2.0010 0.9731
-3.2328 -5.6458 -2.0011 0.9731
-2.7071 -5.8905 -1.9940 0.9732
-2.0184 -5.6781 -1.8535 0.9751
-0.9651 -5.8659 -1.8285 0.9754
-0.4434 -5.9958 -1.8492 0.9752
1.1586 -5.9001 -1.8494 0.9752
3.8877 -5.2204 -2.0020 0.9731
5.1309 -4.0065 -2.0023 0.9731
5.4677 -3.5334 -2.0024 0.9731
5.7611 -3.0322 -2.0024 0.9731
6.0087 -2.5067 -2.0025 0.9731
6.3587 -1.4002 -2.0026 0.9731
6.5031 0.3318 -2.0028 0.9731
6.1839 2.0403 -2.0029 0.9731
5.9775 2.5834 -2.0029 0.9731
5.4239 3.6036 -2.0029 0.9731
4.6979 4.5092 -2.0029 0.9731
4.2773 4.9099 -2.0029 0.9731
3.8226 5.2715 -2.0028 0.9731
2.8259 5.8662 -2.0028 0.9731
1.1733 6.4042 -2.0026 0.9731
-1.1383 6.4095 -2.0023 0.9731
-1.7050 6.2823 -2.0022 0.9731
-3.7921 5.2896 -2.0018 0.9731
-4.2482 4.9303 -2.0018 0.9731
-4.6705 4.5319 -2.0017 0.9731
-5.0556 4.0975 -2.0016 0.9731
-5.9588 2.6138 -2.0014 0.9731
-6.3277 1.5142 -2.0012 0.9731
-6.4373 0.9442 -2.0012 0.9731
-6.4573 -0.7922 -2.0010 0.9731
-5.1491 -3.9759 -2.0009 0.9731
-4.7743 -4.4190 -2.0010 0.9731
-4.3615 -4.8270 -2.0010 0.9731
-2.9233 -5.7971 -1.9969 0.9732
-1.7108 -5.7631 -1.8491 0.9752
-1.1904 -5.8928 -1.8491 0.9752
-0.1253 -6.0109 -1.8492 0.9752
0.9439 -5.9382 -1.8494 0.9752
2.4815 -5.4776 -1.8496 0.9751
3.6946 -5.3561 -2.0013 0.9731
5.6473 -3.2390 -2.0024 0.9731
4.1008 -4.4115 -2.0021 0.9749
4.4778 -4.0287 -2.0022 0.9749
4.8192 -3.6137 -2.0023 0.9749
5.9897 -0.6491 -2.0027 0.9749
6.0238 -0.1127 -2.0027 0.9749
5.6838 1.9995 -2.0028 0.9749
5.2386 2.9768 -2.0028 0.9749
4.6268 3.8596 -2.0028 0.9749
3.8680 4.6196 -2.0028 0.9749
3.4409 4.9459 -2.0028 0.9749
2.9864 5.2328 -2.0027 0.9749
2.0098 5.6796 -2.0026 0.9749
-0.1015 6.0231 -2.0024 0.9749
-1.1691 5.9089 -2.0022 0.9749
-1.6910 5.7810 -2.0022 0.9749
-2.6903 5.3885 -2.0020 0.9749
-5.5600 2.3102 -2.0014 0.9749
-5.7436 1.8055 -2.0013 0.9749
-5.9726 0.7570 -2.0012 0.9749
-6.0118 -0.3153 -2.0011 0.9749
-5.9597 -0.8499 -2.0011 0.9749
-5.8602 -1.3776 -2.0011 0.9749
-5.2869 -2.8787 -2.0010 0.9749
-5.0093 -3.3384 -2.0010 0.9749
-4.3370 -4.1748 -2.0010 0.9749
-3.5270 -4.8786 -2.0011 0.9749
-0.9947 -5.4733 -1.8492 0.9768
0.9807 -5.4766 -1.8494 0.9768
1.4650 -5.3677 -1.8495 0.9768
1.9811 -5.3330 -1.8911 0.9763
2.5825 -5.4162 -1.9946 0.9750
3.9381 -4.5572 -2.0021 0.9749
5.0039 -3.3535 -2.0023 0.9749
5.2831 -2.8943 -2.0024 0.9749
5.5202 -2.4120 -2.0025 0.9749
6.0214 0.2064 -2.0027 0.9749
5.9792 0.7423 -2.0028 0.9749
5.7526 1.7921 -2.0028 0.9749
5.3431 2.7849 -2.0028 0.9749
5.0736 3.2500 -2.0028 0.9749
4.4160 4.0991 -2.0028 0.9749
4.0330 4.4763 -2.0028 0.9749
3.1742 5.1211 -2.0027 0.9749
2.2145 5.6030 -2.0027 0.9749
1.1845 5.9068 -2.0025 0.9749
0.6533 5.9887 -2.0025 0.9749
0.1170 6.0229 -2.0024 0.9749
-0.4203 6.0091 -2.0023 0.9749
-2.4932 5.4826 -2.0020 0.9749
-2.9718 5.2384 -2.0019 0.9749
-3.8542 4.6272 -2.0018 0.9749
-4.6141 3.8691 -2.0016 0.9749
-4.9404 3.4423 -2.0016 0.9749
-5.8311 1.4988 -2.0013 0.9749
-5.9413 0.9731 -2.0012 0.9749
-6.0042 0.4397 -2.0012 0.9749
-5.9063 -1.1642 -2.0011 0.9749
-5.7790 -1.6859 -2.0010 0.9749
-5.6057 -2.1943 -2.0010 0.9749
-5.3878 -2.6851 -2.0010 0.9749
-5.1270 -3.1546 -2.0010 0.9749
-4.4856 -4.0148 -2.0010 0.9749
-3.7016 -4.7474 -2.0011 0.9749
-3.2638 -5.0585 -2.0011 0.9749
-2.3090 -5.5459 -1.9969 0.9750
-1.7543 -5.5670 -1.9402 0.9757
-0.7035 -5.5184 -1.8492 0.9768
0.2874 -5.5560 -1.8493 0.9768
0.7815 -5.5085 -1.8494 0.9768
1.2694 -5.4172 -1.8495 0.9768
2.8707 -5.2811 -1.9981 0.9750
3.7702 -4.6969 -2.0021 0.9749
4.1740 -4.3424 -2.0021 0.9749
4.5445 -3.9534 -2.0022 0.9749
5.1746 -3.0839 -2.0024 0.9749
5.8066 -1.6053 -2.0026 0.9749
5.9997 -0.5489 -2.0027 0.9749
6.0249 -0.0120 -2.0027 0.9749
5.9315 1.0578 -2.0028 0.9749
5.8137 1.5823 -2.0028 0.9749
5.6496 2.0941 -2.0028 0.9749
5.4405 2.5893 -2.0028 0.9749
4.8944 3.5141 -2.0028 0.9749
4.5617 3.9363 -2.0028 0.9749
4.1927 4.3272 -2.0028 0.9749
3.7903 4.6835 -2.0028 0.9749
0.8700 5.9611 -2.0025 0.9749
0.3353 6.0148 -2.0024 0.9749
-1.7873 5.7519 -2.0021 0.9749
-3.6840 4.7640 -2.0018 0.9749
-5.5978 2.2171 -2.0014 0.9749
-6.0190 0.1212 -2.0012 0.9749
-5.9447 -0.9493 -2.0011 0.9749
-5.8363 -1.4753 -2.0010 0.9749
-5.2380 -2.9666 -2.0010 0.9749
-4.9528 -3.4216 -2.0010 0.9749
-4.6282 -3.8494 -2.0010 0.9749
-2.9915 -5.2243 -2.0011 0.9749
-1.4144 -5.4865 -1.8834 0.9764
-0.9031 -5.4892 -1.8492 0.9768
-0.4103 -5.5480 -1.8492 0.9768
0.0858 -5.5627 -1.8493 0.9768
0.5812 -5.5331 -1.8494 0.9768
1.0721 -5.4595 -1.8494 0.9768
2.0883 -5.3462 -1.9079 0.9761
2.6740 -5.3751 -1.9956 0.9750
3.1523 -5.1316 -2.0019 0.9749
3.5973 -4.8305 -2.0020 0.9749
5.5598 -2.3195 -2.0025 0.9749
5.8836 -1.2956 -2.0026 0.9749
6.0204 -0.2305 -2.0027 0.9749
6.0172 0.3070 -2.0027 0.9749
5.9660 0.8420 -2.0028 0.9749
5.8673 1.3704 -2.0028 0.9749
5.5308 2.3903 -2.0028 0.9749
4.7015 3.7683 -2.0028 0.9749
2.6148 5.4279 -2.0027 0.9749
2.1206 5.6392 -2.0026 0.9749
0.0164 6.0240 -2.0024 0.9749
-0.5206 6.0012 -2.0023 0.9749
-1.5776 5.8130 -2.0022 0.9749
-2.0893 5.6491 -2.0021 0.9749
-2.5844 5.4402 -2.0020 0.9749
-3.0588 5.1880 -2.0019 0.9749
-3.5089 4.8945 -2.0019 0.9749
-4.6781 3.7915 -2.0016 0.9749
-5.2765 2.9005 -2.0015 0.9749
-5.5138 2.4186 -2.0014 0.9749
-5.7073 1.9175 -2.0013 0.9749
-5.9567 0.8737 -2.0012 0.9749
-6.0107 0.3394 -2.0012 0.9749
-5.8860 -1.2627 -2.0011 0.9749
-5.7500 -1.7822 -2.0010 0.9749
-5.3422 -2.7747 -2.0010 0.9749
-5.0736 -3.2398 -2.0010 0.9749
-4.7647 -3.6791 -2.0010 0.9749
-4.4179 -4.0891 -2.0010 0.9749
-4.0359 -4.4666 -2.0011 0.9749
-3.6218 -4.8086 -2.0011 0.9749
-2.2149 -5.5806 -1.9958 0.9750
-1.6439 -5.5374 -1.9201 0.9759
-0.6112 -5.5294 -1.8492 0.9768
-0.1160 -5.5621 -1.8493 0.9768
0.8734 -5.4947 -1.8494 0.9768
1.3597 -5.3952 -1.8495 0.9768
1.8585 -5.3196 -1.8731 0.9765
2.4520 -5.4127 -1.9752 0.9753
2.9603 -5.2356 -1.9993 0.9750
3.4198 -4.9577 -2.0020 0.9749
5.2254 -2.9971 -2.0024 0.9749
4.1622 -3.7447 -2.0022 0.9765
4.7613 -2.9464 -2.0023 0.9765
5.0051 -2.5104 -2.0024 0.9765
5.2091 -2.0545 -2.0024 0.9765
5.4914 -1.0971 -2.0026 0.9765
5.5674 -0.6033 -2.0026 0.9765
5.5992 -0.1047 -2.0027 0.9765
5.5863 0.3947 -2.0027 0.9765
5.5290 0.8910 -2.0027 0.9765
5.4277 1.3803 -2.0027 0.9765
5.0965 2.3220 -2.0028 0.9765
4.3006 3.5875 -2.0028 0.9765
3.9638 3.9564 -2.0028 0.9765
3.1983 4.5972 -2.0027 0.9765
2.3312 5.0918 -2.0026 0.9765
1.3902 5.4245 -2.0025 0.9765
0.9012 5.5267 -2.0025 0.9765
0.4050 5.5848 -2.0024 0.9765
-0.0944 5.5985 -2.0024 0.9765
-1.0867 5.4924 -2.0022 0.9765
-1.5718 5.3735 -2.0021 0.9765
-2.0444 5.2119 -2.0021 0.9765
-3.3500 4.4849 -2.0018 0.9765
-3.7362 4.1683 -2.0018 0.9765
-4.0927 3.8186 -2.0017 0.9765
-4.4165 3.4385 -2.0016 0.9765
-5.5518 0.7037 -2.0013 0.9765
-5.5883 -0.2931 -2.0012 0.9765
-5.5399 -0.7900 -2.0011 0.9765
-5.4474 -1.2806 -2.0011 0.9765
-5.1334 -2.2273 -2.0011 0.9765
-4.9144 -2.6759 -2.0011 0.9765
-4.3613 -3.5059 -2.0011 0.9765
-2.4215 -5.0451 -2.0012 0.9765
-1.4830 -5.3792 -1.9954 0.9766
-0.9761 -5.3712 -1.9522 0.9771
-0.0067 -5.2513 -1.8779 0.9779
0.4612 -5.2300 -1.8776 0.9779
0.9362 -5.2279 -1.8993 0.9777
1.4323 -5.2480 -1.9454 0.9772
2.8501 -4.8182 -2.0019 0.9765
4.6512 -3.1171 -2.0023 0.9765
5.1311 -2.2420 -2.0024 0.9765
5.3106 -1.7758 -2.0025 0.9765
5.4479 -1.2955 -2.0025 0.9765
5.5418 -0.8048 -2.0026 0.9765
5.5916 -0.3077 -2.0026 0.9765
5.5576 0.6899 -2.0027 0.9765
5.1773 2.1356 -2.0028 0.9765
4.9664 2.5886 -2.0028 0.9765
4.7159 3.0209 -2.0028 0.9765
2.9504 4.7600 -2.0027 0.9765
2.5144 5.0039 -2.0026 0.9765
0.6073 5.5665 -2.0024 0.9765
0.1087 5.5983 -2.0024 0.9765
-0.3906 5.5856 -2.0023 0.9765
-2.7623 4.8692 -2.0019 0.9765
-3.5826 4.3011 -2.0018 0.9765
-5.0871 2.3335 -2.0014 0.9765
-5.4203 1.3932 -2.0013 0.9765
-5.5227 0.9046 -2.0013 0.9765
-5.4902 -1.0822 -2.0011 0.9765
-5.3719 -1.5672 -2.0011 0.9765
-5.0082 -2.4960 -2.0011 0.9765
-4.4856 -3.3455 -2.0011 0.9765
-4.1696 -3.7319 -2.0011 0.9765
-3.8204 -4.0887 -2.0011 0.9765
-3.4409 -4.4130 -2.0011 0.9765
-3.0339 -4.7022 -2.0012 0.9765
-2.6028 -4.9539 -2.0012 0.9765
-2.1510 -5.1663 -2.0012 0.9765
-1.6785 -5.3263 -1.9971 0.9766
-1.1875 -5.4109 -1.9810 0.9767
0.2708 -5.2349 -1.8745 0.9780
1.2278 -5.2397 -1.9245 0.9774
1.7472 -5.2827 -1.9898 0.9766
2.2202 -5.1272 -1.9980 0.9765
2.6735 -4.9184 -2.0019 0.9765
3.5045 -4.3659 -2.0020 0.9765
4.2242 -3.6747 -2.0022 0.9765
4.5351 -3.2837 -2.0023 0.9765
4.8098 -2.8665 -2.0023 0.9765
5.5090 -1.0052 -2.0026 0.9765
5.5134 0.9832 -2.0027 0.9765
5.2513 1.9465 -2.0028 0.9765
4.8224 2.8479 -2.0028 0.9765
4.5493 3.2663 -2.0028 0.9765
4.2401 3.6588 -2.0028 0.9765
3.8971 4.0221 -2.0028 0.9765
3.5231 4.3533 -2.0027 0.9765
3.1211 4.6500 -2.0027 0.9765
1.7797 5.3096 -2.0026 0.9765
0.8087 5.5409 -2.0025 0.9765
-1.1783 5.4735 -2.0022 0.9765
-1.6614 5.3465 -2.0021 0.9765
-2.1312 5.1770 -2.0021 0.9765
-3.4244 4.4283 -2.0018 0.9765
-4.7552 2.9521 -2.0015 0.9765
-4.9992 2.5165 -2.0015 0.9765
-5.2034 2.0608 -2.0014 0.9765
-5.4863 1.1042 -2.0013 0.9765
-5.5950 0.1127 -2.0012 0.9765
-5.5826 -0.3864 -2.0012 0.9765
-5.5259 -0.8824 -2.0011 0.9765
-5.4252 -1.3714 -2.0011 0.9765
-5.0955 -2.3127 -2.0011 0.9765
-4.8691 -2.7576 -2.0011 0.9765
-4.3022 -3.5783 -2.0011 0.9765
-3.9662 -3.9475 -2.0011 0.9765
-3.5986 -4.2853 -2.0011 0.9765
-3.2024 -4.5890 -2.0011 0.9765
-2.7807 -4.8563 -2.0012 0.9765
-2.3369 -5.0849 -2.0012 0.9765
-1.8723 -5.2669 -1.9989 0.9765
-1.3924 -5.4012 -1.9947 0.9766
-0.3910 -5.2871 -1.8959 0.9777
0.5491 -5.2277 -1.8797 0.9779
1.0273 -5.2317 -1.9066 0.9776
1.5301 -5.2589 -1.9586 0.9770
2.0310 -5.1995 -1.9962 0.9766
3.7308 -4.1743 -2.0021 0.9765
4.0881 -3.8254 -2.0022 0.9765
4.4130 -3.4459 -2.0022 0.9765
4.9550 -2.6079 -2.0024 0.9765
5.1678 -2.1560 -2.0024 0.9765
5.3396 -1.6869 -2.0025 0.9765
5.4688 -1.2043 -2.0025 0.9765
5.5545 -0.7121 -2.0026 0.9765
5.5960 -0.2143 -2.0026 0.9765
5.5929 0.2853 -2.0027 0.9765
5.4536 1.2738 -2.0027 0.9765
4.9225 2.6712 -2.0028 0.9765
4.6648 3.0992 -2.0028 0.9765
4.3700 3.5026 -2.0028 0.9765
4.0404 3.8781 -2.0028 0.9765
3.6787 4.2228 -2.0027 0.9765
2.4304 5.0452 -2.0026 0.9765
1.4960 5.3963 -2.0025 0.9765
0.0152 5.5993 -2.0024 0.9765
-0.4839 5.5782 -2.0023 0.9765
-1.4664 5.4033 -2.0022 0.9765
-2.4022 5.0568 -2.0020 0.9765
-3.6539 4.2406 -2.0018 0.9765
-4.6451 3.1226 -2.0016 0.9765
-4.9047 2.6961 -2.0015 0.9765
-5.1253 2.2482 -2.0014 0.9765
-5.3052 1.7824 -2.0014 0.9765
-5.4427 1.3025 -2.0013 0.9765
-5.5370 0.8122 -2.0013 0.9765
-5.5872 0.3155 -2.0012 0.9765
-5.5543 -0.6815 -2.0011 0.9765
-5.3449 -1.6567 -2.0011 0.9765
-5.1760 -2.1264 -2.0011 0.9765
-4.9659 -2.5793 -2.0011 0.9765
-4.7162 -3.0116 -2.0011 0.9765
-4.4291 -3.4199 -2.0011 0.9765
-4.1067 -3.8011 -2.0011 0.9765
-2.5197 -4.9967 -2.0012 0.9765
-1.0886 -5.3889 -1.9660 0.9769
-0.1097 -5.2611 -1.8818 0.9779
1.3214 -5.2433 -1.9337 0.9773
2.3066 -5.0917 -1.9989 0.9765
2.7553 -4.8730 -2.0019 0.9765
3.1787 -4.6083 -2.0020 0.9765
3.5769 -4.3068 -2.0021 0.9765
4.2850 -3.6036 -2.0022 0.9765
4.5893 -3.2075 -2.0023 0.9765
3.8840 -3.4944 -2.0022 0.9779
4.1802 -3.1344 -2.0022 0.9779
4.4430 -2.7495 -2.0023 0.9779
4.6705 -2.3426 -2.0024 0.9779
4.8609 -1.9171 -2.0024 0.9779
5.2128 0.3683 -2.0026 0.9779
5.1594 0.8315 -2.0027 0.9779
4.9299 1.7343 -2.0027 0.9779
4.5437 2.5820 -2.0027 0.9779
4.2955 2.9766 -2.0027 0.9779
3.6988 3.6919 -2.0027 0.9779
3.3550 4.0068 -2.0027 0.9779
2.9845 4.2898 -2.0027 0.9779
2.1754 4.7514 -2.0026 0.9779
-0.5533 5.1955 -2.0023 0.9779
-1.0141 5.1253 -2.0022 0.9779
-2.3336 4.6740 -2.0020 0.9779
-2.7407 4.4473 -2.0019 0.9779
-3.1261 4.1852 -2.0018 0.9779
-4.1214 3.2088 -2.0016 0.9779
-4.3909 2.8286 -2.0016 0.9779
-4.6253 2.4259 -2.0015 0.9779
-4.8230 2.0040 -2.0015 0.9779
-5.1019 1.1158 -2.0013 0.9779
-5.1809 0.6567 -2.0013 0.9779
-5.2187 0.1923 -2.0013 0.9779
-4.9567 -1.6433 -2.0012 0.9779
-4.7905 -2.0785 -2.0011 0.9779
-4.5861 -2.4972 -2.0011 0.9779
-4.3453 -2.8959 -2.0011 0.9779
-3.0596 -4.2319 -2.0012 0.9779
-2.6703 -4.4878 -2.0012 0.9779
-1.8311 -4.8908 -2.0013 0.9779
-1.3876 -5.0331 -2.0007 0.9779
-0.9320 -5.1286 -1.9976 0.9779
-0.4707 -5.1856 -1.9954 0.9779
-0.0067 -5.2042 -1.9943 0.9780
1.3725 -5.0287 -1.9976 0.9779
1.8182 -4.8943 -2.0008 0.9779
2.6596 -4.4962 -2.0019 0.9779
3.0499 -4.2415 -2.0020 0.9779
4.3403 -2.9087 -2.0023 0.9779
4.7881 -2.0921 -2.0024 0.9779
4.9556 -1.6571 -2.0024 0.9779
5.1714 -0.7510 -2.0025 0.9779
5.2227 0.1791 -2.0026 0.9779
5.1861 0.6438 -2.0027 0.9779
5.1081 1.1035 -2.0027 0.9779
4.8312 1.9929 -2.0027 0.9779
4.6343 2.4155 -2.0027 0.9779
4.4006 2.8189 -2.0027 0.9779
4.1319 3.1999 -2.0027 0.9779
3.4981 3.8826 -2.0027 0.9779
3.1381 4.1788 -2.0027 0.9779
2.3463 4.6694 -2.0026 0.9779
1.9207 4.8598 -2.0026 0.9779
1.4799 5.0116 -2.0025 0.9779
0.5667 5.1944 -2.0024 0.9779
0.1015 5.2241 -2.0023 0.9779
-0.8276 5.1588 -2.0022 0.9779
-1.7302 4.9296 -2.0021 0.9779
-2.1626 4.7556 -2.0020 0.9779
-2.5777 4.5438 -2.0019 0.9779
-2.9723 4.2958 -2.0019 0.9779
-3.3432 4.0137 -2.0018 0.9779
-4.0024 3.3561 -2.0017 0.9779
-4.2855 2.9860 -2.0016 0.9779
-4.5344 2.5921 -2.0015 0.9779
-4.7472 2.1776 -2.0015 0.9779
-4.9222 1.7458 -2.0014 0.9779
-5.0581 1.3001 -2.0014 0.9779
-5.2215 -0.0843 -2.0012 0.9779
-5.1235 -1.0099 -2.0012 0.9779
-5.0130 -1.4625 -2.0012 0.9779
-4.4475 -2.7365 -2.0011 0.9779
-3.5652 -3.8156 -2.0012 0.9779
-3.2110 -4.1182 -2.0012 0.9779
-2.8312 -4.3880 -2.0012 0.9779
-2.4289 -4.6230 -2.0012 0.9779
-2.0073 -4.8211 -2.0013 0.9779
-1.5696 -4.9810 -2.0013 0.9779
-0.6587 -5.1671 -1.9962 0.9779
0.7312 -5.1538 -1.9948 0.9779
1.6383 -4.9535 -1.9994 0.9779
2.0758 -4.7936 -2.0018 0.9779
2.4948 -4.5897 -2.0019 0.9779
2.8940 -4.3492 -2.0020 0.9779
3.2703 -4.0741 -2.0020 0.9779
4.2320 -3.0642 -2.0022 0.9779
4.4883 -2.6749 -2.0023 0.9779
4.7090 -2.2643 -2.0024 0.9779
4.8922 -1.8357 -2.0024 0.9779
5.0365 -1.3924 -2.0025 0.9779
5.2258 -0.0104 -2.0026 0.9779
5.2060 0.4553 -2.0026 0.9779
5.0426 1.3724 -2.0027 0.9779
4.9002 1.8164 -2.0027 0.9779
4.7189 2.2459 -2.0027 0.9779
4.4999 2.6575 -2.0027 0.9779
4.2452 3.0480 -2.0027 0.9779
3.9566 3.4142 -2.0027 0.9779
3.2876 4.0623 -2.0027 0.9779
2.9124 4.3391 -2.0026 0.9779
1.6607 4.9547 -2.0025 0.9779
1.2125 5.0828 -2.0025 0.9779
0.2908 5.2171 -2.0024 0.9779
-0.1753 5.2221 -2.0023 0.9779
-0.6400 5.1855 -2.0022 0.9779
-2.4113 4.6343 -2.0020 0.9779
-2.8146 4.4008 -2.0019 0.9779
-3.1955 4.1323 -2.0018 0.9779
-3.5510 3.8310 -2.0018 0.9779
-4.1744 3.1395 -2.0016 0.9779
-4.4375 2.7548 -2.0016 0.9779
-5.0077 1.4827 -2.0014 0.9779
-5.1198 1.0305 -2.0013 0.9779
-5.1911 0.5701 -2.0013 0.9779
-4.9285 -1.7259 -2.0011 0.9779
-4.0147 -3.3392 -2.0011 0.9779
-1.7492 -4.9207 -2.0013 0.9779
1.4566 -5.0063 -1.9981 0.9779
2.7344 -4.4512 -2.0019 0.9779
3.1203 -4.1900 -2.0020 0.9779
3.4815 -3.8953 -2.0021 0.9779
4.1180 -3.2156 -2.0022 0.9779
4.8224 -2.0118 -2.0024 0.9779
5.1032 -1.1238 -2.0025 0.9779
5.1832 -0.6645 -2.0026 0.9779
5.1746 0.7303 -2.0027 0.9779
5.0890 1.1886 -2.0027 0.9779
4.9629 1.6375 -2.0027 0.9779
4.7972 2.0733 -2.0027 0.9779
4.5933 2.4926 -2.0027 0.9779
3.7703 3.6189 -2.0027 0.9779
2.2679 4.7079 -2.0026 0.9779
1.3960 5.0356 -2.0025 0.9779
0.9417 5.1398 -2.0025 0.9779
0.0142 5.2250 -2.0023 0.9779
-1.3684 5.0422 -2.0021 0.9779
-1.8123 4.9000 -2.0021 0.9779
-2.2417 4.7188 -2.0020 0.9779
-2.6532 4.5001 -2.0019 0.9779
-3.0436 4.2455 -2.0019 0.9779
-3.4098 3.9573 -2.0018 0.9779
-3.7487 3.6375 -2.0017 0.9779
-4.0579 3.2888 -2.0017 0.9779
-4.3347 2.9140 -2.0016 0.9779
-5.0791 1.2154 -2.0014 0.9779
-5.1671 0.7579 -2.0013 0.9779
-5.1059 -1.0953 -2.0012 0.9779
-4.8302 -1.9844 -2.0011 0.9779
-4.4012 -2.8104 -2.0011 0.9779
-4.1332 -3.1915 -2.0011 0.9779
-3.8323 -3.5471 -2.0011 0.9779
-3.5010 -3.8746 -2.0012 0.9779
-2.7575 -4.4347 -2.0012 0.9779
-2.3514 -4.6629 -2.0013 0.9779
-0.1085 -5.2035 -1.9945 0.9780
0.3556 -5.1918 -1.9943 0.9780
1.7214 -4.9270 -2.0000 0.9779
2.1556 -4.7583 -2.0018 0.9779
2.5711 -4.5474 -2.0019 0.9779
2.9663 -4.3003 -2.0020 0.9779
3.6829 -3.7056 -2.0021 0.9779
3.9986 -3.3627 -2.0022 0.9779
4.5324 -2.5996 -2.0023 0.9779
3.3306 -3.5829 -2.0021 0.9791
3.6367 -3.2719 -2.0021 0.9791
4.3731 -2.1935 -2.0023 0.9791
4.6933 -1.3823 -2.0024 0.9791
4.8644 -0.5271 -2.0025 0.9791
4.8809 0.3449 -2.0026 0.9791
4.7422 1.2059 -2.0026 0.9791
4.6159 1.6238 -2.0027 0.9791
4.4528 2.0287 -2.0027 0.9791
4.2543 2.4175 -2.0027 0.9791
3.4632 3.4568 -2.0027 0.9791
2.4253 4.2496 -2.0026 0.9791
2.0368 4.4488 -2.0025 0.9791
1.2146 4.7395 -2.0025 0.9791
0.7874 4.8288 -2.0024 0.9791
0.3539 4.8796 -2.0024 0.9791
-0.0824 4.8916 -2.0023 0.9791
-2.1850 4.3764 -2.0020 0.9791
-2.5662 4.1641 -2.0019 0.9791
-2.9271 3.9187 -2.0019 0.9791
-3.2646 3.6421 -2.0018 0.9791
-3.5760 3.3366 -2.0017 0.9791
-4.1114 2.6485 -2.0016 0.9791
-4.3309 2.2715 -2.0015 0.9791
-4.6651 1.4664 -2.0014 0.9791
-4.7772 1.0448 -2.0014 0.9791
-1.9424 -0.1019 -0.7961 0.9916
-1.9455 -0.2774 -0.8043 0.9915
-4.7599 -1.1190 -2.0012 0.9791
-3.8109 -3.0635 -2.0012 0.9791
-3.5228 -3.3910 -2.0012 0.9791
-2.5003 -4.2022 -2.0013 0.9791
-2.1159 -4.4084 -2.0013 0.9791
-1.7146 -4.5795 -2.0013 0.9791
-1.2997 -4.7142 -2.0014 0.9791
-0.8744 -4.8114 -2.0014 0.9791
-0.4419 -4.8684 -2.0007 0.9791
0.8617 -4.8119 -2.0007 0.9791
2.1051 -4.4150 -2.0019 0.9791
2.4903 -4.2100 -2.0019 0.9791
2.8557 -3.9714 -2.0020 0.9791
3.1984 -3.7012 -2.0021 0.9791
3.8049 -3.0748 -2.0022 0.9791
4.2906 -2.3506 -2.0023 0.9791
4.8855 -0.2688 -2.0025 0.9791
4.8558 0.6028 -2.0026 0.9791
4.6717 1.4554 -2.0027 0.9791
4.5235 1.8659 -2.0027 0.9791
4.1203 2.6394 -2.0027 0.9791
3.8687 2.9961 -2.0027 0.9791
3.5863 3.3289 -2.0027 0.9791
2.5778 4.1589 -2.0026 0.9791
2.1968 4.3720 -2.0026 0.9791
1.3857 4.6924 -2.0025 0.9791
0.0950 4.8914 -2.0023 0.9791
-0.7749 4.8303 -2.0022 0.9791
-1.6200 4.6157 -2.0021 0.9791
-2.0249 4.4528 -2.0020 0.9791
-2.4136 4.2545 -2.0019 0.9791
-3.1304 3.7582 -2.0018 0.9791
-3.7476 3.1425 -2.0017 0.9791
-4.0127 2.7959 -2.0016 0.9791
-4.2457 2.4271 -2.0016 0.9791
-2.0681 0.3387 -0.8577 0.9910
-1.9532 0.1430 -0.8015 0.9916
-1.9141 -0.0309 -0.7835 0.9918
-1.9572 -0.2070 -0.8055 0.9915
-4.7974 -0.9456 -2.0012 0.9791
-4.6940 -1.3694 -2.0012 0.9791
-4.3762 -2.1810 -2.0012 0.9791
-4.1644 -2.5623 -2.0012 0.9791
-3.6434 -3.2610 -2.0012 0.9791
-1.8795 -4.5143 -2.0013 0.9791
-1.4697 -4.6639 -2.0014 0.9791
-0.6184 -4.8507 -2.0013 0.9791
-0.1835 -4.8834 -2.0000 0.9791
0.6865 -4.8387 -2.0002 0.9791
1.9436 -4.4884 -2.0018 0.9791
2.3360 -4.2975 -2.0019 0.9791
2.7098 -4.0723 -2.0020 0.9791
3.3899 -3.5268 -2.0021 0.9791
3.6909 -3.2107 -2.0022 0.9791
4.2025 -2.5046 -2.0023 0.9791
4.4092 -2.1201 -2.0023 0.9791
4.5807 -1.7188 -2.0024 0.9791
4.8725 -0.4458 -2.0025 0.9791
4.7214 1.2850 -2.0026 0.9791
3.9748 2.8538 -2.0027 0.9791
3.7046 3.1967 -2.0027 0.9791
3.4050 3.5141 -2.0026 0.9791
3.0782 3.8036 -2.0026 0.9791
2.3540 4.2895 -2.0026 0.9791
1.5549 4.6391 -2.0025 0.9791
-0.1641 4.8895 -2.0023 0.9791
-1.8621 4.5234 -2.0020 0.9791
-2.6354 4.1207 -2.0019 0.9791
-2.9921 3.8693 -2.0018 0.9791
-3.6313 3.2764 -2.0017 0.9791
-4.3682 2.1988 -2.0015 0.9791
-4.6890 1.3883 -2.0014 0.9791
-4.7939 0.9649 -2.0014 0.9791
-1.9514 -0.1351 -0.8006 0.9916
-2.0348 -0.3249 -0.8433 0.9911
-4.4524 -2.0209 -2.0012 0.9791
-4.2546 -2.4096 -2.0012 0.9791
-3.7592 -3.1267 -2.0012 0.9791
-3.4656 -3.4493 -2.0012 0.9791
-3.1445 -3.7445 -2.0012 0.9791
-2.7983 -4.0099 -2.0012 0.9791
-2.0420 -4.4431 -2.0013 0.9791
-1.2208 -4.7353 -2.0014 0.9791
-0.7939 -4.8253 -2.0014 0.9791
-0.3605 -4.8745 -2.0005 0.9791
0.0753 -4.8852 -1.9996 0.9791
0.5105 -4.8597 -1.9999 0.9791
0.9421 -4.7976 -2.0010 0.9791
1.7796 -4.5559 -2.0018 0.9791
2.1786 -4.3793 -2.0019 0.9791
2.5603 -4.1678 -2.0019 0.9791
3.2598 -3.6473 -2.0021 0.9791
4.1089 -2.6553 -2.0023 0.9791
4.6653 -1.4739 -2.0024 0.9791
4.8866 0.2493 -2.0026 0.9791
4.8451 0.6838 -2.0026 0.9791
4.4917 1.9412 -2.0027 0.9791
4.0757 2.7078 -2.0027 0.9791
3.8181 3.0603 -2.0027 0.9791
3.5302 3.3884 -2.0027 0.9791
2.5080 4.2014 -2.0026 0.9791
1.7222 4.5797 -2.0025 0.9791
0.8817 4.8125 -2.0024 0.9791
0.4493 4.8718 -2.0024 0.9791
-0.4228 4.8739 -2.0023 0.9791
-0.8554 4.8167 -2.0022 0.9791
-2.0990 4.4184 -2.0020 0.9791
-2.4843 4.2136 -2.0019 0.9791
-3.1927 3.7053 -2.0018 0.9791
-3.5101 3.4059 -2.0017 0.9791
-4.0588 2.7285 -2.0016 0.9791
-4.7558 1.1381 -2.0014 0.9791
-1.9448 0.1098 -0.7972 0.9916
-4.7809 -1.0256 -2.0012 0.9791
-4.6704 -1.4476 -2.0012 0.9791
-4.5228 -1.8581 -2.0012 0.9791
-4.3392 -2.2538 -2.0012 0.9791
-4.1211 -2.6315 -2.0012 0.9791
-3.5884 -3.3214 -2.0012 0.9791
-2.9418 -3.9058 -2.0012 0.9791
-2.5820 -4.1525 -2.0013 0.9791
-2.2017 -4.3661 -2.0013 0.9791
-1.8039 -4.5451 -2.0013 0.9791
-0.9683 -4.7933 -2.0014 0.9791
0.3339 -4.8745 -1.9997 0.9791
1.1952 -4.7426 -2.0017 0.9791
2.0183 -4.4553 -2.0018 0.9791
2.4075 -4.2579 -2.0019 0.9791
3.4484 -3.4697 -2.0021 0.9791
3.7440 -3.1486 -2.0022 0.9791
4.2438 -2.4340 -2.0023 0.9791
3.1277 -3.3646 -2.0021 0.9802
3.9067 -2.4176 -2.0022 0.9802
4.4074 -1.2981 -2.0024 0.9802
4.5057 -0.9001 -2.0024 0.9802
4.5680 -0.4950 -2.0025 0.9802
4.5365 0.7311 -2.0026 0.9801
4.3347 1.5249 -2.0026 0.9801
4.1816 1.9051 -2.0026 0.9801
3.9951 2.2702 -2.0026 0.9801
3.7769 2.6173 -2.0026 0.9801
3.5286 2.9434 -2.0026 0.9801
1.9128 4.1778 -2.0025 0.9802
1.5328 4.3315 -2.0025 0.9802
1.1406 4.4508 -2.0024 0.9802
-0.0774 4.5937 -2.0023 0.9802
-0.4865 4.5684 -2.0022 0.9802
-2.4100 3.9105 -2.0019 0.9802
-3.0657 3.4203 -2.0018 0.9802
-4.2410 1.7622 -2.0015 0.9802
-1.5285 0.0563 -0.6666 0.9933
-1.5295 -0.0802 -0.6675 0.9933
-1.5155 -0.2161 -0.6672 0.9933
-1.5871 -0.5262 -0.7287 0.9927
-4.0328 -2.1959 -2.0012 0.9802
-3.8211 -2.5466 -2.0012 0.9802
-3.0113 -3.4667 -2.0013 0.9802
-2.6904 -3.7213 -2.0013 0.9802
-2.3481 -3.9464 -2.0013 0.9802
-1.6102 -4.3007 -2.0014 0.9802
-1.2205 -4.4272 -2.0014 0.9802
-0.4152 -4.5738 -2.0015 0.9802
-0.0059 -4.5927 -2.0016 0.9802
0.8096 -4.5210 -2.0017 0.9802
1.2094 -4.4310 -2.0017 0.9802
1.9769 -4.1462 -2.0019 0.9802
3.3015 -3.1944 -2.0021 0.9802
3.5732 -2.8875 -2.0022 0.9802
3.8164 -2.5576 -2.0022 0.9802
4.0293 -2.2074 -2.0023 0.9802
4.2101 -1.8396 -2.0023 0.9802
4.3574 -1.4571 -2.0024 0.9802
4.5922 0.1574 -2.0025 0.9802
4.3871 1.3667 -2.0026 0.9801
3.8693 2.4786 -2.0026 0.9801
3.3678 3.1261 -2.0026 0.9801
3.0758 3.4138 -2.0026 0.9801
2.7592 3.6743 -2.0026 0.9802
1.6889 4.2731 -2.0025 0.9802
0.9033 4.5049 -2.0024 0.9802
0.4983 4.5674 -2.0023 0.9802
-0.3205 4.5830 -2.0022 0.9802
-1.5214 4.3346 -2.0021 0.9802
-1.9016 4.1816 -2.0020 0.9802
-2.2666 3.9954 -2.0019 0.9802
-3.9872 2.2793 -2.0016 0.9802
-1.5256 -0.0246 -0.6650 0.9934
-1.5252 -0.1613 -0.6684 0.9933
-1.5045 -0.2966 -0.6683 0.9933
-1.5697 -0.4579 -0.7126 0.9929
-4.2760 -1.6738 -2.0012 0.9802
-3.9109 -2.4063 -2.0012 0.9802
-3.6809 -2.7453 -2.0012 0.9802
-3.1351 -3.3552 -2.0013 0.9802
-2.8236 -3.6213 -2.0013 0.9802
-2.4896 -3.8586 -2.0013 0.9802
-2.1359 -4.0652 -2.0013 0.9802
-1.7651 -4.2394 -2.0014 0.9802
-1.3803 -4.3800 -2.0014 0.9802
-0.9844 -4.4857 -2.0014 0.9802
-0.5807 -4.5556 -2.0015 0.9802
0.2373 -4.5866 -2.0016 0.9802
1.8253 -4.2151 -2.0018 0.9802
2.1937 -4.0357 -2.0019 0.9802
3.4661 -3.0151 -2.0021 0.9802
3.7211 -2.6943 -2.0022 0.9802
3.9466 -2.3520 -2.0023 0.9802
4.5949 -0.0092 -2.0025 0.9802
4.1492 1.9747 -2.0026 0.9801
3.9567 2.3367 -2.0026 0.9801
3.7327 2.6800 -2.0026 0.9801
3.4789 3.0020 -2.0026 0.9801
3.1975 3.3001 -2.0026 0.9801
2.5608 3.8152 -2.0026 0.9802
2.2105 4.0282 -2.0025 0.9802
1.8427 4.2091 -2.0025 0.9802
0.6635 4.5464 -2.0024 0.9802
0.2557 4.5873 -2.0023 0.9802
-0.5627 4.5596 -2.0022 0.9802
-1.3632 4.3870 -2.0021 0.9802
-1.7487 4.2479 -2.0020 0.9802
-3.1224 3.3686 -2.0018 0.9802
-3.4101 3.0769 -2.0017 0.9802
-3.9020 2.4224 -2.0016 0.9802
-4.1022 2.0650 -2.0016 0.9802
-1.5244 0.1674 -0.6684 0.9933
-1.5263 0.0307 -0.6653 0.9934
-1.5294 -0.1059 -0.6681 0.9933
-1.5092 -0.2410 -0.6661 0.9934
-1.5469 -0.3910 -0.6954 0.9931
-1.5930 -0.5578 -0.7356 0.9927
-3.7780 -2.6100 -2.0012 0.9802
-3.5304 -2.9364 -2.0012 0.9802
-2.6279 -3.7658 -2.0013 0.9802
-2.2819 -3.9850 -2.0013 0.9802
-1.9176 -4.1726 -2.0013 0.9802
-1.5382 -4.3270 -2.0014 0.9802
-1.1464 -4.4470 -2.0014 0.9802
-0.3387 -4.5801 -2.0015 0.9802
0.8850 -4.5069 -2.0017 0.9802
1.6712 -4.2784 -2.0018 0.9802
2.4044 -3.9140 -2.0019 0.9802
2.7437 -3.6843 -2.0020 0.9802
3.0613 -3.4252 -2.0021 0.9802
3.3544 -3.1388 -2.0021 0.9802
4.5915 -0.1758 -2.0025 0.9802
4.5890 0.2341 -2.0025 0.9802
4.5499 0.6422 -2.0026 0.9802
4.3637 1.4398 -2.0026 0.9801
4.2180 1.8230 -2.0026 0.9801
4.0388 2.1916 -2.0026 0.9801
3.8274 2.5429 -2.0026 0.9801
3.3151 3.1819 -2.0026 0.9801
2.6975 3.7199 -2.0026 0.9802
2.3552 3.9454 -2.0025 0.9802
1.9941 4.1396 -2.0025 0.9802
0.4219 4.5750 -2.0023 0.9802
0.0125 4.5943 -2.0023 0.9802
-0.8033 4.5233 -2.0022 0.9802
-1.2032 4.4336 -2.0021 0.9802
-2.3330 3.9570 -2.0019 0.9802
-2.6763 3.7332 -2.0019 0.9802
-2.9983 3.4797 -2.0018 0.9802
-3.2964 3.1985 -2.0017 0.9802
-4.0247 2.2124 -2.0016 0.9802
-1.5886 0.5337 -0.7304 0.9927
-1.5281 -0.0502 -0.6663 0.9934
-1.5190 -0.3259 -0.6771 0.9932
-1.5784 -0.4892 -0.7202 0.9928
-4.2475 -1.7450 -2.0012 0.9802
-3.8702 -2.4713 -2.0012 0.9802
-2.4248 -3.8997 -2.0013 0.9802
-0.5046 -4.5647 -2.0015 0.9802
0.3139 -4.5820 -2.0016 0.9802
1.8954 -4.1840 -2.0018 0.9802
2.6083 -3.7813 -2.0020 0.9802
3.2384 -3.2583 -2.0021 0.9802
3.7656 -2.6318 -2.0022 0.9802
3.9853 -2.2858 -2.0023 0.9802
3.2155 -2.8929 -2.0021 0.9811
3.4606 -2.5949 -2.0022 0.9811
3.6782 -2.2762 -2.0022 0.9811
4.1496 -1.2222 -2.0024 0.9811
4.3253 -0.0809 -2.0025 0.9811
4.2711 0.6883 -2.0025 0.9811
4.1928 1.0662 -2.0026 0.9811
3.7614 2.1374 -2.0026 0.9811
3.3222 2.7713 -2.0026 0.9811
3.0620 3.0563 -2.0026 0.9811
2.7774 3.3170 -2.0025 0.9811
2.4707 3.5513 -2.0025 0.9811
1.8009 3.9334 -2.0025 0.9811
1.0739 4.1905 -2.0024 0.9811
-0.0729 4.3250 -2.0023 0.9811
-1.2143 4.1513 -2.0021 0.9811
-1.5794 4.0264 -2.0020 0.9811
-1.9319 3.8695 -2.0020 0.9811
-2.5881 3.4649 -2.0019 0.9811
-2.8865 3.2203 -2.0018 0.9811
-3.1619 2.9502 -2.0017 0.9811
-3.4122 2.6566 -2.0017 0.9811
-3.6353 2.3418 -2.0016 0.9811
-3.8294 2.0085 -2.0016 0.9811
-1.3260 0.5510 -0.6647 0.9937
-1.3290 0.4178 -0.6449 0.9939
-1.3035 -0.3064 -0.6198 0.9941
-1.3322 -0.4417 -0.6497 0.9938
-3.7971 -2.0675 -2.0013 0.9811
-3.3697 -2.7088 -2.0013 0.9811
-2.8353 -3.2641 -2.0013 0.9811
-2.5331 -3.5038 -2.0013 0.9811
-1.8709 -3.8980 -2.0014 0.9811
-1.5161 -4.0493 -2.0014 0.9811
-0.7731 -4.2543 -2.0015 0.9811
-0.3909 -4.3063 -2.0015 0.9811
-0.0056 -4.3242 -2.0016 0.9811
1.1386 -4.1719 -2.0017 0.9811
2.5250 -3.5114 -2.0020 0.9811
3.1084 -3.0076 -2.0021 0.9811
3.3642 -2.7186 -2.0022 0.9811
3.5932 -2.4081 -2.0022 0.9811
3.9639 -1.7320 -2.0023 0.9811
4.1025 -1.3718 -2.0024 0.9811
4.2932 0.5330 -2.0025 0.9811
3.8365 1.9996 -2.0026 0.9811
2.8958 3.2141 -2.0026 0.9811
2.5978 3.4594 -2.0025 0.9811
2.2792 3.6771 -2.0025 0.9811
1.9423 3.8655 -2.0025 0.9811
1.5901 4.0232 -2.0024 0.9811
0.8505 4.2414 -2.0024 0.9811
0.4691 4.3002 -2.0023 0.9811
-0.6851 4.2708 -2.0022 0.9811
-1.0630 4.1926 -2.0021 0.9811
-2.1341 3.7618 -2.0019 0.9811
-2.4608 3.5565 -2.0019 0.9811
-2.7678 3.3229 -2.0018 0.9811
-3.0529 3.0629 -2.0018 0.9811
-3.3136 2.7786 -2.0017 0.9811
-3.5480 2.4721 -2.0017 0.9811
-1.3335 0.4730 -0.6549 0.9938
-1.3215 0.2165 -0.6199 0.9941
-1.3357 -0.0216 -0.6183 0.9941
-1.3354 -0.1412 -0.6216 0.9941
-1.3098 -0.2582 -0.6179 0.9941
-1.3235 -0.3861 -0.6382 0.9939
-3.6823 -2.2657 -2.0013 0.9811
-3.4657 -2.5848 -2.0013 0.9811
-2.9518 -3.1591 -2.0013 0.9811
-2.3441 -3.6330 -2.0013 0.9811
-2.0110 -3.8275 -2.0014 0.9811
-1.6619 -3.9916 -2.0014 0.9811
-1.2996 -4.1239 -2.0014 0.9811
-0.1623 -4.3211 -2.0016 0.9811
0.2234 -4.3184 -2.0016 0.9811
0.9866 -4.2104 -2.0017 0.9811
1.3580 -4.1058 -2.0018 0.9811
1.7185 -3.9686 -2.0018 0.9811
3.2634 -2.8388 -2.0021 0.9811
4.0501 -1.5197 -2.0023 0.9811
4.2557 -0.7765 -2.0024 0.9811
4.3080 -0.3942 -2.0025 0.9811
4.3097 0.3769 -2.0025 0.9811
4.0566 1.5036 -2.0026 0.9811
3.9064 1.8592 -2.0026 0.9811
3.7252 2.2000 -2.0026 0.9811
3.5143 2.5232 -2.0026 0.9811
3.2754 2.8264 -2.0026 0.9811
2.7216 3.3629 -2.0025 0.9811
2.4110 3.5921 -2.0025 0.9811
1.7349 3.9629 -2.0025 0.9811
1.3748 4.1017 -2.0024 0.9811
0.6247 4.2804 -2.0023 0.9811
0.2408 4.3190 -2.0023 0.9811
-0.1451 4.3231 -2.0022 0.9811
-1.9963 3.8367 -2.0020 0.9811
-2.3302 3.6434 -2.0019 0.9811
-2.6456 3.4211 -2.0018 0.9811
-2.9399 3.1717 -2.0018 0.9811
-3.4560 2.5992 -2.0017 0.9811
-3.6738 2.2808 -2.0016 0.9811
-1.3081 0.2633 -0.6176 0.9941
-1.3347 0.1466 -0.6215 0.9941
-1.3385 -0.0926 -0.6210 0.9941
-1.3228 -0.2112 -0.6201 0.9941
-1.3336 -0.4670 -0.6541 0.9938
-1.3159 -0.5973 -0.6689 0.9937
-3.5572 -2.4575 -2.0013 0.9811
-3.3240 -2.7647 -2.0013 0.9811
-2.7804 -3.3110 -2.0013 0.9811
-2.1485 -3.7521 -2.0014 0.9811
-1.8055 -3.9287 -2.0014 0.9811
-1.4482 -4.0740 -2.0014 0.9811
-0.3189 -4.3123 -2.0015 0.9811
0.0667 -4.3237 -2.0016 0.9811
0.4518 -4.3006 -2.0016 0.9811
0.8333 -4.2434 -2.0017 0.9811
1.9263 -3.8721 -2.0019 0.9811
2.2638 -3.6851 -2.0019 0.9811
2.5833 -3.4688 -2.0020 0.9811
2.8822 -3.2249 -2.0021 0.9811
3.4092 -2.6621 -2.0022 0.9811
4.3229 -0.1655 -2.0025 0.9811
4.3205 0.2204 -2.0025 0.9811
4.2129 0.9840 -2.0026 0.9811
3.9713 1.7163 -2.0026 0.9811
3.6035 2.3941 -2.0026 0.9811
3.1212 2.9958 -2.0026 0.9811
2.8417 3.2620 -2.0026 0.9811
0.3972 4.3075 -2.0023 0.9811
0.0117 4.3256 -2.0023 0.9811
-0.3738 4.3093 -2.0022 0.9811
-1.1329 4.1743 -2.0021 0.9811
-1.5003 4.0566 -2.0020 0.9811
-1.8559 3.9066 -2.0020 0.9811
-2.1966 3.7256 -2.0019 0.9811
-2.8229 3.2762 -2.0018 0.9811
-3.1036 3.0115 -2.0018 0.9811
-3.3596 2.7228 -2.0017 0.9811
-3.5888 2.4125 -2.0016 0.9811
-3.7894 2.0830 -2.0016 0.9811
-1.3053 0.3124 -0.6213 0.9941
-1.3385 0.0756 -0.6206 0.9941
-1.3374 -0.0439 -0.6194 0.9941
-1.3322 -0.1634 -0.6213 0.9941
-3.8368 -1.9928 -2.0013 0.9811
-3.6439 -2.3268 -2.0013 0.9811
-2.6012 -3.4536 -2.0013 0.9811
-1.9468 -3.8606 -2.0014 0.9811
-1.5950 -4.0188 -2.0014 0.9811
-0.8562 -4.2383 -2.0015 0.9811
-0.4751 -4.2979 -2.0015 0.9811
-0.0902 -4.3232 -2.0016 0.9811
0.2955 -4.3141 -2.0016 0.9811
0.6788 -4.2707 -2.0017 0.9811
1.0568 -4.1934 -2.0017 0.9811
1.4264 -4.0826 -2.0018 0.9811
1.7846 -3.9394 -2.0019 0.9811
2.1286 -3.7647 -2.0019 0.9811
2.4558 -3.5602 -2.0020 0.9811
3.0490 -3.0678 -2.0021 0.9811
3.7522 -2.1521 -2.0022 0.9811
2.7789 -2.9894 -2.0021 0.9820
3.0343 -2.7299 -2.0021 0.9820
3.4709 -2.1479 -2.0022 0.9820
3.6486 -1.8301 -2.0023 0.9820
4.0030 -0.7997 -2.0024 0.9820
4.0722 0.2877 -2.0025 0.9820
4.0304 0.6495 -2.0025 0.9820
3.8511 1.3548 -2.0025 0.9820
3.5494 2.0170 -2.0025 0.9820
3.1349 2.6151 -2.0025 0.9820
2.8894 2.8840 -2.0025 0.9820
2.6208 3.1301 -2.0025 0.9820
2.0235 3.5455 -2.0025 0.9820
1.6994 3.7117 -2.0024 0.9820
1.3618 3.8483 -2.0024 0.9820
1.0134 3.9543 -2.0024 0.9820
0.2952 4.0712 -2.0023 0.9820
-0.0688 4.0813 -2.0022 0.9820
-0.7922 4.0040 -2.0021 0.9820
-1.1459 3.9174 -2.0021 0.9820
-1.4904 3.7996 -2.0020 0.9820
-2.1412 3.4744 -2.0019 0.9820
-2.4422 3.2697 -2.0019 0.9820
-2.7239 3.0389 -2.0018 0.9820
-3.2199 2.5069 -2.0017 0.9820
-1.1208 0.5878 -0.6208 0.9944
-1.1587 0.3642 -0.5958 0.9946
-1.1691 0.2557 -0.5870 0.9947
-1.1895 0.1508 -0.5881 0.9947
-1.1965 0.0441 -0.5873 0.9947
-1.1869 -0.1692 -0.5881 0.9947
-1.1448 -0.4967 -0.6121 0.9945
-3.1799 -2.5562 -2.0013 0.9820
-2.9394 -2.8295 -2.0013 0.9820
-2.3904 -3.3064 -2.0014 0.9820
-2.0863 -3.5064 -2.0014 0.9820
-1.0844 -3.9335 -2.0015 0.9820
-0.3689 -4.0638 -2.0016 0.9820
-0.0052 -4.0805 -2.0016 0.9820
0.3585 -4.0649 -2.0017 0.9820
0.7193 -4.0169 -2.0017 0.9820
1.4211 -3.8255 -2.0018 0.9820
1.7565 -3.6838 -2.0019 0.9820
2.3827 -3.3136 -2.0020 0.9820
2.6686 -3.0881 -2.0020 0.9820
2.9333 -2.8381 -2.0021 0.9820
3.1746 -2.5654 -2.0021 0.9820
3.5798 -1.9612 -2.0022 0.9820
3.8713 -1.2945 -2.0023 0.9820
4.0761 -0.2243 -2.0024 0.9820
4.0799 0.1399 -2.0025 0.9820
4.0513 0.5029 -2.0025 0.9820
3.9904 0.8620 -2.0025 0.9820
3.8977 1.2142 -2.0025 0.9820
3.7740 1.5568 -2.0025 0.9820
2.7326 3.0330 -2.0025 0.9820
2.4514 3.2644 -2.0025 0.9820
2.1507 3.4699 -2.0025 0.9820
0.0793 4.0811 -2.0023 0.9820
-0.2848 4.0718 -2.0022 0.9820
-0.6465 4.0301 -2.0022 0.9820
-1.0031 3.9564 -2.0021 0.9820
-1.3517 3.8511 -2.0021 0.9820
-2.0138 3.5498 -2.0019 0.9820
-2.3221 3.3561 -2.0019 0.9820
-2.6119 3.1357 -2.0018 0.9820
-2.8809 2.8904 -2.0018 0.9820
-3.1269 2.6220 -2.0017 0.9820
-3.3481 2.3329 -2.0017 0.9820
-1.1396 0.5227 -0.6150 0.9944
-1.1579 0.2976 -0.5865 0.9947
-1.1828 0.1937 -0.5879 0.9947
-1.1923 -0.1261 -0.5881 0.9947
-1.1750 -0.2316 -0.5875 0.9947
-1.1590 -0.3381 -0.5922 0.9946
-1.1520 -0.4509 -0.6068 0.9945
-3.2705 -2.4392 -2.0013 0.9820
-2.7855 -2.9811 -2.0013 0.9820
-2.5088 -3.2176 -2.0013 0.9820
-2.2120 -3.4284 -2.0014 0.9820
-0.5160 -4.0477 -2.0015 0.9820
-0.1532 -4.0776 -2.0016 0.9820
0.2108 -4.0752 -2.0016 0.9820
0.5732 -4.0403 -2.0017 0.9820
1.2815 -3.8745 -2.0018 0.9820
1.9491 -3.5857 -2.0019 0.9820
2.2609 -3.3978 -2.0020 0.9820
3.0795 -2.6788 -2.0021 0.9820
3.3061 -2.3938 -2.0022 0.9820
3.6787 -1.7689 -2.0023 0.9820
4.0652 -0.3720 -2.0024 0.9820
4.0823 -0.0082 -2.0025 0.9820
3.8279 1.4189 -2.0025 0.9820
3.6863 1.7544 -2.0025 0.9820
3.0908 2.6671 -2.0025 0.9820
2.8408 2.9319 -2.0025 0.9820
2.5682 3.1734 -2.0025 0.9820
1.2973 3.8705 -2.0024 0.9820
-0.1369 4.0795 -2.0022 0.9820
-0.5000 4.0510 -2.0022 0.9820
-1.2112 3.8977 -2.0021 0.9820
-1.8838 3.6205 -2.0020 0.9820
-2.1989 3.4381 -2.0019 0.9820
-2.7742 2.9930 -2.0018 0.9820
-3.0298 2.7337 -2.0017 0.9820
-3.2613 2.4528 -2.0017 0.9820
-1.1284 0.5680 -0.6197 0.9944
-1.1513 0.4560 -0.6074 0.9945
-1.1590 0.3432 -0.5929 0.9946
-1.1739 0.2363 -0.5874 0.9947
-1.1963 0.0241 -0.5869 0.9947
-1.1955 -0.0827 -0.5878 0.9947
-1.1583 -0.2928 -0.5861 0.9947
-3.3568 -2.3190 -2.0013 0.9820
-3.1368 -2.6090 -2.0013 0.9820
-2.8918 -2.8782 -2.0013 0.9820
-2.6238 -3.1245 -2.0013 0.9820
-2.3349 -3.3459 -2.0014 0.9820
-1.3667 -3.8445 -2.0014 0.9820
-0.6624 -4.0263 -2.0015 0.9820
-0.3010 -4.0694 -2.0016 0.9820
0.0629 -4.0801 -2.0016 0.9820
0.4263 -4.0583 -2.0017 0.9820
2.9803 -2.7887 -2.0021 0.9820
3.4282 -2.2154 -2.0022 0.9820
3.6121 -1.9011 -2.0023 0.9820
3.7673 -1.5717 -2.0023 0.9820
4.0491 -0.5191 -2.0024 0.9820
4.0793 -0.1562 -2.0024 0.9820
4.0770 0.2080 -2.0025 0.9820
3.8769 1.2792 -2.0025 0.9820
3.7475 1.6196 -2.0025 0.9820
3.4004 2.2592 -2.0025 0.9820
3.1855 2.5532 -2.0025 0.9820
2.9453 2.8270 -2.0025 0.9820
2.3965 3.3049 -2.0025 0.9820
2.0924 3.5053 -2.0025 0.9820
1.7717 3.6778 -2.0024 0.9820
0.7356 4.0152 -2.0023 0.9820
0.0111 4.0818 -2.0022 0.9820
-1.0690 3.9391 -2.0021 0.9820
-1.4158 3.8280 -2.0020 0.9820
-2.3778 3.3168 -2.0019 0.9820
-3.1703 2.5694 -2.0017 0.9820
-3.3866 2.2766 -2.0017 0.9820
-1.1096 0.6100 -0.6211 0.9944
-1.1439 0.5018 -0.6127 0.9945
-1.1901 -0.1460 -0.5881 0.9947
-1.1588 -0.3592 -0.5951 0.9946
-1.1490 -0.4720 -0.6093 0.9945
-1.1230 -0.5833 -0.6207 0.9944
-3.2293 -2.4935 -2.0013 0.9820
-2.9942 -2.7714 -2.0013 0.9820
-2.1545 -3.4649 -2.0014 0.9820
-1.8371 -3.6431 -2.0014 0.9820
-1.1612 -3.9116 -2.0015 0.9820
-0.8080 -3.9996 -2.0015 0.9820
-0.4483 -4.0557 -2.0016 0.9820
-0.0851 -4.0796 -2.0016 0.9820
0.2789 -4.0711 -2.0016 0.9820
0.9973 -3.9571 -2.0017 0.9820
1.3460 -3.8526 -2.0018 0.9820
2.0087 -3.5526 -2.0019 0.9820
2.3174 -3.3596 -2.0020 0.9820
2.8772 -2.8949 -2.0021 0.9820
2.6275 -2.8265 -2.0020 0.9828
3.2819 -2.0309 -2.0022 0.9828
3.5904 -1.4161 -2.0023 0.9828
3.7024 -1.0905 -2.0023 0.9828
3.7850 -0.7562 -2.0024 0.9828
3.8503 0.2721 -2.0025 0.9828
3.8108 0.6141 -2.0025 0.9828
3.6413 1.2810 -2.0025 0.9828
3.5127 1.6004 -2.0025 0.9828
3.1727 2.1986 -2.0025 0.9828
2.7320 2.7269 -2.0025 0.9828
2.4780 2.9595 -2.0025 0.9828
1.9132 3.3524 -2.0024 0.9828
1.6068 3.5095 -2.0024 0.9828
1.2876 3.6387 -2.0024 0.9828
0.9582 3.7389 -2.0023 0.9828
-0.0650 3.8589 -2.0022 0.9828
-0.4087 3.8377 -2.0022 0.9828
-2.3092 3.0916 -2.0019 0.9828
-2.8213 2.6324 -2.0018 0.9828
-3.2436 2.0895 -2.0017 0.9828
-1.0205 0.5352 -0.5978 0.9948
-1.0512 0.4368 -0.5905 0.9949
-1.0811 0.2365 -0.5741 0.9950
-1.1066 0.0408 -0.5745 0.9950
-1.0976 -0.1565 -0.5752 0.9950
-1.0618 -0.3520 -0.5803 0.9950
-1.0478 -0.4546 -0.5925 0.9949
-1.0124 -0.5513 -0.5980 0.9948
-3.2102 -2.1394 -2.0013 0.9828
-2.7794 -2.6754 -2.0014 0.9828
-1.9727 -3.3154 -2.0014 0.9828
-1.3528 -3.6131 -2.0015 0.9828
-0.6898 -3.7960 -2.0015 0.9828
-0.3488 -3.8425 -2.0016 0.9828
0.6801 -3.7981 -2.0017 0.9828
1.0160 -3.7225 -2.0018 0.9828
1.9647 -3.3213 -2.0019 0.9828
3.0017 -2.4257 -2.0021 0.9828
3.2060 -2.1486 -2.0022 0.9828
3.3848 -1.8543 -2.0022 0.9828
3.5367 -1.5453 -2.0023 0.9828
3.6604 -1.2240 -2.0023 0.9828
3.8197 -0.5547 -2.0024 0.9828
3.8576 0.1323 -2.0024 0.9828
3.7730 0.8150 -2.0025 0.9828
3.5684 1.4720 -2.0025 0.9828
3.4230 1.7841 -2.0025 0.9828
3.2504 2.0821 -2.0025 0.9828
3.0519 2.3635 -2.0025 0.9828
2.8291 2.6261 -2.0025 0.9828
2.5837 2.8677 -2.0025 0.9828
2.3179 3.0866 -2.0025 0.9828
1.7330 3.4490 -2.0024 0.9828
1.4187 3.5896 -2.0024 0.9828
1.0931 3.7017 -2.0024 0.9828
0.0749 3.8588 -2.0022 0.9828
-0.2693 3.8500 -2.0022 0.9828
-2.1956 3.1733 -2.0019 0.9828
-2.9566 2.4792 -2.0017 0.9828
-3.1658 2.2058 -2.0017 0.9828
-1.0011 0.5723 -0.5982 0.9948
-1.0597 0.3759 -0.5833 0.9949
-1.0698 0.2750 -0.5730 0.9950
-1.0939 0.1792 -0.5750 0.9950
-1.1054 0.0810 -0.5750 0.9950
-1.1064 -0.0179 -0.5740 0.9950
-1.0867 -0.2142 -0.5746 0.9950
-1.0637 -0.3103 -0.5748 0.9950
-3.0924 -2.3064 -2.0013 0.9828
-2.6338 -2.8188 -2.0014 0.9828
-2.3722 -3.0424 -2.0014 0.9828
-0.8270 -3.7685 -2.0015 0.9828
-0.4879 -3.8272 -2.0016 0.9828
0.1993 -3.8532 -2.0017 0.9828
0.5420 -3.8202 -2.0017 0.9828
0.8803 -3.7568 -2.0017 0.9828
1.5334 -3.5410 -2.0019 0.9828
2.1378 -3.2127 -2.0020 0.9828
2.4157 -3.0095 -2.0020 0.9828
2.6744 -2.7823 -2.0021 0.9828
3.1260 -2.2634 -2.0022 0.9828
3.3153 -1.9758 -2.0022 0.9828
3.7201 -1.0285 -2.0023 0.9828
3.8438 -0.3517 -2.0024 0.9828
3.8453 0.3363 -2.0025 0.9828
