ply
format ascii 1.0
element vertex 1598
property float32 x
property float32 y
property float32 z
property float32 I
end_header
3.0893 -2.1049 -1.2426 0.9844
3.6403 -2.0306 -1.3856 0.9826
4.4740 -1.9956 -1.6284 0.9796
5.6738 -1.9451 -1.9938 0.9750
5.8309 -1.4330 -1.9959 0.9750
6.0060 -0.3754 -2.0003 0.9750
6.0224 0.1618 -2.0026 0.9749
5.9907 0.6990 -2.0048 0.9749
5.7840 1.7558 -2.0093 0.9748
5.6104 2.2669 -2.0114 0.9748
5.1289 3.2339 -2.0155 0.9748
4.1008 4.4876 -2.0207 0.9747
3.2429 5.1517 -2.0235 0.9747
2.7722 5.4233 -2.0246 0.9747
1.7664 5.8344 -2.0263 0.9746
-0.3571 5.6473 -1.8809 0.9764
-1.3561 5.5003 -1.8831 0.9764
-1.8642 5.4247 -1.9067 0.9761
-2.3898 5.3475 -1.9470 0.9756
-2.9412 5.2636 -2.0043 0.9749
-3.4304 5.0266 -2.0229 0.9747
-3.8623 4.6975 -2.0215 0.9747
-4.2625 4.3311 -2.0199 0.9747
-4.6278 3.9305 -2.0183 0.9747
-5.6876 2.0566 -2.0104 0.9748
-6.0210 -0.0612 -2.0015 0.9749
-5.9848 -0.5971 -1.9993 0.9750
-5.5951 -2.1527 -1.9928 0.9750
-4.0985 -4.3373 -1.9836 0.9752
-3.6928 -4.6821 -1.9822 0.9752
-1.6809 -5.2351 -1.8277 0.9771
-1.2071 -5.3626 -1.8271 0.9771
0.2551 -5.4893 -1.8266 0.9771
2.1602 -5.0588 -1.8285 0.9771
2.6039 -4.8484 -1.8293 0.9771
2.3221 -3.5278 -1.4039 0.9824
2.3602 -2.9704 -1.2611 0.9841
2.3988 -2.5203 -1.1566 0.9854
2.9209 -2.1365 -1.2030 0.9849
5.9059 -1.1059 -1.9973 0.9750
5.6808 2.0774 -2.0106 0.9748
5.4786 2.5783 -2.0127 0.9748
4.6140 3.9475 -2.0184 0.9747
2.9513 5.3266 -2.0242 0.9747
2.4658 5.5713 -2.0252 0.9746
1.9601 5.7714 -2.0261 0.9746
1.4178 5.8412 -1.9980 0.9750
0.8665 5.7789 -1.9424 0.9757
0.3408 5.7168 -1.9037 0.9761
-0.6718 5.6181 -1.8808 0.9764
-1.1699 5.5348 -1.8805 0.9764
-2.1906 5.3771 -1.9300 0.9758
-2.7312 5.2959 -1.9807 0.9752
-3.2613 5.1396 -2.0234 0.9747
-3.7041 4.8252 -2.0220 0.9747
-4.1166 4.4724 -2.0205 0.9747
-5.1400 3.2150 -2.0153 0.9748
-5.6179 2.2464 -2.0112 0.9748
-5.7897 1.7347 -2.0090 0.9748
-5.9148 1.2102 -2.0068 0.9749
-6.0222 0.1401 -2.0024 0.9749
-6.0040 -0.3970 -2.0001 0.9750
-5.9380 -0.9297 -1.9979 0.9750
-5.8251 -1.4538 -1.9957 0.9750
-5.6661 -1.9653 -1.9935 0.9750
-5.4627 -2.4601 -1.9915 0.9751
-4.6037 -3.8073 -1.9858 0.9751
-3.4242 -4.8789 -1.9813 0.9752
-2.4164 -5.2220 -1.9127 0.9760
-0.9057 -5.4209 -1.8269 0.9771
-0.4187 -5.4793 -1.8267 0.9771
0.5613 -5.4667 -1.8267 0.9771
1.9896 -5.1273 -1.8282 0.9771
2.4400 -4.9317 -1.8290 0.9771
2.3671 -3.8721 -1.5086 0.9811
2.3802 -3.2102 -1.3284 0.9833
2.3179 -2.6043 -1.1589 0.9854
2.4798 -2.3299 -1.1311 0.9858
3.8081 -2.0135 -1.4319 0.9820
4.6922 -1.9678 -1.6913 0.9788
6.0147 -0.2405 -2.0009 0.9749
5.9752 0.8335 -2.0054 0.9749
5.7447 1.8856 -2.0098 0.9748
5.5596 2.3929 -2.0119 0.9748
4.7418 3.7899 -2.0178 0.9747
3.9998 4.5793 -2.0211 0.9747
3.5781 4.9212 -2.0225 0.9747
2.6502 5.4849 -2.0249 0.9746
0.5352 5.7401 -1.9163 0.9760
0.0209 5.6785 -1.8876 0.9763
-0.4837 5.6377 -1.8809 0.9764
-1.9944 5.4058 -1.9153 0.9760
-3.5417 4.9475 -2.0225 0.9747
-5.5419 2.4338 -2.0120 0.9748
-5.8735 1.4078 -2.0077 0.9749
-5.9690 0.8775 -2.0055 0.9749
-5.0413 -3.2192 -1.9883 0.9751
-4.7299 -3.6526 -1.9865 0.9751
-3.5862 -4.7630 -1.9818 0.9752
-1.0864 -5.3880 -1.8270 0.9771
0.3783 -5.4822 -1.8267 0.9771
1.3465 -5.3298 -1.8273 0.9771
1.8169 -5.1902 -1.8279 0.9771
2.6297 -2.2077 -1.1413 0.9856
5.6514 -2.0070 -1.9935 0.9750
5.9309 -0.9734 -1.9978 0.9750
6.0007 -0.4412 -2.0001 0.9750
5.9234 1.1666 -2.0068 0.9749
5.8022 1.6919 -2.0090 0.9748
5.6342 2.2049 -2.0112 0.9748
5.4208 2.7013 -2.0132 0.9748
4.8641 3.6281 -2.0171 0.9747
3.7395 4.7977 -2.0220 0.9747
3.2990 5.1154 -2.0233 0.9747
2.3405 5.6259 -2.0255 0.9746
1.8302 5.8144 -2.0262 0.9746
0.7323 5.7633 -1.9312 0.9758
-1.2945 5.5102 -1.8815 0.9764
-1.8008 5.4338 -1.9028 0.9762
-2.8717 5.2743 -1.9962 0.9750
-3.8108 4.7400 -2.0217 0.9747
-4.9172 3.5537 -2.0167 0.9748
-5.2096 3.0981 -2.0148 0.9748
-5.4596 2.6187 -2.0128 0.9748
5.3195 1.8110 -2.0095 0.9764
4.9227 2.7322 -2.0134 0.9764
4.3667 3.5693 -2.0169 0.9763
3.2734 4.6076 -2.0212 0.9763
1.9400 5.3174 -2.0242 0.9762
1.4587 5.4710 -2.0248 0.9762
-0.5406 5.5809 -2.0051 0.9765
-1.0369 5.5149 -2.0067 0.9764
-1.5373 5.4456 -2.0235 0.9762
-3.7304 4.2400 -2.0196 0.9763
-4.4174 3.5046 -2.0165 0.9763
-4.7083 3.0942 -2.0148 0.9764
-5.1734 2.2046 -2.0110 0.9764
-5.3441 1.7328 -2.0090 0.9764
-5.5555 0.7545 -2.0049 0.9765
-5.5948 0.2559 -2.0028 0.9765
-5.5895 -0.2437 -2.0008 0.9765
-5.5398 -0.7404 -1.9987 0.9765
-5.1308 -2.1736 -1.9927 0.9766
-3.6743 -4.1583 -1.9844 0.9767
-2.4343 -4.9653 -1.9775 0.9768
-0.5038 -5.0877 -1.8283 0.9785
-0.0482 -5.1121 -1.8282 0.9785
0.4079 -5.0962 -1.8283 0.9785
1.7432 -4.8098 -1.8295 0.9785
2.1665 -4.6380 -1.8306 0.9785
2.6481 -4.5585 -1.8852 0.9779
2.2706 -3.2106 -1.4063 0.9834
2.6454 -2.1718 -1.2240 0.9856
3.6665 -2.0453 -1.5014 0.9823
4.4328 -1.9771 -1.7357 0.9796
5.2755 -1.8085 -1.9943 0.9766
5.5240 -0.8445 -1.9984 0.9765
5.5831 -0.3489 -2.0004 0.9765
5.5978 0.1504 -2.0025 0.9765
5.4935 1.1447 -2.0067 0.9764
5.3750 1.6316 -2.0087 0.9764
4.7651 3.0045 -2.0145 0.9764
4.4821 3.4204 -2.0162 0.9763
2.5748 5.0371 -2.0230 0.9763
-0.3544 5.6049 -2.0083 0.9764
-0.8511 5.5399 -2.0044 0.9765
-1.3491 5.4720 -2.0154 0.9763
-2.7588 4.9372 -2.0225 0.9763
-3.1863 4.6689 -2.0214 0.9763
-3.5876 4.3634 -2.0201 0.9763
-3.9596 4.0233 -2.0187 0.9763
-4.6038 3.2508 -2.0154 0.9763
-5.0987 2.3771 -2.0117 0.9764
-5.2852 1.9111 -2.0098 0.9764
-5.5294 0.9401 -2.0057 0.9765
-5.5854 0.4429 -2.0036 0.9765
-5.4862 -1.0478 -1.9974 0.9766
-5.3655 -1.5313 -1.9954 0.9766
-5.2025 -2.0016 -1.9934 0.9766
-4.9985 -2.4552 -1.9915 0.9766
-4.7554 -2.8885 -1.9897 0.9766
-4.1597 -3.6810 -1.9864 0.9767
-3.8121 -4.0343 -1.9849 0.9767
-3.4349 -4.3551 -1.9835 0.9767
-3.0311 -4.6413 -1.9823 0.9767
-1.1398 -5.0638 -1.8562 0.9782
-0.6735 -5.0683 -1.8284 0.9785
0.2374 -5.1069 -1.8282 0.9785
1.1410 -4.9850 -1.8288 0.9785
2.0095 -4.7061 -1.8299 0.9785
2.3279 -2.9298 -1.3382 0.9842
2.3504 -2.4695 -1.2192 0.9856
2.5076 -2.2029 -1.1936 0.9859
2.8959 -2.1182 -1.2831 0.9849
4.1851 -2.0370 -1.6645 0.9804
5.2102 -1.9831 -1.9936 0.9766
5.3716 -1.5121 -1.9956 0.9766
5.5661 -0.5351 -1.9997 0.9765
5.5975 -0.0367 -2.0018 0.9765
5.2788 1.9304 -2.0100 0.9764
5.0906 2.3957 -2.0119 0.9764
4.8612 2.8427 -2.0138 0.9764
4.2863 3.6672 -2.0173 0.9763
3.9453 4.0379 -2.0188 0.9763
3.5721 4.3766 -2.0202 0.9763
3.1696 4.6806 -2.0215 0.9763
2.7412 4.9473 -2.0226 0.9763
1.3356 5.5027 -2.0249 0.9762
0.8398 5.6010 -2.0253 0.9762
0.3371 5.6541 -2.0255 0.9762
-0.1674 5.6286 -2.0137 0.9764
-1.1620 5.4979 -2.0095 0.9764
-2.1352 5.2410 -2.0238 0.9762
-3.0291 4.7738 -2.0218 0.9763
-4.1760 3.7941 -2.0177 0.9763
-4.4940 3.4039 -2.0161 0.9763
-4.7755 2.9871 -2.0143 0.9764
-5.0182 2.5470 -2.0125 0.9764
-5.2203 2.0874 -2.0105 0.9764
-5.3803 1.6120 -2.0085 0.9764
-5.4970 1.1247 -2.0065 0.9764
-5.5696 0.6295 -2.0044 0.9765
-5.5977 0.1302 -2.0023 0.9765
-5.5203 -0.8643 -1.9982 0.9765
-5.2684 -1.8273 -1.9941 0.9766
-5.0795 -2.2876 -1.9922 0.9766
-4.8508 -2.7289 -1.9903 0.9766
-4.2817 -3.5410 -1.9869 0.9767
-3.5794 -4.2390 -1.9840 0.9767
-3.1852 -4.5384 -1.9828 0.9767
-2.7663 -4.8017 -1.9817 0.9767
-0.8426 -5.0432 -1.8285 0.9785
-0.3895 -5.0976 -1.8283 0.9785
0.0666 -5.1119 -1.8282 0.9785
1.4178 -4.9143 -1.8291 0.9785
1.8509 -4.7699 -1.8297 0.9785
2.2831 -4.6147 -1.8412 0.9784
2.3525 -3.1729 -1.4125 0.9834
2.7468 -2.1537 -1.2482 0.9853
3.2096 -2.0830 -1.3683 0.9839
5.1391 -2.1553 -1.9929 0.9766
5.3160 -1.6901 -1.9948 0.9766
5.5910 -0.2236 -2.0010 0.9765
5.5945 0.2761 -2.0031 0.9765
5.5534 0.7746 -2.0052 0.9765
5.3384 1.7523 -2.0093 0.9764
4.9518 2.6777 -2.0131 0.9764
3.7154 4.2538 -2.0197 0.9763
3.3235 4.5711 -2.0210 0.9763
2.9044 4.8520 -2.0222 0.9763
1.0264 5.5694 -2.0252 0.9762
0.5258 5.6396 -2.0255 0.9762
0.0208 5.6520 -2.0212 0.9763
-1.9591 5.3102 -2.0241 0.9762
-2.4238 5.1123 -2.0232 0.9763
-3.2897 4.5955 -2.0211 0.9763
-3.6840 4.2811 -2.0197 0.9763
-4.3792 3.5533 -2.0167 0.9763
-4.6746 3.1460 -2.0150 0.9763
-5.3254 1.7916 -2.0093 0.9764
-5.5924 0.3173 -2.0031 0.9765
-5.5926 -0.1824 -2.0010 0.9765
-5.3285 -1.6509 -1.9949 0.9766
-4.6883 -2.9938 -1.9892 0.9766
-4.3989 -3.3970 -1.9875 0.9767
-3.3358 -4.4304 -1.9832 0.9767
-2.9258 -4.7075 -1.9821 0.9767
-2.4895 -4.9399 -1.9782 0.9768
-2.0340 -5.1293 -1.9732 0.9768
-1.5134 -5.1044 -1.9039 0.9776
-1.0183 -5.0503 -1.8424 0.9784
0.3519 -5.1004 -1.8283 0.9785
1.6903 -4.8284 -1.8294 0.9785
2.2376 -3.2387 -1.4077 0.9834
2.3094 -2.3199 -1.1706 0.9862
2.5994 -2.1822 -1.2137 0.9857
3.5834 -2.0508 -1.4765 0.9826
5.2547 -1.8661 -1.9941 0.9766
5.5984 0.0890 -2.0023 0.9765
5.5740 0.5884 -2.0044 0.9765
5.5050 1.0842 -2.0065 0.9764
5.0367 2.5099 -2.0124 0.9764
3.0642 4.7513 -2.0218 0.9763
2.6298 5.0082 -2.0229 0.9763
2.1737 5.2251 -2.0238 0.9762
1.6998 5.4000 -2.0245 0.9762
1.2118 5.5316 -2.0250 0.9762
-0.2931 5.6127 -2.0099 0.9764
-1.2875 5.4805 -2.0132 0.9764
-1.7808 5.3734 -2.0243 0.9762
-2.7046 4.9675 -2.0226 0.9763
-3.1351 4.7039 -2.0215 0.9763
-3.5398 4.4029 -2.0203 0.9763
-3.9155 4.0669 -2.0188 0.9763
-4.2593 3.6987 -2.0173 0.9763
-5.0729 2.4332 -2.0120 0.9764
-5.2645 1.9693 -2.0100 0.9764
-5.5194 1.0009 -2.0060 0.9765
5.1740 0.7797 -2.0052 0.9778
3.4215 4.0052 -2.0187 0.9777
2.2431 4.7755 -2.0219 0.9777
1.8090 4.9584 -2.0227 0.9776
1.3601 5.1014 -2.0232 0.9776
0.9000 5.2035 -2.0237 0.9776
-3.4791 3.9543 -2.0184 0.9777
-4.3917 2.8861 -2.0139 0.9777
-4.8262 2.0566 -2.0104 0.9778
-4.9858 1.6166 -2.0086 0.9778
-5.1837 0.7040 -2.0047 0.9778
-5.2162 -0.2274 -2.0008 0.9779
-5.0830 -1.1481 -1.9970 0.9779
-4.7894 -2.0289 -1.9933 0.9780
-4.5854 -2.4457 -1.9915 0.9780
-4.0715 -3.2161 -1.9883 0.9780
-2.6834 -4.4252 -1.9833 0.9781
-2.2771 -4.6447 -1.9823 0.9781
-1.8511 -4.8218 -1.9793 0.9781
-1.4110 -4.9580 -1.9754 0.9782
-0.0463 -4.9145 -1.8834 0.9792
0.3889 -4.8598 -1.8683 0.9793
0.8203 -4.8030 -1.8673 0.9793
1.2539 -4.7434 -1.8802 0.9792
2.1542 -4.6117 -1.9506 0.9784
2.2623 -3.1988 -1.5014 0.9834
2.3235 -2.7316 -1.3742 0.9848
2.6407 -2.1679 -1.3093 0.9855
3.1025 -2.1139 -1.4387 0.9840
4.7497 -2.1185 -1.9930 0.9780
5.1554 -0.7881 -1.9986 0.9779
5.2236 0.1404 -2.0025 0.9779
5.1953 0.6062 -2.0044 0.9778
5.1255 1.0680 -2.0064 0.9778
4.8634 1.9651 -2.0101 0.9778
4.1806 3.1903 -2.0153 0.9777
3.8824 3.5530 -2.0168 0.9777
3.5526 3.8877 -2.0182 0.9777
3.1938 4.1916 -2.0195 0.9777
2.4010 4.6971 -2.0216 0.9777
1.9734 4.8945 -2.0224 0.9776
1.5297 5.0526 -2.0230 0.9776
1.0733 5.1701 -2.0235 0.9776
0.1380 5.2797 -2.0240 0.9776
-0.3333 5.2709 -2.0239 0.9776
-1.2638 5.1263 -2.0233 0.9776
-2.5727 4.6040 -2.0211 0.9777
-3.3458 4.0693 -2.0189 0.9777
-3.6929 3.7523 -2.0175 0.9777
-4.0098 3.4056 -2.0161 0.9777
-4.5437 2.6350 -2.0128 0.9778
-4.9307 1.7829 -2.0093 0.9778
-5.0653 1.3349 -2.0074 0.9778
-5.2118 0.4132 -2.0035 0.9779
-5.1922 -0.5180 -1.9996 0.9779
-5.0080 -1.4293 -1.9958 0.9779
-4.8562 -1.8684 -1.9940 0.9780
-3.8838 -3.4368 -1.9874 0.9780
-3.5594 -3.7668 -1.9860 0.9780
-2.0128 -4.7611 -1.9809 0.9781
-1.5770 -4.9114 -1.9768 0.9781
0.2268 -4.8805 -1.8723 0.9793
0.6589 -4.8246 -1.8660 0.9794
1.0909 -4.7661 -1.8737 0.9793
1.5292 -4.7043 -1.8956 0.9790
2.3548 -2.4740 -1.3089 0.9855
2.4961 -2.1928 -1.2732 0.9859
2.9167 -2.1335 -1.3849 0.9846
4.1355 -2.0128 -1.7625 0.9805
5.0136 -1.4113 -1.9960 0.9779
5.1244 -0.9596 -1.9979 0.9779
5.2108 0.4321 -2.0037 0.9779
5.1565 0.8958 -2.0057 0.9778
5.0609 1.3533 -2.0076 0.9778
4.9247 1.8009 -2.0094 0.9778
4.7488 2.2348 -2.0113 0.9778
4.2836 3.0479 -2.0147 0.9777
3.9978 3.4203 -2.0162 0.9777
3.3313 4.0816 -2.0190 0.9777
2.9558 4.3650 -2.0202 0.9777
0.3143 5.2721 -2.0239 0.9776
-0.1570 5.2792 -2.0240 0.9776
-1.5478 5.0469 -2.0230 0.9776
-1.9910 4.8872 -2.0223 0.9776
-2.8248 4.4518 -2.0205 0.9777
-3.2087 4.1798 -2.0193 0.9777
-3.5663 3.8746 -2.0180 0.9777
-3.8949 3.5387 -2.0166 0.9777
-4.4545 2.7863 -2.0135 0.9777
-4.6812 2.3760 -2.0117 0.9778
-5.0196 1.5040 -2.0081 0.9778
-5.2235 0.1215 -2.0023 0.9779
-5.1520 -0.8066 -1.9984 0.9779
-5.0548 -1.2616 -1.9965 0.9779
-4.7416 -2.1354 -1.9928 0.9780
-4.5284 -2.5475 -1.9911 0.9780
-3.6842 -3.6467 -1.9865 0.9780
-3.3422 -3.9580 -1.9852 0.9781
-2.5832 -4.4838 -1.9830 0.9781
-0.8366 -5.0075 -1.9455 0.9785
0.0638 -4.9009 -1.8783 0.9792
0.4975 -4.8457 -1.8667 0.9793
1.3640 -4.7279 -1.8857 0.9791
1.8096 -4.6634 -1.9169 0.9788
2.2727 -4.5936 -1.9640 0.9783
2.6922 -4.4038 -1.9780 0.9781
3.9208 -2.0732 -1.6996 0.9812
5.1731 -0.6724 -1.9991 0.9779
5.2175 -0.2087 -2.0010 0.9779
5.2204 0.2576 -2.0030 0.9779
5.1817 0.7228 -2.0049 0.9778
5.1015 1.1830 -2.0069 0.9778
4.9804 1.6347 -2.0088 0.9778
4.8192 2.0742 -2.0106 0.9778
4.6191 2.4978 -2.0124 0.9778
4.3817 2.9022 -2.0141 0.9777
4.1087 3.2839 -2.0157 0.9777
3.8024 3.6399 -2.0171 0.9777
3.0994 4.2629 -2.0197 0.9777
1.8633 4.9380 -2.0226 0.9776
1.4160 5.0860 -2.0232 0.9776
0.4903 5.2585 -2.0239 0.9776
-0.4515 5.2620 -2.0239 0.9776
-0.9188 5.2001 -2.0236 0.9776
-2.2602 4.7672 -2.0218 0.9777
-2.6750 4.5446 -2.0209 0.9777
-3.0679 4.2856 -2.0198 0.9777
-3.7755 3.6679 -2.0172 0.9777
-4.0845 3.3142 -2.0157 0.9777
-4.6007 2.5319 -2.0124 0.9778
-4.8039 2.1097 -2.0106 0.9778
-4.9683 1.6714 -2.0088 0.9778
-5.0927 1.2206 -2.0069 0.9778
-5.1763 0.7610 -2.0050 0.9778
-4.9735 -1.5409 -1.9953 0.9779
-4.8119 -1.9764 -1.9935 0.9780
-3.1148 -4.1369 -1.9845 0.9781
-2.7320 -4.3958 -1.9834 0.9781
-1.9044 -4.8024 -1.9798 0.9781
-1.4657 -4.9433 -1.9759 0.9782
-1.0136 -5.0272 -1.9653 0.9783
-0.5478 -4.9744 -1.9178 0.9788
0.3358 -4.8666 -1.8694 0.9793
1.2002 -4.7509 -1.8778 0.9792
1.6411 -4.6881 -1.9035 0.9789
2.0968 -4.6204 -1.9444 0.9785
2.5931 -2.1770 -1.2975 0.9856
3.0362 -2.1179 -1.4186 0.9843
3.6615 -2.0954 -1.6167 0.9821
5.0452 -1.2988 -1.9965 0.9779
5.2057 -0.3827 -2.0003 0.9779
5.2010 0.5490 -2.0042 0.9778
4.6985 2.3413 -2.0117 0.9778
4.4748 2.7533 -2.0134 0.9777
4.2149 3.1439 -2.0151 0.9777
3.9208 3.5098 -2.0166 0.9777
2.8575 4.4308 -2.0205 0.9777
2.0270 4.8723 -2.0223 0.9776
0.6657 5.2390 -2.0238 0.9776
-1.2075 5.1400 -2.0234 0.9776
-2.5221 4.6323 -2.0212 0.9777
-3.3012 4.1061 -2.0190 0.9777
-3.6518 3.7929 -2.0177 0.9777
-4.2610 3.0794 -2.0147 0.9777
-4.5149 2.6850 -2.0130 0.9777
-4.7323 2.2698 -2.0113 0.9778
-4.9114 1.8372 -2.0095 0.9778
-5.1498 0.9338 -2.0057 0.9778
4.6457 1.5816 -2.0085 0.9790
4.4900 1.9912 -2.0102 0.9790
3.8118 3.1158 -2.0149 0.9789
3.5212 3.4456 -2.0163 0.9789
3.2020 3.7482 -2.0176 0.9789
2.8566 4.0210 -2.0187 0.9789
2.4880 4.2619 -2.0197 0.9789
2.0989 4.4686 -2.0206 0.9789
1.6927 4.6396 -2.0213 0.9789
1.2727 4.7734 -2.0219 0.9789
0.4047 4.9250 -2.0225 0.9789
-0.0360 4.9417 -2.0226 0.9789
-0.9130 4.8558 -2.0222 0.9789
-1.7601 4.6141 -2.0212 0.9789
-2.1637 4.4371 -2.0204 0.9789
-4.3316 2.3222 -2.0115 0.9790
-4.5177 1.9252 -2.0099 0.9790
-4.7795 1.0902 -2.0064 0.9790
-1.9487 0.2647 -0.8049 0.9915
-1.9366 -0.0844 -0.7934 0.9917
-1.9496 -0.2606 -0.8050 0.9915
-4.7601 -1.0752 -1.9973 0.9791
-4.6412 -1.4940 -1.9955 0.9791
-4.2949 -2.2908 -1.9922 0.9792
-3.8139 -3.0126 -1.9892 0.9792
-3.5277 -3.3384 -1.9878 0.9792
-2.5141 -4.1459 -1.9844 0.9793
-2.1335 -4.3517 -1.9836 0.9793
-1.3253 -4.6568 -1.9816 0.9793
-0.9035 -4.7495 -1.9787 0.9793
-0.4759 -4.8059 -1.9766 0.9793
0.8122 -4.7562 -1.9748 0.9794
1.2337 -4.6670 -1.9757 0.9794
2.8009 -3.9604 -1.9853 0.9793
2.2298 -2.6214 -1.4085 0.9852
2.3066 -2.2667 -1.3235 0.9861
3.0958 -2.1094 -1.5332 0.9839
3.7047 -2.0665 -1.7362 0.9818
4.4486 -1.9842 -1.9936 0.9792
4.7384 -1.1645 -1.9970 0.9791
4.8277 -0.7380 -1.9988 0.9791
4.8787 -0.3049 -2.0006 0.9791
4.8909 0.1314 -2.0024 0.9791
4.7985 0.9999 -2.0061 0.9790
4.5526 1.8395 -2.0096 0.9790
4.1602 2.6231 -2.0129 0.9790
3.9127 2.9859 -2.0144 0.9790
3.3247 3.6383 -2.0171 0.9789
2.6285 4.1756 -2.0194 0.9789
2.2467 4.3953 -2.0203 0.9789
1.8466 4.5799 -2.0211 0.9789
1.0043 4.8376 -2.0221 0.9789
0.5690 4.9086 -2.0224 0.9789
-0.3119 4.9318 -2.0225 0.9789
-1.1826 4.7967 -2.0219 0.9789
-2.0145 4.5076 -2.0207 0.9789
-2.4074 4.3083 -2.0199 0.9789
-3.1311 3.8082 -2.0178 0.9789
-3.4560 3.5117 -2.0165 0.9789
-3.7528 3.1874 -2.0152 0.9789
-4.0192 2.8380 -2.0137 0.9790
-4.6157 1.6690 -2.0088 0.9790
-4.7419 1.2497 -2.0070 0.9790
-2.1287 0.3619 -0.8837 0.9907
-1.9083 -0.0194 -0.7810 0.9918
-1.9577 -0.1953 -0.8052 0.9915
-4.5481 -1.7499 -1.9945 0.9792
-4.3703 -2.1466 -1.9928 0.9792
-4.1582 -2.5258 -1.9912 0.9792
-2.6517 -4.0603 -1.9848 0.9793
-1.4808 -4.6120 -1.9825 0.9793
-0.2067 -4.8227 -1.9756 0.9794
0.6528 -4.7803 -1.9746 0.9794
1.8988 -4.4466 -1.9789 0.9793
2.2911 -4.2659 -1.9818 0.9793
2.3430 -2.4617 -1.3909 0.9854
2.9787 -2.1788 -1.5104 0.9842
3.5272 -2.1251 -1.6853 0.9824
4.3784 -2.1310 -1.9930 0.9792
4.7987 -0.8986 -1.9981 0.9791
4.8641 -0.4676 -1.9999 0.9791
4.8909 -0.0320 -2.0018 0.9791
4.8787 0.4045 -2.0036 0.9791
4.8276 0.8387 -2.0054 0.9790
4.7378 1.2669 -2.0072 0.9790
4.6100 1.6858 -2.0090 0.9790
4.2443 2.4819 -2.0123 0.9790
4.0092 2.8527 -2.0138 0.9790
3.7416 3.2011 -2.0153 0.9789
3.1175 3.8197 -2.0179 0.9789
2.7660 4.0847 -2.0190 0.9789
1.9983 4.5150 -2.0208 0.9789
1.5883 4.6768 -2.0215 0.9789
1.1653 4.8010 -2.0220 0.9789
0.7327 4.8866 -2.0223 0.9789
0.2941 4.9330 -2.0225 0.9789
-0.1469 4.9396 -2.0225 0.9789
-0.5867 4.9065 -2.0224 0.9789
-1.0217 4.8339 -2.0221 0.9789
-1.4483 4.7224 -2.0216 0.9789
-1.8630 4.5731 -2.0210 0.9789
-2.6434 4.1659 -2.0193 0.9789
-3.0027 3.9115 -2.0182 0.9789
-3.6452 3.3118 -2.0157 0.9789
-4.1693 2.6079 -2.0127 0.9790
-4.5588 1.8229 -2.0094 0.9790
-4.6991 1.4079 -2.0077 0.9790
-1.9206 0.0447 -0.7862 0.9917
-2.0099 -0.3147 -0.8326 0.9912
-4.7337 -1.1815 -1.9968 0.9791
-4.6055 -1.5974 -1.9951 0.9792
-4.4410 -2.0000 -1.9934 0.9792
-4.2415 -2.3861 -1.9918 0.9792
-3.7447 -3.0969 -1.9888 0.9792
-3.1310 -3.7080 -1.9863 0.9792
-2.7864 -3.9702 -1.9852 0.9793
-2.4201 -4.2008 -1.9842 0.9793
-1.6343 -4.5604 -1.9827 0.9793
-0.3679 -4.8144 -1.9762 0.9793
1.3384 -4.6390 -1.9761 0.9793
1.7483 -4.5055 -1.9780 0.9793
2.1460 -4.3375 -1.9806 0.9793
2.5285 -4.1359 -1.9840 0.9793
2.3646 -2.2216 -1.3279 0.9861
3.2907 -2.1356 -1.6055 0.9832
3.8873 -2.0554 -1.7997 0.9812
4.6470 -1.4774 -1.9957 0.9791
4.8441 -0.6296 -1.9993 0.9791
4.8854 -0.1954 -2.0011 0.9791
4.8878 0.2412 -2.0029 0.9791
4.8513 0.6767 -2.0047 0.9791
4.7759 1.1076 -2.0065 0.9790
4.6623 1.5303 -2.0083 0.9790
4.5111 1.9416 -2.0100 0.9790
4.3236 2.3380 -2.0117 0.9790
3.8454 3.0735 -2.0148 0.9789
3.5585 3.4065 -2.0162 0.9789
3.2427 3.7126 -2.0174 0.9789
2.5344 4.2340 -2.0196 0.9789
1.7435 4.6206 -2.0212 0.9789
-0.4225 4.9235 -2.0225 0.9789
-0.8597 4.8656 -2.0222 0.9789
-2.1150 4.4609 -2.0205 0.9789
-2.5032 4.2527 -2.0196 0.9789
-3.2153 3.7364 -2.0175 0.9789
-4.0811 2.7466 -2.0133 0.9790
-4.7677 1.1427 -2.0066 0.9790
-1.9432 0.2857 -0.8039 0.9915
-1.9450 0.1104 -0.7973 0.9916
-4.7722 -1.0230 -1.9975 0.9791
-4.6578 -1.4431 -1.9957 0.9791
-3.8471 -2.9708 -1.9893 0.9792
-2.5596 -4.1183 -1.9845 0.9793
-2.1812 -4.3282 -1.9837 0.9793
-1.7860 -4.5038 -1.9829 0.9793
1.9987 -4.4044 -1.9795 0.9793
2.3872 -4.2152 -1.9826 0.9793
2.7571 -3.9906 -1.9851 0.9793
3.0467 -2.1253 -1.5204 0.9841
4.7248 -1.2163 -1.9968 0.9791
4.8188 -0.7909 -1.9986 0.9791
4.8745 -0.3584 -2.0004 0.9791
4.8915 0.0777 -2.0022 0.9791
4.8695 0.5140 -2.0041 0.9791
4.8087 0.9470 -2.0059 0.9790
4.5720 1.7892 -2.0094 0.9790
4.1884 2.5771 -2.0127 0.9790
3.9449 2.9425 -2.0142 0.9790
3.0315 3.8892 -2.0182 0.9789
2.6740 4.1462 -2.0193 0.9789
1.8967 4.5592 -2.0210 0.9789
1.4831 4.7116 -2.0216 0.9789
-0.6967 4.8919 -2.0223 0.9789
-1.1299 4.8095 -2.0220 0.9789
-1.5538 4.6884 -2.0215 0.9789
-2.3601 4.3347 -2.0200 0.9789
-3.0893 3.8426 -2.0179 0.9789
-3.4175 3.5497 -2.0167 0.9789
-3.7179 3.2287 -2.0153 0.9789
-4.2260 2.5132 -2.0123 0.9790
-4.5976 1.7198 -2.0090 0.9790
-4.7284 1.3018 -2.0072 0.9790
4.3619 1.4850 -2.0081 0.9801
4.0351 2.2396 -2.0113 0.9801
3.8221 2.5924 -2.0128 0.9801
3.5782 2.9249 -2.0141 0.9800
3.3053 3.2343 -2.0154 0.9800
2.6813 3.7742 -2.0177 0.9800
2.3352 4.0001 -2.0186 0.9800
1.9700 4.1941 -2.0194 0.9800
0.7904 4.5694 -2.0210 0.9800
-0.0338 4.6378 -2.0213 0.9800
-0.4472 4.6161 -2.0212 0.9800
-0.8569 4.5573 -2.0209 0.9800
-1.2596 4.4618 -2.0205 0.9800
-1.6519 4.3305 -2.0200 0.9800
-2.0308 4.1646 -2.0193 0.9800
-3.0561 3.4736 -2.0164 0.9800
-3.6200 2.8719 -2.0138 0.9800
-4.2415 1.8075 -2.0094 0.9801
-1.5296 0.3489 -0.6837 0.9932
-1.5177 0.2061 -0.6675 0.9933
-1.5291 -0.0667 -0.6670 0.9933
-1.5184 -0.2029 -0.6676 0.9933
-1.5279 -0.3451 -0.6826 0.9932
-3.8237 -2.5012 -1.9913 0.9803
-3.5830 -2.8302 -1.9899 0.9803
-2.3622 -3.8955 -1.9855 0.9803
-2.0047 -4.0889 -1.9847 0.9803
-1.2458 -4.3773 -1.9835 0.9803
-0.8503 -4.4701 -1.9831 0.9803
-0.4482 -4.5265 -1.9824 0.9803
0.7651 -4.4799 -1.9807 0.9804
2.6316 -3.7210 -1.9863 0.9803
2.6587 -2.1827 -1.4991 0.9851
3.1085 -2.1180 -1.6393 0.9837
3.9928 -2.2273 -1.9926 0.9802
4.1787 -1.8638 -1.9941 0.9802
4.3317 -1.4850 -1.9957 0.9802
4.4505 -1.0937 -1.9973 0.9802
4.5341 -0.6931 -1.9990 0.9802
4.5817 -0.2863 -2.0007 0.9802
4.4077 1.3380 -2.0075 0.9801
4.2743 1.7271 -2.0091 0.9801
3.6730 2.8030 -2.0136 0.9800
2.4671 3.9192 -2.0183 0.9800
2.1087 4.1253 -2.0192 0.9800
1.3433 4.4371 -2.0205 0.9800
0.1212 4.6363 -2.0213 0.9800
-0.7042 4.5836 -2.0210 0.9800
-1.8907 4.2307 -2.0196 0.9800
-2.2595 4.0437 -2.0188 0.9800
-2.6099 3.8243 -2.0178 0.9800
-3.2441 3.2963 -2.0156 0.9800
-3.5229 2.9920 -2.0143 0.9800
-3.7730 2.6642 -2.0130 0.9800
-3.9926 2.3155 -2.0115 0.9801
-1.5537 0.4095 -0.7002 0.9930
-1.5049 0.2559 -0.6653 0.9934
-1.5245 -0.0155 -0.6644 0.9934
-1.5263 -0.1523 -0.6685 0.9933
-1.5664 -0.4470 -0.7099 0.9929
-4.2721 -1.6437 -1.9949 0.9802
-3.6765 -2.7096 -1.9904 0.9803
-2.4915 -3.8150 -1.9858 0.9803
-2.1405 -4.0203 -1.9850 0.9803
-1.7729 -4.1936 -1.9842 0.9803
-1.3915 -4.3337 -1.9837 0.9803
-0.9993 -4.4395 -1.9832 0.9803
-0.5994 -4.5103 -1.9829 0.9803
-0.1947 -4.5424 -1.9815 0.9804
0.6149 -4.5026 -1.9805 0.9804
1.0142 -4.4312 -1.9811 0.9804
1.4063 -4.3261 -1.9825 0.9803
1.7880 -4.1873 -1.9843 0.9803
2.5054 -3.8062 -1.9859 0.9803
2.3620 -2.9727 -1.6547 0.9836
4.2783 -1.6284 -1.9951 0.9802
4.5682 -0.4391 -2.0001 0.9802
4.5930 -0.0301 -2.0018 0.9802
4.5814 0.3799 -2.0035 0.9801
4.5331 0.7875 -2.0052 0.9801
4.4486 1.1896 -2.0069 0.9801
4.3283 1.5828 -2.0085 0.9801
3.9846 2.3300 -2.0117 0.9801
3.7637 2.6780 -2.0131 0.9800
3.5123 3.0049 -2.0145 0.9800
2.9262 3.5853 -2.0169 0.9800
2.5962 3.8339 -2.0179 0.9800
2.2451 4.0520 -2.0189 0.9800
-0.5506 4.6048 -2.0211 0.9800
-0.9589 4.5367 -2.0208 0.9800
-2.8185 3.6715 -2.0172 0.9800
-3.1328 3.4036 -2.0161 0.9800
-3.6829 2.7895 -2.0135 0.9800
-4.2802 1.7115 -2.0090 0.9801
-1.5109 0.3091 -0.6721 0.9933
-1.5268 0.0355 -0.6656 0.9934
-1.5295 -0.1011 -0.6680 0.9933
-1.5105 -0.2365 -0.6663 0.9934
-1.5448 -0.3855 -0.6939 0.9931
-4.1716 -1.8787 -1.9939 0.9802
-3.9844 -2.2415 -1.9924 0.9802
-2.9418 -3.4838 -1.9872 0.9803
-2.2740 -3.9471 -1.9853 0.9803
-1.9122 -4.1325 -1.9845 0.9803
-0.7498 -4.4879 -1.9830 0.9803
-0.3465 -4.5345 -1.9820 0.9804
0.0592 -4.5448 -1.9809 0.9804
0.4641 -4.5205 -1.9805 0.9804
0.8655 -4.4619 -1.9808 0.9804
1.6466 -4.2434 -1.9837 0.9803
2.3715 -2.2281 -1.4181 0.9859
2.7508 -2.1568 -1.5234 0.9849
3.3200 -2.1547 -1.7249 0.9829
4.3648 -1.3877 -1.9961 0.9802
4.4748 -0.9938 -1.9977 0.9802
4.5900 0.2265 -2.0028 0.9801
4.4844 1.0399 -2.0063 0.9801
4.3775 1.4368 -2.0079 0.9801
4.2353 1.8229 -2.0095 0.9801
3.6098 2.8852 -2.0140 0.9800
3.3404 3.1976 -2.0153 0.9800
2.3788 3.9740 -2.0185 0.9800
1.6364 4.3366 -2.0200 0.9800
1.2435 4.4664 -2.0206 0.9800
0.8405 4.5604 -2.0210 0.9800
0.4305 4.6177 -2.0212 0.9800
-0.3965 4.6208 -2.0212 0.9800
-1.2105 4.4755 -2.0206 0.9800
-1.9850 4.1868 -2.0194 0.9800
-2.3495 3.9915 -2.0185 0.9800
-2.6947 3.7643 -2.0176 0.9800
-3.0180 3.5072 -2.0165 0.9800
-3.3167 3.2222 -2.0153 0.9800
-3.5885 2.9117 -2.0140 0.9800
-3.8312 2.5784 -2.0126 0.9801
-4.0428 2.2249 -2.0111 0.9801
-1.5888 0.5345 -0.7305 0.9927
-1.5189 -0.3256 -0.6770 0.9932
-1.5784 -0.4890 -0.7201 0.9928
-3.8513 -2.4593 -1.9915 0.9803
-3.6142 -2.7910 -1.9901 0.9803
-3.3487 -3.1001 -1.9888 0.9803
-2.7417 -3.6414 -1.9865 0.9803
-2.4050 -3.8695 -1.9856 0.9803
-0.8994 -4.4606 -1.9831 0.9803
-0.4979 -4.5218 -1.9826 0.9803
-0.0927 -4.5450 -1.9812 0.9804
0.7158 -4.4879 -1.9806 0.9804
1.8817 -4.1465 -1.9845 0.9803
2.2035 -2.6489 -1.5016 0.9851
2.2925 -2.3029 -1.4162 0.9859
2.5850 -2.1701 -1.4709 0.9854
3.0882 -2.1542 -1.6410 0.9837
4.4378 -1.1424 -1.9971 0.9802
4.5778 -0.3366 -2.0005 0.9802
4.5727 0.4827 -2.0039 0.9801
4.5153 0.8893 -2.0056 0.9801
4.2926 1.6799 -2.0089 0.9801
4.1290 2.0575 -2.0105 0.9801
3.7033 2.7622 -2.0135 0.9800
3.4445 3.0835 -2.0148 0.9800
3.1578 3.3804 -2.0161 0.9800
2.1538 4.1017 -2.0191 0.9800
1.3919 4.4220 -2.0204 0.9800
0.9923 4.5295 -2.0208 0.9800
0.5846 4.6006 -2.0211 0.9800
0.1721 4.6347 -2.0213 0.9800
-1.0604 4.5138 -2.0208 0.9800
-1.4583 4.4002 -2.0203 0.9800
-1.8443 4.2514 -2.0196 0.9800
-2.2151 4.0684 -2.0189 0.9800
-2.8998 3.6068 -2.0169 0.9800
-3.7439 2.7057 -2.0131 0.9800
-3.9674 2.3594 -2.0117 0.9801
-1.4997 0.2719 -0.6643 0.9934
4.2823 0.6453 -2.0046 0.9811
4.2111 1.0254 -2.0062 0.9811
4.1060 1.3979 -2.0078 0.9811
3.9680 1.7597 -2.0093 0.9810
3.7981 2.1081 -2.0107 0.9810
3.5975 2.4400 -2.0121 0.9810
1.8538 3.9468 -2.0184 0.9810
0.7437 4.2998 -2.0199 0.9809
0.3574 4.3495 -2.0201 0.9809
-0.0318 4.3641 -2.0201 0.9809
-0.4208 4.3437 -2.0200 0.9809
-0.8063 4.2884 -2.0198 0.9810
-1.9110 3.9190 -2.0182 0.9810
-2.2520 3.7316 -2.0175 0.9810
-2.5746 3.5143 -2.0165 0.9810
-2.8762 3.2691 -2.0155 0.9810
-3.4071 2.7031 -2.0131 0.9810
-3.6321 2.3869 -2.0118 0.9810
-1.3236 0.5640 -0.6660 0.9937
-1.3293 0.1805 -0.6210 0.9941
-1.3381 -0.0583 -0.6200 0.9941
-1.2994 -0.2935 -0.6166 0.9941
-1.3242 -0.5610 -0.6657 0.9937
-3.3747 -2.6657 -1.9906 0.9812
-3.1217 -2.9542 -1.9894 0.9812
-2.2252 -3.6695 -1.9864 0.9813
-1.8884 -3.8518 -1.9857 0.9813
-0.0404 -4.2857 -1.9839 0.9813
0.3419 -4.2724 -1.9839 0.9813
0.7216 -4.2253 -1.9841 0.9813
1.4612 -4.0316 -1.9850 0.9813
1.8154 -3.8865 -1.9856 0.9813
2.4789 -3.5050 -1.9872 0.9813
2.3713 -2.7878 -1.6941 0.9840
3.1059 -2.1163 -1.7397 0.9836
3.7603 -2.0976 -1.9931 0.9812
4.0791 -1.3984 -1.9960 0.9812
4.2693 -0.6527 -1.9992 0.9811
4.2417 0.8839 -2.0056 0.9811
4.0235 1.6257 -2.0087 0.9811
3.2101 2.9377 -2.0142 0.9810
2.3217 3.6883 -2.0173 0.9810
1.9844 3.8821 -2.0181 0.9810
1.6309 4.0450 -2.0188 0.9810
0.5025 4.3349 -2.0200 0.9809
0.1140 4.3627 -2.0201 0.9809
-0.6626 4.3132 -2.0199 0.9809
-3.3156 2.8161 -2.0136 0.9810
-3.7581 2.1795 -2.0109 0.9810
-1.3332 0.4821 -0.6562 0.9938
-1.3147 0.3465 -0.6293 0.9940
-1.3195 0.2243 -0.6196 0.9941
-1.3381 0.1061 -0.6213 0.9941
-1.3349 -0.0136 -0.6179 0.9941
-1.3363 -0.1333 -0.6216 0.9941
-1.3217 -0.3772 -0.6362 0.9940
-3.4627 -2.5520 -1.9911 0.9812
-2.6592 -3.3716 -1.9877 0.9813
-2.0163 -3.7870 -1.9859 0.9813
-1.6700 -3.9504 -1.9853 0.9813
-1.3108 -4.0824 -1.9847 0.9813
-0.9414 -4.1822 -1.9843 0.9813
-0.1835 -4.2820 -1.9839 0.9813
0.1990 -4.2813 -1.9839 0.9813
2.0300 -3.7799 -1.9860 0.9813
2.3599 -3.5853 -1.9868 0.9813
2.9263 -2.1404 -1.6782 0.9841
3.6872 -2.2215 -1.9926 0.9812
4.0290 -1.5335 -1.9955 0.9812
4.1528 -1.1690 -1.9970 0.9812
4.2438 -0.7947 -1.9986 0.9811
3.9283 1.8487 -2.0096 0.9810
3.3057 2.8282 -2.0137 0.9810
2.7539 3.3742 -2.0160 0.9810
2.4433 3.6080 -2.0170 0.9810
2.1127 3.8131 -2.0179 0.9810
1.7650 3.9877 -2.0186 0.9810
1.4028 4.1304 -2.0192 0.9810
1.0291 4.2400 -2.0196 0.9810
0.6471 4.3156 -2.0199 0.9809
-0.9023 4.2690 -2.0197 0.9810
-1.6454 4.0389 -2.0188 0.9810
-1.9983 3.8748 -2.0181 0.9810
-2.6525 3.4552 -2.0163 0.9810
-3.6841 2.3044 -2.0115 0.9810
-3.8722 1.9654 -2.0100 0.9810
-1.3341 0.1508 -0.6215 0.9941
-1.3095 -0.3268 -0.6247 0.9941
-1.3170 -0.5931 -0.6686 0.9937
-3.3135 -2.7403 -1.9903 0.9812
-3.0541 -3.0230 -1.9891 0.9812
-2.4661 -3.5138 -1.9871 0.9813
-2.1420 -3.7181 -1.9862 0.9813
-1.8013 -3.8928 -1.9855 0.9813
-1.0807 -4.1487 -1.9844 0.9813
-0.7063 -4.2278 -1.9841 0.9813
-0.3265 -4.2735 -1.9839 0.9813
0.4377 -4.2637 -1.9840 0.9813
0.8163 -4.2082 -1.9842 0.9813
1.5514 -3.9981 -1.9851 0.9813
2.5572 -3.4489 -1.9874 0.9813
2.7814 -2.1808 -1.6360 0.9845
3.6100 -2.3428 -1.9921 0.9812
3.8071 -2.0130 -1.9934 0.9812
4.1102 -1.3067 -1.9964 0.9812
4.3198 -0.1728 -2.0012 0.9811
4.1208 1.3526 -2.0076 0.9811
3.8207 2.0661 -2.0105 0.9810
3.1438 3.0095 -2.0145 0.9810
2.2386 3.7398 -2.0175 0.9810
1.8970 3.9260 -2.0183 0.9810
1.5398 4.0809 -2.0190 0.9810
0.4051 4.3452 -2.0201 0.9809
0.0161 4.3642 -2.0201 0.9809
-1.1391 4.2115 -2.0195 0.9810
-1.5097 4.0921 -2.0190 0.9810
-1.8680 3.9399 -2.0183 0.9810
-2.2110 3.7563 -2.0176 0.9810
-2.5360 3.5426 -2.0167 0.9810
-2.8403 3.3007 -2.0156 0.9810
-3.3775 2.7405 -2.0133 0.9810
-1.3203 0.5798 -0.6675 0.9937
-1.3330 0.4484 -0.6510 0.9938
-1.3055 0.3129 -0.6214 0.9941
-1.3323 -0.1632 -0.6213 0.9941
-1.3026 -0.2792 -0.6167 0.9941
-1.3280 -0.4115 -0.6436 0.9939
-1.3270 -0.5451 -0.6640 0.9937
-3.4040 -2.6287 -1.9908 0.9812
-2.2654 -3.6450 -1.9865 0.9813
-1.9306 -3.8310 -1.9858 0.9813
-1.2188 -4.1106 -1.9846 0.9813
-0.8473 -4.2021 -1.9842 0.9813
-0.4692 -4.2604 -1.9840 0.9813
0.2950 -4.2758 -1.9839 0.9813
1.0501 -4.1565 -1.9844 0.9813
1.4168 -4.0473 -1.9849 0.9813
2.1146 -3.7337 -1.9862 0.9813
2.4401 -3.5318 -1.9871 0.9813
2.2471 -2.2573 -1.4743 0.9861
2.6153 -2.1956 -1.5806 0.9851
3.7368 -2.1385 -1.9929 0.9812
4.0631 -1.4429 -1.9958 0.9812
4.1788 -1.0757 -1.9974 0.9812
4.3050 0.4545 -2.0038 0.9811
4.2507 0.8372 -2.0054 0.9811
4.1624 1.2138 -2.0070 0.9811
4.0407 1.5813 -2.0085 0.9811
3.7010 2.2772 -2.0114 0.9810
3.4855 2.5998 -2.0128 0.9810
2.9719 3.1814 -2.0152 0.9810
2.0268 3.8599 -2.0180 0.9810
0.9338 4.2622 -2.0197 0.9810
0.5501 4.3291 -2.0200 0.9809
-0.6153 4.3202 -2.0199 0.9809
-0.9979 4.2475 -2.0196 0.9810
-1.3723 4.1407 -2.0192 0.9810
-1.7355 4.0007 -2.0186 0.9810
-2.0846 3.8286 -2.0179 0.9810
-2.7290 3.3944 -2.0160 0.9810
-3.0191 3.1359 -2.0150 0.9810
-3.2848 2.8525 -2.0138 0.9810
-3.7343 2.2208 -2.0111 0.9810
-3.9146 1.8776 -2.0097 0.9810
-1.3323 0.4984 -0.6584 0.9937
4.0407 0.6089 -2.0044 0.9820
3.7437 1.6602 -2.0088 0.9819
3.3938 2.3019 -2.0115 0.9819
3.1770 2.5969 -2.0128 0.9819
2.6681 3.1233 -2.0150 0.9819
1.7486 3.7227 -2.0175 0.9818
1.4101 3.8649 -2.0181 0.9818
1.0601 3.9761 -2.0185 0.9818
-0.3969 4.0969 -2.0190 0.9818
-0.7605 4.0447 -2.0188 0.9818
-1.4662 3.8437 -2.0179 0.9818
-2.4285 3.3149 -2.0157 0.9819
-2.9756 2.8280 -2.0137 0.9819
-3.4265 2.2518 -2.0112 0.9819
-1.1157 0.5981 -0.6210 0.9944
-1.1463 0.4885 -0.6112 0.9945
-1.1583 0.3756 -0.5973 0.9946
-1.1664 0.2661 -0.5868 0.9947
-1.1964 0.0547 -0.5875 0.9947
-1.1964 -0.0522 -0.5874 0.9947
-1.1884 -0.1588 -0.5881 0.9947
-1.1584 -0.3729 -0.5969 0.9946
-3.1855 -2.5163 -1.9913 0.9821
-2.4022 -3.2645 -1.9881 0.9821
-2.1007 -3.4642 -1.9873 0.9821
-1.7828 -3.6364 -1.9866 0.9821
-0.7563 -3.9757 -1.9852 0.9821
-0.3988 -4.0269 -1.9850 0.9821
0.3228 -4.0337 -1.9849 0.9821
0.6813 -3.9892 -1.9851 0.9821
1.0344 -3.9132 -1.9854 0.9821
1.3795 -3.8063 -1.9859 0.9821
2.3401 -3.3089 -1.9880 0.9821
2.6271 -3.0885 -1.9889 0.9821
2.3228 -2.2826 -1.5974 0.9856
3.7143 -1.6567 -1.9949 0.9820
3.8499 -1.3198 -1.9964 0.9820
4.0291 -0.6159 -1.9993 0.9820
4.0710 -0.2544 -2.0008 0.9820
4.0806 0.1097 -2.0023 0.9820
4.0577 0.4734 -2.0039 0.9820
4.0023 0.8340 -2.0054 0.9820
3.7961 1.5338 -2.0083 0.9819
3.6467 1.8675 -2.0097 0.9819
3.2613 2.4887 -2.0123 0.9819
3.0281 2.7712 -2.0135 0.9819
2.7705 3.0318 -2.0146 0.9819
2.4903 3.2684 -2.0156 0.9819
2.1900 3.4789 -2.0165 0.9819
1.5383 3.8152 -2.0179 0.9818
0.8365 4.0296 -2.0187 0.9818
-0.9851 3.9955 -2.0186 0.9818
-2.3168 3.3948 -2.0160 0.9819
-2.8801 2.9265 -2.0141 0.9819
-3.1278 2.6565 -2.0129 0.9819
-3.3502 2.3656 -2.0117 0.9819
-1.1379 0.5305 -0.6158 0.9944
-1.1556 0.4179 -0.6028 0.9945
-1.1815 0.2009 -0.5879 0.9947
-1.1948 0.0947 -0.5879 0.9947
-1.1959 -0.0121 -0.5867 0.9947
-1.1930 -0.1190 -0.5881 0.9947
-1.1766 -0.2247 -0.5876 0.9947
-1.1589 -0.3308 -0.5912 0.9946
-1.1317 -0.5558 -0.6184 0.9944
-2.7856 -2.9479 -1.9895 0.9821
-2.2156 -3.3926 -1.9876 0.9821
-1.9036 -3.5753 -1.9868 0.9821
-1.5767 -3.7295 -1.9862 0.9821
-1.2375 -3.8543 -1.9857 0.9821
-0.8888 -3.9485 -1.9853 0.9821
-0.1733 -4.0428 -1.9849 0.9821
0.1879 -4.0421 -1.9849 0.9821
0.5476 -4.0096 -1.9850 0.9821
0.9030 -3.9453 -1.9853 0.9821
1.5902 -3.7239 -1.9862 0.9821
2.5918 -2.2769 -1.6923 0.9847
3.6559 -1.7794 -1.9944 0.9820
3.9194 -1.1033 -1.9973 0.9820
4.0051 -0.7500 -1.9987 0.9820
4.0700 0.3375 -2.0033 0.9820
4.0268 0.6996 -2.0048 0.9820
3.5383 2.0690 -2.0106 0.9819
3.3418 2.3778 -2.0118 0.9819
3.1184 2.6679 -2.0131 0.9819
2.5977 3.1828 -2.0152 0.9819
0.6103 4.0703 -2.0189 0.9818
-0.4887 4.0868 -2.0190 0.9818
-0.8510 4.0265 -2.0187 0.9818
-1.2064 3.9338 -2.0183 0.9818
-1.5520 3.8096 -2.0178 0.9818
-1.8849 3.6548 -2.0171 0.9818
-2.5020 3.2592 -2.0155 0.9819
-2.7812 3.0217 -2.0145 0.9819
-1.1507 0.4601 -0.6079 0.9945
-1.1730 0.2400 -0.5873 0.9947
-1.1914 0.1347 -0.5881 0.9947
-1.1963 0.0278 -0.5870 0.9947
-1.1956 -0.0791 -0.5878 0.9947
-1.1843 -0.1854 -0.5880 0.9947
-1.1569 -0.4013 -0.6006 0.9946
-3.5419 -1.9925 -1.9934 0.9821
-3.3480 -2.2989 -1.9922 0.9821
-2.8831 -2.8537 -1.9898 0.9821
-2.6158 -3.0978 -1.9888 0.9821
-2.3281 -3.3172 -1.9879 0.9821
-2.0222 -3.5101 -1.9871 0.9821
-1.3658 -3.8111 -1.9858 0.9821
-0.6669 -3.9916 -1.9851 0.9821
1.1220 -3.8892 -1.9855 0.9821
1.7960 -3.6301 -1.9866 0.9821
2.1133 -3.4568 -1.9874 0.9821
2.4489 -2.3008 -1.6482 0.9851
3.7512 -1.5732 -1.9953 0.9820
3.8793 -1.2333 -1.9967 0.9820
3.9767 -0.8832 -1.9982 0.9820
4.0765 -0.1630 -2.0012 0.9820
3.9833 0.9237 -2.0058 0.9819
3.6045 1.9492 -2.0101 0.9819
2.4166 3.3238 -2.0158 0.9819
0.7459 4.0475 -2.0188 0.9818
-1.0744 3.9722 -2.0185 0.9818
-1.4240 3.8597 -2.0180 0.9818
-2.6792 3.1135 -2.0149 0.9819
-3.1861 2.5853 -2.0126 0.9819
-3.4019 2.2895 -2.0114 0.9819
-1.1094 0.6105 -0.6211 0.9944
-1.1438 0.5023 -0.6128 0.9944
-1.1704 -0.2509 -0.5871 0.9947
-1.1588 -0.3590 -0.5951 0.9946
-1.1230 -0.5832 -0.6207 0.9944
-3.2132 -2.4813 -1.9914 0.9821
-2.9774 -2.7563 -1.9903 0.9821
-2.7184 -3.0093 -1.9892 0.9821
-2.1387 -3.4411 -1.9874 0.9821
-1.8227 -3.6168 -1.9867 0.9821
-1.4925 -3.7637 -1.9860 0.9821
-0.4429 -4.0223 -1.9850 0.9821
-0.0825 -4.0456 -1.9849 0.9821
0.2785 -4.0369 -1.9849 0.9821
0.9914 -3.9242 -1.9854 0.9821
2.3036 -3.3342 -1.9879 0.9821
2.2786 -2.2889 -1.5843 0.9857
3.0463 -2.1250 -1.8219 0.9836
3.5271 -2.0186 -1.9934 0.9821
3.6955 -1.6972 -1.9948 0.9820
4.0217 -0.6601 -1.9991 0.9820
4.0676 -0.2991 -2.0006 0.9820
4.0622 0.4288 -2.0037 0.9820
3.9273 1.1452 -2.0067 0.9819
3.4915 2.1483 -2.0109 0.9819
3.2881 2.4526 -2.0122 0.9819
2.8034 3.0010 -2.0145 0.9819
2.2279 3.4545 -2.0164 0.9819
1.9117 3.6408 -2.0171 0.9818
1.5800 3.7980 -2.0178 0.9818
1.2354 3.9248 -2.0183 0.9818
0.8807 4.0201 -2.0187 0.9818
0.5188 4.0831 -2.0190 0.9818
0.1527 4.1134 -2.0191 0.9818
-0.5803 4.0747 -2.0189 0.9818
-1.6370 3.7735 -2.0176 0.9818
-1.9662 3.6113 -2.0170 0.9818
-2.2795 3.4202 -2.0162 0.9819
-3.0987 2.6909 -2.0131 0.9819
-3.3242 2.4024 -2.0119 0.9819
-3.5230 2.0951 -2.0106 0.9819
-1.1542 0.4317 -0.6045 0.9945
-1.1789 0.2138 -0.5877 0.9947
3.8204 0.5757 -2.0043 0.9827
3.5391 1.5695 -2.0085 0.9827
3.3873 1.8800 -2.0098 0.9827
3.0031 2.4547 -2.0122 0.9827
2.7737 2.7142 -2.0133 0.9827
1.9591 3.3559 -2.0159 0.9826
1.6526 3.5184 -2.0166 0.9826
1.0019 3.7579 -2.0176 0.9826
0.6630 3.8328 -2.0179 0.9826
-0.0284 3.8901 -2.0182 0.9826
-0.7188 3.8226 -2.0179 0.9826
-1.0566 3.7427 -2.0175 0.9826
-1.3857 3.6328 -2.0171 0.9826
-1.7036 3.4937 -2.0165 0.9826
-2.0077 3.3267 -2.0158 0.9826
-1.0493 0.4471 -0.5917 0.9949
-1.0785 0.2460 -0.5739 0.9950
-1.0987 0.1492 -0.5752 0.9950
-1.1065 -0.0482 -0.5746 0.9950
-1.0990 -0.1469 -0.5752 0.9950
-1.0624 -0.3420 -0.5790 0.9950
-1.0497 -0.4447 -0.5914 0.9949
-1.0170 -0.5424 -0.5979 0.9948
-3.2150 -2.1030 -1.9930 0.9828
-3.0129 -2.3799 -1.9918 0.9828
-2.7872 -2.6376 -1.9908 0.9829
-2.2722 -3.0878 -1.9889 0.9829
-1.9871 -3.2768 -1.9881 0.9829
-1.6864 -3.4398 -1.9874 0.9829
-1.3726 -3.5754 -1.9868 0.9829
-0.3772 -3.8093 -1.9859 0.9829
-0.0361 -3.8277 -1.9858 0.9829
0.6445 -3.7736 -1.9860 0.9829
1.9249 -3.3135 -1.9880 0.9829
2.2135 -3.1299 -1.9887 0.9829
2.4849 -2.9213 -1.9896 0.9829
3.1745 -2.1630 -1.9928 0.9828
3.8099 -0.5824 -1.9994 0.9828
3.8494 -0.2406 -2.0009 0.9828
3.7839 0.7885 -2.0052 0.9827
3.7012 1.1235 -2.0066 0.9827
3.4474 1.7654 -2.0093 0.9827
3.0827 2.3525 -2.0117 0.9827
2.8623 2.6195 -2.0129 0.9827
2.6187 2.8657 -2.0139 0.9827
1.7691 3.4608 -2.0164 0.9826
0.4480 3.8641 -2.0180 0.9826
-1.2637 3.6774 -2.0172 0.9826
-1.5861 3.5491 -2.0167 0.9826
-1.8956 3.3924 -2.0160 0.9826
-2.1897 3.2087 -2.0153 0.9826
-2.4660 2.9993 -2.0144 0.9827
-2.7223 2.7661 -2.0134 0.9827
-2.9565 2.5111 -2.0123 0.9827
-0.9975 0.5785 -0.5982 0.9948
-1.0677 0.2814 -0.5728 0.9950
-1.0638 -0.3036 -0.5739 0.9950
-0.9855 -0.5986 -0.5982 0.9948
-3.0914 -2.2784 -1.9923 0.9828
-2.8743 -2.5435 -1.9911 0.9829
-2.0957 -3.2091 -1.9884 0.9829
-1.4914 -3.5279 -1.9870 0.9829
-0.5043 -3.7947 -1.9859 0.9829
0.1777 -3.8237 -1.9858 0.9829
1.5042 -3.5226 -1.9871 0.9829
2.1074 -3.2016 -1.9884 0.9829
2.6449 -2.7789 -1.9902 0.9829
2.8836 -2.5333 -1.9913 0.9829
3.2916 -1.9831 -1.9936 0.9828
3.4575 -1.6828 -1.9948 0.9828
3.5961 -1.3687 -1.9961 0.9828
3.7064 -1.0433 -1.9975 0.9828
3.7873 -0.7092 -1.9989 0.9828
3.8586 -0.0253 -2.0018 0.9828
3.8482 0.3191 -2.0032 0.9828
3.8072 0.6614 -2.0047 0.9827
3.7357 0.9989 -2.0061 0.9827
3.1589 2.2477 -2.0113 0.9827
2.4553 3.0083 -2.0145 0.9827
2.1782 3.2167 -2.0154 0.9826
0.9174 3.7796 -2.0177 0.9826
0.5768 3.8469 -2.0180 0.9826
0.2315 3.8832 -2.0181 0.9826
-0.4619 3.8624 -2.0180 0.9826
-1.7815 3.4543 -2.0163 0.9826
-2.3648 3.0806 -2.0147 0.9827
-3.0910 2.3412 -2.0116 0.9827
-0.9773 0.6113 -0.5980 0.9948
-1.0271 0.5213 -0.5975 0.9948
-1.0538 0.4214 -0.5888 0.9949
-1.0635 0.3186 -0.5759 0.9950
-1.0952 -0.1715 -0.5751 0.9950
-1.0605 -0.3678 -0.5823 0.9950
-1.0049 -0.5653 -0.5982 0.9948
-3.1665 -2.1743 -1.9927 0.9828
-2.9583 -2.4466 -1.9916 0.9828
-2.2021 -3.1377 -1.9887 0.9829
-1.6087 -3.4765 -1.9872 0.9829
-0.9651 -3.7052 -1.9863 0.9829
-0.2916 -3.8168 -1.9858 0.9829
0.0499 -3.8275 -1.9858 0.9829
0.3910 -3.8080 -1.9859 0.9829
0.7290 -3.7583 -1.9861 0.9829
1.3855 -3.5705 -1.9869 0.9829
1.9989 -3.2698 -1.9882 0.9829
3.7605 -0.8351 -1.9984 0.9828
3.8545 -0.1542 -2.0012 0.9828
3.8557 0.1903 -2.0027 0.9828
3.8261 0.5337 -2.0041 0.9827
3.7660 0.8733 -2.0055 0.9827
3.6756 1.2065 -2.0069 0.9827
3.2316 2.1404 -2.0109 0.9827
2.8032 2.6834 -2.0131 0.9827
2.5540 2.9241 -2.0141 0.9827
1.9957 3.3341 -2.0158 0.9826
1.6911 3.4999 -2.0165 0.9826
1.3727 3.6378 -2.0171 0.9826
1.0431 3.7466 -2.0176 0.9826
0.7050 3.8253 -2.0179 0.9826
0.3611 3.8733 -2.0181 0.9826
0.0143 3.8902 -2.0182 0.9826
-0.6768 3.8304 -2.0179 0.9826
-1.0154 3.7542 -2.0176 0.9826
-2.5324 2.9429 -2.0141 0.9827
-2.7833 2.7040 -2.0131 0.9827
-3.0117 2.4437 -2.0121 0.9827
-3.2157 2.1642 -2.0109 0.9827
-1.0467 0.4597 -0.5931 0.9949
-1.0969 0.1613 -0.5752 0.9950
-1.1066 -0.0361 -0.5744 0.9950
-1.0520 -0.4321 -0.5900 0.9949
-3.0390 -2.3468 -1.9920 0.9828
-2.8161 -2.6070 -1.9909 0.9829
-2.5712 -2.8463 -1.9899 0.9829
-2.0230 -3.2550 -1.9882 0.9829
-1.7241 -3.4212 -1.9875 0.9829
-1.4118 -3.5602 -1.9869 0.9829
-1.0885 -3.6711 -1.9864 0.9829
1.8883 -3.3343 -1.9879 0.9829
2.1789 -3.1538 -1.9886 0.9829
2.4525 -2.9483 -1.9895 0.9829
2.3230 -2.3334 -1.7081 0.9853
2.6190 -2.1987 -1.7740 0.9847
3.0400 -2.1206 -1.9229 0.9834
3.4949 -1.6050 -1.9952 0.9828
3.7295 -0.9601 -1.9979 0.9828
3.8462 -0.2828 -2.0007 0.9828
3.8408 0.4054 -2.0036 0.9827
3.7129 1.0827 -2.0064 0.9827
3.6041 1.4104 -2.0078 0.9827
3.1082 2.3184 -2.0116 0.9827
2.1057 3.2651 -2.0156 0.9826
0.4903 3.8589 -2.0180 0.9826
-0.2029 3.8848 -2.0181 0.9826
-0.8895 3.7863 -2.0177 0.9826
-1.2233 3.6911 -2.0173 0.9826
-2.4331 3.0264 -2.0145 0.9827
-2.6920 2.7960 -2.0135 0.9827
-1.0375 0.4976 -0.5969 0.9948
-1.0575 0.3956 -0.5857 0.9949
3.6184 0.5453 -2.0042 0.9834
3.5577 0.8663 -2.0055 0.9834
3.4686 1.1809 -2.0068 0.9834
3.3516 1.4864 -2.0081 0.9834
3.2077 1.7804 -2.0093 0.9834
2.8437 2.3244 -2.0116 0.9834
2.6265 2.5701 -2.0126 0.9834
2.1301 2.9984 -2.0144 0.9834
1.5647 3.3313 -2.0158 0.9834
0.9486 3.5579 -2.0168 0.9833
0.6277 3.6289 -2.0171 0.9833
-0.0269 3.6831 -2.0173 0.9833
-0.3551 3.6659 -2.0172 0.9833
-1.0003 3.5436 -2.0167 0.9833
-1.9009 3.1499 -2.0150 0.9834
-2.8769 2.2825 -2.0114 0.9834
-0.9656 0.4115 -0.5749 0.9952
-1.0202 0.1386 -0.5639 0.9953
-1.0275 0.0470 -0.5633 0.9953
-1.0205 -0.1364 -0.5639 0.9953
-0.9794 -0.3153 -0.5635 0.9953
-0.9316 -0.4969 -0.5783 0.9952
-2.8545 -2.2548 -1.9924 0.9835
-2.6408 -2.4991 -1.9913 0.9836
-2.1530 -2.9258 -1.9896 0.9836
-1.8828 -3.1049 -1.9888 0.9836
-1.5980 -3.2594 -1.9882 0.9836
-0.6779 -3.5638 -1.9869 0.9836
-0.3574 -3.6097 -1.9867 0.9836
-0.0342 -3.6271 -1.9866 0.9836
0.6107 -3.5758 -1.9869 0.9836
1.5362 -3.2887 -1.9881 0.9836
1.8239 -3.1397 -1.9887 0.9836
2.5930 -2.5482 -1.9912 0.9836
2.8113 -2.3080 -1.9922 0.9835
3.0076 -2.0493 -1.9933 0.9835
3.1802 -1.7740 -1.9944 0.9835
3.3277 -1.4842 -1.9957 0.9835
3.5430 -0.8707 -1.9982 0.9835
3.6336 0.4240 -2.0037 0.9835
3.5838 0.7468 -2.0050 0.9834
3.2647 1.6718 -2.0089 0.9834
3.1044 1.9574 -2.0101 0.9834
2.7104 2.4804 -2.0123 0.9834
2.2288 2.9251 -2.0141 0.9834
1.6750 3.2768 -2.0156 0.9834
1.3765 3.4141 -2.0162 0.9834
1.0669 3.5240 -2.0166 0.9833
0.7485 3.6057 -2.0170 0.9833
0.4241 3.6585 -2.0172 0.9833
-0.2324 3.6758 -2.0172 0.9833
-0.8814 3.5753 -2.0168 0.9833
-1.1965 3.4818 -2.0164 0.9833
-1.5018 3.3603 -2.0159 0.9834
-1.7949 3.2121 -2.0153 0.9834
-2.5778 2.6193 -2.0128 0.9834
-2.7996 2.3778 -2.0118 0.9834
-0.8610 0.6080 -0.5773 0.9952
-0.9914 0.2613 -0.5615 0.9953
-1.0144 0.1725 -0.5636 0.9953
-1.0260 0.0814 -0.5637 0.9953
-1.0273 -0.0104 -0.5627 0.9953
-1.0101 -0.1929 -0.5632 0.9953
-0.9847 -0.2810 -0.5608 0.9953
-0.9027 -0.5483 -0.5785 0.9952
-0.8475 -0.6246 -0.5766 0.9952
-2.7233 -2.4099 -1.9917 0.9836
-2.4964 -2.6418 -1.9907 0.9836
-1.7062 -3.2045 -1.9884 0.9836
-1.4132 -3.3429 -1.9878 0.9836
-1.1093 -3.4548 -1.9873 0.9836
-0.4779 -3.5958 -1.9868 0.9836
-0.1553 -3.6239 -1.9866 0.9836
1.1217 -3.4508 -1.9874 0.9836
1.4253 -3.3379 -1.9879 0.9836
1.7178 -3.1984 -1.9885 0.9836
2.5060 -2.6329 -1.9908 0.9836
3.1184 -1.8788 -1.9940 0.9835
3.2755 -1.5942 -1.9952 0.9835
3.5110 -0.9884 -1.9977 0.9835
3.6449 0.3022 -2.0032 0.9835
3.6058 0.6264 -2.0045 0.9834
2.7912 2.3880 -2.0119 0.9834
0.5461 3.6421 -2.0171 0.9833
0.2192 3.6766 -2.0173 0.9833
-0.1095 3.6815 -2.0173 0.9833
-0.4373 3.6569 -2.0172 0.9833
-0.7615 3.6029 -2.0169 0.9833
-1.3888 3.4090 -2.0161 0.9834
-1.9710 3.1062 -2.0148 0.9834
-2.2392 2.9169 -2.0140 0.9834
-2.4892 2.7044 -2.0132 0.9834
-2.7191 2.4705 -2.0122 0.9834
-0.9409 0.4776 -0.5779 0.9952
-1.0071 0.2061 -0.5630 0.9953
-1.0230 0.1156 -0.5639 0.9953
-1.0268 -0.0679 -0.5636 0.9953
-1.0169 -0.1592 -0.5637 0.9953
-0.9600 -0.4323 -0.5766 0.9952
-0.9206 -0.5179 -0.5785 0.9952
-0.8694 -0.5970 -0.5776 0.9952
-2.5837 -2.5574 -1.9911 0.9836
-2.3443 -2.7763 -1.9902 0.9836
-2.0866 -2.9730 -1.9894 0.9836
-1.5243 -3.2942 -1.9880 0.9836
-1.2242 -3.4161 -1.9875 0.9836
-0.9145 -3.5109 -1.9871 0.9836
-0.2763 -3.6167 -1.9867 0.9836
0.3705 -3.6084 -1.9867 0.9836
1.6097 -3.2537 -1.9882 0.9836
1.8941 -3.0982 -1.9889 0.9836
2.6499 -2.4897 -1.9914 0.9836
3.0532 -1.9815 -1.9936 0.9835
3.3607 -1.4094 -1.9960 0.9835
3.4752 -1.1048 -1.9973 0.9835
3.6210 -0.4707 -1.9999 0.9835
3.6238 0.5055 -2.0040 0.9835
3.4811 1.1426 -2.0067 0.9834
2.6543 2.5409 -2.0125 0.9834
2.1628 2.9746 -2.0143 0.9834
1.2997 3.4443 -2.0163 0.9834
0.9876 3.5472 -2.0167 0.9833
0.6675 3.6217 -2.0170 0.9833
0.3419 3.6671 -2.0172 0.9833
-0.6408 3.6266 -2.0170 0.9833
-1.2742 3.4538 -2.0163 0.9834
-1.8663 3.1707 -2.0151 0.9834
-2.3979 2.7866 -2.0135 0.9834
-0.9631 0.4229 -0.5761 0.9952
-0.9782 0.3291 -0.5653 0.9953
-1.0185 0.1497 -0.5638 0.9953
-1.0272 0.0583 -0.5635 0.9953
-1.0047 -0.2154 -0.5628 0.9953
-0.8899 -0.5682 -0.5783 0.9952
-2.4362 -2.6969 -1.9905 0.9836
-1.3378 -3.3736 -1.9877 0.9836
-0.7170 -3.5562 -1.9869 0.9836
-0.3970 -3.6056 -1.9867 0.9836
0.2497 -3.6187 -1.9867 0.9836
0.5714 -3.5823 -1.9868 0.9836
1.1990 -3.4250 -1.9875 0.9836
1.5000 -3.3053 -1.9880 0.9836
1.7893 -3.1594 -1.9886 0.9836
2.5648 -2.5763 -1.9911 0.9836
2.7857 -2.3386 -1.9921 0.9835
3.1603 -1.8086 -1.9943 0.9835
3.6023 -0.5912 -1.9994 0.9835
3.6432 -0.2679 -2.0008 0.9835
3.6550 0.0581 -2.0021 0.9835
3.5915 0.7073 -2.0048 0.9834
3.4132 1.3357 -2.0075 0.9834
3.2826 1.6358 -2.0087 0.9834
3.1255 1.9231 -2.0099 0.9834
2.9433 2.1954 -2.0111 0.9834
2.7372 2.4503 -2.0121 0.9834
1.9938 3.0915 -2.0148 0.9834
1.4139 3.3986 -2.0161 0.9834
0.7881 3.5972 -2.0169 0.9833
0.4642 3.6536 -2.0172 0.9833
0.1366 3.6806 -2.0173 0.9833
-0.1921 3.6781 -2.0173 0.9833
-0.5192 3.6461 -2.0171 0.9833
-1.1582 3.4948 -2.0165 0.9833
-1.7596 3.2317 -2.0154 0.9834
-2.3038 2.8656 -2.0138 0.9834
-2.7735 2.4085 -2.0119 0.9834
-0.9505 0.4559 -0.5774 0.9952
-0.9739 0.3643 -0.5695 0.9953
-1.0122 0.1835 -0.5634 0.9953
2.0280 0.3056 -1.1841 0.9906
1.9686 0.4794 -1.1698 0.9907
1.8966 0.6457 -1.1567 0.9908
1.8548 0.8225 -1.1714 0.9907
2.6970 2.2045 -2.0111 0.9840
2.0201 2.8435 -2.0138 0.9840
1.7591 3.0133 -2.0145 0.9840
1.1966 3.2797 -2.0156 0.9840
0.8996 3.3739 -2.0160 0.9840
0.5952 3.4412 -2.0163 0.9840
-0.0255 3.4926 -2.0165 0.9840
-1.8027 2.9871 -2.0143 0.9840
-2.0611 2.8135 -2.0136 0.9840
-2.3028 2.6174 -2.0128 0.9840
-2.5259 2.4006 -2.0119 0.9840
-0.8122 0.5337 -0.5611 0.9955
-0.9065 0.2939 -0.5502 0.9956
-0.9328 0.2128 -0.5524 0.9956
-0.9574 0.0438 -0.5533 0.9956
-0.9333 -0.2108 -0.5524 0.9956
-0.9067 -0.2919 -0.5500 0.9956
-0.8134 -0.5320 -0.5611 0.9955
-0.7720 -0.6098 -0.5680 0.9955
-2.2834 -2.5842 -1.9910 0.9842
-2.0431 -2.7764 -1.9902 0.9842
-1.2343 -3.2151 -1.9883 0.9842
-0.6434 -3.3821 -1.9877 0.9842
-0.3392 -3.4257 -1.9875 0.9842
0.2746 -3.4314 -1.9875 0.9842
0.5795 -3.3935 -1.9876 0.9842
1.1735 -3.2377 -1.9883 0.9842
1.7308 -2.9794 -1.9894 0.9842
1.9903 -2.8142 -1.9901 0.9842
2.2342 -2.6266 -1.9909 0.9842
2.6676 -2.1900 -1.9927 0.9842
2.8538 -1.9445 -1.9937 0.9842
3.0174 -1.6832 -1.9948 0.9842
1.9673 -0.4835 -1.1696 0.9907
2.0273 -0.3099 -1.1840 0.9906
2.0298 0.0545 -1.1723 0.9907
1.8640 0.7531 -1.1607 0.9908
3.0965 1.5857 -2.0085 0.9841
2.5705 2.3524 -2.0117 0.9840
2.3516 2.5734 -2.0127 0.9840
1.3054 3.2376 -2.0154 0.9840
0.4022 3.4693 -2.0164 0.9840
0.0913 3.4915 -2.0165 0.9840
-0.2204 3.4856 -2.0165 0.9840
-0.5303 3.4518 -2.0163 0.9840
-0.8359 3.3904 -2.0160 0.9840
-2.2144 2.6933 -2.0131 0.9840
-2.4447 2.4841 -2.0122 0.9840
-2.6552 2.2551 -2.0113 0.9840
-0.8413 0.4879 -0.5615 0.9955
-0.9026 0.3264 -0.5541 0.9956
-0.9560 0.0758 -0.5537 0.9956
-0.9545 -0.0952 -0.5538 0.9956
-0.9410 -0.1797 -0.5531 0.9956
-0.9175 -0.2619 -0.5509 0.9956
-0.8995 -0.3461 -0.5564 0.9956
-0.8717 -0.4282 -0.5607 0.9955
-2.5841 -2.2867 -1.9922 0.9842
-2.3688 -2.5069 -1.9913 0.9842
-1.8844 -2.8855 -1.9897 0.9842
-1.6191 -3.0410 -1.9891 0.9842
-1.3411 -3.1724 -1.9885 0.9842
-1.0527 -3.2786 -1.9881 0.9842
-0.7561 -3.3588 -1.9878 0.9842
-0.1474 -3.4392 -1.9874 0.9842
0.1598 -3.4386 -1.9874 0.9842
0.7682 -3.3561 -1.9878 0.9842
1.0645 -3.2749 -1.9881 0.9842
1.3526 -3.1676 -1.9886 0.9842
1.6301 -3.0352 -1.9891 0.9842
1.8949 -2.8788 -1.9898 0.9842
2.1448 -2.6994 -1.9905 0.9842
2.7866 -2.0383 -1.9933 0.9842
2.9589 -1.7827 -1.9944 0.9842
1.9440 -0.5472 -1.1660 0.9907
2.0108 -0.3765 -1.1811 0.9906
2.0226 -0.0133 -1.1678 0.9907
2.0192 0.3508 -1.1832 0.9906
1.8734 0.6851 -1.1517 0.9908
2.8371 2.0187 -2.0103 0.9840
1.9559 2.8884 -2.0140 0.9840
1.6912 3.0523 -2.0147 0.9840
1.4127 3.1918 -2.0152 0.9840
1.1227 3.3059 -2.0157 0.9840
0.8236 3.3934 -2.0161 0.9840
-0.1038 3.4911 -2.0165 0.9840
-1.0237 3.3381 -2.0158 0.9840
-1.3170 3.2328 -2.0154 0.9840
-1.5996 3.1016 -2.0148 0.9840
-2.3607 2.5648 -2.0126 0.9840
-2.5788 2.3430 -2.0116 0.9840
-0.8665 0.4398 -0.5610 0.9955
-0.9532 0.1077 -0.5538 0.9956
-0.9472 -0.1483 -0.5535 0.9956
-0.9043 -0.3137 -0.5526 0.9956
-0.8841 -0.3982 -0.5598 0.9955
-0.8476 -0.4768 -0.5615 0.9955
-0.8030 -0.5514 -0.5624 0.9955
-0.7606 -0.6291 -0.5699 0.9955
-2.4517 -2.4267 -1.9916 0.9842
-1.9800 -2.8213 -1.9900 0.9842
-1.7200 -2.9856 -1.9893 0.9842
-1.4465 -3.1261 -1.9887 0.9842
-1.1618 -3.2419 -1.9882 0.9842
-0.2623 -3.4324 -1.9874 0.9842
0.0448 -3.4420 -1.9874 0.9842
0.3516 -3.4244 -1.9875 0.9842
0.9545 -3.3084 -1.9880 0.9842
