ply
format ascii 1.0
element vertex 1590
property float32 x
property float32 y
property float32 z
property float32 I
end_header
-4.2754 -10.7261 -1.9022 0.9543
-0.2520 -11.2246 -1.8496 0.9555
1.7434 -11.0864 -1.8488 0.9555
2.7236 -10.8847 -1.8484 0.9555
6.3494 -9.2405 -1.8470 0.9556
7.1462 -8.6365 -1.8467 0.9556
9.9266 -6.9661 -1.9978 0.9520
10.5066 -6.0533 -1.9976 0.9520
11.4122 -4.0918 -1.9972 0.9520
11.9560 -2.0012 -1.9970 0.9520
12.0864 -0.9280 -1.9970 0.9520
12.1210 0.1525 -1.9970 0.9520
12.0594 1.2318 -1.9970 0.9520
10.8106 4.1860 -1.9098 0.9541
10.7509 5.3084 -1.9752 0.9526
10.3515 6.3161 -1.9977 0.9520
9.7488 7.2141 -1.9979 0.9520
7.4973 9.5397 -1.9988 0.9520
6.6187 10.1715 -1.9992 0.9520
4.7102 11.1889 -1.9999 0.9520
3.6953 11.5664 -2.0003 0.9520
2.6507 11.8521 -2.0007 0.9520
-1.6580 12.0416 -2.0024 0.9519
-2.7248 11.8485 -2.0029 0.9519
-3.7704 11.5610 -2.0033 0.9519
-4.7863 11.1813 -2.0037 0.9519
-6.6973 10.1581 -2.0044 0.9519
-7.5770 9.5227 -2.0048 0.9519
-8.3966 8.8112 -2.0051 0.9519
-9.8299 7.1830 -2.0056 0.9518
-10.9511 5.3255 -2.0061 0.9518
-11.3829 4.3290 -2.0062 0.9518
-11.7241 3.2979 -2.0064 0.9518
-12.1799 0.0800 -2.0065 0.9518
-12.1384 -1.0055 -2.0065 0.9518
-11.4387 -4.1791 -2.0062 0.9518
-11.0200 -5.1812 -2.0061 0.9518
-10.5135 -6.1418 -2.0059 0.9518
-9.9233 -7.0532 -2.0056 0.9518
-9.2542 -7.9082 -2.0054 0.9518
-8.5116 -8.7000 -2.0051 0.9519
-7.7013 -9.4222 -2.0047 0.9519
-5.9047 -10.6357 -2.0040 0.9519
-4.9287 -11.1083 -2.0020 0.9519
-3.6236 -10.6351 -1.8509 0.9555
-0.6817 -11.2077 -1.8498 0.9555
0.3195 -11.2215 -1.8494 0.9555
2.3051 -10.9820 -1.8486 0.9555
4.2158 -10.3943 -1.8478 0.9555
5.9914 -9.4775 -1.8471 0.9556
6.8108 -8.9045 -1.8468 0.9556
7.5758 -8.2609 -1.8465 0.9556
8.2805 -7.5520 -1.8462 0.9556
10.2676 -6.4515 -1.9977 0.9520
10.8004 -5.5105 -1.9975 0.9520
11.2475 -4.5259 -1.9973 0.9520
11.6052 -3.5056 -1.9971 0.9520
12.0421 -1.3901 -1.9970 0.9520
12.1179 -0.3117 -1.9970 0.9520
11.9812 1.8440 -1.9970 0.9520
11.7698 2.9043 -1.9971 0.9520
10.5853 5.9148 -1.9976 0.9520
10.0173 6.8352 -1.9978 0.9520
8.6476 8.5069 -1.9984 0.9520
7.0028 9.9099 -1.9990 0.9520
4.1351 11.4154 -2.0001 0.9520
3.1022 11.7409 -2.0006 0.9520
0.9696 12.1102 -2.0014 0.9519
-1.1956 12.0951 -2.0023 0.9519
-2.2689 11.9431 -2.0027 0.9519
-4.3543 11.3554 -2.0035 0.9519
-7.2063 9.8051 -2.0046 0.9519
-8.0526 9.1256 -2.0050 0.9519
-8.8349 8.3731 -2.0053 0.9519
-9.5471 7.5537 -2.0055 0.9518
-10.1834 6.6739 -2.0058 0.9518
-10.7387 5.7407 -2.0060 0.9518
-11.2084 4.7615 -2.0062 0.9518
-11.8771 2.6970 -2.0064 0.9518
-11.8784 -2.6908 -2.0064 0.9518
-11.5907 -3.7382 -2.0063 0.9518
-10.7414 -5.7350 -2.0060 0.9518
-9.5508 -7.5486 -2.0055 0.9518
-8.8390 -8.3683 -2.0052 0.9519
-7.2112 -9.8010 -2.0045 0.9519
-6.3081 -10.4027 -2.0042 0.9519
-5.3552 -10.9212 -2.0038 0.9519
-4.0285 -10.4895 -1.8511 0.9555
-3.0773 -10.8045 -1.8507 0.9555
0.8901 -11.1893 -1.8491 0.9555
1.8830 -11.0632 -1.8488 0.9555
2.1903 -6.0565 -1.0610 0.9742
4.7388 -10.1652 -1.8476 0.9556
6.4654 -9.1594 -1.8470 0.9556
7.2545 -8.5454 -1.8466 0.9556
8.6534 -7.1202 -1.8461 0.9556
10.0136 -6.8402 -1.9978 0.9520
11.4628 -3.9475 -1.9972 0.9520
10.7527 4.3203 -1.9090 0.9541
10.2712 6.4463 -1.9977 0.9520
8.9664 8.1690 -1.9982 0.9520
8.2041 8.9367 -1.9985 0.9520
7.3765 9.6337 -1.9989 0.9520
4.5688 11.2478 -2.0000 0.9520
3.5492 11.6124 -2.0004 0.9520
2.5010 11.8849 -2.0008 0.9520
1.4325 12.0631 -2.0012 0.9519
-2.8741 11.8135 -2.0029 0.9519
-3.9160 11.5128 -2.0033 0.9519
-8.5073 8.7047 -2.0051 0.9519
-9.2504 7.9133 -2.0054 0.9518
-9.9199 7.0586 -2.0057 0.9518
-10.5105 6.1474 -2.0059 0.9518
-11.0175 5.1870 -2.0061 0.9518
-11.7649 3.1497 -2.0064 0.9518
-11.9992 2.0891 -2.0065 0.9518
-12.1247 -1.1585 -2.0065 0.9518
-11.9729 -2.2341 -2.0065 0.9518
-11.7257 -3.2918 -2.0064 0.9518
-11.3850 -4.3231 -2.0062 0.9518
-10.4350 -6.2739 -2.0058 0.9518
-9.1535 -8.0242 -2.0053 0.9519
-5.7699 -10.7091 -2.0040 0.9519
-4.7819 -11.1550 -1.9994 0.9520
-3.4891 -10.6797 -1.8509 0.9555
-2.5232 -10.9458 -1.8505 0.9555
-1.5376 -11.1247 -1.8501 0.9555
-0.5402 -11.2151 -1.8497 0.9555
0.4611 -11.2163 -1.8493 0.9555
1.4582 -11.1282 -1.8489 0.9555
-3.2931 -9.2798 -1.8508 0.9607
-1.5932 -9.7134 -1.8501 0.9607
1.0317 -9.7834 -1.8491 0.9608
3.5802 -9.1573 -1.8481 0.9608
5.1469 -8.3737 -1.8475 0.9608
8.3691 -6.5332 -1.9956 0.9577
9.8099 -4.0920 -1.9979 0.9577
10.1348 -3.2015 -1.9977 0.9577
10.3792 -2.2857 -1.9976 0.9577
10.6197 -0.4073 -1.9975 0.9577
10.5236 1.4840 -1.9976 0.9577
10.3499 2.4158 -1.9977 0.9577
9.7580 4.2148 -1.9979 0.9577
8.8566 5.8808 -1.9983 0.9577
6.9887 8.0166 -1.9990 0.9576
5.4566 9.1325 -1.9996 0.9576
0.9837 10.6024 -2.0014 0.9576
-0.9140 10.6126 -2.0021 0.9576
-1.8562 10.4909 -2.0025 0.9576
-2.7840 10.2857 -2.0029 0.9576
-5.4078 9.1880 -2.0039 0.9575
-6.9547 8.0848 -2.0045 0.9575
-7.6484 7.4340 -2.0048 0.9575
-9.7675 4.2957 -2.0056 0.9575
-10.3760 2.4942 -2.0058 0.9575
-10.6545 0.6131 -2.0059 0.9575
-10.6668 -0.3386 -2.0059 0.9575
-10.4368 -2.2262 -2.0059 0.9575
-10.1965 -3.1471 -2.0058 0.9575
-9.8749 -4.0428 -2.0056 0.9575
-9.4747 -4.9061 -2.0055 0.9575
-8.9991 -5.7302 -2.0053 0.9575
-5.6426 -9.0458 -2.0039 0.9575
-3.9353 -9.8728 -1.9977 0.9577
-2.8162 -9.4344 -1.8506 0.9607
-1.9641 -9.6460 -1.8503 0.9607
-0.2209 -9.8378 -1.8496 0.9607
1.5280 -9.7172 -1.8489 0.9608
2.3873 -9.5407 -1.8486 0.9608
2.0924 -6.0222 -1.1983 0.9744
5.5659 -8.1002 -1.8473 0.9608
6.2646 -7.5710 -1.8470 0.9608
7.6860 -6.4885 -1.8906 0.9599
8.7024 -6.1070 -1.9983 0.9577
9.6463 -4.4647 -1.9979 0.9577
10.2843 -2.6815 -1.9977 0.9577
10.5963 -0.8136 -1.9976 0.9577
10.6266 0.1337 -1.9975 0.9577
10.2138 2.9395 -1.9977 0.9577
9.9119 3.8380 -1.9978 0.9577
9.5313 4.7062 -1.9980 0.9577
7.2901 7.7427 -1.9989 0.9576
5.8019 8.9163 -1.9995 0.9576
4.1287 9.8077 -2.0001 0.9576
3.2391 10.1383 -2.0005 0.9576
1.3888 10.5561 -2.0012 0.9576
-0.5069 10.6390 -2.0020 0.9576
-1.4531 10.5535 -2.0024 0.9576
-3.3042 10.1317 -2.0031 0.9576
-5.8689 8.9017 -2.0041 0.9575
-8.0174 7.0356 -2.0049 0.9575
-9.5955 4.6663 -2.0055 0.9575
-10.4897 1.9630 -2.0059 0.9575
-10.5146 -1.8250 -2.0059 0.9575
-10.3097 -2.7544 -2.0058 0.9575
-9.2122 -5.3816 -2.0054 0.9575
-7.4585 -7.6236 -2.0047 0.9575
-6.7486 -8.2566 -2.0044 0.9575
-5.1745 -9.3204 -2.0037 0.9575
-4.3228 -9.7427 -2.0034 0.9575
-3.1756 -9.3204 -1.8508 0.9607
-2.3322 -9.5645 -1.8504 0.9607
1.1550 -9.7694 -1.8490 0.9608
2.0204 -9.6258 -1.8487 0.9608
3.6954 -9.1112 -1.8480 0.9608
5.9705 -7.8058 -1.8472 0.9608
7.2590 -6.6204 -1.8466 0.9608
9.0014 -5.6559 -1.9982 0.9577
9.4686 -4.8309 -1.9980 0.9577
10.4072 -2.1546 -1.9976 0.9577
10.5575 -1.2187 -1.9976 0.9577
10.6240 -0.2733 -1.9975 0.9577
10.5041 1.6167 -1.9976 0.9577
10.3187 2.5462 -1.9977 0.9577
9.7042 4.3377 -1.9979 0.9577
9.2799 5.1854 -1.9981 0.9577
8.2140 6.7516 -1.9985 0.9576
7.5808 7.4575 -1.9988 0.9576
3.6246 10.0061 -2.0003 0.9576
2.7192 10.2911 -2.0007 0.9576
1.7918 10.4943 -2.0011 0.9576
-0.0992 10.6497 -2.0018 0.9576
-1.0478 10.6005 -2.0022 0.9576
-3.8160 9.9514 -2.0033 0.9575
-7.0563 7.9966 -2.0046 0.9575
-8.3657 6.6189 -2.0051 0.9575
-9.4095 5.0301 -2.0055 0.9575
-10.6616 -0.4731 -2.0059 0.9575
-10.5769 -1.4211 -2.0059 0.9575
-7.7453 -7.3329 -2.0048 0.9575
-7.0603 -7.9927 -2.0045 0.9575
-6.3192 -8.5887 -2.0042 0.9575
-4.6930 -9.5707 -2.0036 0.9575
-3.7883 -9.8641 -1.9861 0.9579
-1.8422 -9.6698 -1.8502 0.9607
-0.9732 -9.7936 -1.8499 0.9607
0.7801 -9.8072 -1.8492 0.9607
1.6505 -9.6969 -1.8489 0.9608
2.5074 -9.5096 -1.8485 0.9608
4.9304 -8.5035 -1.8476 0.9608
5.6676 -8.0292 -1.8473 0.9608
8.1804 -6.7310 -1.9912 0.9578
10.0494 -3.4607 -1.9978 0.9577
10.3172 -2.5515 -1.9977 0.9577
10.5032 -1.6221 -1.9976 0.9577
10.6057 -0.6798 -1.9976 0.9577
10.6241 0.2678 -1.9975 0.9577
10.4084 2.1492 -1.9976 0.9577
9.8628 3.9628 -1.9979 0.9577
9.0045 5.6513 -1.9982 0.9577
7.8603 7.1613 -1.9987 0.9576
7.1920 7.8342 -1.9989 0.9576
6.4663 8.4450 -1.9992 0.9576
4.0047 9.8593 -2.0002 0.9576
3.1110 10.1786 -2.0005 0.9576
2.1921 10.4172 -2.0009 0.9576
1.2555 10.5731 -2.0013 0.9576
0.3086 10.6449 -2.0017 0.9576
-1.5861 10.5346 -2.0024 0.9576
-4.3179 9.7453 -2.0035 0.9575
-5.1698 9.3234 -2.0038 0.9575
-5.9809 8.8271 -2.0041 0.9575
-6.7445 8.2604 -2.0044 0.9575
-9.2096 5.3865 -2.0054 0.9575
-10.6720 -0.0646 -2.0060 0.9575
-10.4907 -1.9575 -2.0059 0.9575
-10.2741 -2.8843 -2.0058 0.9575
-9.9757 -3.7879 -2.0057 0.9575
-9.5978 -4.6613 -2.0055 0.9575
-8.0209 -7.0313 -2.0049 0.9575
-7.3616 -7.7170 -2.0046 0.9575
-6.6438 -8.3409 -2.0043 0.9575
-5.8733 -8.8983 -2.0040 0.9575
-5.0564 -9.3847 -2.0037 0.9575
-4.1972 -9.7911 -2.0023 0.9576
-3.0577 -9.3594 -1.8507 0.9607
-2.2113 -9.5929 -1.8504 0.9607
1.2781 -9.7538 -1.8490 0.9608
-3.1107 -8.7658 -1.9661 0.9627
-0.6414 -8.7273 -1.8498 0.9649
0.1387 -8.7483 -1.8495 0.9649
3.1839 -8.1435 -1.8483 0.9649
3.8961 -7.8262 -1.8480 0.9649
6.3812 -5.9690 -1.8470 0.9649
7.4537 -5.8186 -1.9988 0.9621
7.9417 -5.1309 -1.9986 0.9621
8.7249 -3.6394 -1.9983 0.9621
9.4453 -0.3622 -1.9980 0.9621
9.4400 0.4807 -1.9980 0.9621
9.3598 1.3199 -1.9981 0.9621
9.2053 2.1486 -1.9981 0.9621
8.9777 2.9603 -1.9982 0.9621
8.3109 4.5073 -1.9985 0.9621
7.8769 5.2303 -1.9986 0.9621
7.3803 5.9119 -1.9988 0.9621
6.8250 6.5466 -1.9991 0.9621
6.2154 7.1295 -1.9993 0.9621
5.5562 7.6559 -1.9996 0.9621
4.8527 8.1217 -1.9999 0.9621
4.1104 8.5230 -2.0001 0.9621
3.3352 8.8566 -2.0005 0.9620
2.5332 9.1200 -2.0008 0.9620
1.7109 9.3109 -2.0011 0.9620
0.8747 9.4279 -2.0014 0.9620
0.0313 9.4699 -2.0018 0.9620
-0.8127 9.4366 -2.0021 0.9620
-2.4754 9.1456 -2.0028 0.9620
-4.0606 8.5637 -2.0034 0.9620
-5.5175 7.7093 -2.0039 0.9620
-6.7999 6.6093 -2.0044 0.9620
-7.3625 5.9778 -2.0047 0.9620
-7.8666 5.2986 -2.0049 0.9620
-8.6835 3.8189 -2.0052 0.9620
-9.3855 1.3868 -2.0054 0.9620
-9.4828 -0.3010 -2.0055 0.9620
-8.0005 -5.0943 -2.0049 0.9620
-7.5140 -5.7863 -2.0047 0.9620
-5.7143 -7.5647 -2.0040 0.9620
-5.0169 -8.0426 -2.0037 0.9620
-4.2798 -8.4564 -2.0034 0.9620
-3.5045 -8.7920 -2.0006 0.9620
-0.9752 -8.6970 -1.8499 0.9649
0.5836 -8.7291 -1.8493 0.9649
1.3588 -8.6410 -1.8490 0.9649
2.0885 -6.0111 -1.3451 0.9743
3.5939 -7.9702 -1.8481 0.9649
6.1483 -6.2093 -1.8471 0.9649
8.1921 -4.7198 -1.9985 0.9621
8.5794 -3.9709 -1.9983 0.9621
9.4245 -0.7236 -1.9980 0.9621
9.2807 1.7946 -1.9981 0.9621
9.0842 2.6144 -1.9982 0.9621
8.8157 3.4135 -1.9983 0.9621
8.0711 4.9247 -1.9986 0.9621
7.0703 6.2802 -1.9990 0.9621
5.8449 7.4372 -1.9995 0.9621
5.1598 7.9294 -1.9997 0.9621
4.4334 8.3588 -2.0000 0.9621
1.2350 9.3868 -2.0013 0.9620
-0.4508 9.4601 -2.0020 0.9620
-1.2920 9.3839 -2.0023 0.9620
-4.4915 8.3466 -2.0035 0.9620
-5.2180 7.9144 -2.0038 0.9620
-5.9032 7.4190 -2.0041 0.9620
-7.6576 5.5957 -2.0048 0.9620
-8.1265 4.8916 -2.0050 0.9620
-9.1325 2.5689 -2.0054 0.9620
-9.4874 0.0623 -2.0055 0.9620
-9.3475 -1.6225 -2.0054 0.9620
-9.1655 -2.4487 -2.0053 0.9620
-8.5844 -4.0361 -2.0051 0.9620
-4.6007 -8.2869 -2.0035 0.9620
-3.8435 -8.6625 -2.0032 0.9620
-0.5313 -8.7345 -1.8497 0.9649
1.7967 -8.5598 -1.8488 0.9649
3.2863 -8.1025 -1.8482 0.9649
3.9945 -7.7763 -1.8479 0.9649
5.9064 -6.4405 -1.8472 0.9649
7.5264 -5.7240 -1.9987 0.9621
8.0057 -5.0302 -1.9986 0.9621
8.4213 -4.2966 -1.9984 0.9621
9.0491 -2.7335 -1.9982 0.9621
9.4491 -0.2430 -1.9980 0.9621
9.4332 0.5998 -1.9980 0.9621
9.1775 2.2646 -1.9981 0.9621
7.3053 6.0046 -1.9989 0.9621
6.7420 6.6323 -1.9991 0.9621
6.1250 7.2075 -1.9993 0.9621
5.4593 7.7256 -1.9996 0.9621
4.0026 8.5743 -2.0002 0.9621
2.4180 9.1515 -2.0008 0.9620
-1.7681 9.3069 -2.0025 0.9620
-3.3929 8.8481 -2.0031 0.9620
-4.9109 8.1079 -2.0037 0.9620
-5.6145 7.6392 -2.0040 0.9620
-7.4375 5.8845 -2.0047 0.9620
-7.9329 5.1990 -2.0049 0.9620
-8.3653 4.4719 -2.0051 0.9620
-8.7310 3.7091 -2.0052 0.9620
-9.0273 2.9166 -2.0053 0.9620
-9.2516 2.1008 -2.0054 0.9620
-9.0287 -2.9119 -2.0053 0.9620
-8.3674 -4.4675 -2.0050 0.9620
-6.8861 -6.5193 -2.0044 0.9620
-5.6183 -7.6361 -2.0039 0.9620
-4.9149 -8.1051 -2.0036 0.9620
-3.3899 -8.8266 -1.9986 0.9621
-1.6381 -8.5981 -1.8502 0.9648
-0.8654 -8.7084 -1.8498 0.9649
2.1641 -5.9839 -1.3451 0.9743
3.6941 -7.9241 -1.8481 0.9649
5.6557 -6.6623 -1.8473 0.9649
6.2261 -6.1311 -1.8471 0.9649
7.2883 -5.9970 -1.9951 0.9621
8.2509 -4.6161 -1.9985 0.9621
8.6287 -3.8623 -1.9983 0.9621
9.3417 -1.4427 -1.9980 0.9621
9.4329 -0.6047 -1.9980 0.9621
9.4492 0.2381 -1.9980 0.9621
8.7720 3.5245 -1.9983 0.9621
8.0084 5.0262 -1.9986 0.9621
6.3962 6.9673 -1.9992 0.9621
5.7507 7.5104 -1.9995 0.9621
5.0594 7.9940 -1.9998 0.9621
4.3277 8.4142 -2.0001 0.9621
3.5614 8.7677 -2.0004 0.9620
2.7665 9.0515 -2.0007 0.9620
-1.4104 9.3671 -2.0023 0.9620
-3.8391 8.6648 -2.0033 0.9620
-5.3176 7.8481 -2.0039 0.9620
-5.9964 7.3441 -2.0041 0.9620
-8.1876 4.7888 -2.0050 0.9620
-8.9088 3.2601 -2.0053 0.9620
-9.1643 2.4535 -2.0054 0.9620
-9.3467 1.6273 -2.0054 0.9620
-9.4547 0.7881 -2.0055 0.9620
-9.4874 -0.0574 -2.0055 0.9620
-9.4445 -0.9024 -2.0055 0.9620
-8.5327 -4.1440 -2.0051 0.9620
-8.1289 -4.8873 -2.0049 0.9620
-7.6604 -5.5916 -2.0047 0.9620
-7.1310 -6.2512 -2.0045 0.9620
-5.9069 -7.4158 -2.0040 0.9620
-3.7338 -8.7101 -2.0032 0.9620
-3.5547 -7.7464 -2.0031 0.9656
-1.9614 -7.6245 -1.8503 0.9682
-1.2741 -7.7678 -1.8500 0.9682
1.5187 -7.7189 -1.8489 0.9682
2.8638 -7.3248 -1.8484 0.9682
3.5045 -7.0395 -1.8481 0.9682
6.1756 -5.7767 -1.9874 0.9658
6.7048 -5.2340 -1.9991 0.9657
7.1439 -4.6155 -1.9989 0.9657
8.1086 -2.5614 -1.9985 0.9657
8.4340 -1.0816 -1.9984 0.9657
8.4967 -0.3259 -1.9984 0.9657
8.4920 0.4324 -1.9984 0.9657
8.4198 1.1873 -1.9984 0.9657
5.5908 6.4131 -1.9996 0.9656
4.3649 7.3053 -2.0000 0.9656
3.6972 7.6662 -2.0003 0.9656
2.2785 8.2029 -2.0009 0.9656
1.5389 8.3745 -2.0012 0.9656
0.7867 8.4796 -2.0015 0.9656
-2.2263 8.2251 -2.0026 0.9656
-2.9507 7.9952 -2.0029 0.9656
-3.6518 7.7016 -2.0032 0.9656
-4.3240 7.3465 -2.0035 0.9656
-5.5605 6.4641 -2.0040 0.9656
-7.4711 4.1159 -2.0047 0.9656
-7.8086 3.4341 -2.0048 0.9656
-8.0839 2.7249 -2.0049 0.9656
-8.2949 1.9939 -2.0050 0.9656
-8.5174 0.4901 -2.0051 0.9656
-8.5272 -0.2707 -2.0051 0.9656
-8.3435 -1.7797 -2.0050 0.9656
-7.8944 -3.2320 -2.0048 0.9656
-7.1945 -4.5811 -2.0046 0.9656
-6.7571 -5.2034 -2.0044 0.9656
-3.1556 -7.9166 -2.0030 0.9656
-0.8771 -7.8219 -1.8499 0.9682
1.2222 -7.7719 -1.8490 0.9682
1.9095 -7.6310 -1.8488 0.9682
2.0837 -5.9971 -1.4921 0.9743
3.8579 -6.8515 -1.8480 0.9682
4.4525 -6.4797 -1.8478 0.9682
5.5610 -5.6162 -1.8575 0.9680
7.3692 -4.2457 -1.9988 0.9657
8.2283 -2.1454 -1.9985 0.9657
8.4780 -0.6510 -1.9984 0.9657
8.5023 0.1070 -1.9984 0.9657
8.4590 0.8641 -1.9984 0.9657
8.3486 1.6143 -1.9985 0.9657
7.9302 3.0706 -1.9986 0.9657
7.6256 3.7652 -1.9987 0.9657
7.2603 4.4300 -1.9989 0.9657
6.8373 5.0596 -1.9991 0.9657
6.3599 5.6492 -1.9993 0.9657
5.2575 6.6898 -1.9997 0.9656
4.6412 7.1324 -1.9999 0.9656
3.9878 7.5186 -2.0002 0.9656
2.5908 8.1092 -2.0007 0.9656
1.1108 8.4427 -2.0013 0.9656
0.3542 8.5094 -2.0016 0.9656
-0.4054 8.5084 -2.0019 0.9656
-3.3540 7.8353 -2.0031 0.9656
-4.0393 7.5063 -2.0034 0.9656
-4.6926 7.1175 -2.0036 0.9656
-5.3087 6.6719 -2.0039 0.9656
-5.8827 6.1731 -2.0041 0.9656
-6.4099 5.6250 -2.0043 0.9656
-6.8862 5.0320 -2.0045 0.9656
-7.3078 4.3988 -2.0046 0.9656
-7.9735 3.0324 -2.0049 0.9656
-8.5023 -0.7043 -2.0051 0.9656
-8.4056 -1.4590 -2.0051 0.9656
-8.2419 -2.2020 -2.0050 0.9656
-8.0126 -2.9274 -2.0049 0.9656
-7.3649 -4.3024 -2.0046 0.9656
-6.9517 -4.9411 -2.0045 0.9656
-5.9632 -6.0952 -2.0041 0.9656
-5.3958 -6.6015 -2.0038 0.9656
-4.7856 -7.0552 -2.0036 0.9656
-4.1375 -7.4525 -2.0033 0.9656
-3.4566 -7.7905 -2.0031 0.9656
-2.7412 -8.0452 -1.9976 0.9657
0.2240 -7.8659 -1.8494 0.9682
0.9237 -7.8135 -1.8491 0.9682
2.2952 -7.5233 -1.8486 0.9682
2.9559 -7.2879 -1.8483 0.9682
3.5930 -6.9946 -1.8481 0.9682
4.2013 -6.6458 -1.8479 0.9682
4.7761 -6.2443 -1.8476 0.9682
5.3129 -5.7933 -1.8474 0.9682
6.2659 -5.7146 -1.9931 0.9658
6.7702 -5.1490 -1.9990 0.9657
7.2014 -4.5249 -1.9989 0.9657
8.1402 -2.4589 -1.9985 0.9657
8.4469 -0.9751 -1.9984 0.9657
7.7639 3.4704 -1.9987 0.9657
6.5713 5.4013 -1.9992 0.9657
4.2725 7.3599 -2.0001 0.9656
2.1749 8.2312 -2.0009 0.9656
0.6797 8.4890 -2.0015 0.9656
-0.0794 8.5171 -2.0018 0.9656
-0.8380 8.4774 -2.0021 0.9656
-1.5902 8.3703 -2.0024 0.9656
-2.3299 8.1965 -2.0027 0.9656
-4.4164 7.2915 -2.0035 0.9656
-5.0491 6.8699 -2.0038 0.9656
-6.1896 5.8660 -2.0042 0.9656
-6.6883 5.2918 -2.0044 0.9656
-7.5225 4.0214 -2.0047 0.9656
-7.8513 3.3354 -2.0049 0.9656
-8.3194 1.8892 -2.0050 0.9656
-8.4548 1.1405 -2.0051 0.9656
-8.3203 -1.8848 -2.0050 0.9656
-8.1190 -2.6185 -2.0049 0.9656
-7.8530 -3.3313 -2.0048 0.9656
-7.5244 -4.0174 -2.0047 0.9656
-6.6909 -5.2882 -2.0044 0.9656
-5.0525 -6.8671 -2.0037 0.9656
-3.7526 -7.6529 -2.0032 0.9656
-3.0551 -7.9548 -2.0027 0.9656
-2.1888 -7.6848 -1.8779 0.9677
0.6239 -7.8437 -1.8493 0.9682
3.3227 -7.1275 -1.8482 0.9682
3.9440 -6.8022 -1.8480 0.9682
5.0874 -5.9928 -1.8475 0.9682
5.7427 -5.6552 -1.8942 0.9674
7.4221 -4.1524 -1.9988 0.9657
7.7620 -3.4744 -1.9987 0.9657
8.2546 -2.0414 -1.9985 0.9657
8.4035 -1.2978 -1.9984 0.9657
8.5002 0.2142 -1.9984 0.9657
8.4474 0.9707 -1.9984 0.9657
8.3276 1.7195 -1.9985 0.9657
7.8909 3.1705 -1.9986 0.9657
7.2039 4.5213 -1.9989 0.9657
6.2883 5.7291 -1.9993 0.9656
3.8927 7.5684 -2.0002 0.9656
1.7533 8.3319 -2.0011 0.9656
0.2468 8.5133 -2.0017 0.9656
-0.5127 8.5028 -2.0020 0.9656
-1.2684 8.4245 -2.0023 0.9656
-2.7443 8.0680 -2.0029 0.9656
-3.4527 7.7925 -2.0031 0.9656
-5.3925 6.6045 -2.0039 0.9656
-5.9602 6.0985 -2.0041 0.9656
-6.9493 4.9448 -2.0045 0.9656
-7.3628 4.3063 -2.0047 0.9656
-8.4049 1.4633 -2.0051 0.9656
-8.5314 -0.0516 -2.0051 0.9656
-8.4928 -0.8115 -2.0051 0.9656
-7.9750 -3.0282 -2.0049 0.9656
-7.6730 -3.7265 -2.0048 0.9656
-6.8887 -5.0283 -2.0044 0.9656
-5.3120 -6.6690 -2.0038 0.9656
-4.6961 -7.1149 -2.0036 0.9656
-1.7683 -7.6713 -1.8502 0.9682
-1.0777 -7.7972 -1.8499 0.9682
-0.3786 -7.8610 -1.8497 0.9682
1.0222 -7.8011 -1.8491 0.9682
1.7129 -7.6779 -1.8488 0.9682
-3.2264 -7.0310 -2.0030 0.9685
-2.5868 -7.2896 -2.0027 0.9685
-0.5236 -7.1248 -1.8497 0.9709
0.1132 -7.1422 -1.8495 0.9709
2.5996 -6.6492 -1.8485 0.9709
3.1813 -6.3903 -1.8483 0.9709
3.7375 -6.0807 -1.8480 0.9709
6.0868 -4.7516 -1.9993 0.9686
6.4854 -4.1901 -1.9992 0.9686
6.8325 -3.5953 -1.9990 0.9686
7.1252 -2.9721 -1.9989 0.9686
7.5390 -1.6602 -1.9988 0.9686
7.7137 -0.2958 -1.9987 0.9686
7.6439 1.0779 -1.9987 0.9686
7.5177 1.7547 -1.9988 0.9686
6.7870 3.6809 -1.9991 0.9686
6.4325 4.2712 -1.9992 0.9686
6.0269 4.8277 -1.9994 0.9686
4.5370 6.2515 -2.0000 0.9686
3.3562 6.9591 -2.0004 0.9686
2.0683 7.4462 -2.0010 0.9686
1.3969 7.6019 -2.0012 0.9686
0.7141 7.6971 -2.0015 0.9686
0.0255 7.7312 -2.0018 0.9686
-2.0208 7.4657 -2.0026 0.9685
-3.9246 6.6680 -2.0033 0.9685
-4.5036 6.2925 -2.0035 0.9685
-5.0469 5.8669 -2.0038 0.9685
-6.4204 4.3245 -2.0043 0.9685
-7.5282 1.8097 -2.0047 0.9685
-7.6597 1.1318 -2.0048 0.9685
-7.7391 -0.2456 -2.0048 0.9685
-7.3980 -2.2834 -2.0047 0.9685
-7.1649 -2.9333 -2.0046 0.9685
-6.8746 -3.5598 -2.0044 0.9685
-6.1328 -4.7227 -2.0041 0.9685
-5.6871 -5.2498 -2.0040 0.9685
-4.6642 -6.1746 -2.0036 0.9685
-3.4934 -6.9027 -2.0031 0.9685
-2.2076 -7.3955 -1.9983 0.9686
-1.4300 -7.0230 -1.8557 0.9708
-0.7961 -7.1000 -1.8498 0.9709
1.1094 -7.0549 -1.8491 0.9709
1.7333 -6.9271 -1.8488 0.9709
4.0419 -5.8823 -1.8479 0.9709
5.4169 -5.4706 -1.9933 0.9687
5.9006 -4.9813 -1.9994 0.9686
7.0064 -3.2428 -1.9990 0.9686
7.6136 -1.2744 -1.9987 0.9686
7.6795 0.7844 -1.9987 0.9686
7.5792 1.4656 -1.9988 0.9686
7.4188 2.1351 -1.9988 0.9686
7.1994 2.7877 -1.9989 0.9686
6.9228 3.4182 -1.9990 0.9686
6.5911 4.0217 -1.9992 0.9686
5.7737 5.1284 -1.9995 0.9686
5.2943 5.6230 -1.9997 0.9686
4.7728 6.0729 -1.9999 0.9686
4.2132 6.4747 -2.0001 0.9686
3.6200 6.8252 -2.0003 0.9686
2.9979 7.1214 -2.0006 0.9686
2.3518 7.3611 -2.0008 0.9686
1.0083 7.6637 -2.0014 0.9686
0.3215 7.7241 -2.0016 0.9686
-1.0548 7.6606 -2.0022 0.9686
-3.0443 7.1117 -2.0030 0.9685
-6.2499 4.5670 -2.0042 0.9685
-6.6325 3.9923 -2.0044 0.9685
-6.9622 3.3858 -2.0045 0.9685
-7.2366 2.7521 -2.0046 0.9685
-7.6107 1.4242 -2.0047 0.9685
-7.7074 0.7405 -2.0048 0.9685
-7.6287 -1.3241 -2.0047 0.9685
-7.4802 -1.9985 -2.0047 0.9685
-7.2721 -2.6569 -2.0046 0.9685
-6.6843 -3.9049 -2.0044 0.9685
-6.3093 -4.4845 -2.0042 0.9685
-5.4123 -5.5321 -2.0039 0.9685
-4.8974 -5.9917 -2.0036 0.9685
-4.3436 -6.4035 -2.0034 0.9685
-3.1374 -7.0711 -2.0030 0.9685
-1.7761 -7.2838 -1.9412 0.9695
-1.0674 -7.0647 -1.8499 0.9709
0.8385 -7.0926 -1.8492 0.9709
1.4669 -6.9887 -1.8489 0.9709
2.0834 -6.8293 -1.8487 0.9709
3.8139 -6.0330 -1.8480 0.9709
5.7040 -5.2021 -1.9988 0.9686
6.1462 -4.6744 -1.9993 0.9686
6.5377 -4.1079 -1.9991 0.9686
7.5593 -1.5650 -1.9987 0.9686
7.6685 -0.8852 -1.9987 0.9686
7.7169 -0.1985 -1.9987 0.9686
7.7039 0.4898 -1.9987 0.9686
7.4950 1.8494 -1.9988 0.9686
7.3007 2.5099 -1.9989 0.9686
6.3782 4.3521 -1.9992 0.9686
5.9656 4.9034 -1.9994 0.9686
2.6318 7.2653 -2.0007 0.9686
1.9743 7.4719 -2.0010 0.9686
1.3009 7.6190 -2.0013 0.9686
-0.0720 7.7311 -2.0018 0.9686
-2.1148 7.4398 -2.0026 0.9685
-2.7696 7.2227 -2.0029 0.9685
-3.4025 6.9481 -2.0031 0.9685
-4.5827 6.2353 -2.0036 0.9685
-6.4745 4.2432 -2.0043 0.9685
-6.8273 3.6498 -2.0044 0.9685
-7.1257 3.0271 -2.0046 0.9685
-7.3674 2.3803 -2.0047 0.9685
-7.6734 1.0350 -2.0048 0.9685
-7.7352 0.3473 -2.0048 0.9685
-7.7354 -0.3433 -2.0048 0.9685
-7.6739 -1.0311 -2.0048 0.9685
-7.1272 -3.0234 -2.0045 0.9685
-6.4766 -4.2398 -2.0043 0.9685
-6.0726 -4.7996 -2.0041 0.9685
-5.6204 -5.3211 -2.0039 0.9685
-4.5858 -6.2328 -2.0035 0.9685
-4.0118 -6.6158 -2.0033 0.9685
-3.4060 -6.9461 -2.0031 0.9685
-2.7733 -7.2211 -2.0028 0.9685
-1.3372 -7.0190 -1.8500 0.9709
0.5664 -7.1199 -1.8493 0.9709
1.1983 -7.0402 -1.8490 0.9709
1.8205 -6.9045 -1.8488 0.9709
2.1540 -5.9559 -1.6398 0.9742
3.0163 -6.4701 -1.8483 0.9709
3.5803 -6.1749 -1.8481 0.9709
4.6184 -5.4403 -1.8477 0.9709
5.4892 -5.4055 -1.9947 0.9687
5.9629 -4.9064 -1.9994 0.9686
7.2993 -2.5137 -1.9988 0.9686
7.6291 -1.1782 -1.9987 0.9686
7.5602 1.5611 -1.9988 0.9686
6.8791 3.5053 -1.9990 0.9686
6.5399 4.1045 -1.9992 0.9686
6.1487 4.6713 -1.9993 0.9686
5.7086 5.2009 -1.9995 0.9686
5.2230 5.6894 -1.9997 0.9686
2.2588 7.3904 -2.0009 0.9686
1.5916 7.5632 -2.0011 0.9686
0.9115 7.6760 -2.0014 0.9686
-0.4654 7.7180 -2.0020 0.9686
-2.4909 7.3230 -2.0027 0.9685
-4.3404 6.4059 -2.0035 0.9685
-4.8944 5.9944 -2.0037 0.9685
-5.4095 5.5350 -2.0039 0.9685
-5.8817 5.0315 -2.0041 0.9685
-6.3071 4.4879 -2.0042 0.9685
-7.2708 2.6606 -2.0046 0.9685
-7.7162 0.6432 -2.0048 0.9685
-7.2379 -2.7484 -2.0046 0.9685
-6.9639 -3.3821 -2.0045 0.9685
-5.8202 -5.1022 -2.0040 0.9685
-4.8213 -6.0529 -2.0036 0.9685
-3.6697 -6.8110 -2.0032 0.9685
-3.0479 -7.1100 -2.0029 0.9685
-2.4003 -7.3471 -2.0012 0.9686
-0.9782 -7.0775 -1.8499 0.9709
0.2934 -7.1368 -1.8494 0.9709
0.9279 -7.0813 -1.8491 0.9709
1.5549 -6.9695 -1.8489 0.9709
-2.3658 -6.6668 -2.0026 0.9710
-1.7603 -6.8427 -2.0002 0.9711
-1.1099 -6.7669 -1.9413 0.9719
-0.4789 -6.5163 -1.8497 0.9732
1.8267 -6.2700 -1.8488 0.9732
2.3052 -5.8962 -1.7922 0.9740
2.9098 -5.8449 -1.8484 0.9732
3.4186 -5.5619 -1.8482 0.9732
3.9916 -5.3574 -1.8913 0.9726
4.6970 -5.2533 -1.9949 0.9711
5.9323 -3.8327 -1.9994 0.9711
6.5176 -2.7187 -1.9992 0.9711
7.0559 -0.2706 -1.9990 0.9711
5.8838 3.9069 -1.9994 0.9711
5.0978 4.8899 -1.9997 0.9711
4.6423 5.3251 -1.9999 0.9711
1.8918 6.8106 -2.0010 0.9710
1.2776 6.9529 -2.0013 0.9710
0.6532 7.0399 -2.0015 0.9710
0.0233 7.0710 -2.0018 0.9710
-0.6068 7.0458 -2.0020 0.9710
-1.2323 6.9646 -2.0023 0.9710
-1.8481 6.8279 -2.0025 0.9710
-2.4494 6.6369 -2.0027 0.9710
-3.5892 6.0982 -2.0032 0.9710
-4.1187 5.7547 -2.0034 0.9710
-5.0756 4.9333 -2.0038 0.9710
-6.4810 2.8503 -2.0043 0.9710
-7.0290 -0.8543 -2.0045 0.9710
-6.7654 -2.0881 -2.0044 0.9710
-6.5522 -2.6825 -2.0043 0.9710
-5.6085 -4.3189 -2.0039 0.9710
-5.2010 -4.8010 -2.0038 0.9710
-4.7521 -5.2448 -2.0036 0.9710
-3.7451 -6.0038 -2.0032 0.9710
-2.6195 -6.5717 -2.0027 0.9710
-2.0233 -6.7781 -2.0025 0.9710
-0.1467 -6.5318 -1.8496 0.9732
1.5853 -6.3357 -1.8489 0.9732
2.0739 -5.9688 -1.7888 0.9741
2.6840 -5.9524 -1.8485 0.9732
3.6970 -5.3803 -1.8481 0.9732
4.4542 -5.3830 -1.9779 0.9714
6.4088 -2.9663 -1.9992 0.9711
6.6473 -2.3834 -1.9991 0.9711
6.8330 -1.7816 -1.9990 0.9711
7.0404 -0.5406 -1.9990 0.9711
7.0246 0.7176 -1.9990 0.9711
6.9329 1.3406 -1.9990 0.9711
6.5854 2.5499 -1.9991 0.9711
5.6776 4.2014 -1.9995 0.9711
4.8426 5.1433 -1.9998 0.9711
4.3655 5.5548 -2.0000 0.9711
3.3111 6.2427 -2.0005 0.9711
2.7420 6.5136 -2.0007 0.9710
2.1510 6.7328 -2.0009 0.9710
1.5428 6.8985 -2.0012 0.9710
0.9222 7.0094 -2.0014 0.9710
0.2941 7.0645 -2.0016 0.9710
-2.7842 6.5041 -2.0029 0.9710
-3.8952 5.9080 -2.0033 0.9710
-4.4065 5.5380 -2.0035 0.9710
-4.8828 5.1239 -2.0037 0.9710
-5.3204 4.6688 -2.0039 0.9710
-6.3669 3.0963 -2.0043 0.9710
-6.8160 1.9173 -2.0044 0.9710
-6.9599 1.3024 -2.0045 0.9710
-7.0483 0.6772 -2.0045 0.9710
-7.0807 0.0465 -2.0045 0.9710
-6.8405 -1.8276 -2.0044 0.9710
-6.6503 -2.4297 -2.0044 0.9710
-6.4070 -3.0124 -2.0043 0.9710
-6.1128 -3.5710 -2.0041 0.9710
-5.3812 -4.5985 -2.0038 0.9710
-3.4345 -6.1862 -2.0031 0.9710
-2.8693 -6.4669 -2.0028 0.9710
-2.2815 -6.6960 -2.0026 0.9710
-1.6728 -6.8602 -1.9990 0.9711
-1.0137 -6.7093 -1.9209 0.9722
-0.3970 -6.5265 -1.8510 0.9732
0.7669 -6.4870 -1.8492 0.9732
1.3417 -6.3921 -1.8490 0.9732
2.4542 -6.0511 -1.8485 0.9732
4.7655 -5.1965 -1.9960 0.9711
5.6219 -4.2756 -1.9995 0.9711
6.2907 -3.2096 -1.9992 0.9711
6.5513 -2.6362 -1.9991 0.9711
6.7598 -2.0419 -1.9991 0.9711
6.9147 -1.4315 -1.9990 0.9711
7.0146 -0.8098 -1.9990 0.9711
7.0588 -0.1816 -1.9990 0.9711
6.8558 1.6917 -1.9990 0.9711
6.6781 2.2959 -1.9991 0.9711
5.0358 4.9539 -1.9998 0.9711
3.5475 6.1111 -2.0004 0.9711
2.4071 6.6452 -2.0008 0.9710
0.5643 7.0477 -2.0015 0.9710
-0.0659 7.0708 -2.0018 0.9710
-1.3201 6.9486 -2.0023 0.9710
-1.9341 6.8042 -2.0025 0.9710
-2.5330 6.6056 -2.0028 0.9710
-4.1910 5.7024 -2.0034 0.9710
-5.9210 3.8804 -2.0041 0.9710
-6.2435 3.3377 -2.0042 0.9710
-6.7375 2.1768 -2.0044 0.9710
-6.9048 1.5679 -2.0045 0.9710
-7.0172 0.9465 -2.0045 0.9710
-7.0737 0.3176 -2.0045 0.9710
-6.7385 -2.1733 -2.0044 0.9710
-6.5178 -2.7649 -2.0043 0.9710
-6.2452 -3.3344 -2.0042 0.9710
-4.6855 -5.3043 -2.0036 0.9710
-3.6690 -6.0505 -2.0032 0.9710
-3.1150 -6.3526 -2.0029 0.9710
-2.5363 -6.6041 -2.0027 0.9710
-0.6461 -6.5021 -1.8498 0.9732
-0.0643 -6.5330 -1.8495 0.9732
1.0960 -6.4391 -1.8491 0.9732
2.1489 -5.9418 -1.7887 0.9741
2.7588 -5.9179 -1.8484 0.9732
3.2748 -5.6480 -1.8482 0.9732
3.7802 -5.3554 -1.8557 0.9731
4.5554 -5.3662 -1.9927 0.9712
5.4543 -4.4879 -1.9996 0.9711
5.8320 -3.9838 -1.9994 0.9711
6.4457 -2.8852 -1.9992 0.9711
6.8549 -1.6952 -1.9990 0.9711
6.9785 -1.0777 -1.9990 0.9711
7.0467 -0.4517 -1.9990 0.9711
7.0589 0.1779 -1.9990 0.9711
7.0150 0.8061 -1.9990 0.9711
6.9155 1.4279 -1.9990 0.9711
6.2924 3.2063 -1.9993 0.9711
5.9821 3.7544 -1.9994 0.9711
5.2216 4.7573 -1.9997 0.9711
4.7774 5.2040 -1.9999 0.9711
4.2952 5.6095 -2.0001 0.9711
3.2321 6.2841 -2.0005 0.9711
2.6597 6.5478 -2.0007 0.9710
2.0660 6.7595 -2.0009 0.9710
0.2049 7.0678 -2.0017 0.9710
-1.0530 6.9937 -2.0022 0.9710
-1.6721 6.8729 -2.0024 0.9710
-2.2781 6.6974 -2.0027 0.9710
-4.4761 5.4820 -2.0035 0.9710
-5.3789 4.6014 -2.0039 0.9710
-5.7679 4.1042 -2.0040 0.9710
-6.4055 3.0157 -2.0043 0.9710
-6.9605 -1.2988 -2.0045 0.9710
-6.8169 -1.9137 -2.0044 0.9710
-6.6190 -2.5134 -2.0043 0.9710
-4.8854 -5.1212 -2.0036 0.9710
-4.4093 -5.5356 -2.0035 0.9710
-3.8981 -5.9058 -2.0033 0.9710
-3.3561 -6.2290 -2.0030 0.9710
-2.7875 -6.5025 -2.0028 0.9710
-2.1968 -6.7242 -2.0026 0.9710
-1.5852 -6.8768 -1.9978 0.9711
0.2683 -6.5274 -1.8494 0.9732
-1.6219 -6.3048 -2.0024 0.9731
-1.0519 -6.4130 -1.9989 0.9732
-0.4676 -6.3625 -1.9623 0.9737
0.6305 -5.9792 -1.8493 0.9752
1.6813 -5.7711 -1.8489 0.9752
2.1886 -5.5977 -1.8487 0.9752
3.8748 -5.2006 -1.9948 0.9732
4.7484 -4.4416 -1.9998 0.9732
5.1248 -4.0006 -1.9997 0.9732
5.4605 -3.5279 -1.9996 0.9732
5.7528 -3.0272 -1.9995 0.9732
5.9993 -2.5025 -1.9994 0.9732
6.1982 -1.9579 -1.9993 0.9732
6.3478 -1.3979 -1.9992 0.9732
6.4913 0.3306 -1.9992 0.9732
5.9676 2.5776 -1.9994 0.9732
5.7145 3.0992 -1.9995 0.9732
5.4159 3.5962 -1.9996 0.9732
4.6924 4.5010 -1.9999 0.9732
3.8197 5.2632 -2.0003 0.9732
3.3359 5.5832 -2.0004 0.9731
2.8255 5.8588 -2.0006 0.9731
1.1759 6.3995 -2.0013 0.9731
-1.1342 6.4100 -2.0022 0.9731
-1.7009 6.2842 -2.0024 0.9731
-2.2543 6.1083 -2.0027 0.9731
-3.3033 5.6124 -2.0031 0.9731
-4.6712 4.5402 -2.0036 0.9731
-5.0575 4.1063 -2.0038 0.9731
-5.4036 3.6396 -2.0039 0.9731
-5.9644 2.6231 -2.0041 0.9731
-6.1746 2.0814 -2.0042 0.9731
-6.3357 1.5230 -2.0042 0.9731
-6.4464 0.9525 -2.0043 0.9731
-6.5056 0.3744 -2.0043 0.9731
-6.5131 -0.2067 -2.0043 0.9731
-6.4687 -0.7862 -2.0043 0.9731
-6.3728 -1.3594 -2.0042 0.9731
-6.0300 -2.4687 -2.0041 0.9731
-5.4955 -3.4993 -2.0039 0.9731
-5.1616 -3.9747 -2.0038 0.9731
-4.3735 -4.8270 -2.0034 0.9731
-2.9405 -5.8101 -2.0029 0.9731
-1.8622 -6.2384 -2.0025 0.9731
-0.7228 -6.4465 -1.9952 0.9732
-0.1392 -6.1995 -1.9073 0.9744
0.4011 -5.9992 -1.8494 0.9752
0.9339 -5.9390 -1.8491 0.9752
1.4592 -5.8315 -1.8489 0.9752
1.9727 -5.6777 -1.8487 0.9752
3.6621 -5.3295 -1.9889 0.9733
4.5750 -4.6203 -1.9999 0.9732
5.3216 -3.7345 -1.9996 0.9732
5.8992 -2.7304 -1.9994 0.9732
6.1188 -2.1939 -1.9993 0.9732
6.4106 -1.0730 -1.9992 0.9732
6.4807 -0.4976 -1.9992 0.9732
6.4992 0.0818 -1.9992 0.9732
6.3817 1.2340 -1.9992 0.9732
6.2465 1.7977 -1.9993 0.9732
6.0618 2.3472 -1.9994 0.9732
5.5495 3.3861 -1.9996 0.9732
4.8611 4.3179 -1.9998 0.9732
4.4574 4.7342 -2.0000 0.9732
3.0476 5.7460 -2.0006 0.9731
0.8488 6.4515 -2.0014 0.9731
-0.3098 6.5012 -2.0019 0.9731
-3.5849 5.4373 -2.0032 0.9731
-4.8964 4.2968 -2.0037 0.9731
-5.2601 3.8438 -2.0038 0.9731
-6.0903 2.3162 -2.0042 0.9731
-6.2727 1.7644 -2.0042 0.9731
-6.4051 1.1986 -2.0043 0.9731
-6.1202 -2.2360 -2.0041 0.9731
-5.8964 -2.7723 -2.0041 0.9731
-4.9524 -4.2321 -2.0037 0.9731
-4.5553 -4.6561 -2.0035 0.9731
-3.6559 -5.3897 -2.0032 0.9731
-3.1609 -5.6935 -2.0030 0.9731
-2.6408 -5.9518 -2.0028 0.9731
-2.0998 -6.1628 -2.0025 0.9731
-0.9705 -6.4228 -1.9979 0.9732
1.2349 -5.8834 -1.8490 0.9752
1.7540 -5.7493 -1.8488 0.9752
3.9417 -5.1534 -1.9956 0.9732
5.7905 -2.9543 -1.9994 0.9732
6.0304 -2.4266 -1.9994 0.9732
6.3649 -1.3177 -1.9992 0.9732
6.4569 -0.7454 -1.9992 0.9732
6.4976 -0.1671 -1.9992 0.9732
6.4242 0.9887 -1.9992 0.9732
6.3107 1.5572 -1.9993 0.9732
5.3702 3.6643 -1.9996 0.9732
5.0227 4.1284 -1.9998 0.9732
4.6353 4.5599 -1.9999 0.9732
2.7514 5.8940 -2.0007 0.9731
2.2156 6.1164 -2.0009 0.9731
1.6620 6.2901 -2.0011 0.9731
1.0951 6.4139 -2.0013 0.9731
0.5194 6.4867 -2.0016 0.9731
-0.0606 6.5079 -2.0018 0.9731
-1.2150 6.3953 -2.0022 0.9731
-1.7801 6.2623 -2.0025 0.9731
-2.8639 5.8482 -2.0029 0.9731
-3.8571 5.2481 -2.0033 0.9731
-4.3098 4.8840 -2.0035 0.9731
-4.7281 4.4810 -2.0036 0.9731
-5.1090 4.0422 -2.0038 0.9731
-5.9971 2.5477 -2.0041 0.9731
-6.3545 1.4430 -2.0043 0.9731
-6.4579 0.8711 -2.0043 0.9731
-6.5100 -0.2889 -2.0043 0.9731
-6.3552 -1.4397 -2.0042 0.9731
-6.2014 -2.0001 -2.0042 0.9731
-5.9983 -2.5445 -2.0041 0.9731
-5.7475 -3.0687 -2.0040 0.9731
-5.1110 -4.0395 -2.0037 0.9731
-4.7304 -4.4785 -2.0036 0.9731
-4.3122 -4.8817 -2.0034 0.9731
-3.8598 -5.2460 -2.0032 0.9731
-3.3767 -5.5685 -2.0031 0.9731
-1.7833 -6.2613 -2.0024 0.9731
-0.0606 -6.1603 -1.8949 0.9745
1.5326 -5.8126 -1.8489 0.9752
2.0441 -5.6523 -1.8487 0.9752
2.5393 -5.4471 -1.8485 0.9752
4.2066 -4.9552 -1.9992 0.9732
5.3682 -3.6670 -1.9996 0.9732
5.9332 -2.6557 -1.9994 0.9732
6.1459 -2.1165 -1.9993 0.9732
6.4864 -0.4158 -1.9992 0.9732
6.4977 0.1638 -1.9992 0.9732
6.4573 0.7420 -1.9992 0.9732
6.3656 1.3144 -1.9992 0.9732
6.2234 1.8764 -1.9993 0.9732
6.0317 2.4235 -1.9994 0.9732
5.7921 2.9514 -1.9995 0.9732
5.1769 3.9330 -1.9997 0.9732
4.8063 4.3789 -1.9999 0.9732
4.3974 4.7901 -2.0000 0.9732
3.9535 5.1633 -2.0002 0.9732
3.4781 5.4955 -2.0004 0.9731
2.4480 6.0268 -2.0008 0.9731
1.9016 6.2216 -2.0010 0.9731
1.3398 6.3670 -2.0012 0.9731
-0.3918 6.4968 -2.0019 0.9731
-0.9692 6.4368 -2.0021 0.9731
-1.5390 6.3256 -2.0024 0.9731
-3.1580 5.6952 -2.0030 0.9731
-4.1194 5.0453 -2.0034 0.9731
-4.9503 4.2347 -2.0037 0.9731
-5.8950 2.7754 -2.0041 0.9731
-6.2945 1.6852 -2.0042 0.9731
-6.4868 -0.6198 -2.0043 0.9731
-6.4057 -1.1953 -2.0043 0.9731
-6.2736 -1.7612 -2.0042 0.9731
-6.0915 -2.3130 -2.0041 0.9731
-5.8609 -2.8464 -2.0040 0.9731
-4.4961 -4.7132 -2.0035 0.9731
-3.5876 -5.4354 -2.0031 0.9731
-1.4623 -6.3435 -2.0023 0.9731
0.2479 -6.0304 -1.8564 0.9751
0.7811 -5.9612 -1.8492 0.9752
-0.9749 -5.9436 -2.0021 0.9749
2.1298 -5.4475 -1.9443 0.9756
2.6708 -5.3649 -1.9921 0.9751
3.1451 -5.1169 -1.9965 0.9750
4.0106 -4.4856 -2.0001 0.9750
5.0531 -3.2647 -1.9997 0.9750
5.8742 -1.2936 -1.9994 0.9750
6.0104 -0.2305 -1.9994 0.9750
5.9560 0.8399 -1.9994 0.9750
5.5223 2.3853 -1.9996 0.9750
5.0118 3.3279 -1.9998 0.9750
4.6957 3.7614 -1.9999 0.9750
4.3422 4.1651 -2.0000 0.9750
3.9542 4.5357 -2.0002 0.9750
3.5346 4.8704 -2.0004 0.9750
3.0869 5.1664 -2.0005 0.9750
2.6146 5.4214 -2.0007 0.9749
2.1214 5.6333 -2.0009 0.9749
1.6112 5.8005 -2.0011 0.9749
0.0199 6.0220 -2.0018 0.9749
-1.0494 5.9312 -2.0022 0.9749
-3.0564 5.1930 -2.0030 0.9749
-3.5073 4.9004 -2.0031 0.9749
-4.3220 4.2008 -2.0035 0.9749
-4.6794 3.7993 -2.0036 0.9749
-5.2800 2.9088 -2.0038 0.9749
-5.5185 2.4270 -2.0039 0.9749
-5.7129 1.9257 -2.0040 0.9749
-5.8620 1.4091 -2.0041 0.9749
-5.9850 -0.7274 -2.0041 0.9749
-5.8963 -1.2577 -2.0041 0.9749
-5.0847 -3.2377 -2.0037 0.9749
-4.7757 -3.6776 -2.0036 0.9749
-4.4287 -4.0882 -2.0035 0.9749
-3.6323 -4.8085 -2.0032 0.9749
-3.1892 -5.1126 -2.0030 0.9749
-2.7207 -5.3759 -2.0028 0.9749
-0.6710 -5.9839 -2.0016 0.9749
0.3973 -5.9414 -1.9794 0.9752
0.9057 -5.7597 -1.9381 0.9757
1.4030 -5.6071 -1.9213 0.9759
1.9081 -5.4916 -1.9325 0.9758
2.4346 -5.3992 -1.9687 0.9753
2.9446 -5.2294 -1.9949 0.9750
3.8361 -4.6361 -2.0002 0.9750
4.2335 -4.2755 -2.0001 0.9750
5.2125 -3.0032 -1.9997 0.9750
5.6623 -2.0302 -1.9995 0.9750
5.8205 -1.5176 -1.9994 0.9750
5.9837 0.6112 -1.9994 0.9750
5.7805 1.6636 -1.9995 0.9750
5.6095 2.1721 -1.9995 0.9750
5.1354 3.1334 -1.9997 0.9750
4.8361 3.5787 -1.9998 0.9750
4.1248 4.3809 -2.0001 0.9750
3.2823 5.0442 -2.0005 0.9750
2.3354 5.5477 -2.0008 0.9749
1.8320 5.7343 -2.0010 0.9749
-0.2866 6.0156 -2.0019 0.9749
-1.3500 5.8704 -2.0023 0.9749
-1.8678 5.7274 -2.0025 0.9749
-2.8552 5.3060 -2.0029 0.9749
-4.8669 3.5564 -2.0037 0.9749
-5.4214 2.6364 -2.0039 0.9749
-5.8037 1.6325 -2.0040 0.9749
-5.9262 1.1090 -2.0041 0.9749
-6.0290 0.0396 -2.0041 0.9749
-6.0085 -0.4977 -2.0041 0.9749
-5.8246 -1.5561 -2.0040 0.9749
-5.6626 -2.0688 -2.0040 0.9749
-5.2050 -3.0407 -2.0038 0.9749
-4.9131 -3.4921 -2.0037 0.9749
-4.5822 -3.9157 -2.0035 0.9749
-2.4435 -5.5071 -2.0027 0.9749
-1.9429 -5.7023 -2.0025 0.9749
-0.8998 -5.9554 -2.0021 0.9749
0.6890 -5.8281 -1.9508 0.9756
1.1899 -5.6692 -1.9255 0.9759
2.2047 -5.4357 -1.9498 0.9756
3.2103 -5.0783 -1.9971 0.9750
4.0669 -4.4346 -2.0001 0.9750
5.5805 -2.2455 -1.9995 0.9750
5.8901 -1.2194 -1.9994 0.9750
6.0128 -0.1547 -1.9994 0.9750
6.0027 0.3817 -1.9994 0.9750
5.8399 1.4410 -1.9994 0.9750
5.6885 1.9557 -1.9995 0.9750
5.4918 2.4548 -1.9996 0.9750
5.2515 2.9345 -1.9997 0.9750
4.9695 3.3909 -1.9998 0.9750
4.6479 3.8204 -1.9999 0.9750
3.8967 4.5853 -2.0002 0.9750
3.0215 5.2050 -2.0006 0.9750
2.5460 5.4540 -2.0008 0.9749
1.5379 5.8205 -2.0012 0.9749
1.0133 5.9350 -2.0014 0.9749
0.4806 6.0023 -2.0016 0.9749
-1.1242 5.9175 -2.0022 0.9749
-2.1570 5.6252 -2.0026 0.9749
-3.5689 4.8558 -2.0032 0.9749
-3.9876 4.5189 -2.0033 0.9749
-4.3747 4.1460 -2.0035 0.9749
-4.7270 3.7400 -2.0036 0.9749
-5.0417 3.3042 -2.0037 0.9749
-5.3163 2.8420 -2.0038 0.9749
-5.5487 2.3572 -2.0039 0.9749
-5.8793 1.3351 -2.0041 0.9749
-5.9750 0.8059 -2.0041 0.9749
-6.0231 0.2704 -2.0041 0.9749
-5.8800 -1.3320 -2.0041 0.9749
-3.9899 -4.5168 -2.0033 0.9749
-3.5713 -4.8539 -2.0031 0.9749
-3.1244 -5.1523 -2.0030 0.9749
-2.1599 -5.6240 -2.0026 0.9749
-0.5952 -5.9897 -2.0008 0.9749
-0.0591 -6.0048 -1.9961 0.9750
0.9765 -5.7372 -1.9345 0.9758
1.4735 -5.5883 -1.9211 0.9759
2.5113 -5.3869 -1.9756 0.9753
3.0111 -5.1932 -1.9954 0.9750
3.8942 -4.5873 -2.0002 0.9750
4.2871 -4.2217 -2.0000 0.9750
4.6459 -3.8227 -1.9999 0.9750
5.2500 -2.9371 -1.9997 0.9750
5.4905 -2.4576 -1.9996 0.9750
5.6874 -1.9586 -1.9995 0.9750
5.9444 -0.9180 -1.9994 0.9750
6.0129 0.1515 -1.9994 0.9750
5.9756 0.6867 -1.9994 0.9750
5.7591 1.7364 -1.9995 0.9750
5.5817 2.2427 -1.9995 0.9750
5.0955 3.1980 -1.9997 0.9750
3.6584 4.7779 -2.0003 0.9750
3.2185 5.0853 -2.0005 0.9750
2.7529 5.3523 -2.0007 0.9749
1.2398 5.8915 -2.0013 0.9749
0.7100 5.9792 -2.0015 0.9749
0.1745 6.0193 -2.0017 0.9749
-0.3625 6.0116 -2.0019 0.9749
-0.8968 5.9560 -2.0021 0.9749
-1.4240 5.8530 -2.0023 0.9749
-3.8115 4.6682 -2.0033 0.9749
-4.2126 4.3103 -2.0034 0.9749
-5.4542 2.5678 -2.0039 0.9749
-5.6616 2.0718 -2.0040 0.9749
-6.0083 0.5008 -2.0041 0.9749
-6.0018 -0.5735 -2.0041 0.9749
-5.9267 -1.1059 -2.0041 0.9749
-5.8045 -1.6295 -2.0040 0.9749
-5.6360 -2.1401 -2.0040 0.9749
-5.4227 -2.6336 -2.0039 0.9749
-4.8686 -3.5538 -2.0036 0.9749
-4.1600 -4.3609 -2.0034 0.9749
-3.7547 -4.7138 -2.0032 0.9749
-3.3195 -5.0291 -2.0030 0.9749
-2.8579 -5.3044 -2.0028 0.9749
-0.8246 -5.9662 -2.0020 0.9749
0.2464 -5.9940 -1.9941 0.9750
0.7607 -5.8055 -1.9463 0.9756
-1.3949 -5.4225 -2.0023 0.9765
-0.9062 -5.5247 -2.0021 0.9765
-0.4103 -5.5829 -2.0019 0.9765
0.0887 -5.5961 -2.0015 0.9765
1.5617 -5.3606 -1.9967 0.9766
2.9294 -4.7660 -2.0006 0.9765
3.3421 -4.4857 -2.0004 0.9765
4.0846 -3.8208 -2.0001 0.9765
4.4085 -3.4414 -2.0000 0.9765
4.6973 -3.0348 -1.9999 0.9765
5.1609 -2.1527 -1.9997 0.9765
5.4607 -1.2025 -1.9996 0.9765
5.5460 -0.7112 -1.9995 0.9765
5.5842 0.2844 -1.9995 0.9765
5.5367 0.7808 -1.9996 0.9765
5.4452 1.2710 -1.9996 0.9765
5.3105 1.7511 -1.9996 0.9765
5.1335 2.2174 -1.9997 0.9765
4.9158 2.6660 -1.9998 0.9765
4.6590 3.0936 -1.9999 0.9765
4.0364 3.8718 -2.0002 0.9765
3.2857 4.5274 -2.0005 0.9765
2.4304 5.0395 -2.0008 0.9765
1.4977 5.3919 -2.0012 0.9765
0.0185 5.5976 -2.0018 0.9765
-0.9755 5.5131 -2.0021 0.9765
-1.4629 5.4048 -2.0023 0.9765
-2.8409 4.8268 -2.0029 0.9765
-4.3493 3.5313 -2.0035 0.9765
-4.9076 2.7036 -2.0037 0.9765
-5.1292 2.2558 -2.0038 0.9765
-5.3099 1.7899 -2.0038 0.9765
-5.5945 0.3219 -2.0039 0.9765
-5.6009 -0.1778 -2.0039 0.9765
-5.5628 -0.6761 -2.0039 0.9765
-5.4803 -1.1690 -2.0039 0.9765
-5.3543 -1.6526 -2.0038 0.9765
-4.4388 -3.4182 -2.0035 0.9765
-3.3761 -4.4694 -2.0031 0.9765
-2.9643 -4.7521 -2.0029 0.9765
-1.6016 -5.3654 -2.0024 0.9765
-0.6238 -5.5634 -2.0020 0.9765
-0.1257 -5.5963 -2.0018 0.9765
0.3731 -5.5795 -1.9997 0.9765
0.8678 -5.5184 -1.9977 0.9765
1.3553 -5.4164 -1.9967 0.9766
2.2973 -5.0947 -1.9986 0.9765
3.1680 -4.6105 -2.0005 0.9765
4.2736 -3.6078 -2.0000 0.9765
4.5778 -3.2125 -1.9999 0.9765
5.0748 -2.3488 -1.9997 0.9765
5.2637 -1.8873 -1.9997 0.9765
5.4107 -1.4108 -1.9996 0.9765
5.5750 -0.4281 -1.9995 0.9765
5.5910 0.0703 -1.9995 0.9765
5.5625 0.5682 -1.9995 0.9765
5.2146 2.0191 -1.9997 0.9765
4.7739 2.9128 -1.9999 0.9765
4.4956 3.3268 -2.0000 0.9765
4.1816 3.7143 -2.0001 0.9765
3.8343 4.0724 -2.0002 0.9765
3.4565 4.3981 -2.0004 0.9765
3.0512 4.6890 -2.0006 0.9765
2.1709 5.1569 -2.0009 0.9765
0.7300 5.5490 -2.0015 0.9765
-0.2664 5.5916 -2.0019 0.9765
-0.7636 5.5462 -2.0021 0.9765
-1.2548 5.4566 -2.0023 0.9765
-1.7362 5.3236 -2.0024 0.9765
-2.6539 4.9318 -2.0028 0.9765
-3.0830 4.6762 -2.0030 0.9765
-5.0389 2.4505 -2.0037 0.9765
-5.3942 1.5173 -2.0039 0.9765
-5.6037 0.0368 -2.0040 0.9765
-4.8379 -2.8262 -2.0036 0.9765
-4.2590 -3.6395 -2.0034 0.9765
-3.9175 -4.0043 -2.0033 0.9765
-3.5449 -4.3370 -2.0031 0.9765
-3.1442 -4.6353 -2.0030 0.9765
-2.2712 -5.1188 -2.0026 0.9765
-1.8059 -5.3003 -2.0024 0.9765
0.1593 -5.5933 -2.0010 0.9765
1.1471 -5.4651 -1.9969 0.9766
2.5552 -4.9744 -1.9999 0.9765
2.9893 -4.7286 -2.0005 0.9765
3.7805 -4.1224 -2.0002 0.9765
4.4515 -3.3855 -2.0000 0.9765
4.7352 -2.9753 -1.9999 0.9765
4.9812 -2.5414 -1.9998 0.9765
5.1876 -2.0875 -1.9997 0.9765
5.4754 -1.1336 -1.9996 0.9765
5.5546 -0.6412 -1.9995 0.9765
5.5264 0.8506 -1.9996 0.9765
5.4288 1.3396 -1.9996 0.9765
5.1052 2.2820 -1.9997 0.9765
4.8818 2.7278 -1.9998 0.9765
4.6196 3.1521 -1.9999 0.9765
4.3206 3.5514 -2.0000 0.9765
2.3667 5.0698 -2.0008 0.9765
1.9057 5.2610 -2.0010 0.9765
0.9419 5.5168 -2.0014 0.9765
-1.0450 5.5004 -2.0022 0.9765
-2.0050 5.2286 -2.0025 0.9765
-2.4631 5.0297 -2.0027 0.9765
-3.3172 4.5134 -2.0031 0.9765
-4.6861 3.0711 -2.0036 0.9765
-5.1572 2.1909 -2.0038 0.9765
-5.3321 1.7227 -2.0038 0.9765
-5.5534 0.7491 -2.0039 0.9765
-5.5981 0.2513 -2.0039 0.9765
-5.5983 -0.2484 -2.0039 0.9765
-5.5538 -0.7462 -2.0039 0.9765
-5.1583 -2.1882 -2.0038 0.9765
-4.9426 -2.6390 -2.0037 0.9765
-4.0681 -3.8514 -2.0033 0.9765
-3.7085 -4.1983 -2.0032 0.9765
-3.3195 -4.5116 -2.0030 0.9765
-2.9040 -4.7890 -2.0029 0.9765
-2.0076 -5.2275 -2.0025 0.9765
-1.5338 -5.3851 -2.0023 0.9765
-0.0550 -5.5973 -2.0017 0.9765
0.4433 -5.5732 -1.9993 0.9765
1.8994 -5.2519 -1.9972 0.9766
2.3617 -5.0661 -1.9989 0.9765
2.8061 -4.8398 -2.0006 0.9765
3.2259 -4.5701 -2.0004 0.9765
3.6200 -4.2642 -2.0003 0.9765
4.3187 -3.5536 -2.0000 0.9765
4.6179 -3.1545 -1.9999 0.9765
4.8803 -2.7304 -1.9998 0.9765
5.1040 -2.2846 -1.9997 0.9765
5.2870 -1.8207 -1.9996 0.9765
5.4281 -1.3424 -1.9996 0.9765
5.5800 -0.3577 -1.9995 0.9765
5.5549 0.6383 -1.9995 0.9765
5.4760 1.1307 -1.9996 0.9765
5.3537 1.6142 -1.9996 0.9765
5.1887 2.0848 -1.9997 0.9765
4.9826 2.5389 -1.9998 0.9765
4.7368 2.9728 -1.9999 0.9765
4.4533 3.3832 -2.0000 0.9765
4.1345 3.7668 -2.0001 0.9765
3.7827 4.1205 -2.0003 0.9765
2.1057 5.1840 -2.0009 0.9765
1.1524 5.4764 -2.0013 0.9765
-0.8336 5.5362 -2.0021 0.9765
-1.8032 5.3013 -2.0025 0.9765
-2.7160 4.8980 -2.0028 0.9765
-3.1418 4.6370 -2.0030 0.9765
-3.5427 4.3389 -2.0032 0.9765
-3.9155 4.0063 -2.0033 0.9765
-4.2572 3.6418 -2.0034 0.9765
-4.5650 3.2482 -2.0036 0.9765
-5.0695 2.3867 -2.0037 0.9765
-5.2622 1.9256 -2.0038 0.9765
-5.4129 1.4492 -2.0039 0.9765
-5.5844 0.4655 -2.0039 0.9765
-5.5783 -0.5330 -2.0039 0.9765
-5.3950 -1.5145 -2.0039 0.9765
-5.2384 -1.9891 -2.0038 0.9765
-5.0402 -2.4478 -2.0037 0.9765
-4.8018 -2.8870 -2.0036 0.9765
-4.2127 -3.6930 -2.0034 0.9765
-3.0854 -4.6745 -2.0029 0.9765
-1.7389 -5.3226 -2.0024 0.9765
-1.2576 -5.4558 -2.0022 0.9765
0.7260 -5.5401 -1.9981 0.9765
-2.1795 -4.7495 -2.0026 0.9779
-1.3017 -5.0600 -2.0022 0.9779
-0.3829 -5.2098 -2.0019 0.9779
2.7338 -4.4477 -2.0006 0.9779
3.4792 -3.8913 -2.0004 0.9779
4.1141 -3.2116 -2.0001 0.9779
4.8163 -2.0090 -1.9998 0.9779
5.0961 -1.1223 -1.9997 0.9779
5.1758 -0.6638 -1.9997 0.9779
5.2114 0.2654 -1.9997 0.9779
5.1671 0.7286 -1.9997 0.9779
5.0817 1.1861 -1.9997 0.9779
4.9559 1.6342 -1.9998 0.9779
4.7908 2.0693 -1.9999 0.9779
4.3479 2.8870 -2.0000 0.9779
3.7669 3.6132 -2.0003 0.9779
3.4302 3.9347 -2.0004 0.9779
3.0662 4.2250 -2.0005 0.9779
2.2681 4.7029 -2.0009 0.9779
1.8402 4.8867 -2.0010 0.9779
1.3976 5.0316 -2.0012 0.9779
0.4825 5.2007 -2.0016 0.9779
0.0172 5.2235 -2.0018 0.9779
-0.9103 5.1446 -2.0021 0.9779
-1.8092 4.9022 -2.0025 0.9779
-2.2390 4.7219 -2.0026 0.9779
-3.0419 4.2503 -2.0030 0.9779
-3.7485 3.6434 -2.0032 0.9779
-4.3361 2.9206 -2.0035 0.9779
-4.5793 2.5228 -2.0036 0.9779
-5.0839 1.2221 -2.0038 0.9779
-5.1137 -1.0908 -2.0038 0.9779
-4.9961 -1.5420 -2.0037 0.9779
-4.8387 -1.9809 -2.0036 0.9779
-4.6427 -2.4041 -2.0036 0.9779
-4.4099 -2.8080 -2.0035 0.9779
-4.1420 -3.1896 -2.0034 0.9779
-3.8411 -3.5457 -2.0032 0.9779
-2.7661 -4.4343 -2.0028 0.9779
-1.9348 -4.8540 -2.0025 0.9779
-1.4945 -5.0067 -2.0023 0.9779
-0.5821 -5.1915 -2.0019 0.9779
1.2676 -5.0660 -2.0012 0.9779
2.5615 -4.5492 -2.0007 0.9779
2.9564 -4.3026 -2.0006 0.9779
3.6726 -3.7090 -2.0003 0.9779
3.9882 -3.3669 -2.0002 0.9779
4.2721 -2.9980 -2.0000 0.9779
4.7359 -2.1920 -1.9999 0.9779
4.9122 -1.7613 -1.9998 0.9779
5.0495 -1.3166 -1.9997 0.9779
5.1466 -0.8614 -1.9997 0.9779
5.1911 0.5303 -1.9997 0.9779
5.0148 1.4432 -1.9998 0.9779
4.6794 2.3105 -1.9999 0.9779
3.9024 3.4663 -2.0002 0.9779
3.5782 3.8004 -2.0003 0.9779
3.2256 4.1044 -2.0005 0.9779
2.8474 4.3758 -2.0006 0.9779
2.0259 4.8124 -2.0010 0.9779
1.5892 4.9742 -2.0011 0.9779
1.1398 5.0965 -2.0013 0.9779
0.6813 5.1782 -2.0015 0.9779
0.2172 5.2188 -2.0017 0.9779
-1.1710 5.0918 -2.0022 0.9779
-2.0564 4.8040 -2.0026 0.9779
-2.8769 4.3635 -2.0029 0.9779
-3.6061 3.7842 -2.0032 0.9779
-3.9292 3.4480 -2.0033 0.9779
-4.7019 2.2865 -2.0036 0.9779
-5.2049 0.5001 -2.0038 0.9779
-5.2288 0.0343 -2.0038 0.9779
-5.0515 -1.3496 -2.0037 0.9779
-4.9110 -1.7943 -2.0037 0.9779
-3.6555 -3.7365 -2.0032 0.9779
-2.9339 -4.3253 -2.0029 0.9779
-2.1193 -4.7766 -2.0026 0.9779
-0.7805 -5.1656 -2.0020 0.9779
-0.3171 -5.2141 -2.0018 0.9779
1.9625 -4.8386 -2.0009 0.9779
3.1715 -4.1464 -2.0005 0.9779
3.8565 -3.5172 -2.0002 0.9779
4.1543 -3.1594 -2.0001 0.9779
4.8412 -1.9481 -1.9998 0.9779
5.1099 -1.0579 -1.9997 0.9779
5.2076 0.3311 -1.9997 0.9779
4.9349 1.6966 -1.9998 0.9779
4.7643 2.1296 -1.9999 0.9779
4.3111 2.9416 -2.0000 0.9779
3.7210 3.6605 -2.0003 0.9779
3.0127 4.2634 -2.0006 0.9779
2.2086 4.7312 -2.0009 0.9779
1.7784 4.9095 -2.0011 0.9779
1.3340 5.0489 -2.0012 0.9779
0.8790 5.1481 -2.0014 0.9779
-0.0487 5.2234 -2.0018 0.9779
-0.5139 5.1987 -2.0020 0.9779
-0.9751 5.1327 -2.0021 0.9779
-1.8709 4.8791 -2.0025 0.9779
-2.7076 4.4703 -2.0028 0.9779
-3.0953 4.2116 -2.0030 0.9779
-4.3727 2.8657 -2.0035 0.9779
-4.8122 2.0443 -2.0036 0.9779
-4.9754 1.6075 -2.0037 0.9779
-5.0989 1.1579 -2.0038 0.9779
-5.2236 0.2345 -2.0038 0.9779
-4.8133 -2.0418 -2.0036 0.9779
-4.6120 -2.4624 -2.0036 0.9779
-4.3741 -2.8634 -2.0035 0.9779
-3.4605 -3.9175 -2.0031 0.9779
-2.7099 -4.4688 -2.0028 0.9779
-1.4312 -5.0251 -2.0023 0.9779
0.4142 -5.2066 -2.0016 0.9779
0.8763 -5.1485 -2.0014 0.9779
2.6187 -4.5165 -2.0007 0.9779
3.7191 -3.6624 -2.0003 0.9779
4.7632 -2.1320 -1.9999 0.9779
4.9340 -1.6991 -1.9998 0.9779
5.0657 -1.2528 -1.9997 0.9779
5.2165 0.1315 -1.9997 0.9779
4.9962 1.5064 -1.9998 0.9779
4.8423 1.9456 -1.9998 0.9779
4.6499 2.3694 -1.9999 0.9779
4.4205 2.7743 -2.0000 0.9779
4.1559 3.1573 -2.0001 0.9779
3.8584 3.5152 -2.0002 0.9779
3.5300 3.8453 -2.0004 0.9779
3.1736 4.1448 -2.0005 0.9779
1.5263 4.9939 -2.0012 0.9779
0.1514 5.2212 -2.0017 0.9779
-0.7778 5.1661 -2.0021 0.9779
-1.6827 4.9469 -2.0024 0.9779
-3.3058 4.0488 -2.0031 0.9779
-3.6536 3.7384 -2.0032 0.9779
-3.9724 3.3982 -2.0033 0.9779
-4.2596 3.0310 -2.0034 0.9779
-4.5129 2.6395 -2.0035 0.9779
-4.7304 2.2270 -2.0036 0.9779
-4.9101 1.7968 -2.0037 0.9779
-5.0508 1.3522 -2.0037 0.9779
-5.2108 0.4344 -2.0038 0.9779
-5.2051 -0.4974 -2.0038 0.9779
-5.0341 -1.4132 -2.0037 0.9779
-4.7030 -2.2841 -2.0036 0.9779
-4.4806 -2.6939 -2.0035 0.9779
-4.2226 -3.0822 -2.0034 0.9779
-3.9309 -3.4460 -2.0033 0.9779
-3.6080 -3.7822 -2.0031 0.9779
-2.0589 -4.8029 -2.0025 0.9779
-1.6227 -4.9668 -2.0024 0.9779
-1.1736 -5.0911 -2.0022 0.9779
-0.7153 -5.1750 -2.0020 0.9779
-2.0406 -4.4470 -2.0025 0.9791
-0.7918 -4.8272 -2.0020 0.9791
-0.3585 -4.8781 -2.0019 0.9791
0.5128 -4.8634 -2.0015 0.9791
1.7803 -4.5535 -2.0010 0.9791
2.5598 -4.1646 -2.0007 0.9791
2.9205 -3.9197 -2.0006 0.9791
3.2579 -3.6437 -2.0004 0.9791
3.5693 -3.3388 -2.0003 0.9791
3.8524 -3.0073 -2.0002 0.9791
4.3246 -2.2756 -2.0000 0.9791
4.6595 -1.4719 -1.9999 0.9791
4.8466 -0.6215 -1.9998 0.9791
4.6407 1.5302 -1.9999 0.9791
4.0713 2.7033 -2.0001 0.9791
3.8144 3.0555 -2.0002 0.9791
3.2120 3.6844 -2.0005 0.9791
2.8711 3.9562 -2.0006 0.9791
2.5074 4.1965 -2.0008 0.9791
1.3087 4.7113 -2.0012 0.9791
0.8838 4.8096 -2.0014 0.9791
0.4518 4.8696 -2.0016 0.9791
0.0161 4.8909 -2.0018 0.9791
-0.4197 4.8734 -2.0019 0.9791
-1.2782 4.7223 -2.0023 0.9791
-2.0963 4.4212 -2.0026 0.9791
-2.4821 4.2171 -2.0027 0.9791
-2.8482 3.9795 -2.0029 0.9791
-3.1916 3.7102 -2.0030 0.9791
-3.5097 3.4113 -2.0031 0.9791
-3.7999 3.0852 -2.0033 0.9791
-4.0598 2.7345 -2.0034 0.9791
-4.7599 1.1442 -2.0036 0.9791
-1.9428 0.2871 -0.8038 0.9915
-4.5303 -1.8547 -2.0035 0.9791
-3.8780 -2.9864 -2.0033 0.9791
-3.2861 -3.6268 -2.0030 0.9791
-2.9497 -3.9049 -2.0029 0.9791
-2.5899 -4.1519 -2.0027 0.9791
-2.2095 -4.3658 -2.0026 0.9791
-1.3994 -4.6878 -2.0023 0.9791
0.7597 -4.8308 -2.0014 0.9791
1.1869 -4.7435 -2.0013 0.9791
