ply
format ascii 1.0
element vertex 1574
property float32 x
property float32 y
property float32 z
property float32 I
end_header
-0.0307 -16.7678 0.6612 0.9351
4.6981 -17.2352 0.7044 0.9310
-1.9038 5.3822 0.2251 0.9774
-6.3636 -15.4810 0.6600 0.9352
-2.0187 -16.4573 0.6538 0.9358
-0.5372 -16.4050 0.6472 0.9364
4.1081 -17.1417 0.6951 0.9319
5.9586 -17.7108 0.7368 0.9279
-2.2113 5.2535 0.2248 0.9774
-6.8926 -15.3971 0.6652 0.9347
-5.4725 -15.8947 0.6629 0.9349
-2.5230 -16.3670 0.6530 0.9359
-1.0402 -16.3252 0.6450 0.9366
0.4325 -16.8319 0.6639 0.9348
3.5933 -17.3408 0.6983 0.9316
5.2375 -17.3208 0.7135 0.9301
-2.0302 5.2732 0.2228 0.9776
-1.5403 -16.2459 0.6435 0.9368
-0.0873 -16.7600 0.6609 0.9351
3.0199 -17.2380 0.6901 0.9323
16.2886 2.5504 0.2785 0.9362
-4.0938 5.5117 0.1160 0.9729
-7.3710 -15.3207 0.2872 0.9342
-1.4857 -16.2540 0.2757 0.9368
-0.0307 -16.7661 0.2832 0.9351
4.6979 -17.2347 0.3017 0.9310
-0.5371 -16.4044 0.2773 0.9364
4.1080 -17.1411 0.2977 0.9319
7.0121 4.2043 0.1381 0.9678
-2.2217 5.2781 0.0967 0.9774
-5.4720 -15.8931 0.2839 0.9350
-1.0401 -16.3247 0.2763 0.9367
0.4324 -16.8302 0.2844 0.9349
-2.0291 5.2703 0.0954 0.9777
-4.0658 5.5128 0.1157 0.9730
-2.0455 5.2600 -0.0318 0.9777
-4.0939 5.5118 -0.0387 0.9729
-7.3708 -15.3202 -0.0957 0.9343
-5.9411 -15.8266 -0.0952 0.9346
-1.4857 -16.2535 -0.0919 0.9368
-0.0307 -16.7645 -0.0944 0.9351
3.0812 -17.2455 -0.0986 0.9323
4.6978 -17.2341 -0.1006 0.9310
-6.3632 -15.4800 -0.0942 0.9352
-2.0183 -16.4541 -0.0933 0.9358
-0.5371 -16.4039 -0.0924 0.9365
4.1079 -17.1405 -0.0992 0.9319
5.9572 -17.7069 -0.1052 0.9280
-6.8922 -15.3961 -0.0950 0.9348
-2.5225 -16.3638 -0.0932 0.9359
3.5925 -17.3371 -0.0997 0.9316
5.2372 -17.3196 -0.1019 0.9302
16.3404 2.5021 -0.0931 0.9360
-1.8546 18.5668 -0.1051 0.9281
-4.0659 5.5129 -0.0386 0.9730
-5.9991 -15.8186 -0.0952 0.9346
-0.0873 -16.7566 -0.0943 0.9352
4.6325 -17.2237 -0.1004 0.9311
16.3428 2.5589 -0.4658 0.9359
-2.0395 5.2445 -0.1584 0.9777
-4.0940 5.5120 -0.1933 0.9729
-7.3706 -15.3197 -0.4787 0.9342
4.6976 -17.2335 -0.5030 0.9310
-1.8806 5.3165 -0.1588 0.9777
4.1077 -17.1400 -0.4963 0.9319
-1.7411 5.4524 -0.1612 0.9774
-2.2163 5.2653 -0.1609 0.9774
-2.5223 -16.3621 -0.4662 0.9359
-1.0401 -16.3237 -0.4606 0.9366
0.4323 -16.8268 -0.4740 0.9349
16.3719 2.5069 -0.4664 0.9359
-2.0201 5.2470 -0.1583 0.9778
-1.5401 -16.2444 -0.4595 0.9368
16.4031 2.5684 -0.8420 0.9357
-5.9398 -15.8234 -0.8571 0.9345
-1.4856 -16.2525 -0.8277 0.9367
-0.0307 -16.7611 -0.8500 0.9351
3.0806 -17.2419 -0.8883 0.9323
4.6975 -17.2329 -0.9058 0.9310
13.9617 -7.6420 -0.8072 0.9382
-1.8738 5.2975 -0.2850 0.9777
4.1076 -17.1394 -0.8938 0.9318
5.9559 -17.7029 -0.9472 0.9279
7.0106 4.2034 -0.4145 0.9678
-2.2149 5.2619 -0.2895 0.9774
-5.4703 -15.8883 -0.8522 0.9349
-0.9880 -15.5058 -0.7880 0.9397
0.4323 -16.8251 -0.8536 0.9348
3.5918 -17.3334 -0.8977 0.9316
14.0762 -7.2086 -0.8020 0.9386
-2.0153 5.2346 -0.2845 0.9778
-5.9978 -15.8153 -0.8578 0.9345
-1.5401 -16.2439 -0.8275 0.9367
-0.0873 -16.7533 -0.8496 0.9351
3.0186 -17.2308 -0.8872 0.9323
4.6322 -17.2226 -0.9045 0.9311
15.8749 3.9629 -1.1997 0.9365
-1.9151 18.5396 -1.3666 0.9280
-2.0313 5.2235 -0.4109 0.9778
-4.0943 5.5124 -0.5035 0.9728
-0.0306 -16.7008 -1.2245 0.9352
3.0698 -17.1817 -1.2798 0.9324
4.6973 -17.2323 -1.3096 0.9309
13.1168 -7.1795 -1.0964 0.9418
-1.8676 5.2797 -0.4106 0.9778
-2.0105 -16.3907 -1.2108 0.9359
2.7178 -18.4946 -1.3706 0.9278
4.1075 -17.1388 -1.2922 0.9318
5.9350 -17.6409 -1.3647 0.9281
14.7534 -6.9888 -1.1970 0.9366
19.1154 3.5345 -1.4253 0.9250
-1.7319 5.4237 -0.4175 0.9774
-2.2179 5.2692 -0.4192 0.9773
-6.8915 -15.3947 -1.2367 0.9346
-5.4512 -15.8327 -1.2278 0.9350
-2.5131 -16.3026 -1.2095 0.9360
-0.9880 -15.5068 -1.1393 0.9396
0.4308 -16.7664 -1.2298 0.9349
3.5788 -17.2708 -1.2932 0.9317
5.2366 -17.3178 -1.3266 0.9300
12.7030 -8.0103 -1.1011 0.9415
13.7203 -7.0263 -1.1302 0.9400
-1.8491 18.5121 -1.3641 0.9281
-4.0663 5.5135 -0.5023 0.9729
-5.9761 -15.7580 -1.2357 0.9346
-1.5401 -16.2434 -1.1963 0.9367
-0.0870 -16.6928 -1.2240 0.9352
3.0081 -17.1709 -1.2782 0.9325
4.6320 -17.2220 -1.3076 0.9310
13.0950 -7.2252 -1.0966 0.9418
12.2870 1.9239 -1.1940 0.9513
11.1511 15.9001 -1.8645 0.9249
6.4064 17.9020 -1.8254 0.9264
4.7814 18.3922 -1.8244 0.9265
3.1204 18.7373 -1.8236 0.9265
1.4362 18.9348 -1.8231 0.9265
-1.9041 18.4327 -1.7790 0.9282
-4.0944 5.5126 -0.6592 0.9728
-9.9845 -16.7422 -1.8715 0.9247
-5.9178 -15.7646 -1.6166 0.9346
1.7086 -19.4810 -1.8774 0.9244
4.6971 -17.2317 -1.7147 0.9307
6.8029 -18.3264 -1.8767 0.9245
9.9426 -16.8119 -1.8752 0.9245
11.3959 -15.8487 -1.8741 0.9246
12.7554 -14.7588 -1.8728 0.9246
14.0099 -13.5515 -1.8713 0.9247
15.1495 -12.2369 -1.8696 0.9247
12.1316 -6.6403 -1.3277 0.9459
19.3594 0.6798 -1.8597 0.9251
13.8525 1.7325 -1.3403 0.9454
11.8187 15.7908 -1.8936 0.9238
8.5147 17.0197 -1.8270 0.9264
3.6983 18.6345 -1.8239 0.9265
0.3281 18.9836 -1.8228 0.9265
-1.3663 18.9347 -1.8226 0.9266
-11.9061 -15.4055 -1.8692 0.9247
-10.4939 -16.4210 -1.8709 0.9247
-2.0103 -16.3890 -1.5852 0.9358
-0.5371 -16.4019 -1.5755 0.9362
2.7180 -18.4963 -1.7948 0.9276
4.1073 -17.1382 -1.6920 0.9316
7.8595 -17.8940 -1.8763 0.9245
9.4202 -17.1141 -1.8755 0.9245
8.8213 -9.0766 -1.2152 0.9504
14.9649 -7.0889 -1.5897 0.9356
7.0097 4.2029 -0.7847 0.9677
5.9103 18.0683 -1.8251 0.9265
4.2729 18.5141 -1.8242 0.9265
0.9145 18.9658 -1.8229 0.9265
-0.7807 18.9685 -1.8226 0.9265
-2.4695 18.8222 -1.8225 0.9266
-2.2200 5.2741 -0.5494 0.9773
-12.3722 -15.0254 -1.8686 0.9248
-9.5224 -17.0149 -1.8719 0.9246
-6.8913 -15.3942 -1.6192 0.9345
-2.5129 -16.3010 -1.5835 0.9359
5.2365 -17.3172 -1.7369 0.9299
8.8884 -17.3998 -1.8758 0.9245
11.8254 -15.5259 -1.8737 0.9246
14.3738 -13.1573 -1.8708 0.9247
15.4760 -11.8120 -1.8691 0.9247
11.9349 -7.5260 -1.3546 0.9449
13.1715 -6.7453 -1.4207 0.9423
16.0980 2.4650 -1.5635 0.9367
9.5546 16.4701 -1.8280 0.9263
4.8436 18.3763 -1.8245 0.9265
1.5001 18.9301 -1.8231 0.9265
-1.8402 18.4226 -1.7775 0.9283
-2.0056 5.2093 -0.5359 0.9778
-10.0406 -16.7079 -1.8714 0.9247
-5.2695 -18.8084 -1.8752 0.9245
-1.5400 -16.2429 -1.5664 0.9365
1.6428 -19.4866 -1.8774 0.9244
3.0078 -17.1691 -1.6734 0.9324
4.6319 -17.2214 -1.7121 0.9308
6.7410 -18.3495 -1.8768 0.9245
9.8860 -16.8457 -1.8752 0.9245
11.3426 -15.8874 -1.8741 0.9246
13.9645 -13.5991 -1.8713 0.9247
16.2213 -4.8632 -2.0116 0.9341
16.8778 -0.3937 -2.0054 0.9343
15.8680 1.0488 -1.8890 0.9380
12.2883 1.9241 -1.4775 0.9511
15.1480 3.7815 -1.8546 0.9390
15.8819 5.5102 -1.9969 0.9345
10.7488 4.8424 -1.4004 0.9536
13.8146 9.4898 -1.9909 0.9347
12.9011 10.6744 -1.9890 0.9348
8.3274 14.4669 -1.9828 0.9350
4.1934 16.1302 -1.9797 0.9351
2.7369 16.4342 -1.9790 0.9351
-3.1818 16.3457 -1.9781 0.9351
-2.0180 5.1893 -0.6614 0.9778
-4.0946 5.5127 -0.8157 0.9727
-11.1050 12.4550 -1.9822 0.9350
-15.4549 6.4623 -1.9899 0.9347
-16.6635 2.1461 -1.9957 0.9346
-16.8061 0.6519 -1.9978 0.9345
-16.8151 -0.8507 -1.9999 0.9344
-16.6900 -2.3497 -2.0021 0.9344
-16.0411 -5.2892 -2.0064 0.9342
-14.8767 -8.0720 -2.0105 0.9341
-13.2311 -10.6074 -2.0144 0.9340
-8.5220 -8.1828 -1.4034 0.9535
-6.8193 -14.1740 -1.8684 0.9386
-5.5309 -14.7339 -1.8694 0.9386
-2.8272 -15.4951 -1.8710 0.9385
-1.4342 -15.6900 -1.8715 0.9385
-0.0289 -15.7583 -1.8719 0.9385
2.7719 -15.5140 -1.8720 0.9385
4.1442 -15.2033 -1.8718 0.9385
5.4827 -14.7702 -1.8715 0.9385
9.1871 -12.7768 -1.8693 0.9386
10.2844 -11.8997 -1.8683 0.9386
12.2187 -9.8696 -1.8658 0.9387
16.4668 -3.9052 -2.0103 0.9341
16.8638 -0.9152 -2.0061 0.9342
11.4416 4.7349 -1.4709 0.9513
14.1058 9.0615 -1.9915 0.9347
12.2487 11.4028 -1.9879 0.9348
11.1735 12.4396 -1.9862 0.9349
10.0116 13.3763 -1.9847 0.9349
8.7723 14.2060 -1.9833 0.9350
4.6904 15.9952 -1.9800 0.9351
-2.6753 16.4359 -1.9781 0.9351
-4.1310 16.1331 -1.9782 0.9351
-6.9350 15.1491 -1.9791 0.9351
-8.2617 14.4754 -1.9798 0.9351
-10.7128 12.7896 -1.9818 0.9350
-14.5509 8.2592 -1.9875 0.9348
-15.2431 6.9344 -1.9892 0.9348
-15.8155 5.5523 -1.9911 0.9347
-16.2636 4.1234 -1.9930 0.9346
-16.5833 2.6589 -1.9950 0.9346
-16.7718 1.1703 -1.9971 0.9345
-16.8271 -0.3307 -1.9992 0.9345
-16.7484 -1.8323 -2.0013 0.9344
-16.1909 -4.7894 -2.0056 0.9342
-15.7157 -6.2211 -2.0077 0.9342
-15.1137 -7.6059 -2.0098 0.9341
-13.5482 -10.1903 -2.0137 0.9340
-11.6389 -10.5042 -1.8623 0.9388
-10.6647 -11.5104 -1.8639 0.9387
-8.4626 -13.2424 -1.8668 0.9387
-7.2524 -13.9537 -1.8680 0.9386
-4.6626 -15.0364 -1.8700 0.9386
2.2913 -15.5924 -1.8721 0.9385
3.6727 -15.3248 -1.8719 0.9385
5.0242 -14.9337 -1.8716 0.9385
8.7895 -13.0568 -1.8696 0.9386
8.8003 -9.0551 -1.4999 0.9504
12.7676 -9.1347 -1.8648 0.9387
12.0195 -7.0700 -1.6564 0.9454
15.3289 -7.2614 -2.0148 0.9340
16.6557 -2.9352 -2.0089 0.9341
16.8336 -1.4363 -2.0069 0.9342
16.8767 0.0709 -2.0047 0.9343
15.0333 4.1955 -1.8540 0.9391
15.1108 7.3142 -1.9942 0.9346
7.0092 4.2026 -0.9708 0.9676
13.5443 9.8635 -1.9903 0.9347
9.2091 13.9315 -1.9837 0.9349
7.9246 14.6877 -1.9824 0.9350
6.5790 15.3272 -1.9813 0.9350
5.1831 15.8451 -1.9803 0.9351
3.7475 16.2376 -1.9795 0.9351
2.2834 16.5018 -1.9789 0.9351
-2.1662 16.5106 -1.9780 0.9351
-3.6305 16.2524 -1.9781 0.9351
-1.7231 5.3961 -0.6729 0.9774
-11.4458 12.1470 -1.9825 0.9350
-14.2847 8.7023 -1.9869 0.9348
-16.4874 3.1689 -1.9943 0.9346
-16.7216 1.6873 -1.9964 0.9345
-16.8231 0.1892 -1.9985 0.9345
-16.7908 -1.3136 -2.0006 0.9344
-16.6245 -2.8091 -2.0028 0.9343
-16.3251 -4.2853 -2.0049 0.9343
-14.6534 -8.4810 -2.0111 0.9341
-12.9379 -10.9706 -2.0150 0.9340
-11.0120 -11.1722 -1.8634 0.9388
-9.9798 -12.1198 -1.8649 0.9387
-8.8655 -12.9715 -1.8663 0.9387
-7.6784 -13.7199 -1.8676 0.9386
-6.4279 -14.3588 -1.8687 0.9386
-3.7778 -15.2872 -1.8705 0.9385
-0.9881 -15.5085 -1.8459 0.9393
0.4048 -15.7537 -1.8719 0.9385
1.8085 -15.6558 -1.8721 0.9385
3.1977 -15.4315 -1.8720 0.9385
5.8867 -14.6125 -1.8713 0.9385
9.5337 -12.5171 -1.8690 0.9386
10.6060 -11.6100 -1.8679 0.9386
11.5916 -10.6107 -1.8667 0.9387
12.4827 -9.5274 -1.8653 0.9387
15.7172 -6.3501 -2.0136 0.9340
16.2054 -4.9181 -2.0117 0.9341
16.8771 -0.4506 -2.0055 0.9343
15.9010 5.4567 -1.9969 0.9345
15.3350 6.8463 -1.9949 0.9346
12.9375 10.6311 -1.9891 0.9348
10.8242 12.7392 -1.9857 0.9349
9.6375 13.6437 -1.9842 0.9349
2.7924 16.4250 -1.9791 0.9351
1.3158 16.6043 -1.9785 0.9351
-3.1266 16.3564 -1.9781 0.9351
-4.5736 16.0140 -1.9783 0.9351
-4.0666 5.5138 -0.8138 0.9728
-11.0627 12.4922 -1.9821 0.9350
-14.7766 7.8577 -1.9880 0.9348
-16.3759 3.6754 -1.9936 0.9346
-16.8031 0.7086 -1.9977 0.9345
-16.6972 -2.2933 -2.0020 0.9344
-16.0582 -5.2348 -2.0063 0.9342
-15.5435 -6.6533 -2.0084 0.9342
-8.5537 -8.1580 -1.4041 0.9535
-8.0967 -13.4731 -1.8672 0.9386
-6.8670 -14.1506 -1.8684 0.9386
-4.2476 -15.1610 -1.8703 0.9385
1.3240 -15.7040 -1.8720 0.9385
2.7195 -15.5233 -1.8720 0.9385
4.0929 -15.2173 -1.8718 0.9385
9.1441 -12.8080 -1.8694 0.9386
11.2610 -10.9663 -1.8671 0.9386
12.1856 -9.9111 -1.8658 0.9387
12.1236 -6.6892 -1.6448 0.9458
13.5885 -4.0739 -2.0100 0.9443
14.0721 -1.5918 -2.0066 0.9444
14.1059 0.9323 -2.0030 0.9445
12.7023 3.1709 -1.8550 0.9485
12.8435 5.7860 -1.9959 0.9447
12.2658 6.9027 -1.9942 0.9447
10.8268 8.9581 -1.9911 0.9448
9.9773 9.8809 -1.9896 0.9448
9.0500 10.7242 -1.9883 0.9449
6.9920 12.1470 -1.9859 0.9450
3.5218 13.5469 -1.9833 0.9450
1.0581 13.9500 -1.9822 0.9450
-2.6726 13.7298 -1.9819 0.9451
-3.8870 13.4380 -1.9821 0.9451
-7.3117 11.9384 -1.9836 0.9450
-4.0947 5.5129 -0.9730 0.9726
-9.3247 10.4583 -1.9853 0.9450
-10.2259 9.5900 -1.9864 0.9449
-11.7820 7.6299 -1.9889 0.9449
-12.4244 6.5532 -1.9903 0.9448
-13.4119 4.2478 -1.9934 0.9447
-14.0940 0.5467 -1.9985 0.9446
-13.7727 -3.2130 -2.0038 0.9445
-13.4432 -4.4326 -2.0056 0.9444
-12.4631 -6.7624 -2.0091 0.9443
-11.0684 -8.8736 -2.0100 0.9443
-8.5002 -8.1619 -1.6697 0.9535
-4.6288 -12.3308 -1.8662 0.9482
-3.5118 -12.6995 -1.8669 0.9482
-2.3658 -12.9662 -1.8675 0.9481
2.3193 -12.9808 -1.8684 0.9481
3.4676 -12.7211 -1.8682 0.9481
5.6705 -11.8976 -1.8674 0.9481
6.7070 -11.3407 -1.8668 0.9482
8.6079 -9.9599 -1.8652 0.9482
11.8167 -7.9141 -2.0151 0.9442
13.7956 -3.2717 -2.0089 0.9443
14.1324 0.4963 -2.0036 0.9445
13.0066 1.6267 -1.8573 0.9484
10.5862 2.2978 -1.5349 0.9572
12.4883 3.9049 -1.8539 0.9485
12.0796 4.9989 -1.8523 0.9486
12.4768 6.5224 -1.9948 0.9447
11.8355 7.6031 -1.9932 0.9448
11.1014 8.6217 -1.9916 0.9448
10.2803 9.5704 -1.9901 0.9448
9.3791 10.4419 -1.9887 0.9449
8.4049 11.2296 -1.9874 0.9449
6.2687 12.5303 -1.9852 0.9450
5.1237 13.0335 -1.9843 0.9450
3.9391 13.4333 -1.9835 0.9450
2.7243 13.7267 -1.9829 0.9450
-1.0067 13.9511 -1.9819 0.9451
-3.4699 13.5511 -1.9820 0.9451
-5.8247 12.7237 -1.9827 0.9450
-6.9385 12.1571 -1.9833 0.9450
-8.9957 10.7396 -1.9850 0.9450
-11.5380 7.9884 -1.9884 0.9449
-14.0660 0.9815 -1.9979 0.9446
-14.1100 -0.2773 -1.9996 0.9446
-14.0416 -1.5362 -2.0014 0.9445
-13.8611 -2.7851 -2.0032 0.9445
-13.5695 -4.0140 -2.0050 0.9444
-13.1690 -5.2130 -2.0068 0.9444
-12.0536 -7.4827 -2.0102 0.9443
-9.7467 -8.7965 -1.8603 0.9483
-8.0397 -10.4028 -1.8628 0.9483
-7.0841 -11.0852 -1.8640 0.9482
-1.6049 -13.0843 -1.8678 0.9481
-0.4315 -13.1777 -1.8681 0.9481
3.0730 -12.8226 -1.8683 0.9481
4.2040 -12.4957 -1.8680 0.9481
6.3542 -11.5439 -1.8671 0.9482
8.2975 -10.2228 -1.8655 0.9482
10.0801 -8.6702 -1.8839 0.9477
11.5692 -8.2773 -2.0156 0.9442
12.8375 -6.0812 -2.0127 0.9442
13.3184 -4.9080 -2.0111 0.9443
13.6919 -3.6974 -2.0095 0.9443
14.1453 0.0594 -2.0043 0.9445
14.0261 1.3156 -1.9961 0.9447
8.9545 2.4990 -1.3172 0.9631
12.2319 4.6247 -1.8529 0.9485
12.6760 6.1356 -1.9954 0.9447
10.5738 9.2506 -1.9906 0.9448
9.6995 10.1496 -1.9892 0.9449
7.7318 11.6966 -1.9866 0.9449
6.6540 12.3328 -1.9855 0.9450
4.3528 13.3069 -1.9837 0.9450
3.1474 13.6374 -1.9831 0.9450
0.6738 13.9731 -1.9821 0.9451
-0.5752 13.9759 -1.9819 0.9451
-1.8195 13.8684 -1.9818 0.9451
-3.0495 13.6514 -1.9819 0.9451
-2.2339 5.3072 -0.8159 0.9770
-7.6383 11.7340 -1.9838 0.9450
-8.6582 11.0106 -1.9846 0.9450
-9.6105 10.1994 -1.9856 0.9450
-10.4878 9.3066 -1.9867 0.9449
-13.1167 5.0652 -1.9922 0.9448
-13.8307 2.6583 -1.9955 0.9447
-13.3197 -4.8022 -2.0062 0.9444
-10.0112 -8.4890 -1.8598 0.9484
-9.2208 -9.3550 -1.8611 0.9483
-8.3553 -10.1471 -1.8624 0.9483
-4.2883 -12.4551 -1.8664 0.9482
1.5132 -13.0994 -1.8684 0.9481
3.8162 -12.6203 -1.8681 0.9481
5.9952 -11.7360 -1.8673 0.9482
7.9791 -10.4760 -1.8658 0.9482
11.2882 -8.6157 -2.0121 0.9442
12.0274 -7.5843 -2.0147 0.9442
12.6469 -6.4766 -2.0132 0.9442
13.5750 -4.1198 -2.0101 0.9443
13.8768 -2.8901 -2.0084 0.9443
14.1448 -0.3777 -2.0049 0.9444
12.3727 4.2459 -1.8534 0.9485
12.2894 6.8615 -1.9943 0.9447
7.7123 5.2597 -1.3227 0.9630
8.0911 11.4545 -1.9870 0.9449
4.7625 13.1678 -1.9840 0.9450
3.5676 13.5351 -1.9833 0.9450
1.1052 13.9465 -1.9823 0.9450
-0.1432 13.9874 -1.9820 0.9451
-2.6262 13.7387 -1.9819 0.9451
-3.8416 13.4510 -1.9821 0.9451
-6.1732 12.5596 -1.9829 0.9450
-4.0667 5.5140 -0.9708 0.9727
-9.2892 10.4895 -1.9853 0.9450
-11.0177 8.6818 -1.9875 0.9449
-11.7559 7.6694 -1.9888 0.9449
-12.4019 6.5949 -1.9902 0.9448
-13.3970 4.2929 -1.9933 0.9448
-13.9701 1.8472 -1.9966 0.9447
-14.0916 0.5943 -1.9984 0.9446
-13.9979 -1.9225 -2.0020 0.9445
-13.0240 -5.5749 -2.0073 0.9444
-11.8461 -7.8135 -2.0107 0.9443
-8.6628 -9.8819 -1.8620 0.9483
-7.7519 -10.6221 -1.8632 0.9483
-6.7775 -11.2779 -1.8643 0.9482
-5.7475 -11.8438 -1.8653 0.9482
-4.6703 -12.3149 -1.8662 0.9482
-2.4095 -12.9580 -1.8675 0.9481
-1.2443 -13.1244 -1.8679 0.9481
-0.0687 -13.1852 -1.8682 0.9481
1.1078 -13.1398 -1.8684 0.9481
11.7902 -7.9542 -2.0152 0.9442
13.4451 -4.5385 -2.0106 0.9443
12.0991 -1.3686 -2.0059 0.9518
12.1312 0.8018 -2.0028 0.9519
11.2749 1.7654 -1.8800 0.9548
10.9268 2.7277 -1.8553 0.9554
10.6319 3.6887 -1.8539 0.9554
8.5886 8.5057 -1.9913 0.9522
7.7911 9.2324 -1.9901 0.9522
6.9327 9.8852 -1.9891 0.9522
5.0612 10.9496 -1.9872 0.9523
4.0628 11.3531 -1.9865 0.9523
3.0330 11.6666 -1.9858 0.9523
0.9113 12.0146 -1.9850 0.9523
-2.0192 5.1923 -0.9178 0.9777
-4.0648 5.4726 -1.1230 0.9727
-9.5110 7.4426 -1.9895 0.9522
-10.6946 5.6408 -1.9919 0.9522
-11.1624 4.6674 -1.9932 0.9521
-11.5421 3.6556 -1.9945 0.9521
-12.0254 1.5488 -1.9974 0.9520
-12.1248 0.4703 -1.9989 0.9520
-12.1277 -0.6136 -2.0005 0.9520
-11.5591 -3.8114 -2.0051 0.9519
-11.1815 -4.8309 -2.0066 0.9518
-10.1598 -6.7506 -2.0095 0.9518
-9.5070 -7.6218 -2.0074 0.9518
-7.4152 -8.5165 -1.8603 0.9553
-6.6297 -9.1491 -1.8613 0.9552
-4.9032 -10.1913 -1.8631 0.9552
-3.0165 -10.9083 -1.8645 0.9552
-2.0320 -11.1369 -1.8650 0.9551
-1.0307 -11.2760 -1.8653 0.9551
0.9895 -11.2820 -1.8657 0.9551
2.9782 -10.9258 -1.8656 0.9551
4.8705 -10.2191 -1.8649 0.9551
5.7610 -9.7413 -1.8644 0.9552
7.3948 -8.5562 -1.8630 0.9552
9.5121 -7.6834 -2.0144 0.9516
10.1539 -6.8005 -2.0132 0.9517
10.7135 -5.8641 -2.0120 0.9517
11.1866 -4.8819 -2.0107 0.9517
12.0576 1.5080 -2.0018 0.9519
10.5861 2.2977 -1.7845 0.9570
10.7436 3.3594 -1.8544 0.9554
10.3933 4.3011 -1.8530 0.9554
9.9609 5.2072 -1.8516 0.9555
8.8492 8.2380 -1.9917 0.9522
8.0742 8.9891 -1.9905 0.9522
5.3979 10.7896 -1.9875 0.9523
3.3923 11.5685 -1.9860 0.9523
2.3462 11.8217 -1.9855 0.9523
0.2082 12.0462 -1.9848 0.9523
-0.8671 12.0159 -1.9846 0.9523
-1.8474 5.2227 -0.9126 0.9778
-5.9754 10.4696 -1.9859 0.9523
-7.7461 9.2478 -1.9873 0.9523
-9.2748 7.7315 -1.9892 0.9522
-10.5130 5.9672 -1.9914 0.9522
-11.4209 4.0095 -1.9940 0.9521
-11.7413 2.9769 -1.9955 0.9521
-11.9687 1.9191 -1.9969 0.9520
-12.0773 -1.3213 -2.0015 0.9519
-11.6683 -3.4516 -2.0046 0.9519
-7.6732 -8.2817 -1.8599 0.9553
-6.0862 -9.5238 -1.8620 0.9552
-3.3517 -10.8087 -1.8643 0.9552
-2.3749 -11.0678 -1.8648 0.9551
0.6405 -11.3070 -1.8657 0.9551
3.6107 -10.7323 -1.8654 0.9551
6.3186 -9.3862 -1.8640 0.9552
7.1279 -8.7819 -1.8633 0.9552
8.1233 -8.3585 -1.9201 0.9538
9.2719 -7.9750 -2.0147 0.9516
10.5295 -6.1936 -2.0124 0.9517
11.0329 -5.2263 -2.0112 0.9517
11.7698 -3.1784 -2.0084 0.9518
11.9977 -2.1143 -2.0069 0.9518
12.1294 -1.0349 -2.0054 0.9518
12.1640 0.0511 -2.0039 0.9519
12.1017 1.1351 -2.0024 0.9519
11.0803 2.0488 -1.8563 0.9553
6.8781 4.1240 -1.3212 0.9680
9.7818 7.1236 -1.9935 0.9521
8.3498 8.7372 -1.9909 0.9522
5.7295 10.6193 -1.9878 0.9523
0.5803 12.0346 -1.9849 0.9523
-1.5671 11.9446 -1.9846 0.9523
-2.6264 11.7576 -1.9847 0.9523
-1.7043 5.3370 -0.9230 0.9775
-2.2627 5.3755 -0.9608 0.9766
-5.6486 10.6482 -1.9857 0.9523
-7.4557 9.4813 -1.9870 0.9523
-8.2752 8.7822 -1.9879 0.9523
-10.8479 5.3454 -1.9923 0.9522
-11.6409 3.3373 -1.9950 0.9521
-11.9007 2.2873 -1.9964 0.9521
-12.0663 1.2175 -1.9979 0.9520
-12.1360 0.1365 -1.9994 0.9520
-12.1091 -0.9473 -2.0009 0.9520
-11.7662 -3.0886 -2.0040 0.9519
-9.9723 -7.0291 -2.0099 0.9517
-8.9048 -7.5508 -1.9234 0.9538
-7.1793 -8.7189 -1.8606 0.9552
-6.3764 -9.3296 -1.8616 0.9552
-2.7154 -10.9882 -1.8646 0.9552
-0.7200 -11.3007 -1.8654 0.9551
2.2979 -11.0895 -1.8657 0.9551
3.2776 -10.8393 -1.8655 0.9551
5.1495 -10.0804 -1.8648 0.9551
6.0263 -9.5781 -1.8642 0.9552
6.8542 -8.9991 -1.8636 0.9552
7.6264 -8.3484 -1.8628 0.9552
10.3353 -6.5173 -2.0129 0.9517
11.3143 -4.5713 -2.0103 0.9517
11.6689 -3.5413 -2.0089 0.9518
11.9297 -2.4846 -2.0075 0.9518
12.1342 0.7609 -2.0029 0.9519
10.6446 3.6529 -1.8540 0.9554
10.2686 4.5844 -1.8526 0.9554
9.8116 5.4781 -1.8512 0.9555
7.7124 5.2597 -1.5379 0.9629
9.3452 7.6792 -1.9926 0.9521
8.6175 8.4768 -1.9914 0.9522
6.9662 9.8620 -1.9891 0.9522
5.0983 10.9326 -1.9872 0.9523
2.0199 11.8810 -1.9853 0.9523
-0.1233 12.0470 -1.9847 0.9523
-2.2619 11.8329 -1.9846 0.9523
-1.9330 6.7684 -1.1596 0.9719
-1.9936 5.1782 -0.9141 0.9778
-4.0416 5.4800 -1.1217 0.9728
-8.7765 8.2866 -1.9885 0.9522
-10.1202 6.6023 -1.9906 0.9522
-10.6753 5.6768 -1.9918 0.9522
-11.1463 4.7049 -1.9931 0.9521
-11.5294 3.6945 -1.9945 0.9521
-12.0198 1.5893 -1.9974 0.9520
-12.1228 0.5112 -1.9989 0.9520
-12.0392 -1.6535 -2.0019 0.9519
-11.5716 -3.7722 -2.0050 0.9519
-11.1974 -4.7930 -2.0065 0.9518
-10.7331 -5.7769 -2.0080 0.9518
-9.5358 -7.5921 -2.0080 0.9518
-7.4438 -8.4912 -1.8602 0.9553
-3.0533 -10.8979 -1.8644 0.9552
5.7282 -9.7608 -1.8644 0.9552
6.5738 -9.2078 -1.8638 0.9552
7.3660 -8.5813 -1.8631 0.9552
9.4863 -7.7156 -2.0144 0.9516
10.1311 -6.8349 -2.0133 0.9517
11.1703 -4.9197 -2.0108 0.9517
10.2330 -3.0679 -2.0080 0.9575
10.4592 -2.1415 -2.0067 0.9575
10.6016 -1.1992 -2.0054 0.9575
10.6592 -0.2486 -2.0041 0.9575
10.5196 1.6471 -2.0014 0.9576
8.5864 4.8321 -1.8519 0.9607
8.1723 6.7618 -1.9937 0.9577
4.8558 5.7541 -1.4152 0.9698
6.0810 8.6708 -1.9906 0.9578
5.2811 9.1747 -1.9898 0.9578
2.8096 6.0783 -1.2586 0.9731
2.6609 10.2353 -1.9878 0.9579
1.7369 10.4295 -1.9873 0.9579
0.7995 10.5412 -1.9870 0.9579
-2.0196 10.3752 -1.9867 0.9579
-5.5241 9.0196 -1.9880 0.9579
-4.0247 5.4187 -1.2687 0.9729
-7.0435 7.8997 -1.9893 0.9578
-9.3791 4.9469 -1.9931 0.9578
-9.7885 4.0929 -1.9942 0.9577
-10.1207 3.2054 -1.9954 0.9577
-10.3727 2.2913 -1.9967 0.9577
-10.5426 1.3578 -1.9980 0.9577
-10.6302 -0.5378 -2.0006 0.9576
-10.5470 -1.4849 -2.0020 0.9576
-10.3796 -2.4214 -2.0033 0.9575
-9.3866 -5.0931 -2.0073 0.9575
-8.9004 -5.9138 -2.0085 0.9574
-8.3424 -6.6881 -2.0097 0.9574
-7.1301 -6.8464 -1.8580 0.9606
-5.8061 -8.0125 -1.8599 0.9605
-5.0705 -8.5022 -1.8607 0.9605
-4.2935 -8.9242 -1.8614 0.9605
-0.0182 -9.9148 -1.8636 0.9604
0.8663 -9.8775 -1.8637 0.9604
1.7439 -9.7608 -1.8637 0.9604
4.2644 -8.9474 -1.8630 0.9605
5.0443 -8.5293 -1.8626 0.9605
7.7005 -7.4485 -2.0137 0.9573
8.3305 -6.7289 -2.0128 0.9574
9.7991 -4.2764 -2.0096 0.9574
10.1355 -3.3832 -2.0084 0.9574
10.3903 -2.4641 -2.0071 0.9575
10.5619 -1.5265 -2.0059 0.9575
10.6489 -0.5779 -2.0045 0.9575
10.5679 1.3217 -2.0018 0.9576
6.8551 4.4037 -1.5315 0.9674
7.7607 7.2248 -1.9930 0.9578
7.0816 7.8840 -1.9919 0.9578
5.5628 9.0084 -1.9900 0.9578
4.7352 9.4649 -1.9893 0.9578
2.9761 10.1491 -1.9880 0.9579
1.2389 6.2422 -1.1962 0.9744
1.1249 10.5120 -1.9871 0.9579
-1.6981 10.4326 -1.9867 0.9579
-2.6220 10.2401 -1.9868 0.9579
-4.4011 9.6139 -1.9874 0.9579
-8.7119 6.0318 -1.9917 0.9578
-9.6555 4.3925 -1.9938 0.9577
-10.0147 3.5158 -1.9950 0.9577
-10.6084 0.7403 -1.9988 0.9576
-10.6393 -0.2091 -2.0002 0.9576
-10.5854 -1.1581 -2.0015 0.9576
-10.2250 -3.0246 -2.0042 0.9575
-9.9210 -3.9272 -2.0055 0.9575
-8.5433 -6.4259 -2.0093 0.9574
-4.5666 -8.7861 -1.8612 0.9605
-2.0794 -9.6906 -1.8629 0.9605
-1.2069 -9.8394 -1.8633 0.9605
0.5608 -9.8994 -1.8637 0.9604
4.7788 -8.6819 -1.8627 0.9605
6.5828 -8.1103 -1.9634 0.9584
8.7064 -6.2291 -2.0122 0.9574
9.2225 -5.4248 -2.0111 0.9574
9.6643 -4.5780 -2.0100 0.9574
10.3115 -2.7846 -2.0076 0.9575
10.6598 0.0448 -2.0036 0.9575
10.6062 0.9948 -2.0023 0.9576
10.2897 1.9026 -1.9668 0.9583
8.9546 2.4991 -1.7474 0.9629
7.3188 2.7672 -1.4707 0.9687
6.8568 4.1112 -1.5027 0.9680
8.5778 6.2467 -1.9945 0.9577
7.9817 6.9829 -1.9933 0.9578
7.3231 7.6629 -1.9923 0.9578
4.5745 5.7338 -1.3787 0.9706
3.2885 10.0533 -1.9882 0.9579
1.4492 10.4728 -1.9872 0.9579
-2.3044 10.3159 -1.9868 0.9579
-1.6966 5.3132 -1.0483 0.9776
-5.7707 8.8650 -1.9882 0.9579
-7.2591 7.7038 -1.9896 0.9578
-8.5200 6.2970 -1.9913 0.9578
-9.8993 3.8227 -1.9946 0.9577
-10.2070 2.9262 -1.9958 0.9577
-10.4339 2.0054 -1.9971 0.9577
-10.6136 -0.8303 -2.0010 0.9576
-10.5044 -1.7749 -2.0024 0.9576
-9.6789 -4.5017 -2.0064 0.9575
-8.1407 -6.9029 -2.0062 0.9575
-5.5842 -8.1704 -1.8601 0.9605
-4.0468 -9.0399 -1.8616 0.9605
-1.5102 -9.7968 -1.8632 0.9605
-0.6304 -9.8940 -1.8635 0.9605
0.2547 -9.9118 -1.8636 0.9604
2.0119 -9.7090 -1.8637 0.9604
3.7042 -9.1949 -1.8633 0.9605
5.2766 -8.3866 -1.8624 0.9605
6.1326 -8.0516 -1.9024 0.9596
7.2185 -7.9018 -2.0117 0.9574
8.5112 -6.4962 -2.0125 0.9574
9.0522 -5.7082 -2.0115 0.9574
9.9113 -4.0044 -2.0092 0.9574
10.2228 -3.1025 -2.0080 0.9575
10.4522 -2.1769 -2.0068 0.9575
10.5978 -1.2351 -2.0054 0.9575
10.6586 -0.2846 -2.0041 0.9575
10.6343 0.6668 -2.0028 0.9576
9.5864 2.3587 -1.8556 0.9606
2.6955 10.2264 -1.9878 0.9579
1.7721 10.4237 -1.9874 0.9579
0.8351 10.5385 -1.9870 0.9579
-1.6233 5.6838 -1.1110 0.9762
-5.4935 9.0381 -1.9880 0.9579
-3.9932 5.4143 -1.2645 0.9730
-7.0167 7.9234 -1.9893 0.9578
-7.6986 7.2688 -1.9901 0.9578
-10.1096 3.2395 -1.9954 0.9577
-10.3647 2.3263 -1.9966 0.9577
-10.6270 0.4481 -1.9992 0.9576
-10.5517 -1.4492 -2.0019 0.9576
-10.3874 -2.3863 -2.0033 0.9575
-10.1399 -3.3055 -2.0046 0.9575
-9.4035 -5.0613 -2.0072 0.9575
-8.3647 -6.6597 -2.0097 0.9574
-7.1531 -6.8221 -1.8579 0.9606
-5.8330 -7.9927 -1.8598 0.9605
-3.5129 -9.2629 -1.8621 0.9605
-2.6734 -9.5421 -1.8626 0.9605
-1.8120 -9.7448 -1.8630 0.9605
-0.9357 -9.8694 -1.8634 0.9605
0.8330 -9.8804 -1.8637 0.9604
1.7110 -9.7667 -1.8637 0.9604
3.4186 -9.3055 -1.8634 0.9605
4.2342 -8.9619 -1.8630 0.9605
5.0155 -8.5464 -1.8626 0.9605
5.7562 -8.0626 -1.8620 0.9605
6.9575 -8.1055 -2.0078 0.9575
7.6754 -7.4746 -2.0137 0.9573
8.3079 -6.7571 -2.0128 0.9574
8.8731 -5.9862 -2.0119 0.9574
9.3667 -5.1681 -2.0108 0.9574
9.7849 -4.3095 -2.0096 0.9574
10.1242 -3.4175 -2.0084 0.9574
9.0961 -2.7270 -2.0073 0.9619
9.2979 -1.9037 -2.0062 0.9619
9.4534 0.6248 -2.0026 0.9620
9.3543 1.4647 -2.0014 0.9620
8.6809 2.1671 -1.8913 0.9641
8.2892 2.8759 -1.8546 0.9648
6.7450 5.5809 -1.8505 0.9648
6.7013 6.6366 -1.9936 0.9622
6.0798 7.2045 -1.9927 0.9622
5.4106 7.7149 -1.9918 0.9622
2.8095 6.0781 -1.4154 0.9730
3.1717 8.8630 -1.9898 0.9622
1.0577 6.3509 -1.3609 0.9740
0.7115 9.3810 -1.9886 0.9623
-0.0889 6.5317 -1.3808 0.9736
-1.7973 9.2334 -1.9884 0.9623
-4.1793 8.4311 -1.9891 0.9623
-4.0079 5.3960 -1.4208 0.9729
-6.2675 7.0294 -1.9907 0.9622
-8.7077 3.6410 -1.9951 0.9621
-9.3765 1.2076 -1.9984 0.9621
-9.4531 -0.4783 -2.0008 0.9620
-9.3784 -1.3204 -2.0020 0.9620
-9.2288 -2.1529 -2.0032 0.9620
-9.0053 -2.9693 -2.0044 0.9620
-8.7097 -3.7630 -2.0055 0.9620
-8.3441 -4.5275 -2.0067 0.9619
-7.4148 -5.9445 -2.0089 0.9619
-6.8392 -6.5670 -2.0042 0.9620
-5.1596 -7.1204 -1.8587 0.9647
-4.5057 -7.5552 -1.8595 0.9647
-3.0936 -8.2410 -1.8607 0.9647
-0.8018 -8.7715 -1.8618 0.9646
-0.0162 -8.8090 -1.8620 0.9646
1.5494 -8.6721 -1.8621 0.9646
2.3167 -8.4988 -1.8620 0.9646
3.0652 -8.2574 -1.8618 0.9646
3.7889 -7.9497 -1.8615 0.9646
5.5507 -7.7196 -2.0098 0.9619
6.2274 -7.2055 -2.0131 0.9618
7.9034 -5.2933 -2.0107 0.9619
8.3401 -4.5650 -2.0097 0.9619
8.7097 -3.8010 -2.0087 0.9619
9.2364 -2.1905 -2.0066 0.9619
9.3896 -1.3571 -2.0054 0.9620
9.3970 1.1752 -2.0018 0.9620
8.3758 2.6190 -1.8550 0.9648
8.1041 3.3537 -1.8539 0.9648
5.7052 2.9825 -1.3608 0.9740
6.9155 5.3708 -1.8509 0.9648
6.4056 5.9632 -1.8499 0.9649
6.3004 7.0144 -1.9930 0.9622
5.6472 7.5451 -1.9921 0.9622
4.9497 8.0156 -1.9913 0.9622
3.4444 8.7617 -1.9900 0.9622
2.6484 9.0316 -1.9895 0.9623
1.2389 6.2424 -1.3453 0.9743
0.1626 9.4059 -1.9885 0.9623
-0.6770 9.3823 -1.9884 0.9623
-1.5112 9.2845 -1.9884 0.9623
-2.3335 9.1131 -1.9885 0.9623
-1.8416 5.2063 -1.1673 0.9777
-3.9166 8.5556 -1.9890 0.9623
-3.8890 5.5888 -1.4392 0.9725
-7.2384 6.0339 -1.9919 0.9622
-7.7511 5.3665 -1.9928 0.9622
-9.1570 2.3216 -1.9968 0.9621
-9.3329 1.4964 -1.9980 0.9621
-9.4347 0.6583 -1.9991 0.9621
-9.2890 -1.8664 -2.0027 0.9620
-8.8200 -3.4914 -2.0051 0.9620
-8.4783 -4.2667 -2.0063 0.9619
-8.0684 -5.0087 -2.0074 0.9619
-7.5936 -5.7116 -2.0085 0.9619
-6.0700 -6.5514 -1.8879 0.9641
-5.3763 -6.9566 -1.8585 0.9647
-4.7363 -7.4115 -1.8592 0.9647
-4.0578 -7.8073 -1.8599 0.9647
-3.3463 -8.1407 -1.8605 0.9647
-2.6076 -8.4091 -1.8610 0.9646
-1.8475 -8.6101 -1.8614 0.9646
-0.2883 -8.8040 -1.8620 0.9646
2.0530 -8.5665 -1.8621 0.9646
2.8087 -8.3485 -1.8619 0.9646
3.5417 -8.0635 -1.8616 0.9646
4.2756 -7.7676 -1.8742 0.9644
6.0025 -7.3953 -2.0133 0.9618
7.2158 -6.2065 -2.0119 0.9618
8.5896 -4.0690 -2.0091 0.9619
9.4492 -0.8062 -2.0046 0.9620
9.4778 0.0398 -2.0034 0.9620
9.4308 0.8846 -2.0022 0.9620
8.4697 2.3637 -1.8587 0.9647
7.3189 2.7672 -1.6539 0.9685
7.0794 5.1555 -1.8512 0.9648
6.5152 6.8175 -1.9933 0.9622
4.5750 5.7344 -1.5506 0.9705
3.2436 6.0118 -1.4439 0.9725
2.6207 6.1055 -1.4044 0.9732
2.9264 8.9462 -1.9897 0.9622
2.1162 9.1695 -1.9892 0.9623
1.2896 9.3200 -1.9888 0.9623
-0.2697 6.5535 -1.3865 0.9735
-1.2237 9.3267 -1.9884 0.9623
-2.0508 9.1806 -1.9884 0.9623
-4.2757 5.4374 -1.4621 0.9721
-6.4592 6.8549 -1.9909 0.9622
-7.0475 6.2538 -1.9917 0.9622
-7.5804 5.6025 -1.9925 0.9622
-8.4632 4.1703 -1.9944 0.9622
-9.0792 2.6029 -1.9965 0.9621
-9.4607 0.1064 -1.9999 0.9621
-9.3403 -1.5782 -2.0023 0.9620
-8.6044 -4.0019 -2.0059 0.9619
-7.7650 -5.4732 -2.0081 0.9619
-7.2496 -6.1473 -2.0092 0.9619
-6.5317 -6.6267 -1.9668 0.9627
-5.5879 -6.7862 -1.8582 0.9647
-2.8659 -8.3238 -1.8608 0.9646
-1.3418 -8.7043 -1.8617 0.9646
0.2263 -8.8063 -1.8621 0.9646
1.0109 -8.7513 -1.8621 0.9646
2.5496 -8.4316 -1.8620 0.9646
4.0060 -7.8420 -1.8614 0.9646
4.9422 -7.8550 -1.9617 0.9628
5.7692 -7.5745 -2.0126 0.9618
6.4226 -7.0306 -2.0129 0.9618
7.5638 -5.7730 -2.0113 0.9618
8.8096 -3.5593 -2.0084 0.9619
9.4217 -1.0980 -2.0050 0.9620
9.4765 -0.2530 -2.0039 0.9620
9.4556 0.5929 -2.0027 0.9620
8.2991 2.8480 -1.8547 0.9648
4.7267 8.1478 -1.9911 0.9622
2.8160 6.0386 -1.4084 0.9731
1.5771 9.2762 -1.9889 0.9623
0.7432 9.3786 -1.9887 0.9623
-0.0670 6.5460 -1.3838 0.9736
-1.7662 9.2394 -1.9884 0.9623
-2.0082 5.2160 -1.1814 0.9774
-4.1508 8.4451 -1.9891 0.9623
-3.9776 5.3932 -1.4165 0.9730
-6.2436 7.0504 -1.9907 0.9622
-6.8501 6.4677 -1.9914 0.9622
-7.4026 5.8332 -1.9922 0.9622
-7.8969 5.1519 -1.9931 0.9622
-8.3289 4.4290 -1.9940 0.9622
-8.6952 3.6703 -1.9950 0.9621
-8.9927 2.8816 -1.9961 0.9621
-9.2190 2.0691 -1.9972 0.9621
-9.3722 1.2393 -1.9983 0.9621
-9.4509 0.3985 -1.9995 0.9621
-9.4544 -0.4463 -2.0007 0.9620
-9.2358 -2.1217 -2.0031 0.9620
-9.0151 -2.9389 -2.0043 0.9620
-8.7221 -3.7335 -2.0055 0.9620
-8.3591 -4.4992 -2.0066 0.9619
-7.4347 -5.9193 -2.0088 0.9619
-5.7940 -6.6093 -1.8579 0.9647
-5.1836 -7.1028 -1.8587 0.9647
-3.1213 -8.2305 -1.8607 0.9647
-2.3754 -8.4783 -1.8611 0.9646
-1.6100 -8.6582 -1.8615 0.9646
-0.0459 -8.8088 -1.8620 0.9646
2.2879 -8.5066 -1.8620 0.9646
3.7621 -7.9625 -1.8615 0.9646
5.5237 -7.7369 -2.0095 0.9619
6.2031 -7.2266 -2.0131 0.9618
6.8206 -6.6421 -2.0124 0.9618
8.3248 -4.5932 -2.0098 0.9619
8.1788 -2.4520 -2.0067 0.9655
8.3607 -1.7118 -2.0057 0.9655
8.4756 -0.9587 -2.0047 0.9656
8.5228 -0.1988 -2.0036 0.9656
8.4134 1.3174 -2.0014 0.9656
8.2579 2.0615 -2.0004 0.9656
7.4564 2.5870 -1.8549 0.9681
7.1921 3.2401 -1.8539 0.9681
6.0687 5.0212 -1.8512 0.9682
5.0756 6.0145 -1.8496 0.9682
4.2286 7.3463 -1.9922 0.9658
2.2082 6.1705 -1.5403 0.9734
2.1310 8.1972 -1.9906 0.9658
1.3911 8.3531 -1.9902 0.9658
-0.1153 8.4656 -1.9898 0.9658
-1.6176 8.3102 -1.9897 0.9658
-1.5664 5.4152 -1.3249 0.9771
-3.4896 7.0397 -1.8466 0.9682
-3.9910 5.3733 -1.5731 0.9729
-6.1839 5.7993 -1.9925 0.9658
-6.6789 5.2265 -1.9932 0.9658
-7.1213 4.6117 -1.9940 0.9657
-8.0992 2.5652 -1.9967 0.9657
-8.4347 1.0863 -1.9987 0.9657
-8.5025 0.3298 -1.9998 0.9656
-8.5026 -0.4302 -2.0009 0.9656
-8.4349 -1.1875 -2.0019 0.9656
-8.2998 -1.9362 -2.0030 0.9656
-8.0984 -2.6703 -2.0041 0.9656
-7.5028 -4.0710 -2.0062 0.9655
-6.6665 -5.3446 -2.0081 0.9655
-6.1660 -5.9206 -2.0090 0.9655
-5.5964 -6.4276 -2.0030 0.9656
-2.7807 -7.4075 -1.8596 0.9680
-2.1093 -7.6278 -1.8600 0.9680
-0.0145 -7.9174 -1.8608 0.9680
0.6918 -7.8875 -1.8609 0.9680
2.7968 -7.5345 -1.8888 0.9675
3.6447 -7.6473 -1.9910 0.9658
4.9991 -6.9524 -2.0125 0.9654
5.5977 -6.4769 -2.0120 0.9654
6.6550 -5.3756 -2.0106 0.9655
7.1052 -4.7586 -2.0098 0.9655
7.4981 -4.1041 -2.0089 0.9655
8.1005 -2.7040 -2.0071 0.9655
8.4435 -1.2203 -2.0050 0.9656
8.5169 0.2991 -2.0029 0.9656
8.4517 1.0570 -2.0018 0.9656
7.5379 2.3570 -1.8562 0.9681
7.2901 3.0169 -1.8543 0.9681
5.7053 2.9825 -1.5130 0.9739
6.6313 4.2599 -1.8524 0.9681
4.4541 7.2130 -1.9924 0.9658
3.7917 7.5791 -1.9917 0.9658
2.3834 8.1281 -1.9907 0.9658
0.6857 6.4077 -1.5146 0.9739
0.1463 8.4653 -1.9898 0.9658
-1.0071 6.1871 -1.4733 0.9746
-2.1001 8.2018 -1.9898 0.9658
-1.8373 5.1940 -1.2948 0.9776
-3.2703 7.1437 -1.8465 0.9682
-2.4327 4.2623 -1.1534 0.9800
-6.0011 5.9869 -1.9922 0.9658
-7.3805 4.1892 -1.9945 0.9657
-8.3956 1.3461 -1.9984 0.9657
-8.4867 0.5922 -1.9994 0.9656
-8.3541 -1.6786 -2.0026 0.9656
-8.1755 -2.4184 -2.0037 0.9656
-7.9314 -3.1397 -2.0048 0.9656
-7.2547 -4.5036 -2.0068 0.9655
-6.8274 -5.1352 -2.0078 0.9655
-6.3450 -5.7264 -2.0087 0.9655
-4.2576 -6.6624 -1.8582 0.9680
-3.6476 -7.0179 -1.8589 0.9680
-3.0079 -7.3174 -1.8594 0.9680
-2.3438 -7.5584 -1.8599 0.9680
-1.6606 -7.7389 -1.8602 0.9680
-0.2591 -7.9130 -1.8607 0.9680
1.1512 -7.8337 -1.8609 0.9680
4.1227 -7.4899 -2.0093 0.9655
4.7823 -7.1041 -2.0127 0.9654
5.3955 -6.6475 -2.0122 0.9654
6.4866 -5.5793 -2.0108 0.9655
6.9558 -4.9766 -2.0101 0.9655
7.7227 -3.6583 -2.0084 0.9655
8.0145 -2.9534 -2.0074 0.9655
8.2419 -2.2257 -2.0064 0.9655
8.4033 -1.4809 -2.0054 0.9655
8.4819 0.7956 -2.0022 0.9656
8.0606 2.2496 -1.9668 0.9662
7.0991 3.4362 -1.8536 0.9681
6.7609 4.0537 -1.8527 0.9681
5.9274 5.1856 -1.8509 0.9682
5.4389 5.6912 -1.8501 0.9682
4.0245 7.4592 -1.9920 0.9658
2.0279 6.1994 -1.5330 0.9736
1.9045 8.2523 -1.9905 0.9658
1.1607 8.3879 -1.9901 0.9658
0.3120 6.4704 -1.5225 0.9737
-0.2697 6.5538 -1.5416 0.9734
-1.1013 8.3941 -1.9897 0.9658
-1.3983 6.2599 -1.5075 0.9740
-1.6829 5.2702 -1.3002 0.9775
-4.2876 6.5867 -1.8471 0.9682
-4.2535 5.4091 -1.6172 0.9721
-5.8126 6.1687 -1.9920 0.9658
-6.3418 5.6275 -1.9927 0.9658
-6.8210 5.0413 -1.9934 0.9657
-7.2465 4.4145 -1.9942 0.9657
-8.1680 2.3417 -1.9970 0.9657
-8.3485 1.6046 -1.9980 0.9657
-8.4628 0.8539 -1.9990 0.9657
-8.5097 0.0957 -2.0001 0.9656
-8.4889 -0.6641 -2.0012 0.9656
-8.4004 -1.4194 -2.0023 0.9656
-8.2448 -2.1642 -2.0034 0.9656
-8.0231 -2.8926 -2.0044 0.9656
-7.7372 -3.5986 -2.0055 0.9655
-7.3891 -4.2766 -2.0065 0.9655
-6.5179 -5.5268 -2.0084 0.9655
-6.0006 -6.0879 -2.0090 0.9655
-5.3168 -6.4569 -1.9658 0.9662
-4.4609 -6.5269 -1.8580 0.9680
-3.8622 -6.9011 -1.8586 0.9680
-1.8987 -7.6835 -1.8601 0.9680
-1.2060 -7.8235 -1.8604 0.9680
0.2034 -7.9150 -1.8608 0.9680
0.9086 -7.8655 -1.8609 0.9680
2.2915 -7.5783 -1.8607 0.9680
3.0489 -7.5683 -1.9176 0.9670
3.8846 -7.6045 -2.0069 0.9655
4.5609 -7.2491 -2.0129 0.9654
6.3119 -5.7777 -2.0111 0.9655
6.7996 -5.1898 -2.0104 0.9655
7.6072 -3.8957 -2.0087 0.9655
7.9207 -3.2002 -2.0077 0.9655
8.1706 -2.4797 -2.0068 0.9655
8.5223 -0.2276 -2.0036 0.9656
8.5040 0.5332 -2.0026 0.9656
7.4652 2.5618 -1.8549 0.9681
7.2032 3.2158 -1.8540 0.9681
6.8841 3.8436 -1.8530 0.9681
4.8922 6.9259 -1.9929 0.9658
4.2535 7.3321 -1.9922 0.9658
2.2311 6.1689 -1.5418 0.9734
2.1587 8.1900 -1.9906 0.9658
0.6689 8.4406 -1.9900 0.9658
-0.8415 8.4241 -1.9897 0.9658
-1.5515 5.4323 -1.3278 0.9771
-2.0106 5.2222 -1.3152 0.9773
-3.4658 7.0514 -1.8466 0.9682
-4.0818 6.7155 -1.8470 0.9682
-3.9612 5.3709 -1.5685 0.9730
-7.4940 3.9850 -1.9948 0.9657
-8.2935 1.8614 -1.9977 0.9657
-8.3061 -1.9082 -2.0030 0.9656
-8.1072 -2.6429 -2.0041 0.9656
-7.8432 -3.3573 -2.0051 0.9656
-7.1291 -4.7022 -2.0071 0.9655
-6.6844 -5.3219 -2.0081 0.9655
-6.1859 -5.8996 -2.0090 0.9655
-5.6190 -6.4097 -2.0033 0.9656
-4.7117 -6.4562 -1.8785 0.9677
-3.4534 -7.1163 -1.8590 0.9680
-2.1350 -7.6206 -1.8600 0.9680
-1.4471 -7.7821 -1.8603 0.9680
-0.0413 -7.9173 -1.8608 0.9680
0.6652 -7.8898 -1.8609 0.9680
2.0564 -7.6457 -1.8608 0.9680
3.6110 -7.6429 -1.9866 0.9659
4.3321 -7.3818 -2.0116 0.9654
5.5759 -6.4959 -2.0120 0.9654
6.1311 -5.9707 -2.0113 0.9654
7.4844 -4.1295 -2.0090 0.9655
8.0915 -2.7314 -2.0071 0.9655
7.4223 -2.2252 -2.0063 0.9685
7.5877 -1.5536 -2.0054 0.9685
7.7171 0.5101 -2.0025 0.9685
7.6371 1.1958 -2.0015 0.9686
7.4963 1.8713 -2.0005 0.9686
6.9910 2.4255 -1.9160 0.9699
6.5294 2.9415 -1.8542 0.9708
6.2381 3.5106 -1.8534 0.9709
5.8975 4.0512 -1.8525 0.9709
5.5103 4.5592 -1.8518 0.9709
4.6089 5.4615 -1.8503 0.9709
4.1019 5.8488 -1.8497 0.9709
2.8093 6.0777 -1.7336 0.9727
1.2634 7.5863 -1.9913 0.9687
-0.1047 7.6886 -1.9909 0.9687
-0.7330 7.0959 -1.8470 0.9710
-1.1000 5.6512 -1.4907 0.9765
-2.4343 4.9107 -1.4191 0.9776
-3.7276 6.0863 -1.8479 0.9709
-3.9379 5.3018 -1.7100 0.9731
-4.7520 5.3297 -1.8488 0.9709
-6.4664 4.1876 -1.9947 0.9687
-6.8168 3.5955 -1.9955 0.9687
-7.1133 2.9743 -1.9963 0.9686
-7.5353 1.6645 -1.9981 0.9686
-7.6574 0.9862 -1.9990 0.9686
-7.7185 0.2994 -2.0000 0.9686
-7.7182 -0.3905 -2.0009 0.9686
-7.5334 -1.7574 -2.0029 0.9685
-7.3502 -2.4236 -2.0039 0.9685
-6.8090 -3.6946 -2.0058 0.9685
-6.4552 -4.2891 -2.0067 0.9685
-6.0495 -4.8499 -2.0076 0.9685
-5.0955 -5.8523 -2.0091 0.9684
-3.8738 -6.4957 -1.9582 0.9692
-0.6546 -7.1606 -1.8617 0.9707
-0.0132 -7.1827 -1.8597 0.9708
0.6315 -7.2004 -1.8715 0.9706
2.6998 -7.2731 -2.0087 0.9685
3.9556 -6.6885 -2.0120 0.9684
4.5355 -6.3076 -2.0115 0.9684
6.4471 -4.3179 -2.0091 0.9684
6.8039 -3.7241 -2.0083 0.9685
7.1060 -3.1011 -2.0075 0.9685
7.3511 -2.4538 -2.0066 0.9685
7.7277 -0.4194 -2.0038 0.9685
7.7305 0.2715 -2.0028 0.9685
7.5518 1.6391 -2.0008 0.9686
7.3719 2.3051 -1.9999 0.9686
6.6183 2.7389 -1.8545 0.9708
6.0208 3.8677 -1.8528 0.9709
4.1287 3.2065 -1.3535 0.9786
4.7760 5.3172 -1.8505 0.9709
3.7527 6.0771 -1.8493 0.9709
2.8150 7.1607 -1.9922 0.9687
2.1646 7.3817 -1.9917 0.9687
0.8182 7.6465 -1.9911 0.9687
-1.7696 6.9110 -1.8471 0.9710
-1.8333 5.1828 -1.4234 0.9775
-2.9701 6.4879 -1.8475 0.9709
-2.4172 4.2353 -1.2626 0.9801
-6.3332 4.3848 -1.9944 0.9687
-6.7016 3.8039 -1.9952 0.9687
-7.2769 2.5547 -1.9969 0.9686
-7.4791 1.8962 -1.9977 0.9686
-7.6220 1.2221 -1.9987 0.9686
-7.5828 -1.5236 -2.0026 0.9685
-7.4203 -2.1950 -2.0035 0.9685
-6.1956 -4.6600 -2.0073 0.9685
-5.2732 -5.6914 -2.0089 0.9685
-4.7402 -6.1334 -2.0070 0.9685
-3.4108 -6.5624 -1.9149 0.9699
-2.1264 -6.8574 -1.8589 0.9708
-1.5080 -7.0280 -1.8611 0.9707
-0.8744 -7.1284 -1.8595 0.9708
0.4063 -7.1733 -1.8603 0.9707
1.0673 -7.2628 -1.9007 0.9701
1.7639 -7.3602 -1.9596 0.9692
2.4717 -7.3466 -2.0069 0.9685
3.1255 -7.1158 -2.0123 0.9684
3.7473 -6.8080 -2.0121 0.9684
4.3388 -6.4453 -2.0117 0.9684
4.8952 -6.0311 -2.0112 0.9684
5.8855 -5.0623 -2.0100 0.9684
6.6865 -3.9331 -2.0086 0.9685
7.0079 -3.3197 -2.0077 0.9685
7.2729 -2.6802 -2.0069 0.9685
7.4797 -2.0198 -2.0060 0.9685
7.6265 -1.3440 -2.0051 0.9685
7.7123 -0.6580 -2.0041 0.9685
7.6990 0.7221 -2.0022 0.9686
7.6001 1.4053 -2.0012 0.9686
7.4409 2.0766 -2.0002 0.9686
6.7008 2.5335 -1.8548 0.9708
6.4451 3.1196 -1.8540 0.9708
6.1383 3.6804 -1.8531 0.9709
4.4474 3.2388 -1.4245 0.9775
5.3820 4.7085 -1.8515 0.9709
4.9386 5.1678 -1.8508 0.9709
3.3908 6.2846 -1.8489 0.9709
2.8159 6.5603 -1.8484 0.9709
2.3918 7.3118 -1.9919 0.9687
1.7297 7.4946 -1.9915 0.9687
1.0541 7.6179 -1.9912 0.9687
0.3704 7.6807 -1.9910 0.9687
-0.2698 6.5540 -1.6984 0.9733
-0.9280 7.0730 -1.8470 0.9710
-1.1717 5.2452 -1.3915 0.9780
-2.2938 4.3240 -1.2673 0.9800
-3.7821 5.8100 -1.7950 0.9718
-4.2021 5.3438 -1.7601 0.9723
-6.1939 4.5778 -1.9942 0.9687
-6.5800 4.0085 -1.9949 0.9687
-6.9141 3.4070 -1.9957 0.9687
-7.1934 2.7778 -1.9966 0.9686
-7.4158 2.1260 -1.9974 0.9686
-7.5794 1.4568 -1.9984 0.9686
-7.6827 0.7752 -1.9993 0.9686
-7.7250 0.0869 -2.0003 0.9686
-7.7057 -0.6028 -2.0012 0.9686
-7.6250 -1.2884 -2.0022 0.9686
-7.4833 -1.9644 -2.0032 0.9685
-7.0219 -3.2659 -2.0051 0.9685
-5.9145 -5.0152 -2.0078 0.9685
-5.4458 -5.5250 -2.0086 0.9685
-4.9328 -5.9906 -2.0093 0.9684
-2.3371 -6.7879 -1.8588 0.9708
-1.0941 -7.0977 -1.8594 0.9708
0.1845 -7.1805 -1.8598 0.9708
1.5181 -7.3261 -1.9372 0.9696
2.9013 -7.2020 -2.0103 0.9684
4.1379 -6.5767 -2.0118 0.9684
4.7070 -6.1800 -2.0114 0.9684
5.7269 -5.2423 -2.0102 0.9684
6.1697 -4.7090 -2.0096 0.9684
7.5826 -1.5792 -2.0054 0.9685
7.6896 -0.8961 -2.0044 0.9685
7.7351 -0.2065 -2.0035 0.9685
7.0398 2.4159 -1.9271 0.9697
6.2501 3.4896 -1.8534 0.9709
5.9112 4.0314 -1.8526 0.9709
5.0966 5.0134 -1.8510 0.9709
4.1217 5.8350 -1.8497 0.9709
1.9605 7.4380 -1.9916 0.9687
-0.7090 7.0983 -1.8470 0.9710
-1.5448 5.4091 -1.4565 0.9770
-2.0097 5.2199 -1.4482 0.9772
-2.4118 4.9068 -1.4156 0.9777
-3.7070 6.0988 -1.8479 0.9709
-4.7339 5.3456 -1.8488 0.9709
-6.0488 4.7664 -1.9939 0.9687
-6.8046 3.6184 -1.9954 0.9687
-7.1031 2.9983 -1.9963 0.9686
-7.6539 1.0120 -1.9990 0.9686
-7.7173 0.3254 -1.9999 0.9686
-7.7194 -0.3644 -2.0009 0.9686
-7.5392 -1.7320 -2.0029 0.9685
-7.3582 -2.3987 -2.0038 0.9685
-5.6131 -5.3534 -2.0083 0.9685
-5.1152 -5.8350 -2.0091 0.9684
-3.9014 -6.4920 -1.9611 0.9692
-3.2019 -6.5980 -1.8989 0.9702
0.6067 -7.1968 -1.8700 0.9706
1.2775 -7.2925 -1.9169 0.9699
1.9879 -7.3909 -1.9816 0.9689
5.0589 -5.8936 -2.0110 0.9684
6.0220 -4.8979 -2.0098 0.9684
7.0957 -3.1251 -2.0075 0.9685
7.3429 -2.4787 -2.0066 0.9685
6.7872 -2.0348 -2.0059 0.9710
7.0347 -0.7957 -2.0042 0.9710
7.0745 -0.1650 -2.0033 0.9710
7.0579 0.4665 -2.0024 0.9710
6.6736 2.3154 -1.9997 0.9711
5.9727 2.6907 -1.8545 0.9731
5.7064 3.2114 -1.8537 0.9731
5.0410 4.1709 -1.8522 0.9732
4.2166 4.9967 -1.8509 0.9732
2.2005 6.1492 -1.8489 0.9732
0.4937 6.5095 -1.8481 0.9732
-0.6707 6.4930 -1.8479 0.9732
-0.7789 4.0016 -1.1541 0.9832
-1.3668 4.7251 -1.3925 0.9798
-1.8726 4.8152 -1.4626 0.9788
-2.4344 4.9109 -1.5517 0.9775
-3.4107 5.5689 -1.8487 0.9732
-3.8946 5.2436 -1.8491 0.9732
-4.3479 4.8764 -1.8495 0.9732
-5.1379 4.8184 -1.9940 0.9711
-5.5489 4.3422 -1.9946 0.9711
-5.9160 3.8312 -1.9953 0.9711
-6.8929 1.5226 -1.9984 0.9711
-7.0043 0.9021 -1.9992 0.9711
-7.0599 0.2738 -2.0001 0.9711
-7.0594 -0.3572 -2.0010 0.9710
-6.8898 -1.6073 -2.0028 0.9710
-6.7219 -2.2164 -2.0037 0.9710
-5.5316 -4.4347 -2.0071 0.9710
-5.1158 -4.9122 -2.0078 0.9709
-4.1644 -5.7470 -2.0092 0.9709
-3.6352 -6.0956 -2.0092 0.9709
-2.4880 -6.6278 -2.0041 0.9710
-1.2563 -6.8855 -1.9814 0.9713
-0.6381 -6.9812 -1.9846 0.9713
-0.0130 -7.0751 -2.0029 0.9710
1.2482 -6.9861 -2.0090 0.9709
1.8690 -6.8564 -2.0118 0.9709
2.4729 -6.6618 -2.0117 0.9709
3.6163 -6.1147 -2.0111 0.9709
4.6432 -5.3725 -2.0102 0.9709
5.1026 -4.9356 -2.0097 0.9709
5.5208 -4.4594 -2.0091 0.9709
6.2212 -3.4052 -2.0077 0.9709
6.8925 -1.6346 -2.0053 0.9710
7.0078 -1.0129 -2.0045 0.9710
7.0671 -0.3835 -2.0036 0.9710
6.9072 1.4992 -2.0009 0.9710
6.7429 2.1084 -2.0000 0.9711
5.6795 2.9690 -1.8143 0.9737
5.5077 3.5381 -1.8532 0.9732
4.7877 4.4570 -1.8518 0.9732
4.3695 4.8646 -1.8511 0.9732
3.9169 5.2333 -1.8505 0.9732
2.3896 6.0787 -1.8490 0.9732
1.8375 6.2664 -1.8487 0.9732
0.1128 6.5269 -1.8480 0.9732
-1.2289 4.7992 -1.4025 0.9796
-2.2263 4.8631 -1.5141 0.9780
-3.7305 5.3610 -1.8489 0.9732
-4.1948 5.0080 -1.8494 0.9732
-4.9861 4.9743 -1.9938 0.9711
-6.1310 3.4800 -1.9958 0.9711
-6.8416 1.7346 -1.9981 0.9711
-7.0659 -0.1389 -2.0007 0.9710
-7.0285 -0.7689 -2.0016 0.9710
-6.9350 -1.3934 -2.0025 0.9710
-6.5829 -2.6059 -2.0043 0.9710
-5.6652 -4.2611 -2.0068 0.9710
-5.2645 -4.7513 -2.0076 0.9709
-4.8214 -5.2038 -2.0083 0.9709
-4.3395 -5.6150 -2.0089 0.9709
-3.8225 -5.9815 -2.0096 0.9709
-2.0935 -6.7513 -2.0010 0.9710
-1.4702 -6.8517 -1.9838 0.9713
-0.2306 -7.0428 -1.9948 0.9711
0.4006 -7.0724 -2.0054 0.9710
1.6559 -6.9093 -2.0114 0.9709
3.4258 -6.2238 -2.0112 0.9709
4.4754 -5.5138 -2.0104 0.9709
4.9481 -5.0914 -2.0099 0.9709
5.3810 -4.6284 -2.0093 0.9709
6.4078 -3.0354 -2.0072 0.9710
6.6504 -2.4508 -2.0065 0.9710
7.0530 -0.6018 -2.0039 0.9710
7.0754 0.0297 -2.0030 0.9710
6.9513 1.2853 -2.0012 0.9710
6.8059 1.8994 -2.0003 0.9711
6.5591 2.4799 -1.9851 0.9713
5.8956 2.8537 -1.8542 0.9731
5.6152 3.3668 -1.8535 0.9731
3.8138 3.3365 -1.4345 0.9792
4.5182 4.7279 -1.8513 0.9732
4.0771 5.1103 -1.8507 0.9732
3.6039 5.4520 -1.8501 0.9732
3.1024 5.7501 -1.8496 0.9732
2.5765 6.0025 -1.8492 0.9732
1.4684 6.3623 -1.8485 0.9732
0.8949 6.4670 -1.8482 0.9732
0.3144 6.5204 -1.8480 0.9732
-0.2677 6.5029 -1.8425 0.9733
-1.1632 5.2073 -1.5105 0.9781
-2.0387 4.8435 -1.4877 0.9784
-3.5629 5.4733 -1.8488 0.9732
-4.0377 5.1348 -1.8492 0.9732
-4.4808 4.7553 -1.8497 0.9732
-5.2690 4.6756 -1.9942 0.9711
-6.0198 3.6673 -1.9955 0.9711
-6.3253 3.1168 -1.9962 0.9711
-6.7838 1.9448 -1.9978 0.9711
-6.9331 1.3326 -1.9986 0.9711
-7.0274 0.7091 -1.9995 0.9711
-7.0658 0.0795 -2.0004 0.9711
-7.0478 -0.5514 -2.0013 0.9710
-6.9737 -1.1784 -2.0022 0.9710
-6.8439 -1.7965 -2.0031 0.9710
-6.1320 -3.5490 -2.0057 0.9710
-5.7933 -4.0835 -2.0065 0.9710
-4.9793 -5.0517 -2.0080 0.9709
-4.0051 -5.8599 -2.0093 0.9709
-3.4642 -6.1900 -2.0081 0.9709
-2.8945 -6.4658 -2.0055 0.9710
-1.6847 -6.8175 -1.9880 0.9712
-0.4467 -7.0103 -1.9886 0.9712
0.1819 -7.0789 -2.0047 0.9710
0.8135 -7.0426 -2.0070 0.9710
1.4407 -6.9528 -2.0101 0.9709
2.0569 -6.8022 -2.0118 0.9709
3.7829 -6.0125 -2.0110 0.9709
5.2360 -4.7929 -2.0095 0.9709
6.5724 -2.6554 -2.0067 0.9710
6.7804 -2.0577 -2.0059 0.9710
6.9340 -1.4441 -2.0051 0.9710
7.0321 -0.8195 -2.0042 0.9710
7.0595 0.4427 -2.0024 0.9710
6.9888 1.0701 -2.0015 0.9710
6.6815 2.2929 -1.9997 0.9711
5.9818 2.6706 -1.8545 0.9731
5.7173 3.1921 -1.8537 0.9731
4.0577 3.3343 -1.4868 0.9784
4.6627 4.5866 -1.8516 0.9732
2.7609 5.9205 -1.8493 0.9732
1.0943 6.4366 -1.8483 0.9732
0.5157 6.5078 -1.8481 0.9732
-0.0668 6.5274 -1.8480 0.9732
-0.6488 6.4952 -1.8479 0.9732
-0.7654 4.0042 -1.1541 0.9832
-1.3505 4.7286 -1.3922 0.9798
-1.8526 4.8118 -1.4597 0.9788
-2.4119 4.9070 -1.5479 0.9775
-3.3919 5.5804 -1.8487 0.9732
-4.3313 4.8910 -1.8495 0.9732
-5.1215 4.8356 -1.9940 0.9711
-6.4981 2.7429 -1.9967 0.9711
-7.0011 0.9257 -1.9992 0.9711
-7.0604 -0.3333 -2.0010 0.9710
-7.0057 -0.9622 -2.0019 0.9710
-6.2378 -3.3574 -2.0054 0.9710
-5.9159 -3.9020 -2.0062 0.9710
-5.5464 -4.4159 -2.0070 0.9710
-5.1323 -4.8949 -2.0078 0.9709
-4.6769 -5.3350 -2.0085 0.9709
-4.1837 -5.7328 -2.0091 0.9709
-3.6560 -6.0837 -2.0093 0.9709
-1.9003 -6.7828 -1.9941 0.9711
-1.2797 -6.8818 -1.9816 0.9713
-0.0368 -7.0716 -2.0020 0.9710
0.5953 -7.0612 -2.0061 0.9710
1.2245 -6.9899 -2.0089 0.9709
1.8458 -6.8627 -2.0118 0.9709
2.4504 -6.6702 -2.0117 0.9709
3.0353 -6.4242 -2.0114 0.9709
4.1270 -5.7806 -2.0107 0.9709
4.6251 -5.3882 -2.0102 0.9709
5.5058 -4.4781 -2.0091 0.9709
6.7145 -2.2665 -2.0062 0.9710
6.4741 -0.7323 -2.0040 0.9731
6.5110 -0.1519 -2.0032 0.9731
6.4959 0.4293 -2.0024 0.9731
6.4290 1.0066 -2.0015 0.9731
6.3110 1.5754 -2.0007 0.9731
5.2529 2.9562 -1.8540 0.9751
4.9665 3.4117 -1.8533 0.9751
4.2782 4.2369 -1.8520 0.9751
3.0012 5.2139 -1.8504 0.9751
2.5235 5.4595 -1.8499 0.9751
2.0261 5.6617 -1.8496 0.9751
1.5127 5.8189 -1.8492 0.9752
0.4546 5.9936 -1.8488 0.9752
-0.0818 6.0099 -1.8487 0.9752
-0.6176 5.9785 -1.8486 0.9752
-1.3643 4.7166 -1.5102 0.9797
-1.8726 4.8154 -1.5892 0.9786
-2.4345 4.9111 -1.6859 0.9773
-3.5859 4.8278 -1.8497 0.9751
-4.0031 4.4897 -1.8501 0.9751
-4.7303 4.4362 -1.9947 0.9732
-5.4465 3.5271 -1.9958 0.9732
-5.7413 3.0282 -1.9965 0.9732
-6.1924 1.9612 -1.9979 0.9732
-6.4983 0.2521 -2.0003 0.9732
-6.4976 -0.3287 -2.0011 0.9731
-6.4450 -0.9074 -2.0019 0.9731
-6.1863 -2.0398 -2.0036 0.9731
-5.9821 -2.5846 -2.0044 0.9731
-5.4319 -3.6092 -2.0059 0.9731
-5.0901 -4.0808 -2.0066 0.9731
-4.2869 -4.9236 -2.0080 0.9730
-3.3457 -5.6101 -2.0091 0.9730
-2.2967 -6.1181 -2.0100 0.9730
-0.5951 -6.5107 -2.0109 0.9730
-0.0120 -6.5383 -2.0110 0.9730
0.5713 -6.5135 -2.0111 0.9730
1.7195 -6.3081 -2.0110 0.9730
2.2751 -6.1291 -2.0109 0.9730
2.8125 -5.9010 -2.0106 0.9730
3.3271 -5.6258 -2.0103 0.9730
3.8150 -5.3057 -2.0100 0.9730
4.6949 -4.5413 -2.0091 0.9730
5.0799 -4.1032 -2.0085 0.9730
5.4240 -3.6327 -2.0079 0.9731
5.9792 -2.6093 -2.0066 0.9731
6.5041 -0.3530 -2.0035 0.9731
6.5070 0.2285 -2.0026 0.9731
6.4580 0.8077 -2.0018 0.9731
6.2066 1.9407 -2.0002 0.9732
5.3425 2.7928 -1.8542 0.9751
5.0701 3.2570 -1.8535 0.9751
4.0227 4.4785 -1.8516 0.9751
3.6061 4.8181 -1.8510 0.9751
2.2002 5.5968 -1.8497 0.9751
1.6919 5.7697 -1.8493 0.9752
-1.6925 4.7847 -1.5610 0.9790
-2.2325 4.8767 -1.6497 0.9778
-4.5906 4.5798 -1.9945 0.9732
-4.9822 4.1531 -1.9950 0.9732
-5.6443 3.2037 -1.9962 0.9732
-5.9096 2.6884 -1.9969 0.9732
-6.1280 2.1513 -1.9976 0.9732
-6.2979 1.5967 -1.9984 0.9732
-6.4177 1.0290 -1.9992 0.9732
-6.4865 0.4526 -2.0000 0.9732
-6.4691 -0.7077 -2.0016 0.9731
-6.3828 -1.2825 -2.0024 0.9731
-5.5401 -3.4392 -2.0056 0.9731
-5.2131 -3.9211 -2.0064 0.9731
-4.4365 -4.7883 -2.0078 0.9731
-3.9929 -5.1665 -2.0084 0.9730
-0.7959 -6.4889 -2.0108 0.9730
-0.2140 -6.5346 -2.0110 0.9730
0.9506 -6.4690 -2.0111 0.9730
1.5238 -6.3583 -2.0111 0.9730
2.0848 -6.1966 -2.0109 0.9730
2.6289 -5.9854 -2.0107 0.9730
4.5528 -4.6845 -2.0092 0.9730
5.3098 -3.7989 -2.0081 0.9730
5.6257 -3.3091 -2.0075 0.9731
5.8964 -2.7932 -2.0068 0.9731
6.1199 -2.2552 -2.0061 0.9731
6.2943 -1.6997 -2.0053 0.9731
