ply
format ascii 1.0
element vertex 1597
property float32 x
property float32 y
property float32 z
property float32 I
end_header
-0.4960 -7.8568 -1.8502 0.9682
0.2079 -7.8676 -1.8497 0.9682
2.2850 -7.5251 -1.8483 0.9682
2.9475 -7.2890 -1.8478 0.9682
3.5861 -6.9949 -1.8474 0.9682
4.7716 -6.2422 -1.8466 0.9682
5.3092 -5.7898 -1.8462 0.9682
5.8042 -5.2913 -1.8459 0.9682
6.6512 -4.1725 -1.8453 0.9683
7.5567 -3.8463 -1.9928 0.9658
8.1356 -2.4445 -1.9965 0.9657
8.2412 2.0596 -1.9964 0.9657
8.0248 2.7879 -1.9966 0.9657
5.3466 6.3522 -1.9514 0.9665
4.5213 6.4664 -1.8544 0.9681
3.9263 6.8460 -1.8548 0.9681
0.5200 7.0719 -1.6666 0.9713
-0.6968 6.5786 -1.5548 0.9732
-2.8900 7.3652 -1.8595 0.9680
-4.1566 6.7364 -1.8603 0.9680
-4.7428 6.3395 -1.8607 0.9680
-7.1866 4.6128 -2.0070 0.9655
-7.5710 3.9527 -2.0073 0.9655
-7.8947 3.2609 -2.0075 0.9655
-8.1552 2.5427 -2.0077 0.9655
-8.4785 1.0508 -2.0079 0.9655
-8.5386 0.2891 -2.0079 0.9655
-8.4535 -1.2352 -2.0079 0.9655
-8.3089 -1.9854 -2.0078 0.9655
-8.0977 -2.7196 -2.0076 0.9655
-6.5752 -4.4254 -1.8627 0.9680
-6.1249 -4.9719 -1.8541 0.9681
-5.1403 -5.9804 -1.8534 0.9681
-4.5845 -6.4145 -1.8530 0.9681
-3.3682 -7.1248 -1.8522 0.9681
-2.7175 -7.3954 -1.8517 0.9681
-2.0454 -7.6068 -1.8513 0.9682
-1.3572 -7.7571 -1.8508 0.9682
-0.6586 -7.8453 -1.8503 0.9682
0.0450 -7.8707 -1.8498 0.9682
0.7478 -7.8332 -1.8494 0.9682
1.4443 -7.7331 -1.8489 0.9682
2.1289 -7.5712 -1.8484 0.9682
2.7961 -7.3489 -1.8480 0.9682
4.6416 -6.3400 -1.8467 0.9682
5.6937 -5.4105 -1.8460 0.9682
6.1533 -4.8794 -1.8457 0.9682
8.0834 -2.6124 -1.9965 0.9657
8.4183 -1.1319 -1.9963 0.9657
8.4856 -0.3753 -1.9963 0.9657
8.4852 0.3844 -1.9963 0.9657
8.4171 1.1410 -1.9963 0.9657
7.8148 3.3329 -1.9967 0.9657
7.4866 4.0183 -1.9970 0.9657
7.0986 4.6717 -1.9972 0.9657
4.0670 6.7629 -1.8547 0.9681
3.4473 7.1009 -1.8551 0.9681
1.4419 7.7666 -1.8565 0.9681
0.6687 7.0858 -1.6727 0.9712
0.0326 7.0263 -1.6514 0.9715
-2.7368 7.4230 -1.8594 0.9680
-4.0161 6.8207 -1.8603 0.9680
-5.2592 6.1054 -1.8939 0.9674
-6.6347 5.3739 -2.0066 0.9655
-8.4549 1.2260 -2.0079 0.9655
-8.5308 0.4657 -2.0079 0.9655
-8.5383 -0.2983 -2.0079 0.9655
-8.4773 -1.0599 -2.0079 0.9655
-8.3483 -1.8130 -2.0078 0.9655
-8.1524 -2.5515 -2.0077 0.9655
-7.8912 -3.2694 -2.0075 0.9655
-6.8731 -4.4220 -1.9208 0.9670
-6.2267 -4.8443 -1.8541 0.9681
-5.7680 -5.3803 -1.8538 0.9681
-3.5151 -7.0539 -1.8523 0.9681
-2.2025 -7.5632 -1.8514 0.9682
-1.5176 -7.7278 -1.8509 0.9682
-0.8209 -7.8305 -1.8504 0.9682
-0.1179 -7.8705 -1.8499 0.9682
1.2840 -7.7618 -1.8490 0.9682
1.9719 -7.6141 -1.8485 0.9682
2.6436 -7.4056 -1.8481 0.9682
3.2939 -7.1381 -1.8476 0.9682
3.9175 -6.8137 -1.8472 0.9682
4.5096 -6.4350 -1.8468 0.9682
5.0655 -6.0051 -1.8464 0.9682
6.0512 -5.0059 -1.8457 0.9682
6.4732 -4.4445 -1.8454 0.9683
7.2387 -4.0701 -1.9517 0.9665
8.2433 -2.0507 -1.9964 0.9657
8.3932 -1.3059 -1.9963 0.9657
8.4913 0.2087 -1.9963 0.9657
8.3191 1.7167 -1.9964 0.9657
8.1330 2.4533 -1.9965 0.9657
7.8819 3.1704 -1.9967 0.9657
7.1936 4.5236 -1.9972 0.9657
6.7616 5.1490 -1.9974 0.9657
6.2756 5.7335 -1.9978 0.9657
5.7393 6.2724 -1.9981 0.9657
4.2059 6.6770 -1.8546 0.9681
3.4200 6.6888 -1.7656 0.9696
2.9517 7.3223 -1.8555 0.9681
2.2863 7.5586 -1.8559 0.9681
1.6022 7.7346 -1.8564 0.9681
0.1654 6.5283 -1.5348 0.9735
-1.9035 7.6766 -1.8588 0.9680
-3.8738 6.9020 -1.8602 0.9680
-4.4760 6.5297 -1.8606 0.9680
-5.9998 6.0668 -2.0053 0.9655
-6.5218 5.5098 -2.0065 0.9655
-7.4005 4.2624 -2.0071 0.9655
-7.7526 3.5846 -2.0074 0.9655
-8.4276 1.4008 -2.0078 0.9655
-8.5427 -0.1215 -2.0079 0.9655
7.3990 2.1781 -1.9970 0.9686
6.1699 4.6337 -1.9979 0.9686
5.2484 5.6596 -1.9985 0.9686
4.7226 6.1070 -1.9988 0.9686
4.0415 6.3221 -1.9428 0.9695
2.1212 6.8475 -1.8560 0.9708
1.5012 7.0112 -1.8565 0.9708
-0.4121 7.1633 -1.8578 0.9708
-1.0507 7.0996 -1.8582 0.9708
-4.1412 6.1286 -1.9151 0.9699
-4.8926 6.0045 -2.0054 0.9685
-5.8851 5.0396 -2.0061 0.9685
-6.3128 4.4943 -2.0064 0.9685
-7.2810 2.6603 -2.0071 0.9685
-7.6391 1.3221 -2.0073 0.9685
-7.7528 -0.0586 -2.0074 0.9685
-7.7164 -0.7510 -2.0074 0.9685
-7.4589 -2.1121 -2.0072 0.9685
-5.9864 -4.3997 -1.9236 0.9698
-4.5235 -4.7778 -1.7035 0.9732
-3.3646 -6.3129 -1.8522 0.9709
-1.5690 -6.9744 -1.8509 0.9709
-0.9394 -7.0851 -1.8505 0.9709
-0.3025 -7.1390 -1.8501 0.9709
0.3364 -7.1358 -1.8496 0.9709
1.6003 -6.9587 -1.8488 0.9709
2.8120 -6.5599 -1.8479 0.9709
3.3861 -6.2811 -1.8475 0.9709
5.3677 -4.6937 -1.8462 0.9710
6.6007 -3.9529 -1.9921 0.9687
6.9457 -3.3562 -1.9973 0.9686
7.2171 -2.7219 -1.9971 0.9686
7.6794 -0.7105 -1.9968 0.9686
7.5931 1.3514 -1.9969 0.9686
6.9644 3.3173 -1.9973 0.9686
6.6409 3.9267 -1.9975 0.9686
6.2643 4.5049 -1.9978 0.9686
4.2281 6.3218 -1.9692 0.9691
3.4540 6.3222 -1.8653 0.9707
1.6459 6.9783 -1.8564 0.9708
-2.1571 6.8481 -1.8590 0.9708
-3.3429 6.3576 -1.8598 0.9708
-5.2943 5.6549 -2.0057 0.9685
-5.7793 5.1602 -2.0060 0.9685
-6.6073 4.0504 -2.0066 0.9685
-7.2242 2.8103 -2.0070 0.9685
-7.4470 2.1538 -2.0072 0.9685
-7.7121 0.7941 -2.0074 0.9685
-7.7523 0.1019 -2.0074 0.9685
-7.6464 -1.2794 -2.0073 0.9685
-7.2957 -2.6195 -2.0071 0.9685
-7.0319 -3.2606 -2.0069 0.9685
-6.7117 -3.8754 -2.0067 0.9685
-4.6248 -4.6865 -1.7048 0.9732
-4.0392 -5.9062 -1.8526 0.9709
-3.4947 -6.2422 -1.8523 0.9709
-2.9224 -6.5281 -1.8519 0.9709
-2.3269 -6.7616 -1.8515 0.9709
-1.0859 -7.0645 -1.8506 0.9709
0.8258 -7.0945 -1.8493 0.9709
1.4560 -6.9907 -1.8489 0.9709
2.6757 -6.6170 -1.8480 0.9709
4.3320 -5.6671 -1.8469 0.9710
4.8201 -5.2564 -1.8466 0.9710
5.2696 -4.8040 -1.8463 0.9710
5.6769 -4.3133 -1.8460 0.9710
7.1594 -2.8708 -1.9972 0.9686
7.6630 -0.8693 -1.9968 0.9686
7.7099 -0.1812 -1.9968 0.9686
7.6953 0.5084 -1.9968 0.9686
7.6193 1.1939 -1.9969 0.9686
7.4826 1.8700 -1.9970 0.9686
7.0314 3.1723 -1.9973 0.9686
6.7205 3.7883 -1.9975 0.9686
4.4198 6.3213 -1.9971 0.9686
1.7899 6.9423 -1.8563 0.9708
1.1618 7.0700 -1.8551 0.9708
-1.3908 7.0418 -1.8585 0.9708
-3.2104 6.4252 -1.8597 0.9708
-3.7920 6.1455 -1.8697 0.9706
-4.5690 6.1072 -1.9748 0.9690
-5.1759 5.7631 -2.0056 0.9685
-5.6711 5.2785 -2.0060 0.9685
-7.1644 2.9592 -2.0070 0.9685
-7.4007 2.3074 -2.0071 0.9685
-7.5777 1.6371 -2.0073 0.9685
-7.6940 0.9536 -2.0073 0.9685
-7.7485 0.2623 -2.0074 0.9685
-7.3485 -2.4680 -2.0071 0.9685
-6.7907 -3.7357 -2.0067 0.9685
-6.4090 -4.3135 -2.0002 0.9686
-5.5585 -4.5121 -1.8537 0.9709
-4.6651 -5.4276 -1.8531 0.9709
-3.6233 -6.1688 -1.8523 0.9709
-3.0570 -6.4665 -1.8520 0.9709
-1.8565 -6.9043 -1.8511 0.9709
-0.5978 -7.1211 -1.8503 0.9709
1.3111 -7.0198 -1.8490 0.9709
1.9326 -6.8730 -1.8485 0.9709
2.5383 -6.6713 -1.8481 0.9709
3.1235 -6.4165 -1.8477 0.9709
4.2139 -5.7558 -1.8470 0.9710
4.7105 -5.3553 -1.8466 0.9710
5.1692 -4.9122 -1.8463 0.9710
5.5866 -4.4300 -1.8460 0.9710
6.2415 -4.0980 -1.9332 0.9696
7.5214 -1.7066 -1.9969 0.9686
7.6435 -1.0277 -1.9968 0.9686
7.7046 -0.3407 -1.9968 0.9686
7.7042 0.3490 -1.9968 0.9686
7.5196 1.7147 -1.9969 0.9686
7.3367 2.3798 -1.9971 0.9686
6.7973 3.6483 -1.9974 0.9686
5.0918 5.8014 -1.9986 0.9686
4.5540 6.2343 -1.9990 0.9686
2.5416 6.7016 -1.8558 0.9708
1.8367 6.5591 -1.7636 0.9722
1.3089 7.0502 -1.8566 0.9708
0.0323 6.9644 -1.8032 0.9716
-1.2446 7.0686 -1.8584 0.9708
-1.8716 6.9308 -1.8588 0.9708
-3.6449 6.1904 -1.8600 0.9708
-4.3817 6.1167 -1.9481 0.9694
-5.0553 5.8687 -2.0055 0.9685
-5.5604 5.3945 -2.0059 0.9685
-6.7947 3.7284 -2.0067 0.9685
-7.1014 3.1068 -2.0069 0.9685
-7.3512 2.4601 -2.0071 0.9685
-7.6725 1.1126 -2.0073 0.9685
-7.7414 0.4226 -2.0074 0.9685
-7.7482 -0.2707 -2.0074 0.9685
-7.3982 -2.3154 -2.0071 0.9685
-7.1611 -2.9669 -2.0070 0.9685
-6.8667 -3.5945 -2.0068 0.9685
-6.5043 -4.1847 -2.0025 0.9685
-5.2347 -4.8828 -1.8535 0.9709
-4.7767 -5.3301 -1.8531 0.9709
-4.2806 -5.7345 -1.8528 0.9709
-3.1904 -6.4022 -1.8521 0.9709
-2.6050 -6.6602 -1.8517 0.9709
-1.9991 -6.8647 -1.8512 0.9709
-1.3775 -7.0143 -1.8508 0.9709
0.5315 -7.1234 -1.8495 0.9709
1.1656 -7.0458 -1.8491 0.9709
1.7900 -6.9119 -1.8486 0.9709
3.5565 -6.1857 -1.8474 0.9709
4.0941 -5.8420 -1.8471 0.9710
5.0667 -5.0183 -1.8464 0.9710
5.4939 -4.5448 -1.8461 0.9710
5.9913 -4.1137 -1.8817 0.9704
6.7160 -3.7762 -1.9949 0.9687
7.6206 -1.1857 -1.9969 0.9686
7.6959 -0.5001 -1.9968 0.9686
7.7097 0.1895 -1.9968 0.9686
7.6621 0.8776 -1.9968 0.9686
7.5533 1.5587 -1.9969 0.9686
6.5312 4.1071 -1.9976 0.9686
5.6976 5.2054 -1.9982 0.9686
5.2106 5.6946 -1.9985 0.9686
4.6818 6.1385 -1.9989 0.9686
2.6796 6.6472 -1.8557 0.9708
2.0755 6.8616 -1.8561 0.9708
1.4544 7.0212 -1.8565 0.9708
0.8114 7.0373 -1.8341 0.9712
-0.4598 7.1606 -1.8578 0.9708
-1.7277 6.9677 -1.8587 0.9708
-3.5159 6.2642 -1.8599 0.9708
-5.4474 5.5082 -2.0058 0.9685
-6.3427 4.4522 -2.0064 0.9685
-7.0354 3.2530 -2.0069 0.9685
-7.5033 1.9492 -2.0072 0.9685
-7.7522 -0.1103 -2.0074 0.9685
-7.4446 -2.1618 -2.0072 0.9685
6.7686 1.9925 -1.9974 0.9711
6.5640 2.5895 -1.9976 0.9711
5.9995 3.7171 -1.9980 0.9711
5.6440 4.2388 -1.9982 0.9711
4.3199 5.5862 -1.9991 0.9711
3.8042 5.9509 -1.9995 0.9711
1.9474 6.2866 -1.8631 0.9730
1.3731 6.4128 -1.8566 0.9731
-0.3769 6.5515 -1.8578 0.9731
-1.5375 6.3826 -1.8586 0.9731
-2.7184 6.1646 -1.9073 0.9724
-4.9476 5.0701 -2.0055 0.9710
-6.1174 3.5780 -2.0063 0.9710
-6.8489 1.8281 -2.0068 0.9710
-7.0891 -0.0535 -2.0069 0.9710
-7.0559 -0.6867 -2.0069 0.9710
-6.8205 -1.9313 -2.0067 0.9710
-6.6202 -2.5328 -2.0066 0.9710
-6.0625 -3.6699 -2.0062 0.9710
-5.6972 -4.1872 -2.0016 0.9710
-4.9653 -4.3836 -1.8751 0.9728
-4.0567 -5.1352 -1.8526 0.9732
-2.5483 -6.0238 -1.8516 0.9732
-0.8591 -6.4799 -1.8505 0.9732
-0.2767 -6.5293 -1.8501 0.9732
0.3077 -6.5265 -1.8497 0.9732
0.8894 -6.4715 -1.8493 0.9732
1.4637 -6.3648 -1.8489 0.9732
2.0261 -6.2073 -1.8485 0.9732
3.5975 -5.4446 -1.8474 0.9732
4.5076 -4.7158 -1.8468 0.9732
4.9194 -4.3017 -1.8500 0.9732
6.6022 -2.4900 -1.9975 0.9711
7.0251 -0.6500 -1.9973 0.9711
6.8083 1.8520 -1.9974 0.9711
6.6160 2.4530 -1.9975 0.9711
6.3709 3.0346 -1.9977 0.9711
6.0750 3.5920 -1.9979 0.9711
5.3400 4.6170 -1.9984 0.9711
4.9069 5.0764 -1.9987 0.9711
4.4344 5.4954 -1.9990 0.9711
3.9264 5.8707 -1.9994 0.9711
2.7383 6.2906 -1.9422 0.9719
1.5054 6.3827 -1.8565 0.9731
0.3456 6.5515 -1.8573 0.9731
-0.8263 6.5112 -1.8581 0.9731
-1.9728 6.2629 -1.8589 0.9731
-3.8425 5.9483 -2.0047 0.9710
-4.3593 5.5822 -2.0051 0.9710
-5.6861 4.2282 -2.0060 0.9710
-6.0419 3.7037 -2.0062 0.9710
-6.6059 2.5698 -2.0066 0.9710
-6.8095 1.9695 -2.0067 0.9710
-6.9586 1.3533 -2.0068 0.9710
-7.0887 0.0932 -2.0069 0.9710
-7.0686 -0.5405 -2.0069 0.9710
-6.4301 -2.9815 -2.0065 0.9710
-6.1374 -3.5437 -2.0063 0.9710
-5.7886 -4.0726 -2.0036 0.9710
-5.1738 -4.3806 -1.9192 0.9722
-3.6938 -5.4011 -1.8524 0.9732
-3.1959 -5.7085 -1.8521 0.9732
-2.6726 -5.9701 -1.8517 0.9732
-2.1281 -6.1837 -1.8513 0.9732
1.3317 -6.3941 -1.8490 0.9732
1.8973 -6.2482 -1.8486 0.9732
2.4474 -6.0525 -1.8482 0.9732
2.9778 -5.8084 -1.8478 0.9732
4.4092 -4.8083 -1.8468 0.9732
4.8204 -4.3944 -1.8466 0.9732
5.9734 -3.7473 -1.9962 0.9711
6.2891 -3.2011 -1.9978 0.9711
7.0102 -0.7952 -1.9973 0.9711
7.0398 0.4651 -1.9973 0.9711
6.6653 2.3156 -1.9975 0.9711
6.4322 2.9020 -1.9977 0.9711
5.4343 4.5054 -1.9984 0.9711
4.0469 5.7879 -1.9993 0.9711
1.6371 6.3498 -1.8564 0.9731
1.0635 6.4721 -1.8568 0.9731
0.4811 6.5426 -1.8572 0.9731
-0.6913 6.5266 -1.8580 0.9731
-1.8426 6.3021 -1.8588 0.9731
-4.7332 5.2701 -2.0053 0.9710
-5.1860 4.8269 -2.0056 0.9710
-5.5972 4.3449 -2.0059 0.9710
-5.9638 3.8279 -2.0062 0.9710
-6.5512 2.7059 -2.0066 0.9710
-6.9291 1.4970 -2.0068 0.9710
-7.0353 0.8719 -2.0069 0.9710
-7.0783 -0.3941 -2.0069 0.9710
-7.0146 -1.0249 -2.0069 0.9710
-6.8947 -1.6475 -2.0068 0.9710
-6.7196 -2.2568 -2.0067 0.9710
-6.2095 -3.4160 -2.0063 0.9710
-3.8050 -5.3237 -1.8525 0.9732
-3.3135 -5.6414 -1.8521 0.9732
-1.1267 -6.4394 -1.8506 0.9732
-0.5467 -6.5129 -1.8502 0.9732
0.6209 -6.5034 -1.8494 0.9732
1.7676 -6.2864 -1.8487 0.9732
2.3218 -6.1021 -1.8483 0.9732
3.3694 -5.5893 -1.8476 0.9732
3.8546 -5.2650 -1.8472 0.9732
4.3089 -4.8987 -1.8469 0.9732
4.7286 -4.4934 -1.8466 0.9732
5.8889 -3.8664 -1.9943 0.9711
6.2217 -3.3307 -1.9978 0.9711
6.4937 -2.7612 -1.9976 0.9711
6.9923 -0.9402 -1.9973 0.9711
7.0479 0.3193 -1.9972 0.9711
6.9913 0.9477 -1.9973 0.9711
6.7117 2.1771 -1.9975 0.9711
6.4908 2.7682 -1.9976 0.9711
6.2181 3.3374 -1.9978 0.9711
5.8957 3.8800 -1.9980 0.9711
5.5262 4.3918 -1.9983 0.9711
5.1124 4.8687 -1.9986 0.9711
4.1656 5.7027 -1.9992 0.9711
3.0542 6.2913 -1.9798 0.9713
2.3851 6.2891 -1.9041 0.9724
1.7681 6.3143 -1.8563 0.9731
1.1972 6.4484 -1.8567 0.9731
0.6164 6.5309 -1.8571 0.9731
0.0304 6.5613 -1.8575 0.9731
-1.1383 6.4648 -1.8583 0.9731
-1.7117 6.3385 -1.8587 0.9731
-2.9182 6.1558 -1.9286 0.9721
-3.5927 6.1017 -2.0045 0.9710
-5.0848 4.9330 -2.0056 0.9710
-5.5060 4.4597 -2.0059 0.9710
-5.8831 3.9504 -2.0061 0.9710
-6.8965 1.6400 -2.0068 0.9710
-7.0787 0.3865 -2.0069 0.9710
-6.5482 -2.7130 -2.0066 0.9710
-6.2791 -3.2869 -2.0064 0.9710
-5.9596 -3.8343 -2.0062 0.9710
-5.5731 -4.3358 -1.9989 0.9711
-4.7869 -4.4651 -1.8531 0.9732
-4.3681 -4.8742 -1.8529 0.9732
-3.9145 -5.2441 -1.8526 0.9732
-2.9176 -5.8549 -1.8519 0.9732
-2.3824 -6.0909 -1.8515 0.9732
-1.8283 -6.2781 -1.8511 0.9732
0.4862 -6.5152 -1.8495 0.9732
1.6372 -6.3220 -1.8487 0.9732
2.7351 -5.9272 -1.8480 0.9732
3.2531 -5.6581 -1.8476 0.9732
4.2067 -4.9870 -1.8470 0.9732
4.6347 -4.5905 -1.8467 0.9732
5.0256 -4.1574 -1.8464 0.9732
5.8021 -3.9837 -1.9924 0.9712
6.4353 -2.8951 -1.9977 0.9711
6.6677 -2.3083 -1.9975 0.9711
6.8469 -1.7033 -1.9974 0.9711
6.9714 -1.0847 -1.9973 0.9711
7.0529 0.1733 -1.9972 0.9711
6.2857 3.2079 -1.9978 0.9711
5.9746 3.7571 -1.9980 0.9711
5.2119 4.7617 -1.9985 0.9711
4.2826 5.6150 -1.9991 0.9711
2.5355 6.2898 -1.9198 0.9722
1.9022 6.2887 -1.8599 0.9731
0.7514 6.5165 -1.8570 0.9731
-0.4206 6.5490 -1.8578 0.9731
-1.0042 6.4866 -1.8582 0.9731
-1.5801 6.3723 -1.8586 0.9731
-2.1435 6.2069 -1.8590 0.9731
-4.0041 5.8412 -2.0048 0.9710
-4.5107 5.4611 -2.0052 0.9710
-4.9814 5.0370 -2.0055 0.9710
-5.4123 4.5725 -2.0058 0.9710
-5.8000 4.0712 -2.0061 0.9710
-6.1412 3.5371 -2.0063 0.9710
-6.6739 2.3881 -2.0066 0.9710
-6.8610 1.7824 -2.0068 0.9710
-7.0692 0.5329 -2.0069 0.9710
-7.0511 -0.7338 -2.0069 0.9710
-6.8074 -1.9768 -2.0067 0.9710
-6.6031 -2.5769 -2.0066 0.9710
-5.6673 -4.2238 -2.0009 0.9710
6.2309 1.8343 -1.9978 0.9732
6.0425 2.3838 -1.9979 0.9732
5.5228 3.4217 -1.9983 0.9732
4.8268 4.3511 -1.9988 0.9732
3.5017 5.4778 -1.9997 0.9732
2.9988 5.7697 -2.0000 0.9732
1.3387 6.2521 -1.9666 0.9736
0.7622 6.2440 -1.9348 0.9740
-0.3578 6.2202 -1.9164 0.9743
-0.9182 6.2043 -1.9291 0.9741
-1.4900 6.1852 -1.9569 0.9737
-2.0824 6.1627 -2.0008 0.9731
-3.6489 5.4000 -2.0046 0.9731
-4.1175 5.0532 -2.0049 0.9731
-5.6295 3.2926 -2.0059 0.9731
-5.9017 2.7767 -2.0061 0.9731
-6.4279 1.1125 -2.0065 0.9731
-6.5018 0.5338 -2.0065 0.9731
-6.5235 -0.0493 -2.0065 0.9731
-6.4929 -0.6319 -2.0065 0.9731
-6.4103 -1.2095 -2.0065 0.9731
-6.2763 -1.7773 -2.0064 0.9731
-5.8590 -2.8655 -2.0061 0.9731
-5.5790 -3.3772 -2.0059 0.9731
-5.2544 -3.8617 -2.0057 0.9731
-4.8715 -4.3009 -1.9988 0.9732
-4.1413 -4.3741 -1.8527 0.9751
-3.7334 -4.7259 -1.8524 0.9751
-3.2957 -5.0397 -1.8521 0.9751
-2.8317 -5.3131 -1.8518 0.9751
-2.3453 -5.5439 -1.8515 0.9751
-1.8402 -5.7301 -1.8511 0.9751
-0.7907 -5.9639 -1.8504 0.9751
-0.2547 -6.0095 -1.8500 0.9751
3.7454 -4.6950 -1.8473 0.9752
4.7291 -4.1353 -1.9322 0.9741
5.5737 -3.3379 -1.9983 0.9732
5.8491 -2.8263 -1.9981 0.9732
6.2578 -1.7399 -1.9978 0.9732
6.3880 -1.1738 -1.9977 0.9732
6.4947 -0.0182 -1.9976 0.9732
5.8648 2.7935 -1.9981 0.9732
5.2750 3.7935 -1.9985 0.9732
4.5169 4.6729 -1.9990 0.9732
2.0529 6.1722 -2.0007 0.9731
1.4750 6.2536 -1.9763 0.9735
0.3290 6.2361 -1.9208 0.9742
-0.7878 6.2082 -1.9248 0.9742
-1.3562 6.1899 -1.9491 0.9738
-1.9430 6.1683 -1.9891 0.9733
-2.5046 6.0140 -2.0038 0.9731
-3.0325 5.7673 -2.0042 0.9731
-4.0118 5.1372 -2.0048 0.9731
-4.8635 4.3424 -2.0054 0.9731
-5.2327 3.8910 -2.0057 0.9731
-6.0789 2.3648 -2.0062 0.9731
-6.2663 1.8123 -2.0064 0.9731
-6.4035 1.2453 -2.0065 0.9731
-6.5231 0.0858 -2.0065 0.9731
-6.4340 -1.0765 -2.0065 0.9731
-5.9172 -2.7437 -2.0061 0.9731
-5.6478 -3.2611 -2.0059 0.9731
-5.3333 -3.7522 -2.0057 0.9731
-4.9639 -4.2028 -2.0005 0.9731
-3.8305 -4.6478 -1.8525 0.9751
-3.3994 -4.9706 -1.8522 0.9751
-2.9412 -5.2536 -1.8519 0.9751
-2.4596 -5.4944 -1.8516 0.9751
-1.9585 -5.6911 -1.8512 0.9751
-0.9140 -5.9465 -1.8505 0.9751
-0.3790 -6.0032 -1.8501 0.9751
1.2258 -5.8853 -1.8490 0.9752
2.7410 -5.3465 -1.8480 0.9752
3.2072 -5.0794 -1.8477 0.9752
5.5035 -3.4526 -1.9983 0.9732
6.0291 -2.4175 -1.9979 0.9732
6.2206 -1.8691 -1.9978 0.9732
6.4166 1.0055 -1.9977 0.9732
6.3013 1.5748 -1.9978 0.9732
5.9212 2.6715 -1.9980 0.9732
5.6594 3.1901 -1.9982 0.9732
5.0024 4.1473 -1.9987 0.9732
4.6125 4.5783 -1.9989 0.9732
3.7251 5.3277 -1.9995 0.9732
3.2348 5.6402 -1.9999 0.9732
2.1801 6.1281 -2.0006 0.9731
1.6127 6.2550 -1.9868 0.9733
1.0267 6.2481 -1.9475 0.9738
0.4587 6.2386 -1.9240 0.9742
-0.6580 6.2120 -1.9214 0.9742
-1.8051 6.1736 -1.9784 0.9734
-2.9123 5.8286 -2.0041 0.9731
-4.3558 4.8500 -2.0051 0.9731
-4.7724 4.4420 -2.0053 0.9731
-5.1509 3.9984 -2.0056 0.9731
-5.7815 3.0185 -2.0060 0.9731
-6.0286 2.4901 -2.0062 0.9731
-6.2274 1.9416 -2.0063 0.9731
-6.3762 1.3775 -2.0064 0.9731
-6.4740 0.8024 -2.0065 0.9731
-6.5136 -0.3627 -2.0065 0.9731
-6.3447 -1.5160 -2.0064 0.9731
-6.1835 -2.0767 -2.0063 0.9731
-3.9260 -4.5677 -1.8526 0.9751
-3.5017 -4.8994 -1.8523 0.9751
-3.0494 -5.1918 -1.8520 0.9751
-2.5729 -5.4425 -1.8516 0.9751
-2.0760 -5.6496 -1.8513 0.9751
-1.0370 -5.9266 -1.8506 0.9751
-0.5032 -5.9943 -1.8502 0.9751
0.0344 -6.0141 -1.8498 0.9751
0.5714 -5.9858 -1.8495 0.9751
1.1037 -5.9096 -1.8491 0.9752
1.6270 -5.7863 -1.8488 0.9752
2.1371 -5.6167 -1.8484 0.9752
2.6299 -5.4023 -1.8481 0.9752
3.1015 -5.1449 -1.8477 0.9752
5.0759 -4.0250 -1.9925 0.9733
5.4311 -3.5658 -1.9984 0.9732
5.9779 -2.5419 -1.9980 0.9732
6.3340 -1.4372 -1.9977 0.9732
6.4369 -0.8655 -1.9977 0.9732
6.4884 -0.2869 -1.9976 0.9732
6.4880 0.2939 -1.9976 0.9732
6.4360 0.8724 -1.9977 0.9732
6.3325 1.4440 -1.9977 0.9732
6.1785 2.0041 -1.9978 0.9732
5.9751 2.5483 -1.9980 0.9732
5.7241 3.0722 -1.9982 0.9732
5.0870 4.0428 -1.9986 0.9732
4.2874 4.8850 -1.9991 0.9732
2.8400 5.8499 -2.0001 0.9732
1.1603 6.2499 -1.9552 0.9737
0.5890 6.2410 -1.9281 0.9741
-3.3064 5.6154 -2.0043 0.9731
-3.7955 5.2984 -2.0047 0.9731
-5.7177 3.1374 -2.0060 0.9731
-5.9756 2.6143 -2.0062 0.9731
-6.5197 -0.2278 -2.0065 0.9731
-6.3747 -1.3844 -2.0064 0.9731
-6.2252 -1.9483 -2.0063 0.9731
-6.0259 -2.4966 -2.0062 0.9731
-5.1428 -4.0010 -2.0041 0.9731
-4.0199 -4.4856 -1.8526 0.9751
-2.6851 -5.3883 -1.8517 0.9751
-2.1926 -5.6056 -1.8514 0.9751
-1.6826 -5.7780 -1.8510 0.9751
-1.1595 -5.9041 -1.8507 0.9751
-0.6272 -5.9829 -1.8503 0.9751
-0.0901 -6.0138 -1.8499 0.9751
0.4475 -5.9966 -1.8496 0.9751
2.0205 -5.6600 -1.8485 0.9752
2.5176 -5.4558 -1.8481 0.9752
3.8723 -4.5906 -1.8472 0.9752
5.6628 -3.1840 -1.9982 0.9732
6.4176 -0.9985 -1.9977 0.9732
6.4810 -0.4211 -1.9976 0.9732
6.3610 1.3126 -1.9977 0.9732
6.2185 1.8758 -1.9978 0.9732
6.0265 2.4241 -1.9979 0.9732
5.4999 3.4585 -1.9983 0.9732
5.1694 3.9365 -1.9985 0.9732
3.9421 5.1686 -1.9994 0.9732
2.9603 5.7897 -2.0001 0.9732
2.4316 6.0321 -2.0004 0.9731
1.2950 6.2516 -1.9637 0.9736
0.1579 6.2325 -1.9176 0.9742
-1.5333 6.1837 -1.9596 0.9737
-2.1263 6.1571 -2.0035 0.9731
-2.6684 5.9436 -2.0039 0.9731
-4.1511 5.0257 -2.0049 0.9731
-4.5842 4.6354 -2.0052 0.9731
-4.9807 4.2079 -2.0055 0.9731
-5.3374 3.7465 -2.0057 0.9731
-5.6514 3.2550 -2.0059 0.9731
-6.1415 2.1976 -2.0063 0.9731
-6.3136 1.6402 -2.0064 0.9731
-6.5052 0.4904 -2.0065 0.9731
-6.5230 -0.0928 -2.0065 0.9731
-6.0763 -2.3714 -2.0062 0.9731
-5.8397 -2.9045 -2.0061 0.9731
-5.5563 -3.4143 -2.0059 0.9731
-5.2284 -3.8967 -2.0057 0.9731
5.7664 1.6975 -1.9981 0.9750
5.3730 2.6971 -1.9984 0.9750
5.1110 3.1666 -1.9986 0.9750
4.0897 4.4101 -1.9993 0.9750
1.7811 5.7498 -2.0009 0.9749
1.2605 5.8870 -2.0012 0.9749
0.7296 5.9771 -2.0016 0.9749
0.1927 6.0195 -2.0019 0.9749
-0.3459 6.0138 -2.0023 0.9749
-0.8820 5.9599 -2.0027 0.9749
-1.4112 5.8583 -2.0030 0.9749
-2.4322 5.5156 -2.0037 0.9749
-3.3761 4.9963 -2.0044 0.9749
-3.8095 4.6753 -2.0047 0.9749
-4.2126 4.3169 -2.0050 0.9749
-5.2083 3.0463 -2.0056 0.9749
-5.6682 2.0710 -2.0060 0.9749
-6.0151 0.4938 -2.0062 0.9749
-5.9306 -1.1189 -2.0061 0.9749
-5.6362 -2.1564 -2.0059 0.9749
-5.4206 -2.6511 -2.0058 0.9749
-5.1616 -3.1245 -2.0056 0.9749
-4.8613 -3.5728 -2.0054 0.9749
-4.5187 -3.9894 -2.0037 0.9749
-4.1108 -4.3419 -1.9875 0.9751
-3.4542 -4.3725 -1.8522 0.9768
-3.0492 -4.6629 -1.8520 0.9768
-2.6200 -4.9159 -1.8517 0.9768
-1.7027 -5.3019 -1.8510 0.9768
-1.2220 -5.4319 -1.8507 0.9768
1.2467 -5.4210 -1.8490 0.9768
2.1908 -5.1108 -1.8484 0.9768
3.0644 -4.6378 -1.8478 0.9768
3.9740 -4.1576 -1.9118 0.9760
4.8620 -3.5379 -1.9987 0.9750
5.4130 -2.6156 -1.9984 0.9750
5.7914 -1.6102 -1.9981 0.9750
5.9118 -1.0863 -1.9980 0.9750
6.0106 -0.0168 -1.9980 0.9750
5.9178 1.0532 -1.9980 0.9750
5.8003 1.5778 -1.9981 0.9750
5.1753 3.0601 -1.9985 0.9750
3.7774 4.6812 -1.9995 0.9750
2.8849 5.2804 -2.0001 0.9750
2.4019 5.5179 -2.0004 0.9750
1.8997 5.7115 -2.0008 0.9749
1.3820 5.8594 -2.0011 0.9749
-0.2214 6.0194 -2.0022 0.9749
-1.2896 5.8860 -2.0030 0.9749
-1.8107 5.7483 -2.0033 0.9749
-2.8058 5.3361 -2.0040 0.9749
-4.1222 4.4030 -2.0049 0.9749
-4.8412 3.5999 -2.0054 0.9749
-5.1440 3.1533 -2.0056 0.9749
-5.4057 2.6814 -2.0058 0.9749
-5.7973 1.6767 -2.0060 0.9749
-6.0036 0.6182 -2.0062 0.9749
-5.6797 -2.0393 -2.0060 0.9749
-5.4744 -2.5384 -2.0058 0.9749
-5.2253 -3.0171 -2.0057 0.9749
-4.9343 -3.4715 -2.0055 0.9749
-4.2228 -4.2792 -1.9984 0.9750
-3.5851 -4.3500 -1.8738 0.9765
-3.1452 -4.5989 -1.8520 0.9768
-1.3342 -5.4056 -1.8508 0.9768
-0.8457 -5.5022 -1.8504 0.9768
0.1470 -5.5628 -1.8498 0.9768
2.0846 -5.1553 -1.8484 0.9768
2.9679 -4.7004 -1.8478 0.9768
3.3755 -4.4158 -1.8476 0.9768
4.4308 -4.0393 -1.9930 0.9750
4.7879 -3.6378 -1.9988 0.9750
5.0932 -3.1952 -1.9986 0.9750
5.3578 -2.7271 -1.9984 0.9750
5.5796 -2.2373 -1.9983 0.9750
5.7569 -1.7298 -1.9981 0.9750
5.8881 -1.2084 -1.9980 0.9750
5.9724 -0.6775 -1.9980 0.9750
6.0089 -0.1412 -1.9980 0.9750
5.8316 1.4574 -1.9981 0.9750
5.6784 1.9727 -1.9982 0.9750
5.4798 2.4723 -1.9983 0.9750
5.2374 2.9523 -1.9985 0.9750
4.6294 3.8381 -1.9989 0.9750
4.2685 4.2369 -1.9992 0.9750
3.8734 4.6019 -1.9994 0.9750
2.0174 5.6707 -2.0007 0.9749
1.5029 5.8293 -2.0011 0.9749
-0.6345 5.9908 -2.0025 0.9749
-2.2017 5.6111 -2.0036 0.9749
-2.6946 5.3928 -2.0039 0.9749
-3.1662 5.1313 -2.0042 0.9749
-4.0301 4.4872 -2.0048 0.9749
-4.4154 4.1098 -2.0051 0.9749
-4.7655 3.6993 -2.0053 0.9749
-5.0775 3.2590 -2.0056 0.9749
-5.5774 2.3037 -2.0059 0.9749
-5.7613 1.7963 -2.0060 0.9749
-5.9895 0.7423 -2.0062 0.9749
-6.0320 0.2042 -2.0062 0.9749
-6.0261 -0.3355 -2.0062 0.9749
-5.9719 -0.8726 -2.0062 0.9749
-5.5258 -2.4246 -2.0059 0.9749
-4.3138 -4.1941 -2.0000 0.9750
-3.2398 -4.5330 -1.8521 0.9768
-1.9208 -5.2273 -1.8512 0.9768
-0.9595 -5.4838 -1.8505 0.9768
0.0318 -5.5649 -1.8498 0.9768
0.5288 -5.5388 -1.8495 0.9768
1.5056 -5.3544 -1.8488 0.9768
2.8701 -4.7610 -1.8479 0.9768
4.7093 -3.7344 -1.9978 0.9750
5.0261 -3.3000 -1.9986 0.9750
5.3003 -2.8375 -1.9984 0.9750
5.9571 -0.8010 -1.9980 0.9750
6.0047 -0.2655 -1.9980 0.9750
6.0045 0.2720 -1.9980 0.9750
5.7179 1.8547 -1.9982 0.9750
5.5297 2.3583 -1.9983 0.9750
5.0226 3.3054 -1.9986 0.9750
4.7077 3.7413 -1.9989 0.9750
4.3551 4.1475 -1.9991 0.9750
3.5484 4.8577 -1.9996 0.9750
2.6280 5.4134 -2.0003 0.9750
0.5658 5.9952 -2.0017 0.9749
-0.5104 6.0024 -2.0024 0.9749
-1.0448 5.9339 -2.0028 0.9749
-1.5711 5.8178 -2.0032 0.9749
-2.0850 5.6552 -2.0035 0.9749
-2.5823 5.4472 -2.0038 0.9749
-3.9362 4.5695 -2.0048 0.9749
-4.3293 4.2001 -2.0050 0.9749
-4.6878 3.7970 -2.0053 0.9749
-5.2898 2.9027 -2.0057 0.9749
-5.7228 1.9151 -2.0060 0.9749
-5.9728 0.8661 -2.0062 0.9749
-6.0264 0.3290 -2.0062 0.9749
-5.9887 -0.7488 -2.0062 0.9749
-5.5749 -2.3097 -2.0059 0.9749
-5.3459 -2.7984 -2.0057 0.9749
-4.4032 -4.1072 -2.0015 0.9749
0.9080 -5.4886 -1.8492 0.9768
2.3297 -5.0487 -1.8483 0.9768
3.5835 -4.2482 -1.8474 0.9768
4.1839 -4.1440 -1.9575 0.9755
4.6275 -3.8282 -1.9963 0.9750
5.6805 -1.9666 -1.9982 0.9750
5.9980 -0.3898 -1.9980 0.9750
5.8868 1.2148 -1.9980 0.9750
5.3549 2.7329 -1.9984 0.9750
5.0898 3.2007 -1.9986 0.9750
4.7840 3.6430 -1.9988 0.9750
4.4399 4.0563 -1.9990 0.9750
3.6481 4.7831 -1.9996 0.9750
2.7394 5.3576 -2.0002 0.9750
2.2502 5.5819 -2.0005 0.9750
1.7428 5.7616 -2.0009 0.9749
1.2212 5.8953 -2.0012 0.9749
0.6897 5.9819 -2.0016 0.9749
0.1526 6.0208 -2.0020 0.9749
-0.3860 6.0114 -2.0023 0.9749
-1.4503 5.8489 -2.0031 0.9749
-2.4689 5.4993 -2.0038 0.9749
-2.9509 5.2576 -2.0041 0.9749
-3.4094 4.9737 -2.0044 0.9749
-4.6081 3.8931 -2.0052 0.9749
-4.9381 3.4662 -2.0055 0.9749
-5.9536 0.9895 -2.0062 0.9749
-6.0348 -0.0859 -2.0062 0.9749
5.3608 1.5781 -1.9984 0.9765
4.7514 2.9438 -1.9988 0.9765
4.4698 3.3569 -1.9990 0.9765
3.8019 4.0997 -1.9995 0.9765
3.4208 4.4236 -1.9997 0.9765
3.0123 4.7122 -2.0000 0.9765
2.5797 4.9632 -2.0003 0.9765
2.1262 5.1747 -2.0006 0.9765
1.1717 5.4723 -2.0013 0.9765
0.6782 5.5560 -2.0016 0.9765
-0.8198 5.5398 -2.0026 0.9765
-2.2606 5.1266 -2.0036 0.9765
-4.8406 2.8312 -2.0054 0.9765
-5.0746 2.3876 -2.0056 0.9765
-5.2680 1.9248 -2.0057 0.9765
-5.4192 1.4465 -2.0058 0.9765
-5.5270 0.9566 -2.0059 0.9765
-5.6091 -0.0424 -2.0059 0.9765
-5.5828 -0.5433 -2.0059 0.9765
-5.3967 -1.5282 -2.0058 0.9765
-5.2383 -2.0041 -2.0057 0.9765
-4.7972 -2.9040 -2.0054 0.9765
-4.5182 -3.3206 -2.0052 0.9765
-3.8483 -4.0646 -2.0016 0.9765
-3.4188 -4.3277 -1.9723 0.9768
-2.8378 -4.3396 -1.8542 0.9782
-2.4352 -4.5691 -1.8515 0.9782
-1.5826 -4.9280 -1.8510 0.9783
-0.6801 -5.1293 -1.8503 0.9783
-0.2190 -5.1687 -1.8500 0.9783
0.2436 -5.1667 -1.8497 0.9783
3.8523 -4.0303 -1.9938 0.9766
4.5199 -3.2889 -1.9990 0.9765
4.7952 -2.8717 -1.9988 0.9765
5.0322 -2.4316 -1.9986 0.9765
5.4960 -1.0099 -1.9983 0.9765
5.5641 -0.5148 -1.9983 0.9765
5.5669 0.4837 -1.9983 0.9765
5.3923 1.4668 -1.9984 0.9765
5.0457 2.4034 -1.9986 0.9765
4.8112 2.8448 -1.9988 0.9765
4.2289 3.6564 -1.9992 0.9765
3.8858 4.0201 -1.9994 0.9765
3.5115 4.3517 -1.9997 0.9765
3.1091 4.6487 -1.9999 0.9765
2.6817 4.9086 -2.0002 0.9765
2.2328 5.1294 -2.0006 0.9765
1.2847 5.4466 -2.0012 0.9765
0.2949 5.5902 -2.0019 0.9765
-0.2058 5.5952 -2.0022 0.9765
-1.1987 5.4711 -2.0029 0.9765
-1.6830 5.3430 -2.0032 0.9765
-2.1540 5.1721 -2.0036 0.9765
-2.6079 4.9597 -2.0039 0.9765
-3.4499 4.4177 -2.0044 0.9765
-4.1821 3.7341 -2.0049 0.9765
-4.7809 2.9307 -2.0054 0.9765
-5.0240 2.4921 -2.0055 0.9765
-5.5059 1.0707 -2.0058 0.9765
-5.5797 0.5746 -2.0059 0.9765
-5.6088 0.0737 -2.0059 0.9765
-5.5929 -0.4277 -2.0059 0.9765
-4.8564 -2.8041 -2.0054 0.9765
-4.5860 -3.2265 -2.0052 0.9765
-2.5293 -4.5179 -1.8516 0.9782
-1.6844 -4.8944 -1.8510 0.9783
-1.2401 -5.0245 -1.8507 0.9783
-0.3260 -5.1632 -1.8501 0.9783
0.5979 -5.1371 -1.8495 0.9783
1.0543 -5.0623 -1.8491 0.9783
1.5022 -4.9470 -1.8488 0.9783
3.7658 -4.1067 -1.9926 0.9766
4.1289 -3.7640 -1.9980 0.9765
4.9809 -2.5352 -1.9987 0.9765
5.1871 -2.0799 -1.9985 0.9765
5.3519 -1.6081 -1.9984 0.9765
5.5206 0.8651 -1.9983 0.9765
5.4214 1.3549 -1.9984 0.9765
5.2789 1.8339 -1.9985 0.9765
5.0943 2.2984 -1.9986 0.9765
4.6047 3.1689 -1.9989 0.9765
3.6007 4.2780 -1.9996 0.9765
2.3384 5.0819 -2.0005 0.9765
1.8753 5.2713 -2.0008 0.9765
-1.0852 5.4945 -2.0028 0.9765
-1.5720 5.3765 -2.0032 0.9765
-2.0464 5.2154 -2.0035 0.9765
-2.5046 5.0124 -2.0038 0.9765
-3.3576 4.4880 -2.0044 0.9765
-4.4292 3.4382 -2.0051 0.9765
-4.9713 2.5955 -2.0055 0.9765
-5.4825 1.1845 -2.0058 0.9765
-5.5502 -0.8110 -2.0059 0.9765
-5.3169 -1.7857 -2.0057 0.9765
-5.1357 -2.2534 -2.0056 0.9765
-4.9135 -2.7031 -2.0054 0.9765
-3.6428 -4.2381 -1.9985 0.9765
-2.2127 -4.6805 -1.8514 0.9782
-1.7854 -4.8587 -1.8511 0.9783
-1.3439 -4.9980 -1.8508 0.9783
-0.4328 -5.1556 -1.8502 0.9783
0.0296 -5.1728 -1.8498 0.9783
0.9494 -5.0832 -1.8492 0.9783
1.3995 -4.9772 -1.8489 0.9783
2.2623 -4.6472 -1.8483 0.9783
3.0676 -4.1900 -1.8570 0.9782
3.6531 -4.1532 -1.9780 0.9768
4.0474 -3.8462 -1.9967 0.9766
4.3801 -3.4733 -1.9991 0.9765
4.9274 -2.6378 -1.9987 0.9765
5.3175 -1.7185 -1.9984 0.9765
5.5381 -0.7446 -1.9983 0.9765
5.5824 -0.2469 -1.9983 0.9765
5.5821 0.2529 -1.9983 0.9765
5.5373 0.7506 -1.9983 0.9765
5.4482 1.2424 -1.9983 0.9765
5.3157 1.7243 -1.9984 0.9765
5.1407 2.1924 -1.9986 0.9765
4.9246 2.6432 -1.9987 0.9765
4.6692 3.0728 -1.9989 0.9765
4.0486 3.8556 -1.9993 0.9765
3.6884 4.2024 -1.9996 0.9765
3.2986 4.5158 -1.9998 0.9765
2.8824 4.7931 -2.0001 0.9765
2.4430 5.0322 -2.0004 0.9765
1.9839 5.2312 -2.0007 0.9765
1.5089 5.3884 -2.0010 0.9765
1.0216 5.5026 -2.0014 0.9765
-0.4744 5.5793 -2.0024 0.9765
-2.4002 5.0630 -2.0037 0.9765
-2.8434 4.8291 -2.0040 0.9765
-4.0238 3.9037 -2.0048 0.9765
-4.3570 3.5290 -2.0051 0.9765
-4.9164 2.6978 -2.0054 0.9765
-5.4568 1.2977 -2.0058 0.9765
-5.5511 0.8050 -2.0059 0.9765
-5.4813 -1.1904 -2.0058 0.9765
-5.3527 -1.6753 -2.0057 0.9765
-5.1814 -2.1467 -2.0056 0.9765
-4.7158 -3.0341 -2.0053 0.9765
-4.0997 -3.8241 -2.0049 0.9765
-0.9972 -5.0778 -1.8506 0.9783
-0.0775 -5.1725 -1.8499 0.9783
1.2962 -5.0053 -1.8490 0.9783
2.9655 -4.2316 -1.8478 0.9783
4.3074 -3.5633 -1.9991 0.9765
4.6081 -3.1639 -1.9989 0.9765
5.4229 -1.3490 -1.9984 0.9765
5.5215 -0.8591 -1.9983 0.9765
5.5861 0.1373 -1.9982 0.9765
5.5516 0.6358 -1.9983 0.9765
3.3913 4.4464 -1.9998 0.9765
2.9809 4.7323 -2.0000 0.9765
1.6200 5.3558 -2.0010 0.9765
1.1352 5.4800 -2.0013 0.9765
0.1418 5.5965 -2.0020 0.9765
-0.3588 5.5877 -2.0023 0.9765
-1.8287 5.2952 -2.0033 0.9765
-2.7427 4.8867 -2.0040 0.9765
-3.1688 4.6228 -2.0042 0.9765
-3.9420 3.9861 -2.0048 0.9765
-4.5895 3.2216 -2.0052 0.9765
-5.0905 2.3537 -2.0056 0.9765
-5.4287 1.4103 -2.0058 0.9765
-5.3863 -1.5641 -2.0058 0.9765
-5.2248 -2.0390 -2.0057 0.9765
4.6617 2.3400 -1.9989 0.9779
4.4343 2.7474 -1.9990 0.9779
3.8753 3.4934 -1.9994 0.9779
3.5481 3.8261 -1.9996 0.9779
3.1925 4.1283 -1.9999 0.9779
2.8112 4.3976 -2.0002 0.9779
1.9842 4.8291 -2.0007 0.9779
0.6329 5.1848 -2.0016 0.9779
-0.3001 5.2163 -2.0023 0.9779
-2.1094 4.7837 -2.0035 0.9779
-3.3038 4.0547 -2.0043 0.9778
-4.5166 2.6417 -2.0052 0.9778
-5.1569 0.8925 -2.0056 0.9778
-5.2161 0.4282 -2.0056 0.9778
-5.2091 -0.5070 -2.0056 0.9778
-5.0354 -1.4259 -2.0055 0.9778
-4.4761 -2.7096 -2.0051 0.9778
-4.2158 -3.0984 -2.0050 0.9778
-3.9217 -3.4623 -2.0048 0.9778
-3.2359 -4.0962 -2.0004 0.9779
-2.8202 -4.3126 -1.9747 0.9782
-2.3015 -4.3183 -1.8752 0.9793
-1.0599 -4.7113 -1.8506 0.9795
-0.2044 -4.8232 -1.8500 0.9795
0.2273 -4.8214 -1.8497 0.9795
0.6571 -4.7811 -1.8494 0.9795
1.0814 -4.7025 -1.8491 0.9795
1.4970 -4.5864 -1.8488 0.9795
1.9005 -4.4336 -1.8486 0.9795
3.2445 -4.0672 -1.9938 0.9780
4.6964 -2.2693 -1.9989 0.9779
4.8801 -1.8405 -1.9987 0.9779
5.1293 -0.9425 -1.9986 0.9779
5.1929 -0.4805 -1.9985 0.9779
5.2150 -0.0146 -1.9985 0.9779
5.1345 0.9138 -1.9986 0.9779
5.0325 1.3690 -1.9986 0.9779
4.8903 1.8132 -1.9987 0.9779
4.7091 2.2430 -1.9989 0.9779
4.4902 2.6550 -1.9990 0.9779
3.9467 3.4124 -1.9994 0.9779
3.6264 3.7517 -1.9996 0.9779
2.9015 4.3383 -2.0001 0.9779
2.5027 4.5808 -2.0004 0.9779
2.0837 4.7868 -2.0007 0.9779
1.6479 4.9546 -2.0010 0.9779
1.1988 5.0828 -2.0013 0.9779
-0.6578 5.1840 -2.0025 0.9779
-1.1186 5.1053 -2.0028 0.9779
-1.5705 4.9857 -2.0032 0.9779
-2.4334 4.6280 -2.0037 0.9779
-2.8376 4.3927 -2.0040 0.9778
-3.9023 3.4842 -2.0048 0.9778
-4.1984 3.1219 -2.0050 0.9778
-4.6877 2.3253 -2.0053 0.9778
-5.0273 1.4540 -2.0055 0.9778
-5.2061 0.5361 -2.0056 0.9778
-5.1618 -0.8637 -2.0056 0.9778
-5.0639 -1.3214 -2.0055 0.9778
-4.2791 -3.0105 -2.0050 0.9778
-3.6742 -3.7233 -2.0046 0.9778
-2.9412 -4.3007 -1.9966 0.9779
-2.4170 -4.3172 -1.8961 0.9790
-1.9738 -4.4091 -1.8512 0.9795
-1.5717 -4.5671 -1.8509 0.9795
-0.3042 -4.8181 -1.8501 0.9795
1.4018 -4.6166 -1.8489 0.9795
1.8084 -4.4722 -1.8486 0.9795
2.2004 -4.2921 -1.8484 0.9796
4.4189 -2.7721 -1.9990 0.9779
4.6485 -2.3661 -1.9989 0.9779
5.1819 -0.5878 -1.9985 0.9779
5.2136 -0.1225 -1.9985 0.9779
5.1523 0.8074 -1.9985 0.9779
5.0597 1.2645 -1.9986 0.9779
4.9267 1.7116 -1.9987 0.9779
4.7544 2.1450 -1.9988 0.9779
4.5441 2.5614 -1.9990 0.9779
4.2974 2.9574 -1.9991 0.9779
3.7032 3.6758 -1.9995 0.9779
3.3604 3.9924 -1.9998 0.9779
2.5969 4.5279 -2.0003 0.9779
2.1822 4.7425 -2.0006 0.9779
1.3037 5.0567 -2.0012 0.9779
0.8469 5.1538 -2.0015 0.9779
0.3831 5.2096 -2.0018 0.9779
-1.0126 5.1272 -2.0028 0.9779
-1.4669 5.0170 -2.0031 0.9779
-2.3370 4.6772 -2.0037 0.9779
-2.7460 4.4503 -2.0040 0.9778
-3.4951 3.8915 -2.0045 0.9778
-3.8292 3.5641 -2.0047 0.9778
-4.4033 2.8263 -2.0051 0.9778
-4.9961 1.5577 -2.0055 0.9778
-5.1155 1.1052 -2.0056 0.9778
-5.1939 0.6437 -2.0056 0.9778
-5.2256 -0.2909 -2.0057 0.9778
-5.1786 -0.7567 -2.0056 0.9778
-5.0902 -1.2163 -2.0056 0.9778
-4.7920 -2.1026 -2.0054 0.9778
-3.7506 -3.6465 -2.0046 0.9778
-3.4068 -3.9635 -2.0029 0.9779
-3.0313 -4.2412 -1.9978 0.9779
-2.5351 -4.3160 -1.9182 0.9788
-1.6660 -4.5338 -1.8510 0.9795
0.4587 -4.8045 -1.8496 0.9795
0.8860 -4.7436 -1.8493 0.9795
1.3060 -4.6447 -1.8490 0.9795
1.7155 -4.5088 -1.8487 0.9795
2.5313 -4.1990 -1.8789 0.9792
3.0513 -4.1677 -1.9794 0.9781
3.4404 -3.9114 -1.9962 0.9779
3.7822 -3.5942 -1.9995 0.9779
4.5987 -2.4618 -1.9989 0.9779
4.7999 -2.0410 -1.9988 0.9779
5.0860 -1.1540 -1.9986 0.9779
5.1686 -0.6950 -1.9985 0.9779
5.2100 -0.2304 -1.9985 0.9779
5.0848 1.1595 -1.9986 0.9779
4.9610 1.6092 -1.9987 0.9779
4.7977 2.0461 -1.9988 0.9779
4.5960 2.4668 -1.9989 0.9779
4.3576 2.8678 -1.9991 0.9779
2.6899 4.4731 -2.0002 0.9779
1.4081 5.0284 -2.0011 0.9779
0.4908 5.2004 -2.0017 0.9779
-2.2397 4.7244 -2.0036 0.9779
-3.0456 4.2515 -2.0042 0.9778
-3.4137 3.9629 -2.0044 0.9778
-4.3437 2.9167 -2.0051 0.9778
-4.5873 2.5172 -2.0052 0.9778
-5.0915 1.2108 -2.0056 0.9778
-5.1795 0.7511 -2.0056 0.9778
-5.2259 0.2853 -2.0057 0.9778
-5.2305 -0.1827 -2.0057 0.9778
-5.1932 -0.6493 -2.0056 0.9778
-4.8345 -2.0030 -2.0054 0.9778
-3.8253 -3.5682 -2.0047 0.9778
-3.4903 -3.8946 -2.0041 0.9778
-3.1202 -4.1799 -1.9989 0.9779
-2.6559 -4.3147 -1.9416 0.9785
-2.1552 -4.3249 -1.8518 0.9795
-1.7595 -4.4985 -1.8511 0.9795
-0.9305 -4.7384 -1.8505 0.9795
-0.5034 -4.8018 -1.8502 0.9795
-0.0723 -4.8268 -1.8499 0.9795
0.3592 -4.8132 -1.8496 0.9795
1.6219 -4.5435 -1.8488 0.9795
3.7071 -3.6718 -1.9995 0.9779
4.0199 -3.3255 -1.9993 0.9779
4.3006 -2.9528 -1.9991 0.9779
4.5468 -2.5565 -1.9990 0.9779
5.0611 -1.2590 -1.9986 0.9779
5.1532 -0.8018 -1.9985 0.9779
4.8389 1.9464 -1.9988 0.9779
4.4159 2.7769 -1.9991 0.9779
3.8520 3.5192 -1.9994 0.9779
3.5225 3.8497 -1.9997 0.9779
3.1649 4.1495 -1.9999 0.9779
2.3765 4.6478 -2.0005 0.9779
1.9520 4.8423 -2.0007 0.9779
1.0593 5.1139 -2.0014 0.9779
-1.2579 5.0730 -2.0029 0.9779
-1.7064 4.9411 -2.0032 0.9779
-3.6782 3.7193 -2.0046 0.9778
-3.9963 3.3762 -2.0048 0.9778
-4.2824 3.0059 -2.0050 0.9778
-4.5342 2.6115 -2.0052 0.9778
-4.7497 2.1961 -2.0053 0.9778
-4.9272 1.7631 -2.0055 0.9778
-5.1628 0.8581 -2.0056 0.9778
-5.2056 -0.5417 -2.0056 0.9778
-4.6852 -2.3303 -2.0053 0.9778
-4.1950 -3.1264 -2.0049 0.9778
4.6851 1.3792 -1.9989 0.9791
4.5434 1.7924 -1.9990 0.9791
4.1524 2.5727 -1.9992 0.9791
3.9063 2.9337 -1.9994 0.9791
2.9894 3.8657 -2.0000 0.9791
2.2543 4.3371 -2.0005 0.9791
1.8580 4.5218 -2.0008 0.9791
1.4468 4.6704 -2.0011 0.9791
1.0238 4.7817 -2.0014 0.9791
0.1565 4.8890 -2.0020 0.9791
-0.2809 4.8842 -2.0023 0.9791
-0.7163 4.8403 -2.0026 0.9791
-1.1461 4.7576 -2.0029 0.9791
-1.5668 4.6368 -2.0032 0.9791
-1.9751 4.4789 -2.0034 0.9791
-2.7414 4.0570 -2.0040 0.9791
-3.7203 3.1858 -2.0046 0.9791
-4.2287 2.4733 -2.0050 0.9790
-4.7339 1.2636 -2.0053 0.9790
-1.9565 0.1606 -0.8034 0.9916
-2.2037 -0.4158 -0.9178 0.9904
-4.7143 -1.3349 -2.0053 0.9790
-4.4010 -2.1524 -2.0051 0.9790
-4.1907 -2.5368 -2.0049 0.9790
-3.9470 -2.9009 -2.0048 0.9791
-3.6717 -3.2416 -2.0046 0.9791
-3.3670 -3.5563 -2.0044 0.9791
-1.8190 -4.2998 -1.9108 0.9800
-1.3829 -4.3062 -1.8511 0.9806
-0.5942 -4.4816 -1.8503 0.9807
0.6152 -4.4768 -1.8494 0.9807
2.6864 -4.0657 -1.9944 0.9792
3.0448 -3.8168 -1.9983 0.9791
3.3761 -3.5321 -1.9998 0.9791
3.9501 -2.8743 -1.9994 0.9791
4.7054 -1.3083 -1.9988 0.9791
4.8629 -0.4499 -1.9987 0.9791
4.8836 -0.0137 -1.9987 0.9791
4.8082 0.8557 -1.9988 0.9791
4.7126 1.2819 -1.9988 0.9791
4.5795 1.6979 -1.9989 0.9791
3.9661 2.8521 -1.9994 0.9791
3.6957 3.1954 -1.9995 0.9791
3.3958 3.5132 -1.9998 0.9791
3.0687 3.8029 -2.0000 0.9791
2.7170 4.0624 -2.0002 0.9791
2.3435 4.2894 -2.0005 0.9791
1.9511 4.4823 -2.0007 0.9791
0.6929 4.8413 -2.0016 0.9791
-0.1798 4.8888 -2.0022 0.9791
-1.0473 4.7801 -2.0028 0.9791
-1.4704 4.6681 -2.0031 0.9791
-1.8819 4.5187 -2.0034 0.9791
-2.2784 4.3331 -2.0036 0.9791
-2.6568 4.1127 -2.0039 0.9791
-3.0139 3.8594 -2.0041 0.9791
-3.3471 3.5751 -2.0044 0.9791
-3.6535 3.2621 -2.0046 0.9791
-4.1765 2.5602 -2.0049 0.9790
-4.3888 2.1770 -2.0051 0.9790
-4.5661 1.7763 -2.0052 0.9790
-4.7067 1.3613 -2.0053 0.9790
-4.8097 0.9353 -2.0054 0.9790
-1.9575 0.2016 -0.8054 0.9915
-1.9112 0.0251 -0.7823 0.9918
-1.9545 -0.1495 -0.8023 0.9916
-4.4446 -2.0609 -2.0051 0.9790
-3.4400 -3.4860 -2.0044 0.9791
-2.3833 -4.2571 -1.9968 0.9791
-0.2848 -4.5114 -1.8501 0.9807
0.9213 -4.4234 -1.8492 0.9807
1.7073 -4.2220 -1.8639 0.9805
2.1525 -4.1987 -1.9311 0.9798
2.6007 -4.1188 -1.9936 0.9792
3.3024 -3.6013 -1.9998 0.9791
3.8898 -2.9555 -1.9994 0.9791
4.1380 -2.5959 -1.9992 0.9791
4.5333 -1.8178 -1.9990 0.9791
4.7840 -0.9818 -1.9988 0.9791
4.8525 -0.5505 -1.9987 0.9791
4.8730 0.3219 -1.9987 0.9791
4.8248 0.7560 -1.9988 0.9791
4.7381 1.1841 -1.9988 0.9791
4.6136 1.6028 -1.9989 0.9791
4.4522 2.0087 -1.9990 0.9791
3.7610 3.1181 -1.9995 0.9791
2.8004 4.0052 -2.0002 0.9791
2.4317 4.2399 -2.0004 0.9791
2.0434 4.4408 -2.0007 0.9791
-0.0786 4.8913 -2.0021 0.9791
-1.3734 4.6974 -2.0030 0.9791
-1.7879 4.5565 -2.0033 0.9791
-2.1881 4.3792 -2.0036 0.9791
-2.5710 4.1667 -2.0038 0.9791
-2.9333 3.9208 -2.0041 0.9791
-3.2723 3.6435 -2.0043 0.9791
-4.1225 2.6461 -2.0049 0.9791
-4.3428 2.2673 -2.0051 0.9790
-4.5283 1.8704 -2.0052 0.9790
-4.7893 1.0347 -2.0054 0.9790
-1.9294 0.0653 -0.7901 0.9917
-1.9444 -0.1083 -0.7970 0.9916
-1.9437 -0.2840 -0.8040 0.9915
-4.4864 -1.9685 -2.0051 0.9790
-4.0638 -2.7351 -2.0049 0.9791
-3.8029 -3.0870 -2.0047 0.9791
-2.8443 -3.9796 -2.0020 0.9791
-2.0321 -4.2986 -1.9460 0.9797
-1.5803 -4.3006 -1.8752 0.9804
-0.3782 -4.5047 -1.8501 0.9807
0.0258 -4.5198 -1.8499 0.9807
0.4295 -4.4987 -1.8496 0.9807
0.8296 -4.4417 -1.8493 0.9807
1.2229 -4.3492 -1.8490 0.9807
1.6094 -4.2299 -1.8523 0.9806
2.0467 -4.2045 -1.9138 0.9800
2.5139 -4.1701 -1.9929 0.9792
3.5417 -3.3656 -1.9996 0.9791
3.8279 -3.0354 -1.9994 0.9791
4.3063 -2.3053 -1.9991 0.9791
4.4948 -1.9112 -1.9990 0.9791
4.7616 1.0858 -1.9988 0.9791
4.6457 1.5069 -1.9989 0.9791
4.3038 2.3100 -1.9991 0.9791
4.0805 2.6855 -1.9993 0.9791
3.8246 3.0396 -1.9995 0.9791
3.2233 3.6725 -1.9999 0.9791
2.5188 4.1885 -2.0004 0.9791
2.1348 4.3974 -2.0006 0.9791
1.7336 4.5712 -2.0009 0.9791
0.4596 4.8694 -2.0018 0.9791
0.0227 4.8917 -2.0021 0.9791
-0.4145 4.8749 -2.0024 0.9791
-0.8485 4.8191 -2.0027 0.9791
-1.2759 4.7247 -2.0030 0.9791
-2.0970 4.4234 -2.0035 0.9791
-2.4841 4.2189 -2.0038 0.9791
-4.6463 1.5549 -2.0053 0.9790
-1.9437 0.1061 -0.7967 0.9916
-1.9302 -0.0674 -0.7905 0.9917
-1.9528 -0.2442 -0.8055 0.9915
-4.7882 -1.0399 -2.0054 0.9790
-4.1197 -2.6505 -2.0049 0.9791
-3.5815 -3.3408 -2.0045 0.9791
-3.2683 -3.6470 -2.0043 0.9791
-1.6820 -4.3004 -1.8899 0.9802
-0.8726 -4.4436 -1.8534 0.9806
-0.4713 -4.4960 -1.8502 0.9807
-0.0677 -4.5195 -1.8499 0.9807
0.7375 -4.4580 -1.8494 0.9807
1.5187 -4.2544 -1.8488 0.9807
2.4058 -4.1843 -1.9754 0.9794
2.7983 -3.9929 -1.9956 0.9791
3.1501 -3.7344 -1.9996 0.9791
3.4714 -3.4383 -1.9997 0.9791
4.7394 -1.1790 -1.9988 0.9791
4.8256 -0.7508 -1.9988 0.9791
4.8733 -0.3167 -1.9987 0.9791
4.8821 0.1200 -1.9987 0.9791
4.5313 1.8227 -1.9990 0.9791
4.3507 2.2204 -1.9991 0.9791
4.1352 2.6004 -1.9992 0.9791
3.2985 3.6049 -1.9998 0.9791
2.9636 3.8856 -2.0000 0.9791
2.6049 4.1354 -2.0003 0.9791
1.8278 4.5342 -2.0008 0.9791
0.9919 4.7884 -2.0014 0.9791
0.5602 4.8586 -2.0017 0.9791
0.1239 4.8900 -2.0020 0.9791
-0.3135 4.8822 -2.0023 0.9791
-1.5977 4.6263 -2.0032 0.9791
-2.0049 4.4657 -2.0035 0.9791
-3.1185 3.7756 -2.0042 0.9791
-3.4438 3.4823 -2.0044 0.9791
-3.7415 3.1610 -2.0046 0.9791
-4.4469 2.0561 -2.0051 0.9790
-4.7423 1.2320 -2.0053 0.9790
-2.0882 0.3471 -0.8664 0.9909
-1.9122 -0.0272 -0.7827 0.9918
-1.9574 -0.2037 -0.8054 0.9915
-4.7053 -1.3664 -2.0053 0.9790
-4.5641 -1.7812 -2.0052 0.9790
-4.1737 -2.5647 -2.0049 0.9790
-3.9275 -2.9271 -2.0048 0.9791
4.4002 1.2953 -1.9991 0.9802
4.0999 2.0580 -1.9993 0.9802
3.4081 3.0723 -1.9997 0.9802
1.7449 4.2466 -2.0009 0.9802
1.3587 4.3861 -2.0011 0.9802
0.9615 4.4906 -2.0014 0.9802
-0.2638 4.5867 -2.0023 0.9802
-1.0762 4.4677 -2.0028 0.9801
-1.4713 4.3543 -2.0031 0.9801
-2.2233 4.0240 -2.0036 0.9801
-2.9047 3.5649 -2.0041 0.9801
-3.2119 3.2914 -2.0043 0.9801
-3.7471 2.6677 -2.0046 0.9801
-1.5558 0.4153 -0.7018 0.9930
-1.5035 0.2602 -0.6650 0.9934
-1.5267 -0.1486 -0.6685 0.9933
-1.5652 -0.4432 -0.7089 0.9929
-4.2969 -1.6439 -2.0050 0.9801
-3.9352 -2.3821 -2.0048 0.9801
-3.1618 -3.3395 -2.0042 0.9801
-2.8504 -3.6082 -2.0040 0.9801
-2.1585 -4.0499 -2.0000 0.9802
-0.9626 -4.2787 -1.9114 0.9810
0.5839 -4.2486 -1.8690 0.9815
0.9738 -4.2345 -1.8936 0.9812
1.3765 -4.2173 -1.9334 0.9808
2.5282 -3.8262 -1.9987 0.9802
2.8620 -3.5876 -2.0001 0.9802
3.1707 -3.3172 -1.9999 0.9802
3.4541 -3.0204 -1.9997 0.9802
3.9359 -2.3570 -1.9994 0.9802
4.2920 -1.6187 -1.9991 0.9802
4.5694 0.3970 -1.9989 0.9802
4.5158 0.8037 -1.9990 0.9802
4.4261 1.2040 -1.9990 0.9802
4.3010 1.5947 -1.9991 0.9802
3.9490 2.3350 -1.9994 0.9802
3.7248 2.6787 -1.9995 0.9802
3.4709 3.0010 -1.9997 0.9802
2.8820 3.5716 -2.0001 0.9802
2.5517 3.8152 -2.0003 0.9802
1.0542 4.4696 -2.0014 0.9802
0.6508 4.5465 -2.0016 0.9802
-0.5784 4.5582 -2.0025 0.9802
-2.1395 4.0690 -2.0035 0.9801
-2.4948 3.8620 -2.0038 0.9801
-2.8302 3.6241 -2.0040 0.9801
-3.4307 3.0632 -2.0044 0.9801
-3.9218 2.4041 -2.0048 0.9801
-1.5684 0.4536 -0.7115 0.9929
-1.5251 0.0200 -0.6647 0.9934
-1.5061 -0.2520 -0.6655 0.9934
-1.5521 -0.4050 -0.6991 0.9930
-4.1736 -1.9352 -2.0049 0.9801
-3.5102 -2.9720 -2.0045 0.9801
-2.9246 -3.5486 -2.0041 0.9801
-2.5956 -3.7952 -2.0038 0.9801
-2.2428 -4.0060 -2.0009 0.9802
-1.8727 -4.1832 -1.9975 0.9802
-1.4729 -4.2799 -1.9726 0.9804
-0.2696 -4.2704 -1.8648 0.9815
0.4949 -4.2515 -1.8654 0.9815
0.8827 -4.2381 -1.8867 0.9813
2.4475 -3.8763 -1.9979 0.9802
3.3909 -3.0913 -1.9997 0.9802
4.2576 -1.7072 -1.9992 0.9802
4.5854 -0.1078 -1.9989 0.9802
4.5767 0.3024 -1.9989 0.9802
4.5314 0.7101 -1.9990 0.9802
3.7794 2.6010 -1.9995 0.9802
3.5322 2.9285 -1.9997 0.9802
3.2568 3.2326 -1.9998 0.9802
2.6300 3.7615 -2.0003 0.9802
2.2837 3.9819 -2.0005 0.9802
1.9190 4.1705 -2.0008 0.9802
1.5389 4.3258 -2.0010 0.9802
0.7447 4.5319 -2.0016 0.9802
0.3369 4.5810 -2.0018 0.9802
-0.0738 4.5934 -2.0021 0.9802
-0.4840 4.5691 -2.0024 0.9802
-0.8904 4.5082 -2.0027 0.9801
-2.0548 4.1123 -2.0035 0.9801
-2.4143 3.9127 -2.0037 0.9801
-2.7545 3.6818 -2.0040 0.9801
-3.3665 3.1335 -2.0044 0.9801
-3.8711 2.4847 -2.0047 0.9801
-1.5202 0.3284 -0.6778 0.9932
-1.5296 -0.0852 -0.6676 0.9933
-1.5375 -0.3674 -0.6889 0.9931
-1.5886 -0.5335 -0.7303 0.9927
-4.2128 -1.8484 -2.0050 0.9801
-3.8160 -2.5684 -2.0047 0.9801
-3.2974 -3.2059 -2.0043 0.9801
-1.9596 -4.1451 -1.9982 0.9802
-1.5726 -4.2797 -1.9871 0.9803
-1.1508 -4.2796 -1.9314 0.9808
-0.7483 -4.2770 -1.8923 0.9812
-0.3586 -4.2719 -1.8683 0.9815
0.0244 -4.2643 -1.8585 0.9816
0.4061 -4.2542 -1.8625 0.9815
0.7922 -4.2414 -1.8804 0.9813
1.6005 -4.2066 -1.9615 0.9806
2.0030 -4.1145 -1.9944 0.9802
2.3659 -3.9247 -1.9972 0.9802
2.7112 -3.7032 -2.0002 0.9802
3.0309 -3.4458 -2.0000 0.9802
3.3263 -3.1609 -1.9998 0.9802
3.8351 -2.5180 -1.9994 0.9802
4.0444 -2.1651 -1.9993 0.9802
4.2214 -1.7950 -1.9992 0.9802
4.3647 -1.4106 -1.9991 0.9802
4.5822 -0.2026 -1.9989 0.9802
4.5819 0.2076 -1.9989 0.9802
4.5451 0.6161 -1.9990 0.9802
4.2195 1.7996 -1.9992 0.9802
3.5920 2.8547 -1.9996 0.9802
2.7072 3.7061 -2.0002 0.9802
1.6281 4.2929 -2.0010 0.9802
0.8383 4.5154 -2.0015 0.9802
0.4316 4.5729 -2.0018 0.9802
0.0213 4.5938 -2.0021 0.9802
-2.3327 3.9618 -2.0037 0.9801
-2.6777 3.7379 -2.0039 0.9801
-3.0013 3.4841 -2.0041 0.9801
-3.3009 3.2024 -2.0043 0.9801
-1.5882 0.5315 -0.7299 0.9927
-1.5367 0.3654 -0.6884 0.9931
-1.5147 0.2196 -0.6670 0.9933
-1.5295 0.0835 -0.6676 0.9933
-1.5283 -0.0534 -0.6665 0.9933
-1.5208 -0.1902 -0.6680 0.9933
-3.8684 -2.4889 -2.0047 0.9801
-3.0691 -3.4247 -2.0042 0.9801
-2.7505 -3.6848 -2.0040 0.9801
-2.0457 -4.1053 -1.9990 0.9802
-0.4480 -4.2733 -1.8726 0.9814
-0.0639 -4.2663 -1.8595 0.9816
0.3176 -4.2568 -1.8603 0.9815
2.2834 -3.9714 -1.9965 0.9802
2.6333 -3.7576 -1.9997 0.9802
3.2602 -3.2291 -1.9998 0.9802
3.7822 -2.5969 -1.9995 0.9802
3.9988 -2.2484 -1.9993 0.9802
4.1834 -1.8820 -1.9992 0.9802
4.3346 -1.5006 -1.9991 0.9802
4.4512 -1.1073 -1.9990 0.9802
4.5853 0.1127 -1.9989 0.9802
4.5569 0.5219 -1.9990 0.9802
4.4921 0.9270 -1.9990 0.9802
4.3915 1.3247 -1.9991 0.9802
3.6502 2.7797 -1.9996 0.9802
2.7833 3.6492 -2.0002 0.9802
2.4464 3.8837 -2.0004 0.9802
2.0899 4.0873 -2.0006 0.9802
1.7165 4.2582 -2.0009 0.9802
0.9315 4.4969 -2.0014 0.9802
0.1164 4.5922 -2.0020 0.9802
-0.2944 4.5849 -2.0023 0.9802
-1.1060 4.4605 -2.0028 0.9801
-1.8827 4.1936 -2.0034 0.9801
-2.2502 4.0091 -2.0036 0.9801
-2.5997 3.7925 -2.0039 0.9801
-2.9284 3.5454 -2.0041 0.9801
-3.2338 3.2699 -2.0043 0.9801
-3.5134 2.9682 -2.0045 0.9801
-3.9862 2.2959 -2.0048 0.9801
-4.1757 1.9307 -2.0049 0.9801
-1.5951 0.5708 -0.7383 0.9926
-1.5065 0.2504 -0.6656 0.9934
-1.5291 0.1153 -0.6683 0.9933
-1.5255 -0.1588 -0.6684 0.9933
-1.5032 -0.2940 -0.6675 0.9933
-4.2858 -1.6726 -2.0050 0.9801
-4.1190 -2.0487 -2.0049 0.9801
-3.9192 -2.4083 -2.0048 0.9801
-3.6880 -2.7486 -2.0046 0.9801
4.1433 1.2197 -1.9992 0.9811
3.6721 2.2751 -1.9996 0.9811
3.2091 2.8928 -1.9999 0.9811
2.9380 3.1682 -2.0001 0.9811
2.3278 3.6413 -2.0005 0.9811
1.9933 3.8352 -2.0007 0.9811
0.1384 4.3228 -2.0020 0.9811
-1.0133 4.2064 -2.0028 0.9811
-1.3852 4.0996 -2.0030 0.9811
-1.7462 3.9599 -2.0033 0.9811
-2.4236 3.5867 -2.0037 0.9811
-3.0239 3.0988 -2.0041 0.9811
-3.2890 2.8164 -2.0043 0.9811
-3.7383 2.1865 -2.0046 0.9811
-1.3330 0.4870 -0.6569 0.9938
-1.3185 0.2282 -0.6194 0.9941
-1.3345 -0.0101 -0.6177 0.9941
-1.3366 -0.1301 -0.6216 0.9941
-1.3314 -0.5094 -0.6599 0.9937
-3.7048 -2.2427 -2.0046 0.9811
-3.4893 -2.5645 -2.0045 0.9811
-3.2460 -2.8658 -2.0043 0.9811
-2.6836 -3.3971 -2.0039 0.9811
-2.3691 -3.6228 -2.0037 0.9811
-1.6840 -3.9807 -2.0007 0.9811
-0.5642 -4.2550 -1.9868 0.9813
-0.1801 -4.2490 -1.9685 0.9814
0.1999 -4.2403 -1.9650 0.9815
0.5812 -4.2289 -1.9759 0.9814
1.3376 -4.0980 -1.9954 0.9812
2.0499 -3.8025 -1.9996 0.9811
2.6948 -3.3780 -2.0002 0.9811
2.9855 -3.1234 -2.0000 0.9811
3.4931 -2.5418 -1.9997 0.9811
4.1612 -1.1570 -1.9992 0.9811
4.3026 0.3738 -1.9991 0.9811
4.2521 0.7568 -1.9992 0.9811
3.5073 2.5222 -1.9997 0.9811
3.0029 3.1067 -2.0000 0.9811
2.7136 3.3629 -2.0002 0.9811
2.4026 3.5923 -2.0004 0.9811
1.7253 3.9634 -2.0009 0.9811
1.3644 4.1022 -2.0011 0.9811
0.9926 4.2083 -2.0014 0.9811
0.6127 4.2807 -2.0017 0.9811
0.2278 4.3189 -2.0019 0.9811
-0.5446 4.2916 -2.0025 0.9811
-0.9260 4.2263 -2.0027 0.9811
-1.3000 4.1272 -2.0030 0.9811
-1.6638 3.9951 -2.0032 0.9811
-2.3488 3.6360 -2.0037 0.9811
-3.2299 2.8839 -2.0043 0.9811
-3.6922 2.2633 -2.0046 0.9811
-3.8799 1.9245 -2.0047 0.9811
-1.3108 0.2549 -0.6181 0.9941
-1.3353 0.0176 -0.6181 0.9941
-1.3383 -0.1023 -0.6213 0.9941
-1.3204 -0.2209 -0.6197 0.9941
-1.3137 -0.3428 -0.6285 0.9940
-3.7505 -2.1655 -2.0046 0.9811
-3.5417 -2.4918 -2.0045 0.9811
-1.4051 -4.0828 -1.9987 0.9811
-0.6542 -4.2560 -1.9932 0.9812
-0.2684 -4.2506 -1.9714 0.9814
0.4926 -4.2318 -1.9721 0.9814
0.8783 -4.2170 -1.9939 0.9812
1.2523 -4.1241 -1.9950 0.9812
1.9702 -3.8430 -1.9990 0.9811
2.3074 -3.6543 -2.0005 0.9811
2.6243 -3.4332 -2.0003 0.9811
3.4398 -2.6136 -1.9997 0.9811
3.6593 -2.2956 -1.9996 0.9811
4.0090 -1.6075 -1.9993 0.9811
4.2308 -0.8683 -1.9992 0.9811
4.2913 -0.4868 -1.9991 0.9811
4.3094 0.2847 -1.9991 0.9811
4.0800 1.4174 -1.9993 0.9811
