ply
format ascii 1.0
element vertex 1596
property float32 x
property float32 y
property float32 z
property float32 I
end_header
-6.6594 10.1811 -2.0042 0.9519
-7.5437 9.5468 -2.0045 0.9519
-8.3679 8.8357 -2.0048 0.9519
-9.1252 8.0537 -2.0050 0.9519
-9.8096 7.2069 -2.0053 0.9519
-10.9380 5.3466 -2.0057 0.9518
2.9881 -9.3694 -1.8485 0.9608
3.8128 -9.0635 -1.8482 0.9608
4.6068 -8.6852 -1.8479 0.9608
5.3637 -8.2375 -1.8476 0.9608
6.0775 -7.7242 -1.8474 0.9608
6.7426 -7.1493 -1.8471 0.9608
10.2230 -2.9150 -1.9981 0.9577
10.5780 -1.0486 -1.9980 0.9577
10.6293 -0.0991 -1.9980 0.9577
10.5957 0.8512 -1.9980 0.9577
10.2756 2.7239 -1.9981 0.9577
9.6277 4.5101 -1.9983 0.9577
8.6726 6.1529 -1.9987 0.9576
7.4404 7.6002 -1.9991 0.9576
6.7323 8.2357 -1.9994 0.9576
5.9703 8.8056 -1.9997 0.9576
5.1602 9.3052 -1.9999 0.9576
4.3087 9.7306 -2.0003 0.9576
2.5085 10.3455 -2.0009 0.9576
-1.2757 10.5758 -2.0022 0.9576
-2.2160 10.4212 -2.0026 0.9576
-3.1390 10.1832 -2.0029 0.9576
-6.5114 8.4431 -2.0041 0.9575
-7.2408 7.8285 -2.0044 0.9575
-8.5206 6.4160 -2.0048 0.9575
-9.9196 3.9271 -2.0053 0.9575
-10.4612 2.0988 -2.0055 0.9575
-10.6072 1.1556 -2.0055 0.9575
-10.5336 -1.6991 -2.0055 0.9575
-9.2687 -5.2806 -2.0050 0.9575
-6.8283 -8.1895 -2.0042 0.9575
-5.2600 -9.2716 -2.0036 0.9575
-3.2564 -9.2921 -1.8507 0.9607
-2.4126 -9.5443 -1.8504 0.9607
-1.5498 -9.7201 -1.8501 0.9607
1.0832 -9.7781 -1.8491 0.9608
1.7779 -5.9733 -1.1714 0.9750
3.6362 -9.1361 -1.8482 0.9608
5.9265 -7.8410 -1.8474 0.9608
8.4323 -6.4787 -1.9987 0.9576
8.9767 -5.6987 -1.9986 0.9576
9.4493 -4.8733 -1.9984 0.9577
10.1646 -3.1130 -1.9981 0.9577
10.5557 -1.2538 -1.9980 0.9577
10.6254 -0.3055 -1.9980 0.9577
10.5103 1.5908 -1.9980 0.9577
9.7133 4.3222 -1.9983 0.9577
9.2889 5.1733 -1.9985 0.9576
6.8908 8.1032 -1.9993 0.9576
6.1400 8.6877 -1.9996 0.9576
4.4967 9.6447 -2.0002 0.9576
-2.0132 10.4619 -2.0025 0.9576
-3.8446 9.9397 -2.0032 0.9576
-4.7182 9.5578 -2.0035 0.9575
-6.3460 8.5677 -2.0040 0.9575
-7.7718 7.3031 -2.0045 0.9575
-9.4332 4.9816 -2.0051 0.9575
-9.8413 4.1190 -2.0053 0.9575
-10.5827 1.3614 -2.0055 0.9575
-10.6622 0.4102 -2.0056 0.9575
-10.6562 -0.5442 -2.0056 0.9575
-9.7886 -4.2423 -2.0052 0.9575
-8.8756 -5.9160 -2.0049 0.9575
-7.6791 -7.3999 -2.0045 0.9575
-5.4392 -9.1680 -2.0037 0.9575
-4.5972 -9.6153 -2.0033 0.9575
-3.4364 -9.2274 -1.8508 0.9607
-1.7384 -9.6886 -1.8502 0.9607
-0.8655 -9.8035 -1.8498 0.9607
0.0140 -9.8400 -1.8495 0.9607
1.7648 -9.6770 -1.8489 0.9608
5.7733 -7.9549 -1.8475 0.9608
6.4602 -7.4062 -1.8472 0.9608
10.5294 -1.4586 -1.9980 0.9577
10.6175 -0.5118 -1.9980 0.9577
10.5392 1.3864 -1.9980 0.9577
10.3734 2.3227 -1.9981 0.9577
9.3875 4.9918 -1.9984 0.9576
7.7296 7.3051 -1.9990 0.9576
5.5174 9.0972 -1.9998 0.9576
2.9082 10.2395 -2.0008 0.9576
1.9819 10.4602 -2.0011 0.9576
0.0882 10.6495 -2.0018 0.9576
-1.8095 10.4987 -2.0024 0.9576
-4.5315 9.6473 -2.0034 0.9575
-6.9309 8.1033 -2.0042 0.9575
-7.6283 7.4525 -2.0045 0.9575
-8.2647 6.7417 -2.0047 0.9575
-9.3345 5.1638 -2.0051 0.9575
-9.7593 4.3093 -2.0052 0.9575
-10.1060 3.4201 -2.0054 0.9575
-10.3717 2.5035 -2.0055 0.9575
-10.6522 0.6173 -2.0056 0.9575
-10.6647 -0.3371 -2.0056 0.9575
-10.5918 -1.2888 -2.0055 0.9575
-10.4339 -2.2301 -2.0055 0.9575
-10.1924 -3.1534 -2.0054 0.9575
-9.8693 -4.0514 -2.0053 0.9575
-9.4671 -4.9168 -2.0051 0.9575
-8.9891 -5.7426 -2.0049 0.9575
-8.4391 -6.5223 -2.0047 0.9575
-7.1416 -7.9185 -2.0043 0.9575
-6.4045 -8.5239 -2.0040 0.9575
-5.6164 -9.0609 -2.0037 0.9575
-4.7835 -9.5251 -2.0034 0.9575
-3.6151 -9.1592 -1.8508 0.9607
-1.9263 -9.6533 -1.8502 0.9607
-0.1770 -9.8388 -1.8496 0.9607
0.7028 -9.8135 -1.8493 0.9607
1.5766 -9.7098 -1.8490 0.9608
2.4376 -9.5285 -1.8487 0.9608
4.0936 -8.9396 -1.8481 0.9608
4.8753 -8.5367 -1.8478 0.9608
5.6179 -8.0657 -1.8475 0.9608
6.3153 -7.5304 -1.8473 0.9608
6.9622 -6.9351 -1.8471 0.9608
8.1560 -6.7861 -1.9943 0.9577
10.4991 -1.6629 -1.9980 0.9577
10.6055 -0.7180 -1.9980 0.9577
10.6272 0.2327 -1.9980 0.9577
10.5640 1.1814 -1.9980 0.9577
10.1857 3.0433 -1.9981 0.9577
9.4825 4.8085 -1.9984 0.9577
7.8698 7.1534 -1.9990 0.9576
4.8676 9.4622 -2.0001 0.9576
1.2449 10.5746 -2.0013 0.9576
0.2950 10.6454 -2.0017 0.9576
-0.6576 10.6310 -2.0020 0.9576
-2.5403 10.3476 -2.0027 0.9576
-6.0082 8.8072 -2.0039 0.9575
-6.7721 8.2362 -2.0042 0.9575
-8.1320 6.9008 -2.0047 0.9575
-9.2323 5.3440 -2.0051 0.9575
-9.6737 4.4980 -2.0052 0.9575
-10.3210 2.7044 -2.0054 0.9575
-10.5218 1.7713 -2.0055 0.9575
-10.6381 0.8240 -2.0055 0.9575
-10.6149 -1.0828 -2.0055 0.9575
-10.2519 -2.9549 -2.0054 0.9575
-9.9463 -3.8590 -2.0053 0.9575
-9.0991 -5.5671 -2.0050 0.9575
-6.5691 -8.3982 -2.0041 0.9575
-4.9678 -9.4307 -2.0035 0.9575
-2.1135 -9.6144 -1.8503 0.9607
-1.2457 -9.7632 -1.8500 0.9607
0.5120 -9.8257 -1.8494 0.9607
1.3878 -9.7390 -1.8490 0.9608
2.2522 -9.5744 -1.8487 0.9608
3.0983 -9.3333 -1.8484 0.9608
3.9193 -9.0177 -1.8481 0.9608
4.7087 -8.6301 -1.8479 0.9608
5.4603 -8.1736 -1.8476 0.9608
6.1681 -7.6519 -1.8473 0.9608
8.6301 -6.2122 -1.9987 0.9576
9.1499 -5.4156 -1.9985 0.9576
10.4649 -1.8665 -1.9980 0.9577
10.5896 -0.9238 -1.9980 0.9577
10.5850 0.9760 -1.9980 0.9577
10.2428 2.8449 -1.9981 0.9577
9.9481 3.7490 -1.9982 0.9577
9.5740 4.6233 -1.9984 0.9577
9.1232 5.4608 -1.9985 0.9576
8.0071 6.9990 -1.9989 0.9576
7.3504 7.6875 -1.9992 0.9576
5.0503 9.3656 -2.0000 0.9576
4.1938 9.7809 -2.0003 0.9576
2.3864 10.3746 -2.0009 0.9576
1.4500 10.5481 -2.0013 0.9576
-0.4510 10.6413 -2.0019 0.9576
-5.0144 9.4064 -2.0036 0.9575
-5.8358 8.9220 -2.0039 0.9575
-7.3327 7.7427 -2.0044 0.9575
-7.9962 7.0573 -2.0046 0.9575
-8.5958 6.3151 -2.0048 0.9575
-9.1266 5.5222 -2.0050 0.9575
-9.5843 4.6849 -2.0052 0.9575
3.3906 -8.0600 -1.8483 0.9649
4.7700 -7.3257 -1.8478 0.9649
5.4049 -6.8693 -1.8476 0.9649
5.9965 -6.3581 -1.8474 0.9649
8.0804 -4.9122 -1.9989 0.9621
8.4864 -4.1701 -1.9987 0.9621
8.8246 -3.3949 -1.9986 0.9621
9.2872 -1.7696 -1.9985 0.9621
9.4536 -0.0881 -1.9984 0.9621
9.4238 0.7570 -1.9984 0.9621
9.3186 1.5962 -1.9984 0.9621
8.1705 4.7606 -1.9989 0.9621
7.7131 5.4722 -1.9990 0.9621
5.9873 7.3242 -1.9996 0.9621
5.3094 7.8309 -1.9999 0.9621
4.5890 8.2751 -2.0001 0.9621
2.2307 9.1997 -2.0010 0.9620
-0.2894 9.4661 -2.0019 0.9620
-1.9704 9.2662 -2.0025 0.9620
-4.3594 8.4153 -2.0033 0.9620
-5.7893 7.5067 -2.0038 0.9620
-6.4377 6.9602 -2.0041 0.9620
-7.0346 6.3577 -2.0043 0.9620
-7.5753 5.7042 -2.0045 0.9620
-8.0554 5.0048 -2.0046 0.9620
-8.8189 3.4914 -2.0049 0.9620
-9.4842 0.1806 -2.0051 0.9620
-9.1919 -2.3413 -2.0050 0.9620
-7.2717 -6.0855 -2.0043 0.9620
-6.6981 -6.7103 -2.0041 0.9620
-6.0710 -7.2812 -2.0039 0.9620
-4.6767 -8.2435 -2.0034 0.9620
-2.1452 -8.4865 -1.8503 0.9648
-1.3781 -8.6430 -1.8500 0.9649
1.7362 -8.5729 -1.8489 0.9649
1.7723 -5.9543 -1.3132 0.9749
3.2336 -8.1246 -1.8484 0.9649
4.6269 -7.4172 -1.8479 0.9649
5.8720 -6.4736 -1.8475 0.9649
6.7321 -6.2041 -1.9352 0.9633
7.4994 -5.7619 -1.9991 0.9621
9.0402 -2.7687 -1.9985 0.9621
9.2512 -1.9497 -1.9985 0.9621
9.4367 0.5739 -1.9984 0.9621
9.1842 2.2446 -1.9985 0.9621
8.9473 3.0565 -1.9986 0.9621
6.1282 7.2064 -1.9996 0.9621
4.7487 8.1842 -2.0001 0.9621
3.2169 8.9012 -2.0006 0.9620
2.4089 9.1544 -2.0009 0.9620
0.7411 9.4398 -2.0015 0.9620
-0.9514 9.4238 -2.0021 0.9620
-2.6146 9.1066 -2.0027 0.9620
-3.4184 8.8378 -2.0030 0.9620
-4.1950 8.4981 -2.0033 0.9620
-4.9383 8.0903 -2.0035 0.9620
-5.6422 7.6176 -2.0038 0.9620
-6.3011 7.0837 -2.0040 0.9620
-6.9097 6.4930 -2.0042 0.9620
-7.4630 5.8501 -2.0044 0.9620
-8.3865 4.4289 -2.0048 0.9620
-9.0420 2.8656 -2.0050 0.9620
-9.2622 2.0462 -2.0051 0.9620
-9.0052 -2.9789 -2.0050 0.9620
-8.7024 -3.7715 -2.0048 0.9620
-8.3300 -4.5338 -2.0047 0.9620
-7.8909 -5.2597 -2.0046 0.9620
-6.2114 -7.1621 -2.0040 0.9620
-5.5459 -7.6876 -2.0037 0.9620
-4.8361 -8.1514 -2.0035 0.9620
-4.0878 -8.5498 -2.0032 0.9620
-2.3097 -8.4435 -1.8504 0.9648
0.0125 -8.7498 -1.8495 0.9649
0.7942 -8.7124 -1.8493 0.9649
1.6623 -6.0093 -1.3179 0.9748
3.7940 -7.8774 -1.8482 0.9649
6.3102 -6.0461 -1.8473 0.9649
7.3862 -5.9066 -1.9991 0.9621
8.3183 -4.4967 -1.9988 0.9621
8.6863 -3.7351 -1.9987 0.9621
8.9848 -2.9438 -1.9986 0.9621
9.2116 -2.1290 -1.9985 0.9621
9.3735 1.2330 -1.9984 0.9621
8.3490 4.4396 -1.9988 0.9621
7.9195 5.1683 -1.9990 0.9621
7.4266 5.8559 -1.9991 0.9621
6.8743 6.4967 -1.9993 0.9621
6.2669 7.0858 -1.9995 0.9621
5.6092 7.6184 -1.9998 0.9621
4.9066 8.0902 -2.0000 0.9621
4.1646 8.4974 -2.0003 0.9621
3.3890 8.8368 -2.0006 0.9620
1.7624 9.3016 -2.0012 0.9620
0.9242 9.4233 -2.0015 0.9620
-0.7682 9.4402 -2.0021 0.9620
-1.6090 9.3351 -2.0024 0.9620
-4.0291 8.5777 -2.0032 0.9620
-4.7801 8.1844 -2.0035 0.9620
-6.1622 7.2046 -2.0040 0.9620
-7.8547 5.3137 -2.0046 0.9620
-8.2988 4.5909 -2.0047 0.9620
-8.9846 3.0406 -2.0050 0.9620
-9.2207 2.2257 -2.0050 0.9620
-9.3830 1.3928 -2.0051 0.9620
-9.4163 -1.1458 -2.0051 0.9620
-9.2760 -1.9826 -2.0051 0.9620
-8.7742 -3.6019 -2.0049 0.9620
-6.9540 -6.4454 -2.0042 0.9620
-6.3495 -7.0403 -2.0040 0.9620
-5.6943 -7.5786 -2.0038 0.9620
-3.3586 -8.5093 -1.9337 0.9633
-2.4734 -8.3973 -1.8504 0.9648
-0.9388 -8.7009 -1.8499 0.9649
-0.1574 -8.7487 -1.8496 0.9649
0.6249 -8.7264 -1.8493 0.9649
1.4020 -8.6344 -1.8490 0.9649
2.1677 -8.4733 -1.8488 0.9649
2.9158 -8.2445 -1.8485 0.9649
3.6404 -7.9499 -1.8482 0.9649
4.9961 -7.1730 -1.8478 0.9649
7.2659 -6.0454 -1.9980 0.9621
7.7810 -5.3747 -1.9990 0.9621
8.2295 -4.6575 -1.9988 0.9621
8.6122 -3.9032 -1.9987 0.9621
8.9261 -3.1178 -1.9986 0.9621
9.3378 -1.4789 -1.9984 0.9621
9.4325 -0.6385 -1.9984 0.9621
9.3956 1.0507 -1.9984 0.9621
9.0590 2.7067 -1.9985 0.9621
8.7814 3.5056 -1.9986 0.9621
8.4335 4.2765 -1.9988 0.9621
6.9990 6.3619 -1.9993 0.9621
5.7560 7.5078 -1.9997 0.9621
5.0627 7.9931 -2.0000 0.9621
4.3287 8.4147 -2.0002 0.9621
3.5599 8.7690 -2.0005 0.9620
2.7624 9.0534 -2.0008 0.9620
1.9426 9.2654 -2.0011 0.9620
-0.5847 9.4530 -2.0020 0.9620
-1.4273 9.3643 -2.0023 0.9620
-2.2588 9.2007 -2.0026 0.9620
-3.0724 8.9633 -2.0029 0.9620
-4.6201 8.2755 -2.0034 0.9620
-6.0210 7.3227 -2.0039 0.9620
-6.6520 6.7561 -2.0041 0.9620
-7.2299 6.1353 -2.0043 0.9620
-7.7499 5.4651 -2.0045 0.9620
-8.2079 4.7511 -2.0047 0.9620
-8.6003 3.9989 -2.0048 0.9620
-8.9237 3.2145 -2.0049 0.9620
-9.1757 2.4043 -2.0050 0.9620
-9.3541 1.5748 -2.0051 0.9620
-9.4576 0.7326 -2.0051 0.9620
-9.4852 -0.1155 -2.0051 0.9620
-9.4369 -0.9627 -2.0051 0.9620
-9.1142 -2.6270 -2.0050 0.9620
-8.8426 -3.4308 -2.0049 0.9620
-7.6142 -5.6520 -2.0045 0.9620
-6.4852 -6.9158 -2.0040 0.9620
-5.8405 -7.4668 -2.0038 0.9620
-5.1493 -7.9579 -2.0036 0.9620
-3.6385 -8.7187 -1.9970 0.9621
-1.8792 -8.5489 -1.8502 0.9648
-1.1076 -8.6813 -1.8499 0.9649
-0.3273 -8.7442 -1.8497 0.9649
0.4553 -8.7372 -1.8494 0.9649
1.2341 -8.6603 -1.8491 0.9649
2.0028 -8.5141 -1.8488 0.9649
2.7552 -8.2998 -1.8486 0.9649
3.4854 -8.0193 -1.8483 0.9649
4.1875 -7.6747 -1.8480 0.9649
5.4854 -6.8050 -1.8476 0.9649
6.0709 -6.2869 -1.8474 0.9649
7.1366 -6.1763 -1.9950 0.9621
7.6753 -5.5249 -1.9990 0.9621
8.1377 -4.8165 -1.9989 0.9621
8.5349 -4.0697 -1.9987 0.9621
9.1221 -2.4852 -1.9985 0.9621
9.4183 -0.8216 -1.9984 0.9621
9.4540 0.0233 -1.9984 0.9621
8.8477 3.3343 -1.9986 0.9621
8.5148 4.1119 -1.9987 0.9621
8.1139 4.8567 -1.9989 0.9621
7.1211 6.2246 -1.9992 0.9621
5.2168 7.8931 -1.9999 0.9621
4.4912 8.3288 -2.0002 0.9621
2.1221 9.2256 -2.0010 0.9620
1.2894 9.3797 -2.0013 0.9620
0.4461 9.4588 -2.0016 0.9620
-6.5194 6.8839 -2.0041 0.9620
-7.1092 6.2744 -2.0043 0.9620
-7.6422 5.6145 -2.0045 0.9620
-8.1140 4.9095 -2.0047 0.9620
2.3900 -7.4941 -1.8487 0.9682
4.8617 -6.1789 -1.8478 0.9682
6.3616 -5.6382 -1.9978 0.9657
6.8451 -5.0509 -1.9993 0.9656
7.6338 -3.7512 -1.9990 0.9657
8.1789 -2.3321 -1.9988 0.9657
8.4772 0.6810 -1.9987 0.9657
7.9936 2.9053 -1.9989 0.9657
5.9521 6.0799 -1.9997 0.9656
5.3855 6.5881 -1.9999 0.9656
4.1277 7.4432 -2.0003 0.9656
1.2591 8.4219 -2.0013 0.9656
-1.7722 8.3337 -2.0024 0.9656
-3.9206 7.5681 -2.0032 0.9656
-4.5817 7.1883 -2.0034 0.9656
-5.2063 6.7509 -2.0036 0.9656
-6.3261 5.7174 -2.0040 0.9656
-6.8123 5.1296 -2.0042 0.9656
-7.9305 3.1396 -2.0046 0.9656
-8.1796 2.4185 -2.0047 0.9656
-8.3633 1.6779 -2.0047 0.9656
-8.4800 0.9239 -2.0048 0.9656
-8.5287 0.1624 -2.0048 0.9656
-8.5090 -0.6004 -2.0048 0.9656
-8.4212 -1.3584 -2.0048 0.9656
-8.2659 -2.1054 -2.0047 0.9656
-8.0443 -2.8356 -2.0046 0.9656
-7.7583 -3.5429 -2.0045 0.9656
-7.0028 -4.8667 -2.0042 0.9656
-6.5393 -5.4726 -2.0041 0.9656
-5.4597 -6.5480 -2.0037 0.9656
-4.2059 -7.4136 -2.0032 0.9656
-1.9293 -7.6325 -1.8502 0.9682
-0.5397 -7.8519 -1.8497 0.9682
0.8664 -7.8205 -1.8492 0.9682
1.7684 -5.9411 -1.4568 0.9749
4.7409 -6.2723 -1.8479 0.9682
6.7458 -5.1830 -1.9993 0.9656
7.1815 -4.5590 -1.9992 0.9657
7.8774 -3.2075 -1.9989 0.9657
8.1321 -2.4906 -1.9989 0.9657
8.4451 -1.0031 -1.9988 0.9657
8.5009 -0.2444 -1.9987 0.9657
8.4888 0.5162 -1.9987 0.9657
8.2616 2.0191 -1.9988 0.9657
7.4313 4.1387 -1.9991 0.9657
5.5123 6.4821 -1.9998 0.9656
4.9115 6.9495 -2.0000 0.9656
2.8934 8.0062 -2.0008 0.9656
2.1667 8.2338 -2.0010 0.9656
1.4224 8.3956 -2.0013 0.9656
0.6665 8.4903 -2.0015 0.9656
-1.6099 8.3663 -2.0024 0.9656
-2.3514 8.1901 -2.0026 0.9656
-3.7727 7.6426 -2.0031 0.9656
-5.0741 6.8505 -2.0036 0.9656
-5.6666 6.3704 -2.0038 0.9656
-6.2138 5.8391 -2.0040 0.9656
-7.1551 4.6404 -2.0043 0.9656
-8.3291 1.8400 -2.0047 0.9656
-8.5191 -0.4351 -2.0048 0.9656
-8.0979 -2.6788 -2.0046 0.9656
-6.6445 -5.3446 -2.0041 0.9656
-6.1398 -5.9165 -2.0039 0.9656
-4.9875 -6.9135 -2.0035 0.9656
-4.3492 -7.3307 -2.0033 0.9656
-3.6763 -7.6891 -2.0030 0.9656
-2.0773 -7.5938 -1.8503 0.9682
-1.3902 -7.7480 -1.8500 0.9682
-0.6922 -7.8402 -1.8498 0.9682
1.4115 -7.7398 -1.8490 0.9682
1.6584 -5.9952 -1.4619 0.9748
4.0316 -6.7514 -1.8481 0.9682
4.6183 -6.3634 -1.8479 0.9682
5.1679 -5.9246 -1.8477 0.9682
6.6440 -5.3131 -1.9994 0.9656
8.2863 -1.9151 -1.9988 0.9657
8.4241 -1.1670 -1.9988 0.9657
8.4946 -0.4095 -1.9987 0.9657
8.1003 2.5926 -1.9989 0.9657
7.8366 3.3062 -1.9990 0.9657
7.5102 3.9936 -1.9991 0.9657
7.1238 4.6490 -1.9992 0.9657
5.6370 6.3737 -1.9998 0.9656
0.8313 8.4755 -2.0015 0.9656
0.0706 8.5170 -2.0018 0.9656
-0.6909 8.4904 -2.0020 0.9656
-1.4471 8.3958 -2.0023 0.9656
-2.9193 8.0062 -2.0028 0.9656
-3.6235 7.7142 -2.0031 0.9656
-4.9400 6.9476 -2.0035 0.9656
-7.4628 4.1284 -2.0044 0.9656
-7.8024 3.4452 -2.0045 0.9656
-8.0794 2.7343 -2.0046 0.9656
-8.5159 0.4935 -2.0048 0.9656
-8.5259 -0.2695 -2.0048 0.9656
-8.4676 -1.0303 -2.0048 0.9656
-8.1485 -2.5211 -2.0047 0.9656
-7.1867 -4.5912 -2.0043 0.9656
-5.1209 -6.8155 -2.0036 0.9656
-3.8250 -7.6165 -2.0031 0.9656
-2.2244 -7.5522 -1.8503 0.9682
-0.1416 -7.8686 -1.8496 0.9682
0.5620 -7.8487 -1.8493 0.9682
1.2610 -7.7660 -1.8491 0.9682
3.8998 -6.8286 -1.8482 0.9682
4.4939 -6.4520 -1.8479 0.9682
5.8462 -5.8235 -1.9394 0.9667
8.0294 -2.8046 -1.9989 0.9657
8.4850 -0.5744 -1.9987 0.9657
8.5024 0.1861 -1.9987 0.9657
8.4518 0.9452 -1.9988 0.9657
8.3337 1.6968 -1.9988 0.9657
8.1490 2.4348 -1.9989 0.9657
7.8992 3.1534 -1.9990 0.9657
7.5862 3.8469 -1.9991 0.9657
7.2126 4.5097 -1.9992 0.9657
6.7813 5.1366 -1.9994 0.9656
5.7596 6.2629 -1.9997 0.9656
4.5538 7.1897 -2.0002 0.9656
1.7473 8.3335 -2.0012 0.9656
0.2360 8.5138 -2.0017 0.9656
-1.2837 8.4221 -2.0022 0.9656
-2.7631 8.0612 -2.0028 0.9656
-3.4729 7.7830 -2.0030 0.9656
-4.1550 7.4424 -2.0033 0.9656
-5.4147 6.5853 -2.0037 0.9656
-5.9821 6.0757 -2.0039 0.9656
-6.5017 5.5173 -2.0041 0.9656
-7.3811 4.2725 -2.0044 0.9656
-7.7339 3.5960 -2.0045 0.9656
-8.5296 -0.1039 -2.0048 0.9656
-7.6438 -3.7832 -2.0045 0.9656
-7.2747 -4.4509 -2.0043 0.9656
-6.8473 -5.0828 -2.0042 0.9656
-6.3651 -5.6738 -2.0040 0.9656
-5.8321 -6.2193 -2.0038 0.9656
-5.2524 -6.7149 -2.0036 0.9656
-3.9723 -7.5410 -2.0032 0.9656
-0.9962 -7.8078 -1.8499 0.9682
1.1100 -7.7892 -1.8491 0.9682
2.4781 -7.4653 -1.8487 0.9682
3.7665 -6.9032 -1.8482 0.9682
4.9341 -6.1211 -1.8478 0.9682
6.4327 -5.5671 -1.9994 0.9656
7.9735 -2.9600 -1.9989 0.9657
8.3725 -1.4933 -1.9988 0.9657
8.4723 -0.7391 -1.9987 0.9657
8.5044 0.0210 -1.9987 0.9657
8.3651 1.5346 -1.9988 0.9657
7.6594 3.6988 -1.9990 0.9657
7.2987 4.3687 -1.9992 0.9657
6.4055 5.5991 -1.9995 0.9656
5.8801 6.1497 -1.9997 0.9656
4.6924 7.0997 -2.0001 0.9656
4.0397 7.4915 -2.0003 0.9656
3.3545 7.8235 -2.0006 0.9656
2.6422 8.0930 -2.0008 0.9656
1.9087 8.2978 -2.0011 0.9656
1.1597 8.4363 -2.0014 0.9656
0.4012 8.5073 -2.0016 0.9656
-1.1199 8.4452 -2.0022 0.9656
-1.8703 8.3124 -2.0024 0.9656
-2.6060 8.1131 -2.0027 0.9656
-3.3210 7.8487 -2.0030 0.9656
-4.6662 7.1339 -2.0034 0.9656
-5.8628 6.1906 -2.0039 0.9656
-6.3932 5.6425 -2.0041 0.9656
2.1695 -6.8028 -1.8488 0.9709
2.7684 -6.5809 -1.8486 0.9709
3.3451 -6.3065 -1.8484 0.9709
4.4134 -5.6092 -1.8480 0.9709
7.6830 -0.7616 -1.9990 0.9686
7.7203 -0.0720 -1.9990 0.9686
7.6959 0.6182 -1.9990 0.9686
7.2569 2.6375 -1.9992 0.9686
6.6722 3.8876 -1.9994 0.9686
6.2985 4.4686 -1.9995 0.9686
5.4033 5.5193 -1.9999 0.9686
4.8889 5.9806 -2.0000 0.9686
3.1285 7.0654 -2.0007 0.9686
1.1429 7.6448 -2.0014 0.9686
0.4552 7.7173 -2.0016 0.9686
-1.6085 7.5644 -2.0024 0.9686
-2.2784 7.3913 -2.0026 0.9685
-2.9301 7.1589 -2.0028 0.9685
-3.5585 6.8692 -2.0030 0.9685
-4.1586 6.5244 -2.0033 0.9685
-6.5747 4.0848 -2.0041 0.9685
-6.9139 3.4811 -2.0042 0.9685
-7.1976 2.8495 -2.0043 0.9685
-7.4238 2.1950 -2.0044 0.9685
-7.5904 1.5229 -2.0045 0.9685
-7.6963 0.8385 -2.0045 0.9685
-7.6429 -1.2329 -2.0045 0.9685
-7.5020 -1.9109 -2.0044 0.9685
-7.3010 -2.5735 -2.0044 0.9685
-5.9352 -4.9670 -2.0039 0.9685
-3.2005 -7.0424 -2.0029 0.9685
0.7864 -7.0988 -1.8493 0.9709
1.4175 -6.9993 -1.8490 0.9709
4.3037 -5.6940 -1.8480 0.9709
5.6794 -5.2340 -1.9997 0.9686
6.1240 -4.7052 -1.9996 0.9686
6.5195 -4.1388 -1.9994 0.9686
7.5549 -1.5922 -1.9991 0.9686
7.6668 -0.9107 -1.9990 0.9686
7.0547 3.1391 -1.9993 0.9686
6.7463 3.7572 -1.9994 0.9686
6.3840 4.3454 -1.9995 0.9686
5.9706 4.8988 -1.9996 0.9686
5.5094 5.4132 -1.9998 0.9686
5.0041 5.8844 -2.0000 0.9686
4.4586 6.3087 -2.0002 0.9686
3.8774 6.6826 -2.0004 0.9686
3.2651 7.0031 -2.0006 0.9686
2.6265 7.2677 -2.0008 0.9686
1.9668 7.4742 -2.0011 0.9686
1.2911 7.6210 -2.0013 0.9686
-1.4613 7.5940 -2.0023 0.9686
-2.1343 7.4339 -2.0025 0.9685
-3.4243 6.9369 -2.0030 0.9685
-5.1432 5.7819 -2.0036 0.9685
-6.4940 4.2117 -2.0041 0.9685
-6.8449 3.6147 -2.0042 0.9685
-7.6785 0.9878 -2.0045 0.9685
-7.7362 0.2977 -2.0045 0.9685
-7.7318 -0.3949 -2.0045 0.9685
-7.6655 -1.0842 -2.0045 0.9685
-7.1026 -3.0782 -2.0043 0.9685
-6.7988 -3.7004 -2.0042 0.9685
-6.0307 -4.8509 -2.0039 0.9685
-5.0699 -5.8459 -2.0035 0.9685
-4.5268 -6.2750 -2.0034 0.9685
-3.9475 -6.6537 -2.0031 0.9685
-3.3368 -6.9791 -2.0029 0.9685
-0.6283 -7.1165 -1.8498 0.9709
0.6484 -7.1130 -1.8493 0.9709
3.0978 -6.4320 -1.8484 0.9709
3.6598 -6.1288 -1.8482 0.9709
4.8265 -5.5332 -1.9011 0.9701
6.4380 -4.2647 -1.9995 0.9686
6.7929 -3.6721 -1.9993 0.9686
7.3374 -2.4040 -1.9991 0.9686
7.5226 -1.7386 -1.9991 0.9686
7.6477 -1.0594 -1.9990 0.9686
7.7117 -0.3718 -1.9990 0.9686
7.6548 1.0070 -1.9990 0.9686
7.5344 1.6870 -1.9991 0.9686
7.3537 2.3536 -1.9992 0.9686
7.1143 3.0015 -1.9992 0.9686
6.8179 3.6254 -1.9993 0.9686
6.4671 4.2205 -1.9995 0.9686
6.0645 4.7819 -1.9996 0.9686
5.6134 5.3051 -1.9998 0.9686
4.5802 6.2208 -2.0001 0.9686
4.0064 6.6058 -2.0004 0.9686
3.4004 6.9382 -2.0006 0.9686
0.7546 7.6934 -2.0015 0.9686
0.0641 7.7310 -2.0018 0.9686
-2.6497 7.2670 -2.0027 0.9685
-3.9019 6.6807 -2.0032 0.9685
-4.4837 6.3059 -2.0034 0.9685
-5.5357 5.4081 -2.0037 0.9685
-6.4109 4.3370 -2.0041 0.9685
-7.0814 3.1268 -2.0043 0.9685
-7.5255 1.8165 -2.0044 0.9685
-7.7289 0.4479 -2.0045 0.9685
-7.7380 -0.2446 -2.0045 0.9685
-7.5707 -1.6181 -2.0044 0.9685
-7.3955 -2.2881 -2.0044 0.9685
-7.1612 -2.9397 -2.0043 0.9685
-6.8694 -3.5677 -2.0042 0.9685
-6.5227 -4.1670 -2.0041 0.9685
-6.1238 -4.7329 -2.0039 0.9685
-5.1826 -5.7465 -2.0036 0.9685
-4.0761 -6.5759 -2.0032 0.9685
-3.4718 -6.9132 -2.0030 0.9685
0.5102 -7.1244 -1.8494 0.9709
1.1447 -7.0495 -1.8491 0.9709
1.5383 -6.0130 -1.6070 0.9747
2.3807 -6.7315 -1.8487 0.9709
3.5402 -6.1988 -1.8483 0.9709
4.0795 -5.8571 -1.8481 0.9709
4.6116 -5.4989 -1.8582 0.9708
5.4619 -5.4407 -1.9961 0.9686
5.9368 -4.9396 -1.9996 0.9686
6.3540 -4.3890 -1.9995 0.9686
7.0330 -3.1874 -1.9992 0.9686
7.4875 -1.8844 -1.9991 0.9686
7.7188 0.1690 -1.9990 0.9686
7.6729 0.8581 -1.9990 0.9686
7.3980 2.2104 -1.9991 0.9686
6.8870 3.4923 -1.9993 0.9686
5.2286 5.6854 -1.9999 0.9686
4.7001 6.1305 -2.0001 0.9686
2.9066 7.1598 -2.0007 0.9686
2.2554 7.3918 -2.0010 0.9686
1.5860 7.5647 -2.0012 0.9686
0.9038 7.6771 -2.0015 0.9686
0.2142 7.7281 -2.0017 0.9686
-0.4773 7.7172 -2.0020 0.9686
-1.8439 7.5108 -2.0024 0.9685
-2.5080 7.3169 -2.0027 0.9685
-3.1522 7.0643 -2.0029 0.9685
-3.7713 6.7551 -2.0031 0.9685
-4.9145 5.9770 -2.0035 0.9685
-6.3254 4.4606 -2.0040 0.9685
-6.6991 3.8777 -2.0042 0.9685
-7.4887 1.9623 -2.0044 0.9685
-7.4386 -2.1440 -2.0044 0.9685
-7.2170 -2.8001 -2.0043 0.9685
-6.9375 -3.4336 -2.0042 0.9685
-6.6025 -4.0396 -2.0041 0.9685
-6.2147 -4.6132 -2.0040 0.9685
-5.7771 -5.1497 -2.0038 0.9685
-3.6055 -6.8446 -2.0030 0.9685
-2.9791 -7.1386 -2.0028 0.9685
-1.5341 -6.9788 -1.8501 0.9709
-0.2672 -7.1387 -1.8496 0.9709
0.3717 -7.1332 -1.8494 0.9709
1.0075 -7.0705 -1.8492 0.9709
1.6352 -6.9514 -1.8490 0.9709
2.2495 -6.7766 -1.8487 0.9709
2.8458 -6.5478 -1.8485 0.9709
3.4192 -6.2666 -1.8483 0.9709
3.9651 -5.9353 -1.8481 0.9709
4.4792 -5.5567 -1.8480 0.9709
5.3496 -5.5400 -1.9940 0.9687
5.8399 -5.0541 -1.9997 0.9686
6.2677 -4.5116 -1.9995 0.9686
6.6453 -3.9332 -1.9994 0.9686
6.9698 -3.3235 -1.9993 0.9686
7.2386 -2.6872 -1.9992 0.9686
7.4495 -2.0295 -1.9991 0.9686
7.6915 -0.6710 -1.9990 0.9686
7.6881 0.7089 -1.9990 0.9686
6.9534 3.3578 -1.9993 0.9686
6.6259 3.9660 -1.9994 0.9686
6.2454 4.5426 -1.9996 0.9686
5.8150 5.0829 -1.9997 0.9686
4.8181 6.0379 -2.0001 0.9686
3.0451 7.1019 -2.0007 0.9686
1.7326 7.5322 -2.0012 0.9686
1.0527 7.6579 -2.0014 0.9686
-0.3274 7.7248 -2.0019 0.9686
-1.0165 7.6656 -2.0021 0.9686
-2.3654 7.3640 -2.0026 0.9685
-3.0143 7.1240 -2.0029 0.9685
-4.7974 6.0712 -2.0035 0.9685
-5.8026 5.1212 -2.0038 0.9685
-6.9545 3.3994 -2.0042 0.9685
1.9572 -6.1369 -1.8235 0.9736
2.5322 -6.0192 -1.8486 0.9732
3.0596 -5.7683 -1.8485 0.9732
3.5625 -5.4713 -1.8483 0.9732
4.8441 -5.1363 -1.9987 0.9711
5.2868 -4.6856 -1.9999 0.9711
5.6840 -4.1941 -1.9997 0.9711
6.5918 -2.5359 -1.9994 0.9711
6.7918 -1.9366 -1.9993 0.9711
6.9375 -1.3219 -1.9993 0.9711
7.0278 -0.6967 -1.9993 0.9711
6.6379 2.4125 -1.9994 0.9711
6.3960 2.9962 -1.9995 0.9711
6.1030 3.5560 -1.9996 0.9711
5.3732 4.5862 -1.9999 0.9711
4.9423 5.0484 -2.0000 0.9711
3.9654 5.8486 -2.0004 0.9711
2.8615 6.4623 -2.0008 0.9710
2.2728 6.6929 -2.0010 0.9710
1.6658 6.8699 -2.0012 0.9710
-1.4712 6.9183 -2.0023 0.9710
-2.0837 6.7599 -2.0025 0.9710
-2.6798 6.5473 -2.0027 0.9710
-3.2544 6.2823 -2.0029 0.9710
-3.8032 5.9669 -2.0031 0.9710
-4.3216 5.6037 -2.0033 0.9710
-5.2509 4.7456 -2.0036 0.9710
-5.6544 4.2577 -2.0038 0.9710
-6.0127 3.7356 -2.0039 0.9710
-6.7890 2.0073 -2.0042 0.9710
-7.0382 0.7668 -2.0043 0.9710
-7.0623 -0.4984 -2.0043 0.9710
-6.9895 -1.1274 -2.0042 0.9710
-6.8606 -1.7475 -2.0042 0.9710
-6.4394 -2.9406 -2.0040 0.9710
-6.1506 -3.5041 -2.0039 0.9710
-5.4279 -4.5424 -2.0037 0.9710
-4.9998 -5.0089 -2.0035 0.9710
-4.0276 -5.8179 -2.0032 0.9710
-3.4913 -6.1540 -2.0030 0.9710
-2.9271 -6.4407 -2.0028 0.9710
-2.3396 -6.6758 -2.0026 0.9710
-1.7274 -6.8336 -1.9954 0.9711
-1.0296 -6.4576 -1.8512 0.9732
-0.4481 -6.5185 -1.8497 0.9732
0.1362 -6.5317 -1.8495 0.9732
0.7193 -6.4927 -1.8493 0.9732
1.7614 -5.9176 -1.7479 0.9747
3.4556 -5.5395 -1.8483 0.9732
4.0820 -5.4006 -1.9165 0.9722
4.7393 -5.2249 -1.9970 0.9711
5.1949 -4.7875 -1.9999 0.9711
5.6015 -4.3038 -1.9998 0.9711
5.9633 -3.7857 -1.9996 0.9711
6.2774 -3.2375 -1.9995 0.9711
6.7529 -2.0682 -1.9994 0.9711
7.0129 -0.8330 -1.9993 0.9711
7.0593 -0.2030 -1.9992 0.9711
6.9827 1.0569 -1.9993 0.9711
6.8605 1.6767 -1.9993 0.9711
6.4529 2.8714 -1.9995 0.9711
6.1708 3.4367 -1.9996 0.9711
5.0393 4.9514 -2.0000 0.9711
3.5465 6.1123 -2.0005 0.9710
2.4023 6.6473 -2.0009 0.9710
1.7989 6.8361 -2.0011 0.9710
1.1809 6.9703 -2.0014 0.9710
0.5534 7.0487 -2.0016 0.9710
-1.3365 6.9454 -2.0023 0.9710
-1.9520 6.7989 -2.0025 0.9710
-2.5520 6.5979 -2.0027 0.9710
-3.1317 6.3441 -2.0029 0.9710
-4.7036 5.2877 -2.0034 0.9710
-5.1577 4.8467 -2.0036 0.9710
-6.2597 3.3057 -2.0040 0.9710
-6.7487 2.1388 -2.0042 0.9710
-6.9131 1.5272 -2.0042 0.9710
-7.0101 -0.9915 -2.0043 0.9710
-6.8933 -1.6139 -2.0042 0.9710
-6.4954 -2.8150 -2.0041 0.9710
-5.8899 -3.9259 -2.0038 0.9710
-4.6366 -5.3463 -2.0034 0.9710
-4.1400 -5.7387 -2.0032 0.9710
-3.6102 -6.0852 -2.0030 0.9710
-2.4688 -6.6293 -2.0026 0.9710
-1.8615 -6.8049 -1.9972 0.9711
-1.1730 -6.5375 -1.8803 0.9728
0.0093 -6.5333 -1.8495 0.9732
0.5931 -6.5056 -1.8493 0.9732
2.8334 -5.8830 -1.8485 0.9732
3.9126 -5.3910 -1.8857 0.9727
4.6330 -5.3114 -1.9953 0.9711
5.8888 -3.9009 -1.9997 0.9711
6.2134 -3.3589 -1.9995 0.9711
6.7115 -2.1990 -1.9994 0.9711
6.8810 -1.5903 -1.9993 0.9711
6.9954 -0.9691 -1.9993 0.9711
7.0540 -0.3400 -1.9992 0.9711
7.0561 0.2917 -1.9993 0.9711
6.8917 1.5431 -1.9993 0.9711
6.2364 3.3162 -1.9996 0.9711
5.9154 3.8604 -1.9997 0.9711
5.5471 4.3739 -1.9998 0.9711
5.1344 4.8525 -1.9999 0.9711
4.6807 5.2923 -2.0001 0.9711
4.1894 5.6899 -2.0003 0.9711
3.6645 6.0421 -2.0005 0.9711
2.5309 6.5992 -2.0009 0.9710
1.9313 6.7997 -2.0011 0.9710
1.3160 6.9459 -2.0013 0.9710
0.6901 7.0365 -2.0015 0.9710
-0.5736 7.0485 -2.0020 0.9710
-1.8196 6.8354 -2.0024 0.9710
-3.5684 6.1098 -2.0030 0.9710
-4.1005 5.7670 -2.0032 0.9710
-4.5999 5.3780 -2.0034 0.9710
-5.0625 4.9458 -2.0036 0.9710
-5.8629 3.9662 -2.0039 0.9710
-6.1942 3.4266 -2.0040 0.9710
-6.4760 2.8595 -2.0041 0.9710
-6.7059 2.2695 -2.0042 0.9710
-7.0681 0.4096 -2.0043 0.9710
-7.0764 -0.2237 -2.0043 0.9710
-7.0280 -0.8552 -2.0043 0.9710
-6.9233 -1.4798 -2.0042 0.9710
-6.5489 -2.6884 -2.0041 0.9710
-6.2822 -3.2627 -2.0040 0.9710
-5.9651 -3.8108 -2.0039 0.9710
-5.6003 -4.3283 -2.0037 0.9710
-4.7397 -5.2553 -2.0034 0.9710
-4.2507 -5.6574 -2.0033 0.9710
-3.7278 -6.0140 -2.0031 0.9710
-1.9951 -6.7737 -1.9990 0.9711
-1.3223 -6.6267 -1.9130 0.9723
-0.7009 -6.4965 -1.8498 0.9732
-0.1176 -6.5324 -1.8496 0.9732
0.4666 -6.5161 -1.8494 0.9732
1.0469 -6.4476 -1.8492 0.9732
1.5324 -5.9902 -1.7504 0.9746
2.7187 -5.9371 -1.8486 0.9732
3.2380 -5.6698 -1.8484 0.9732
4.5251 -5.3958 -1.9936 0.9711
6.8488 -1.7237 -1.9993 0.9711
7.0185 0.7849 -1.9993 0.9711
6.9204 1.4090 -1.9993 0.9711
6.7670 2.0218 -1.9994 0.9711
6.5595 2.6186 -1.9994 0.9711
5.9892 3.7448 -1.9996 0.9711
5.6309 4.2653 -1.9998 0.9711
4.2990 5.6074 -2.0002 0.9711
3.7810 5.9697 -2.0004 0.9711
2.6585 6.5487 -2.0008 0.9710
2.0629 6.7608 -2.0010 0.9710
0.1959 7.0681 -2.0017 0.9710
-0.4366 7.0582 -2.0019 0.9710
-1.0657 6.9917 -2.0022 0.9710
-2.2938 6.6918 -2.0026 0.9710
-2.8829 6.4607 -2.0028 0.9710
-3.9877 5.8455 -2.0032 0.9710
-6.4192 2.9847 -2.0041 0.9710
-6.8484 1.7945 -2.0042 0.9710
-6.9816 1.1753 -2.0042 0.9710
-7.0588 0.5468 -2.0043 0.9710
-7.0433 -0.7185 -2.0043 0.9710
-6.9508 -1.3450 -2.0042 0.9710
-6.0381 -3.6943 -2.0039 0.9710
-5.2833 -4.7095 -2.0036 0.9710
-4.8409 -5.1624 -2.0035 0.9710
-4.3599 -5.5738 -2.0033 0.9710
-3.2974 -6.2597 -2.0029 0.9710
-2.7245 -6.5287 -2.0027 0.9710
-2.1283 -6.7399 -2.0009 0.9710
-1.4770 -6.7188 -1.9475 0.9718
-0.8270 -6.4818 -1.8498 0.9732
0.3400 -6.5241 -1.8494 0.9732
0.9215 -6.4668 -1.8492 0.9732
2.6029 -5.9889 -1.8486 0.9732
3.1274 -5.7318 -1.8484 0.9732
3.6267 -5.4288 -1.8483 0.9732
4.3832 -5.4376 -1.9772 0.9714
4.9072 -5.0817 -1.9999 0.9711
5.3416 -4.6229 -1.9998 0.9711
6.6212 -2.4580 -1.9994 0.9711
6.8141 -1.8564 -1.9993 0.9711
6.9526 -1.2400 -1.9993 0.9711
6.3603 3.0714 -1.9995 0.9711
6.0607 3.6277 -1.9996 0.9711
4.8825 5.1064 -2.0000 0.9711
4.4070 5.5227 -2.0002 0.9711
3.8962 5.8950 -2.0004 0.9711
2.7851 6.4957 -2.0008 0.9710
1.5847 6.8892 -2.0012 0.9710
-1.5526 6.9005 -2.0023 0.9710
-2.1633 6.7349 -2.0025 0.9710
-2.7568 6.5153 -2.0028 0.9710
-4.3874 5.5524 -2.0033 0.9710
-4.8664 5.1385 -2.0035 0.9710
-6.3599 3.1088 -2.0040 0.9710
1.8264 -5.7270 -1.8489 0.9752
2.3307 -5.5403 -1.8487 0.9752
2.8371 -5.3487 -1.8623 0.9750
3.4757 -5.3379 -1.9592 0.9737
4.4617 -4.7309 -2.0002 0.9732
4.8663 -4.3129 -2.0000 0.9732
5.2319 -3.8605 -1.9999 0.9732
5.8350 -2.8672 -1.9997 0.9732
6.3858 -1.2168 -1.9995 0.9732
6.4798 0.5205 -1.9995 0.9732
6.1100 2.2207 -1.9996 0.9732
5.8874 2.7579 -1.9997 0.9732
4.9459 4.2214 -2.0000 0.9732
4.5492 4.6468 -2.0002 0.9732
3.6499 5.3833 -2.0005 0.9731
3.1545 5.6884 -2.0007 0.9731
2.6338 5.9481 -2.0008 0.9731
2.0919 6.1603 -2.0010 0.9731
1.5332 6.3232 -2.0012 0.9731
0.9621 6.4356 -2.0014 0.9731
0.3832 6.4965 -2.0016 0.9731
-0.1989 6.5054 -2.0018 0.9731
-0.7795 6.4622 -2.0021 0.9731
-1.3540 6.3674 -2.0023 0.9731
-2.4663 6.0258 -2.0027 0.9731
-4.4226 4.7816 -2.0033 0.9731
-4.8326 4.3675 -2.0035 0.9731
-5.2039 3.9185 -2.0036 0.9731
-6.0577 2.3982 -2.0039 0.9731
-6.3882 1.2817 -2.0040 0.9731
-6.4773 0.7057 -2.0041 0.9731
-6.5145 0.1240 -2.0041 0.9731
-6.4324 -1.0376 -2.0040 0.9731
-4.9954 -4.1805 -2.0035 0.9731
-3.7068 -5.3545 -2.0031 0.9731
-3.2132 -5.6638 -2.0029 0.9731
-2.6940 -5.9278 -2.0027 0.9731
-2.1532 -6.1442 -2.0025 0.9731
-0.4208 -6.1213 -1.8872 0.9746
0.6620 -5.9759 -1.8493 0.9752
1.1933 -5.8923 -1.8491 0.9752
3.3315 -5.3405 -1.9360 0.9740
3.9130 -5.1770 -1.9960 0.9732
5.7782 -2.9800 -1.9997 0.9732
6.2159 -1.9037 -1.9995 0.9732
6.3610 -1.3406 -1.9995 0.9732
6.3150 1.5434 -1.9995 0.9732
6.1520 2.1016 -1.9996 0.9732
5.9398 2.6430 -1.9997 0.9732
5.6801 3.1634 -1.9997 0.9732
5.3750 3.6585 -1.9999 0.9732
4.2130 4.9542 -2.0003 0.9732
2.7488 5.8957 -2.0008 0.9731
2.2111 6.1183 -2.0010 0.9731
-0.0725 6.5079 -2.0018 0.9731
-0.6538 6.4760 -2.0020 0.9731
-1.2301 6.3923 -2.0022 0.9731
-1.7966 6.2575 -2.0024 0.9731
-2.3488 6.0725 -2.0026 0.9731
-2.8823 5.8388 -2.0028 0.9731
-3.3929 5.5584 -2.0030 0.9731
-3.8763 5.2334 -2.0032 0.9731
-4.3288 4.8665 -2.0033 0.9731
-4.7468 4.4605 -2.0035 0.9731
-6.3621 1.4055 -2.0040 0.9731
-6.4624 0.8313 -2.0041 0.9731
-6.5108 0.2505 -2.0041 0.9731
-6.3439 -1.4853 -2.0040 0.9731
-6.1856 -2.0462 -2.0040 0.9731
-5.7221 -3.1144 -2.0038 0.9731
-5.4206 -3.6131 -2.0037 0.9731
-5.0757 -4.0828 -2.0036 0.9731
-3.8102 -5.2816 -2.0031 0.9731
-3.3227 -5.6005 -2.0029 0.9731
-2.8086 -5.8744 -2.0027 0.9731
-2.2722 -6.1013 -2.0026 0.9731
-1.7177 -6.2794 -2.0024 0.9731
-1.1461 -6.3876 -1.9961 0.9732
-0.5457 -6.1817 -1.9088 0.9744
1.6027 -5.7938 -1.8490 0.9752
2.1138 -5.6269 -1.8488 0.9752
3.1906 -5.3430 -1.9141 0.9743
5.0782 -4.0609 -1.9999 0.9732
5.4204 -3.5906 -1.9998 0.9732
5.7193 -3.0917 -1.9997 0.9732
6.1778 -2.0241 -1.9996 0.9732
6.4392 -0.8920 -1.9995 0.9732
6.4452 0.8478 -1.9995 0.9732
6.3437 1.4204 -1.9995 0.9732
5.9899 2.5272 -1.9996 0.9732
5.7404 3.0525 -1.9997 0.9732
5.4449 3.5534 -1.9998 0.9732
5.1059 4.0260 -2.0000 0.9732
4.3083 4.8713 -2.0002 0.9732
3.8561 5.2373 -2.0004 0.9731
3.3729 5.5614 -2.0006 0.9731
2.8627 5.8411 -2.0008 0.9731
2.3295 6.0741 -2.0009 0.9731
1.7776 6.2586 -2.0011 0.9731
1.2113 6.3931 -2.0013 0.9731
0.6352 6.4764 -2.0016 0.9731
0.0539 6.5079 -2.0018 0.9731
-0.5279 6.4874 -2.0020 0.9731
-2.2304 6.1168 -2.0026 0.9731
-2.7683 5.8936 -2.0028 0.9731
-3.7739 5.3076 -2.0031 0.9731
-4.2334 4.9495 -2.0033 0.9731
-4.6592 4.5518 -2.0034 0.9731
-5.3957 3.6502 -2.0037 0.9731
-5.9599 2.6316 -2.0039 0.9731
-6.1714 2.0886 -2.0040 0.9731
-6.3336 1.5288 -2.0040 0.9731
-6.5047 0.3769 -2.0041 0.9731
-6.5124 -0.2059 -2.0041 0.9731
-6.4679 -0.7870 -2.0041 0.9731
-6.3716 -1.3618 -2.0040 0.9731
-6.2242 -1.9257 -2.0040 0.9731
-5.7815 -3.0027 -2.0038 0.9731
-5.1541 -3.9835 -2.0036 0.9731
-4.7772 -4.4278 -2.0034 0.9731
-3.9121 -5.2067 -2.0031 0.9731
-3.4309 -5.5350 -2.0030 0.9731
-2.9223 -5.8189 -2.0028 0.9731
-2.3903 -6.0562 -2.0026 0.9731
-1.8394 -6.2449 -2.0024 0.9731
-1.2709 -6.3688 -1.9975 0.9732
-0.1082 -6.0124 -1.8496 0.9751
0.9636 -5.9344 -1.8492 0.9752
1.4899 -5.8240 -1.8490 0.9752
2.0042 -5.6670 -1.8488 0.9752
2.5024 -5.4647 -1.8487 0.9752
3.0527 -5.3453 -1.8933 0.9746
3.7041 -5.3181 -1.9934 0.9732
4.9984 -4.1588 -2.0000 0.9732
5.3497 -3.6953 -1.9998 0.9732
5.9215 -2.6837 -1.9996 0.9732
6.1374 -2.1437 -1.9996 0.9732
6.3042 -1.5866 -1.9995 0.9732
6.4207 -1.0169 -1.9995 0.9732
6.4858 -0.4391 -1.9995 0.9732
6.4991 0.1423 -1.9994 0.9732
6.0378 2.4103 -1.9996 0.9732
4.8118 4.3738 -2.0001 0.9732
4.4020 4.7867 -2.0002 0.9732
3.9570 5.1613 -2.0004 0.9731
3.4802 5.4947 -2.0005 0.9731
1.3352 6.3682 -2.0013 0.9731
0.7608 6.4627 -2.0015 0.9731
0.1803 6.5055 -2.0017 0.9731
-0.9808 6.4350 -2.0021 0.9731
-1.5521 6.3222 -2.0023 0.9731
-2.1111 6.1589 -2.0025 0.9731
-2.6533 5.9461 -2.0027 0.9731
-3.1743 5.6858 -2.0029 0.9731
-6.4252 1.0817 -2.0040 0.9731
-6.4962 0.5032 -2.0041 0.9731
-6.4820 -0.6612 -2.0041 0.9731
-6.3969 -1.2378 -2.0040 0.9731
-6.2605 -1.8045 -2.0040 0.9731
-6.0740 -2.3566 -2.0039 0.9731
-5.8388 -2.8899 -2.0038 0.9731
-5.2306 -3.8827 -2.0036 0.9731
-4.8624 -4.3343 -2.0035 0.9731
-4.4553 -4.7511 -2.0033 0.9731
-4.0125 -5.1298 -2.0032 0.9731
-2.5076 -6.0087 -2.0026 0.9731
-1.3954 -6.3476 -1.9990 0.9732
-0.8050 -6.3095 -1.9564 0.9737
-0.2263 -6.0438 -1.8603 0.9750
0.3129 -6.0047 -1.8494 0.9752
0.8482 -5.9521 -1.8492 0.9752
1.3765 -5.8519 -1.8491 0.9752
1.8938 -5.7049 -1.8489 0.9752
2.3958 -5.5123 -1.8487 0.9752
2.9177 -5.3475 -1.8737 0.9748
3.5695 -5.3432 -1.9764 0.9735
6.3997 -1.1414 -1.9995 0.9732
6.4760 -0.5649 -1.9995 0.9732
6.5006 0.0160 -1.9994 0.9732
6.4732 0.5969 -1.9995 0.9732
6.3940 1.1730 -1.9995 0.9732
6.0835 2.2926 -1.9996 0.9732
5.8545 2.8272 -1.9997 0.9732
5.2583 3.8246 -1.9999 0.9732
4.4941 4.7002 -2.0002 0.9732
3.5862 5.4260 -2.0005 0.9731
3.0873 5.7253 -2.0007 0.9731
2.5635 5.9788 -2.0009 0.9731
1.4586 6.3409 -2.0013 0.9731
-0.2756 6.5027 -2.0019 0.9731
-1.4290 6.3511 -2.0023 0.9731
-1.9910 6.1986 -2.0025 0.9731
-3.5648 5.4500 -2.0030 0.9731
-4.8837 4.3103 -2.0035 0.9731
-5.8531 2.8610 -2.0039 0.9731
1.7377 -5.4488 -1.9011 0.9762
4.1287 -4.3778 -2.0003 0.9750
5.3996 -2.6533 -1.9998 0.9750
5.6149 -2.1601 -1.9998 0.9750
5.7852 -1.6496 -1.9997 0.9750
5.9963 0.4817 -1.9996 0.9750
5.9294 1.0156 -1.9997 0.9750
5.4481 2.5521 -1.9998 0.9750
3.8088 4.6593 -2.0004 0.9750
3.3775 4.9814 -2.0006 0.9750
1.9357 5.7003 -2.0011 0.9749
1.4187 5.8510 -2.0013 0.9749
0.3546 6.0113 -2.0017 0.9749
-0.1840 6.0195 -2.0018 0.9749
-0.7213 5.9795 -2.0020 0.9749
-1.7745 5.7567 -2.0024 0.9749
-2.2820 5.5756 -2.0026 0.9749
-3.6801 4.7718 -2.0031 0.9749
-5.3839 2.7108 -2.0037 0.9749
-5.7808 1.7092 -2.0038 0.9749
-6.0274 0.1147 -2.0039 0.9749
-6.0135 -0.4243 -2.0039 0.9749
-5.8418 -1.4880 -2.0038 0.9749
-5.6852 -2.0040 -2.0038 0.9749
-5.4832 -2.5040 -2.0037 0.9749
-4.2576 -4.2653 -2.0033 0.9749
-3.8591 -4.6284 -2.0031 0.9749
-3.4298 -4.9543 -2.0030 0.9749
-2.4927 -5.4848 -2.0026 0.9749
-1.9924 -5.6851 -2.0025 0.9749
-0.9478 -5.9445 -2.0009 0.9749
0.1225 -5.8764 -1.9538 0.9755
0.6327 -5.7108 -1.9099 0.9761
1.1286 -5.5731 -1.8901 0.9763
2.1435 -5.3858 -1.9268 0.9759
3.6288 -4.8010 -2.0005 0.9750
4.4248 -4.0778 -2.0002 0.9750
4.7712 -3.6658 -2.0001 0.9750
5.0795 -3.2246 -1.9999 0.9750
5.3471 -2.7577 -1.9999 0.9750
5.7522 -1.7617 -1.9997 0.9750
5.8864 -1.2406 -1.9997 0.9750
5.9736 -0.7096 -1.9996 0.9750
6.0045 0.3651 -1.9996 0.9750
5.9479 0.9003 -1.9996 0.9750
5.2562 2.9274 -1.9999 0.9750
4.9739 3.3855 -2.0000 0.9750
4.6517 3.8167 -2.0001 0.9750
3.8985 4.5844 -2.0004 0.9750
3.4735 4.9148 -2.0005 0.9750
2.5436 5.4556 -2.0009 0.9749
2.0461 5.6615 -2.0010 0.9749
1.5321 5.8222 -2.0012 0.9749
-1.1382 5.9148 -2.0022 0.9749
-2.1733 5.6188 -2.0025 0.9749
-2.6669 5.4025 -2.0027 0.9749
-3.1393 5.1430 -2.0029 0.9749
-3.5866 4.8423 -2.0030 0.9749
-4.0053 4.5027 -2.0032 0.9749
-4.3920 4.1271 -2.0033 0.9749
-5.3302 2.8148 -2.0037 0.9749
-5.5606 2.3273 -2.0037 0.9749
-5.8864 1.3004 -2.0039 0.9749
-6.0240 0.2318 -2.0039 0.9749
-6.0206 -0.3075 -2.0039 0.9749
-5.7231 -1.8932 -2.0038 0.9749
-4.6963 -3.7776 -2.0034 0.9749
-4.3397 -4.1819 -2.0033 0.9749
-3.9483 -4.5526 -2.0032 0.9749
-2.5988 -5.4355 -2.0027 0.9749
-1.0637 -5.9285 -2.0021 0.9749
-0.5283 -5.9840 -1.9969 0.9750
1.0209 -5.5976 -1.8914 0.9763
1.5182 -5.4884 -1.8929 0.9763
2.0300 -5.4036 -1.9187 0.9760
3.5349 -4.8707 -2.0005 0.9750
3.9557 -4.5349 -2.0003 0.9750
4.3449 -4.1630 -2.0002 0.9750
5.5268 -2.3765 -1.9998 0.9750
5.7169 -1.8731 -1.9997 0.9750
5.8612 -1.3547 -1.9997 0.9750
5.9588 -0.8255 -1.9996 0.9750
6.0105 0.2485 -1.9996 0.9750
5.9643 0.7846 -1.9996 0.9750
5.3121 2.8247 -1.9999 0.9750
3.9868 4.5078 -2.0004 0.9750
3.5682 4.8463 -2.0005 0.9750
2.6490 5.4050 -2.0008 0.9749
2.1556 5.6206 -2.0010 0.9749
1.1208 5.9156 -2.0014 0.9749
-1.0231 5.9357 -2.0021 0.9749
-2.0637 5.6598 -2.0025 0.9749
-2.5615 5.4532 -2.0027 0.9749
-4.6703 3.8097 -2.0034 0.9749
-4.9924 3.3773 -2.0035 0.9749
-5.2744 2.9178 -2.0036 0.9749
-5.5143 2.4349 -2.0037 0.9749
-5.8600 1.4145 -2.0038 0.9749
-5.9631 0.8852 -2.0039 0.9749
-6.0184 0.3487 -2.0039 0.9749
-6.0255 -0.1905 -2.0039 0.9749
-5.8952 -1.2600 -2.0039 0.9749
-5.5764 -2.2892 -2.0037 0.9749
-5.3493 -2.7782 -2.0037 0.9749
-3.1745 -5.1213 -2.0029 0.9749
-1.1787 -5.9068 -2.0022 0.9749
-0.6448 -5.9759 -1.9980 0.9750
-0.1074 -5.9683 -1.9842 0.9752
0.4139 -5.7792 -1.9260 0.9759
0.9135 -5.6256 -1.8945 0.9763
1.4101 -5.5121 -1.8913 0.9763
2.4527 -5.3562 -1.9582 0.9755
2.9764 -5.2117 -1.9950 0.9750
3.8670 -4.6110 -2.0004 0.9750
4.6254 -3.8485 -2.0001 0.9750
5.9416 -0.9410 -1.9996 0.9750
6.0019 -0.4063 -1.9996 0.9750
5.9784 0.6686 -1.9996 0.9750
5.8948 1.2002 -1.9997 0.9750
5.5873 2.2305 -1.9998 0.9750
4.7963 3.6331 -2.0001 0.9750
4.4527 4.0474 -2.0002 0.9750
4.0735 4.4294 -2.0003 0.9750
3.6616 4.7761 -2.0005 0.9750
2.2643 5.5776 -2.0010 0.9749
1.7570 5.7581 -2.0012 0.9749
0.1668 6.0196 -2.0017 0.9749
-0.3718 6.0110 -2.0019 0.9749
-1.4362 5.8499 -2.0023 0.9749
-1.9534 5.6987 -2.0025 0.9749
-2.4550 5.5018 -2.0026 0.9749
-3.3958 4.9778 -2.0030 0.9749
-4.2282 4.2944 -2.0033 0.9749
-5.2167 3.0197 -2.0036 0.9749
-5.6714 2.0429 -2.0038 0.9749
-5.8314 1.5280 -2.0038 0.9749
-6.0105 0.4656 -2.0039 0.9749
-6.0280 -0.0734 -2.0039 0.9749
-5.9973 -0.6118 -2.0039 0.9749
-5.9186 -1.1453 -2.0039 0.9749
-5.7924 -1.6696 -2.0038 0.9749
-5.6199 -2.1804 -2.0038 0.9749
-5.1415 -3.1457 -2.0036 0.9749
-4.8396 -3.5924 -2.0035 0.9749
-4.4989 -4.0103 -2.0034 0.9749
-4.1223 -4.3960 -2.0032 0.9749
-3.7127 -4.7464 -2.0031 0.9749
-3.2734 -5.0588 -2.0029 0.9749
-2.3202 -5.5598 -2.0026 0.9749
-1.2932 -5.8829 -2.0022 0.9749
-0.7611 -5.9656 -1.9991 0.9750
1.3021 -5.5356 -1.8903 0.9763
1.8053 -5.4384 -1.9048 0.9761
2.3325 -5.3668 -1.9452 0.9756
3.3398 -4.9994 -1.9985 0.9750
3.7767 -4.6853 -2.0004 0.9750
4.5499 -3.9376 -2.0001 0.9750
4.8832 -3.5151 -2.0000 0.9750
5.1775 -3.0645 -1.9999 0.9750
5.8043 -1.5813 -1.9997 0.9750
5.9902 0.5524 -1.9996 0.9750
5.9170 1.0855 -1.9997 0.9750
5.7964 1.6099 -1.9997 0.9750
5.4177 2.6162 -1.9998 0.9750
5.1624 3.0900 -1.9999 0.9750
4.8659 3.5392 -2.0000 0.9750
4.5304 3.9601 -2.0002 0.9750
3.7537 4.7040 -2.0004 0.9750
2.8568 5.2979 -2.0008 0.9749
1.8684 5.7228 -2.0011 0.9749
0.8200 5.9651 -2.0015 0.9749
-0.2550 6.0170 -2.0019 0.9749
-0.7917 5.9707 -2.0021 0.9749
-1.8423 5.7354 -2.0024 0.9749
-2.3477 5.5484 -2.0026 0.9749
-2.8343 5.3168 -2.0028 0.9749
-3.2984 5.0427 -2.0029 0.9749
-3.7361 4.7281 -2.0031 0.9749
-5.4155 2.6471 -2.0037 0.9749
1.6955 -5.3165 -1.9956 0.9766
2.1655 -5.1477 -1.9971 0.9766
4.1860 -3.7100 -2.0003 0.9765
4.7791 -2.9053 -2.0001 0.9765
5.0194 -2.4665 -2.0000 0.9765
5.5648 -0.5516 -1.9998 0.9765
5.5742 0.4478 -1.9998 0.9765
5.4056 1.4329 -1.9998 0.9765
5.2561 1.9103 -1.9999 0.9765
4.8324 2.8156 -2.0000 0.9765
4.2545 3.6313 -2.0003 0.9765
3.9132 3.9972 -2.0004 0.9765
3.5406 4.3312 -2.0005 0.9765
3.1396 4.6306 -2.0007 0.9765
1.3188 5.4388 -2.0013 0.9765
0.8275 5.5354 -2.0015 0.9765
-1.1645 5.4764 -2.0022 0.9765
-1.6494 5.3509 -2.0024 0.9765
-2.5760 4.9726 -2.0027 0.9765
-3.0103 4.7229 -2.0028 0.9765
-3.4206 4.4353 -2.0030 0.9765
-3.8035 4.1122 -2.0031 0.9765
-4.1560 3.7561 -2.0032 0.9765
-4.7587 2.9566 -2.0035 0.9765
-5.0041 2.5196 -2.0035 0.9765
-5.2095 2.0624 -2.0036 0.9765
-5.3731 1.5887 -2.0037 0.9765
-5.5702 0.6069 -2.0037 0.9765
-5.6022 0.1067 -2.0038 0.9765
-5.5893 -0.3944 -2.0037 0.9765
-5.4297 -1.3830 -2.0037 0.9765
-5.2842 -1.8627 -2.0036 0.9765
-4.6003 -3.1971 -2.0034 0.9765
-3.9573 -3.9645 -2.0032 0.9765
-3.5870 -4.3020 -2.0030 0.9765
-2.7635 -4.8711 -2.0027 0.9765
-1.8519 -5.2843 -2.0024 0.9765
-0.8815 -5.5286 -2.0021 0.9765
-0.3839 -5.5848 -2.0019 0.9765
0.6147 -5.5486 -1.9964 0.9766
1.1074 -5.4683 -1.9952 0.9766
1.5917 -5.3478 -1.9953 0.9766
2.5233 -4.9888 -1.9993 0.9765
2.9611 -4.7468 -2.0007 0.9765
3.7583 -4.1433 -2.0004 0.9765
4.4353 -3.4077 -2.0002 0.9765
4.7218 -2.9976 -2.0001 0.9765
5.1796 -2.1090 -1.9999 0.9765
5.3472 -1.6376 -1.9999 0.9765
5.5898 -0.1607 -1.9998 0.9765
5.5292 0.8369 -1.9998 0.9765
5.4324 1.3277 -1.9998 0.9765
5.2921 1.8079 -1.9999 0.9765
4.6236 3.1471 -2.0001 0.9765
4.3241 3.5479 -2.0002 0.9765
3.6240 4.2615 -2.0005 0.9765
2.3644 5.0712 -2.0009 0.9765
1.4241 5.4120 -2.0013 0.9765
0.9349 5.5181 -2.0014 0.9765
0.4381 5.5801 -2.0016 0.9765
-0.0624 5.5974 -2.0018 0.9765
-0.5624 5.5699 -2.0020 0.9765
-1.5452 5.3818 -2.0023 0.9765
-2.0201 5.2226 -2.0025 0.9765
-4.0822 3.8360 -2.0032 0.9765
-4.4089 3.4561 -2.0033 0.9765
-5.4712 1.2087 -2.0037 0.9765
-5.3194 -1.7597 -2.0036 0.9765
-4.9209 -2.6783 -2.0035 0.9765
-4.3651 -3.5111 -2.0033 0.9765
-4.0336 -3.8869 -2.0032 0.9765
-3.6699 -4.2316 -2.0031 0.9765
-2.8576 -4.8166 -2.0028 0.9765
-2.4155 -5.0523 -2.0026 0.9765
-1.9542 -5.2475 -2.0024 0.9765
-1.4774 -5.4007 -2.0023 0.9765
-0.9887 -5.5106 -2.0021 0.9765
0.0080 -5.5905 -1.9992 0.9765
1.0011 -5.4891 -1.9953 0.9766
1.4875 -5.3774 -1.9952 0.9766
1.9632 -5.2259 -1.9963 0.9766
2.8684 -4.8035 -2.0007 0.9765
3.2859 -4.5276 -2.0006 0.9765
4.3683 -3.4932 -2.0002 0.9765
4.6627 -3.0887 -2.0001 0.9765
4.9199 -2.6596 -2.0000 0.9765
5.1377 -2.2092 -1.9999 0.9765
5.3144 -1.7412 -1.9999 0.9765
5.5392 -0.7673 -1.9998 0.9765
5.5873 0.2310 -1.9998 0.9765
5.4571 1.2219 -1.9998 0.9765
5.3262 1.7047 -1.9999 0.9765
5.1527 2.1739 -1.9999 0.9765
4.9380 2.6258 -2.0000 0.9765
4.6838 3.0567 -2.0001 0.9765
4.3922 3.4632 -2.0002 0.9765
4.0653 3.8421 -2.0003 0.9765
3.7060 4.1903 -2.0005 0.9765
3.3169 4.5050 -2.0006 0.9765
2.0037 5.2246 -2.0011 0.9765
1.5289 5.3833 -2.0012 0.9765
1.0419 5.4988 -2.0014 0.9765
0.5464 5.5704 -2.0016 0.9765
-0.4541 5.5797 -2.0019 0.9765
-0.9509 5.5173 -2.0021 0.9765
-1.4403 5.4107 -2.0023 0.9765
-2.8245 4.8361 -2.0028 0.9765
-3.6408 4.2567 -2.0031 0.9765
-4.6402 3.1391 -2.0034 0.9765
-5.4467 1.3147 -2.0037 0.9765
-5.5424 0.8227 -2.0037 0.9765
-5.5938 0.3241 -2.0038 0.9765
-5.6004 -0.1770 -2.0038 0.9765
-5.5622 -0.6768 -2.0037 0.9765
-5.3526 -1.6560 -2.0037 0.9765
-5.1831 -2.1277 -2.0036 0.9765
-4.9720 -2.5823 -2.0035 0.9765
-4.1084 -3.8079 -2.0032 0.9765
-2.9506 -4.7602 -2.0028 0.9765
-1.5820 -5.3710 -2.0023 0.9765
-1.0956 -5.4905 -2.0021 0.9765
-0.6005 -5.5659 -2.0020 0.9765
-0.1006 -5.5917 -2.0000 0.9765
0.3989 -5.5707 -1.9972 0.9766
0.8944 -5.5080 -1.9955 0.9766
1.3828 -5.4052 -1.9952 0.9766
2.3262 -5.0799 -1.9980 0.9765
3.1974 -4.5906 -2.0006 0.9765
4.6019 -3.1788 -2.0001 0.9765
4.8674 -2.7547 -2.0000 0.9765
5.0938 -2.3086 -1.9999 0.9765
5.4231 -1.3649 -1.9998 0.9765
5.5793 -0.3777 -1.9998 0.9765
5.5908 0.1224 -1.9998 0.9765
5.5575 0.6215 -1.9998 0.9765
5.3583 1.6010 -1.9999 0.9765
4.9880 2.5294 -2.0000 0.9765
4.7423 2.9651 -2.0001 0.9765
4.4585 3.3772 -2.0002 0.9765
3.7866 4.1175 -2.0004 0.9765
2.5595 4.9754 -2.0009 0.9765
1.6332 5.3525 -2.0012 0.9765
1.1484 5.4775 -2.0014 0.9765
0.6544 5.5587 -2.0015 0.9765
0.1551 5.5954 -2.0017 0.9765
-0.3456 5.5874 -2.0019 0.9765
-0.8436 5.5346 -2.0021 0.9765
-1.3349 5.4376 -2.0022 0.9765
-1.8156 5.2970 -2.0024 0.9765
-2.2819 5.1139 -2.0026 0.9765
-2.7300 4.8899 -2.0027 0.9765
-3.5574 4.3265 -2.0030 0.9765
-4.5783 3.2286 -2.0034 0.9765
-5.0804 2.3622 -2.0036 0.9765
-5.2713 1.8988 -2.0036 0.9765
-5.6028 -0.0682 -2.0038 0.9765
-5.5743 -0.5686 -2.0037 0.9765
-4.1816 -3.7275 -2.0032 0.9765
-3.8316 -4.0860 -2.0031 0.9765
-3.0426 -4.7021 -2.0028 0.9765
-2.6100 -4.9548 -2.0027 0.9765
-2.1566 -5.1678 -2.0025 0.9765
-0.7085 -5.5533 -2.0020 0.9765
1.2775 -5.4310 -1.9952 0.9766
1.7582 -5.2965 -1.9957 0.9766
3.1077 -4.6520 -2.0006 0.9765
4.8130 -2.8487 -2.0000 0.9765
5.0481 -2.4071 -2.0000 0.9765
5.5053 -0.9819 -1.9998 0.9765
5.5709 -0.4860 -1.9998 0.9765
5.5921 0.0138 -1.9998 0.9765
5.5685 0.5135 -1.9998 0.9765
5.3883 1.4966 -1.9998 0.9765
5.2332 1.9722 -1.9999 0.9765
5.0362 2.4320 -2.0000 0.9765
3.8658 4.0431 -2.0004 0.9765
3.4893 4.3727 -2.0005 0.9765
2.6556 4.9247 -2.0008 0.9765
0.2637 5.5912 -2.0017 0.9765
-0.2370 5.5929 -2.0019 0.9765
-3.0658 4.6871 -2.0029 0.9765
2.0248 -4.8131 -2.0010 0.9779
2.4466 -4.6126 -2.0009 0.9779
2.8488 -4.3752 -2.0007 0.9779
3.5816 -3.7977 -2.0005 0.9779
4.2000 -3.0991 -2.0003 0.9779
5.1265 -0.9768 -1.9999 0.9779
5.1933 -0.5148 -1.9999 0.9779
5.2185 -0.0487 -1.9999 0.9779
5.2020 0.4179 -1.9999 0.9779
5.0446 1.3372 -2.0000 0.9779
4.9051 1.7828 -2.0000 0.9779
4.7263 2.2140 -2.0001 0.9779
4.5097 2.6276 -2.0002 0.9779
4.2571 3.0202 -2.0003 0.9779
3.9703 3.3888 -2.0004 0.9779
2.1141 4.7745 -2.0010 0.9779
1.6792 4.9447 -2.0012 0.9779
1.2307 5.0754 -2.0013 0.9779
0.7723 5.1655 -2.0015 0.9779
0.3076 5.2142 -2.0017 0.9779
-0.1596 5.2213 -2.0018 0.9779
-0.6256 5.1866 -2.0020 0.9779
-1.5391 4.9932 -2.0023 0.9779
-1.9794 4.8360 -2.0025 0.9779
-2.4038 4.6402 -2.0026 0.9779
-2.8090 4.4071 -2.0028 0.9779
-3.1918 4.1387 -2.0029 0.9779
-3.5491 3.8372 -2.0030 0.9779
-3.8781 3.5049 -2.0031 0.9779
-4.4405 2.7588 -2.0033 0.9779
-4.6694 2.3511 -2.0034 0.9779
-4.8610 1.9245 -2.0035 0.9779
-5.1976 0.5663 -2.0036 0.9779
-5.2275 0.0995 -2.0036 0.9779
-5.2154 -0.3680 -2.0036 0.9779
-5.0665 -1.2905 -2.0036 0.9779
-4.9308 -1.7381 -2.0035 0.9779
-4.0087 -3.3548 -2.0032 0.9779
-3.6927 -3.6994 -2.0031 0.9779
-2.9748 -4.2971 -2.0028 0.9779
-2.5787 -4.5454 -2.0027 0.9779
-1.7281 -4.9311 -2.0024 0.9779
-0.8226 -5.1591 -2.0020 0.9779
0.1089 -5.2223 -2.0017 0.9779
0.5751 -5.1912 -2.0015 0.9779
1.0366 -5.1184 -2.0013 0.9779
1.9309 -4.8516 -2.0011 0.9779
2.7633 -4.4297 -2.0008 0.9779
3.1479 -4.1648 -2.0006 0.9779
3.5073 -3.8666 -2.0005 0.9779
4.1391 -3.1801 -2.0003 0.9779
4.6387 -2.3923 -2.0001 0.9779
4.9901 -1.5283 -2.0000 0.9779
5.1066 -1.0762 -1.9999 0.9779
5.1823 -0.6156 -1.9999 0.9779
4.9388 1.6871 -2.0000 0.9779
4.5599 2.5395 -2.0001 0.9779
4.3149 2.9370 -2.0002 0.9779
4.0354 3.3110 -2.0003 0.9779
3.7235 3.6585 -2.0004 0.9779
3.3819 3.9769 -2.0006 0.9779
1.7748 4.9111 -2.0011 0.9779
1.3290 5.0504 -2.0013 0.9779
0.8724 5.1494 -2.0015 0.9779
0.4088 5.2072 -2.0016 0.9779
-1.4419 5.0220 -2.0023 0.9779
-2.3132 4.6859 -2.0026 0.9779
-2.7228 4.4608 -2.0027 0.9779
-3.1108 4.1999 -2.0029 0.9779
-4.6228 2.4413 -2.0034 0.9779
-4.8227 2.0185 -2.0035 0.9779
-4.9839 1.5795 -2.0035 0.9779
-5.2245 0.2010 -2.0036 0.9779
-5.2216 -0.2667 -2.0036 0.9779
-5.1768 -0.7322 -2.0036 0.9779
-5.0906 -1.1919 -2.0036 0.9779
-4.9636 -1.6420 -2.0035 0.9779
-4.7969 -2.0789 -2.0035 0.9779
-4.0731 -3.2763 -2.0032 0.9779
-3.7639 -3.6270 -2.0031 0.9779
-2.6665 -4.4945 -2.0027 0.9779
-1.8236 -4.8967 -2.0024 0.9779
-0.9227 -5.1423 -2.0021 0.9779
0.0075 -5.2235 -2.0017 0.9779
0.4742 -5.2015 -2.0016 0.9779
2.6768 -4.4826 -2.0008 0.9779
3.0665 -4.2252 -2.0007 0.9779
3.7692 -3.6114 -2.0004 0.9779
4.3514 -2.8825 -2.0002 0.9779
4.5914 -2.4820 -2.0001 0.9779
4.7946 -2.0617 -2.0000 0.9779
4.9595 -1.6249 -2.0000 0.9779
5.1694 -0.7161 -1.9999 0.9779
5.2127 -0.2513 -1.9999 0.9779
5.0927 1.1403 -2.0000 0.9779
4.9706 1.5909 -2.0000 0.9779
4.6083 2.4505 -2.0001 0.9779
3.0954 4.2041 -2.0007 0.9779
2.7075 4.4642 -2.0008 0.9779
2.2979 4.6886 -2.0010 0.9779
1.4268 5.0236 -2.0013 0.9779
0.0433 5.2234 -2.0018 0.9779
-2.2217 4.7299 -2.0026 0.9779
-2.6357 4.5127 -2.0027 0.9779
-3.3973 3.9720 -2.0030 0.9779
-3.7389 3.6527 -2.0031 0.9779
-4.3299 2.9291 -2.0033 0.9779
-4.7825 2.1118 -2.0035 0.9779
-5.1717 0.7677 -2.0036 0.9779
-5.2196 0.3025 -2.0036 0.9779
-5.2258 -0.1652 -2.0036 0.9779
-5.1901 -0.6315 -2.0036 0.9779
-5.1128 -1.0928 -2.0036 0.9779
-4.8364 -1.9854 -2.0035 0.9779
-4.4054 -2.8144 -2.0033 0.9779
-3.1395 -4.1784 -2.0029 0.9779
