ply
format ascii 1.0
element vertex 1591
property float32 x
property float32 y
property float32 z
property float32 I
end_header
7.2049 8.6591 -1.8557 0.9554
6.4039 9.2683 -1.8559 0.9554
5.2225 9.2226 -1.7460 0.9579
2.9718 11.7783 -2.0012 0.9519
1.9090 11.9978 -2.0014 0.9519
0.8307 12.1216 -2.0016 0.9519
-0.2545 12.1487 -2.0018 0.9519
-0.8401 7.5853 -1.2572 0.9695
-3.4647 11.6512 -2.0025 0.9519
-6.7962 9.0051 -1.8586 0.9553
-5.8787 6.4919 -1.4428 0.9651
-8.2902 7.6546 -1.8589 0.9553
-9.5203 6.0597 -1.8591 0.9553
-10.8040 5.5898 -2.0040 0.9519
-11.2603 4.6035 -2.0040 0.9519
-11.6266 3.5803 -2.0041 0.9519
-11.9001 2.5285 -2.0042 0.9519
-12.0327 -1.7952 -2.0042 0.9519
-11.8242 -2.8619 -2.0042 0.9519
-9.8332 -5.4432 -1.8515 0.9555
-7.4517 -5.0428 -1.4823 0.9642
-6.0163 -4.9081 -1.2791 0.9690
-8.0384 -7.8520 -1.8512 0.9555
-7.3050 -8.5374 -1.8510 0.9555
-6.5133 -9.1545 -1.8509 0.9555
-5.6698 -9.6983 -1.8507 0.9555
-3.8545 -10.5497 -1.8503 0.9555
-0.9219 -11.1902 -1.8497 0.9555
0.0805 -11.2266 -1.8495 0.9555
1.0820 -11.1734 -1.8493 0.9555
3.0505 -10.8007 -1.8489 0.9555
4.0018 -10.4842 -1.8487 0.9555
4.9211 -10.0842 -1.8485 0.9555
5.8009 -9.6039 -1.8483 0.9555
6.6342 -9.0470 -1.8482 0.9555
7.4145 -8.4181 -1.8480 0.9555
8.7917 -6.9648 -1.8477 0.9555
9.3776 -6.1520 -1.8476 0.9556
9.8887 -5.2902 -1.8475 0.9556
11.5243 -3.7234 -1.9951 0.9521
12.1240 -0.5387 -1.9993 0.9520
12.1237 0.5455 -1.9993 0.9520
9.8962 6.5001 -1.9505 0.9531
7.4405 8.4571 -1.8557 0.9554
6.6566 9.0882 -1.8558 0.9554
5.3200 10.9172 -2.0007 0.9520
3.2951 11.6916 -2.0011 0.9519
0.8859 9.2018 -1.5229 0.9632
0.0803 12.1507 -2.0017 0.9519
-1.0045 12.1108 -2.0020 0.9519
-3.1423 11.7418 -2.0024 0.9519
-4.1781 11.4157 -2.0026 0.9519
-5.1808 10.9984 -2.0028 0.9519
-6.1423 10.4931 -2.0030 0.9519
-7.3399 8.5686 -1.8587 0.9553
-7.8378 6.3868 -1.6656 0.9598
-9.3496 6.3195 -1.8591 0.9553
-10.6458 5.8853 -2.0039 0.9519
-11.8258 2.8553 -2.0042 0.9519
-12.0337 1.7885 -2.0042 0.9519
-12.1455 0.7074 -2.0042 0.9519
-12.1601 -0.3794 -2.0042 0.9519
-12.0776 -1.4631 -2.0042 0.9519
-11.8986 -2.5351 -2.0042 0.9519
-9.9796 -5.1704 -1.8516 0.9555
-9.4778 -6.0400 -1.8515 0.9555
-6.7632 -8.9718 -1.8509 0.9555
-5.9350 -9.5387 -1.8507 0.9555
-4.1438 -10.4398 -1.8504 0.9555
-1.2299 -11.1610 -1.8498 0.9555
-0.2289 -11.2249 -1.8496 0.9555
0.7738 -11.1993 -1.8494 0.9555
1.7700 -11.0844 -1.8492 0.9555
2.7519 -10.8810 -1.8490 0.9555
3.7116 -10.5908 -1.8488 0.9555
4.6415 -10.2163 -1.8486 0.9555
7.1800 -8.6194 -1.8481 0.9555
8.5967 -7.2045 -1.8478 0.9555
9.2047 -6.4081 -1.8477 0.9556
9.7393 -5.5607 -1.8475 0.9556
11.9785 -1.9493 -1.9993 0.9520
12.0669 1.2934 -1.9993 0.9520
11.9036 2.3652 -1.9993 0.9520
10.3252 6.3818 -1.9996 0.9520
8.3753 7.5306 -1.8555 0.9554
6.3023 6.7775 -1.5246 0.9632
6.0828 9.4826 -1.8559 0.9554
5.6186 10.7662 -2.0006 0.9520
2.0951 6.7189 -1.1594 0.9719
0.3122 9.1347 -1.5057 0.9636
-0.6705 12.1334 -2.0019 0.9519
-2.1750 9.1272 -1.5457 0.9627
-3.0266 9.0331 -1.5694 0.9621
-2.8576 6.5270 -1.1738 0.9715
-6.2896 9.3652 -1.8585 0.9553
-8.5478 7.3664 -1.8589 0.9553
-10.1984 6.0106 -1.9502 0.9531
-11.7426 3.1800 -2.0041 0.9519
-12.1660 -0.0442 -2.0042 0.9519
-12.1134 -1.1298 -2.0042 0.9519
-11.9640 -2.2064 -2.0042 0.9519
-11.7191 -3.2652 -2.0041 0.9519
-11.3557 -4.2886 -1.9997 0.9520
-10.1184 -4.8935 -1.8516 0.9555
-9.6407 -5.7767 -1.8515 0.9555
-7.7645 -8.1225 -1.8511 0.9555
-7.0080 -8.7823 -1.8510 0.9555
-5.3340 -9.8865 -1.8506 0.9555
-2.5238 -10.9429 -1.8500 0.9555
-1.5369 -11.1232 -1.8498 0.9555
1.4640 -11.1293 -1.8492 0.9555
3.4185 -10.6894 -1.8488 0.9555
4.3585 -10.3406 -1.8486 0.9555
6.9400 -8.8142 -1.8481 0.9555
7.6983 -8.1589 -1.8480 0.9555
9.0249 -6.6593 -1.8477 0.9556
9.5826 -5.8270 -1.8476 0.9556
10.4649 -4.0301 -1.8474 0.9556
11.6697 -3.3335 -1.9994 0.9520
11.9204 -2.2786 -1.9993 0.9520
12.0760 -1.2056 -1.9993 0.9520
12.1353 -0.1231 -1.9993 0.9520
11.9641 2.0364 -1.9993 0.9520
-1.1435 -9.7745 -1.8498 0.9607
2.3480 -9.5531 -1.8490 0.9608
3.1909 -9.3046 -1.8489 0.9608
4.7934 -8.5875 -1.8486 0.9608
6.2428 -7.5974 -1.8483 0.9608
6.8954 -7.0094 -1.8481 0.9608
7.4930 -6.3656 -1.8480 0.9608
8.0307 -5.6711 -1.8479 0.9608
9.9969 -3.6125 -1.9980 0.9577
10.2881 -2.7082 -1.9996 0.9576
10.4886 -1.7792 -1.9996 0.9576
10.5851 1.0628 -1.9996 0.9576
10.4481 2.0032 -1.9996 0.9576
9.5451 4.6998 -1.9998 0.9576
6.7718 7.1850 -1.8558 0.9606
5.2635 6.6926 -1.6004 0.9659
3.8309 9.1032 -1.8564 0.9606
3.0035 9.4097 -1.8566 0.9606
1.3829 10.5582 -2.0015 0.9576
-0.5163 10.6379 -2.0019 0.9576
-2.2264 9.6290 -1.8576 0.9606
-2.9737 9.0770 -1.7953 0.9619
-3.9036 9.0815 -1.8580 0.9606
-4.6989 8.6976 -1.8581 0.9606
-8.3332 6.0585 -1.9365 0.9589
-9.1470 5.4739 -2.0036 0.9575
-9.5994 4.6359 -2.0037 0.9575
-9.9752 3.7609 -2.0038 0.9575
-10.2714 2.8557 -2.0038 0.9575
-10.4855 1.9276 -2.0039 0.9575
-9.9981 -3.6994 -2.0038 0.9575
-9.3437 -4.4418 -1.9446 0.9588
-8.4824 -5.0056 -1.8513 0.9607
-7.4565 -6.4332 -1.8511 0.9607
-6.1931 -7.6552 -1.8508 0.9607
-4.7328 -8.6329 -1.8505 0.9607
-3.9431 -9.0201 -1.8503 0.9607
-2.2762 -9.5756 -1.8500 0.9607
-0.5375 -9.8258 -1.8496 0.9607
2.0840 -9.6144 -1.8491 0.9608
2.9334 -9.3892 -1.8489 0.9608
3.7593 -9.0891 -1.8488 0.9608
4.5551 -8.7166 -1.8486 0.9608
5.3144 -8.2746 -1.8484 0.9608
7.3149 -6.5697 -1.8480 0.9608
7.8716 -5.8903 -1.8479 0.9608
8.3654 -5.1640 -1.8478 0.9608
8.7925 -4.3966 -1.8477 0.9608
10.4356 -2.0675 -1.9996 0.9576
10.4993 1.7146 -1.9996 0.9576
9.2369 5.2807 -1.9999 0.9576
8.7292 6.0843 -2.0000 0.9576
7.6972 6.4580 -1.8885 0.9599
6.9670 6.9956 -1.8558 0.9606
6.3153 7.5900 -1.8559 0.9606
4.8661 8.5932 -1.8562 0.9606
3.2615 9.3231 -1.8565 0.9606
1.6732 10.5158 -2.0014 0.9576
0.4536 6.6184 -1.2469 0.9734
-0.2230 10.6478 -2.0018 0.9576
-1.3205 6.5251 -1.2513 0.9733
-3.6518 9.1853 -1.8579 0.9606
-5.2275 8.3912 -1.8582 0.9606
-9.8677 4.0342 -2.0038 0.9575
-10.1887 3.1375 -2.0038 0.9575
-10.4283 2.2157 -2.0039 0.9575
-10.5846 1.2762 -2.0039 0.9575
-10.6430 -0.6259 -2.0039 0.9575
-10.3618 -2.5080 -2.0039 0.9575
-9.7249 -4.2986 -1.9985 0.9576
-8.6172 -4.7701 -1.8513 0.9607
-6.0164 -4.9082 -1.4594 0.9689
-5.7081 -8.0228 -1.8507 0.9607
-4.1902 -8.9083 -1.8504 0.9607
-3.3781 -9.2458 -1.8502 0.9607
-2.5392 -9.5096 -1.8500 0.9607
-1.6802 -9.6973 -1.8499 0.9607
1.8184 -9.6685 -1.8492 0.9607
5.0846 -8.4180 -1.8485 0.9608
5.8151 -7.9300 -1.8483 0.9608
6.4992 -7.3788 -1.8482 0.9608
8.2201 -5.3926 -1.8479 0.9608
8.6681 -4.6372 -1.8478 0.9608
10.6275 0.4782 -1.9996 0.9576
10.3735 2.3600 -1.9996 0.9576
8.1412 6.4569 -1.9531 0.9586
6.5219 7.4130 -1.8558 0.9606
5.8347 7.9661 -1.8560 0.9606
5.1009 8.4557 -1.8561 0.9606
4.3263 8.8780 -1.8563 0.9606
1.8205 9.7095 -1.8568 0.9606
1.0204 10.5998 -2.0016 0.9576
-0.8804 10.6144 -2.0019 0.9576
-1.3090 7.5297 -1.4365 0.9694
-4.2125 8.9428 -1.8580 0.9606
-4.5894 6.4428 -1.4868 0.9683
-7.6661 6.2469 -1.8587 0.9606
-9.3293 5.1575 -2.0037 0.9575
-9.7527 4.3045 -2.0037 0.9575
-10.0983 3.4170 -2.0038 0.9575
-10.3633 2.5022 -2.0039 0.9575
-10.5454 1.5673 -2.0039 0.9575
-8.7455 -4.5310 -1.8513 0.9607
-6.0929 -4.6971 -1.4460 0.9692
-5.9271 -7.8627 -1.8507 0.9607
-5.2013 -8.3596 -1.8506 0.9607
-3.6316 -9.1495 -1.8503 0.9607
-1.0779 -9.7819 -1.8497 0.9607
-0.2006 -9.8381 -1.8496 0.9607
0.6782 -9.8158 -1.8494 0.9607
1.5514 -9.7152 -1.8492 0.9607
2.4120 -9.5371 -1.8490 0.9608
6.2936 -7.5553 -1.8482 0.9608
7.5355 -6.3151 -1.8480 0.9608
8.0685 -5.6171 -1.8479 0.9608
8.5372 -4.8743 -1.8478 0.9608
10.3060 -2.6391 -1.9996 0.9576
10.5002 -1.7088 -1.9996 0.9576
9.5134 4.7638 -1.9998 0.9576
8.5158 6.3799 -2.0000 0.9576
7.3531 6.6114 -1.8586 0.9606
6.7235 7.2303 -1.8558 0.9606
5.3318 8.3118 -1.8561 0.9606
4.5691 8.7552 -1.8562 0.9606
2.0592 6.6039 -1.3002 0.9722
1.3120 10.5673 -2.0015 0.9576
-0.5877 10.6343 -2.0019 0.9576
-1.0875 7.4699 -1.4188 0.9697
-2.2910 9.6139 -1.8576 0.9606
-6.2159 6.4086 -1.6781 0.9643
-7.4909 6.4555 -1.8587 0.9606
-10.0003 3.6938 -2.0038 0.9575
-10.2903 2.7867 -2.0038 0.9575
-10.4982 1.8572 -2.0039 0.9575
-10.6222 0.9129 -2.0039 0.9575
-10.6613 -0.0387 -2.0039 0.9575
-10.4844 -1.9335 -2.0039 0.9575
-9.9731 -3.7664 -2.0038 0.9575
-9.1863 -4.4428 -1.9180 0.9593
-8.4486 -5.0624 -1.8513 0.9607
-7.4131 -6.4830 -1.8510 0.9607
-6.8045 -7.1183 -1.8509 0.9607
-5.4298 -8.2133 -1.8506 0.9607
-3.8824 -9.0463 -1.8503 0.9607
-2.2119 -9.5906 -1.8500 0.9607
-1.3470 -9.7488 -1.8498 0.9607
0.4075 -9.8311 -1.8494 0.9607
1.2832 -9.7545 -1.8493 0.9607
2.1484 -9.6002 -1.8491 0.9608
2.9963 -9.3692 -1.8489 0.9608
4.6135 -8.6858 -1.8486 0.9608
6.0832 -7.7259 -1.8483 0.9608
6.7479 -7.1517 -1.8482 0.9608
8.3998 -5.1077 -1.8478 0.9608
9.9028 -3.8137 -1.9946 0.9577
10.4492 -1.9974 -1.9996 0.9576
10.5857 -1.0569 -1.9996 0.9576
10.6377 -0.1079 -1.9996 0.9576
10.2866 2.7140 -1.9996 0.9576
10.0037 3.6213 -1.9997 0.9576
-1.0168 -8.6915 -1.8497 0.9649
-0.2371 -8.7468 -1.8496 0.9649
0.5445 -8.7323 -1.8494 0.9649
3.5643 -7.9871 -1.8488 0.9649
4.2626 -7.6366 -1.8487 0.9649
4.9268 -7.2251 -1.8485 0.9649
5.5515 -6.7562 -1.8484 0.9649
6.1320 -6.2333 -1.8483 0.9649
6.6634 -5.6609 -1.8482 0.9649
7.1417 -5.0433 -1.8481 0.9649
8.5442 -3.9821 -1.9926 0.9622
8.8981 -3.2155 -1.9999 0.9621
9.1493 -2.4085 -1.9999 0.9621
8.8274 3.4052 -1.9999 0.9621
8.0820 4.9207 -2.0001 0.9621
7.6110 5.6226 -2.0002 0.9621
7.0792 6.2798 -2.0003 0.9621
6.0529 6.4222 -1.8655 0.9646
4.7908 7.3593 -1.8562 0.9647
3.5840 6.7567 -1.6167 0.9692
2.8182 6.6967 -1.5358 0.9707
0.3590 8.7783 -1.8571 0.9647
-0.9811 7.0713 -1.5090 0.9712
-1.6184 6.9993 -1.5185 0.9711
-2.7362 8.3518 -1.8577 0.9647
-4.8519 7.3304 -1.8582 0.9647
-5.4872 6.8686 -1.8583 0.9647
-6.9695 6.0881 -1.9561 0.9629
-7.6654 5.5731 -2.0033 0.9620
-8.1327 4.8670 -2.0034 0.9620
-8.5350 4.1219 -2.0035 0.9620
-9.1323 2.5390 -2.0036 0.9620
-9.4437 -0.8169 -2.0037 0.9620
-8.8894 -3.2892 -2.0036 0.9620
-7.1142 -5.1057 -1.8510 0.9648
-6.0925 -6.2884 -1.8508 0.9648
-5.5066 -6.8066 -1.8507 0.9648
-4.8768 -7.2704 -1.8505 0.9648
-4.2082 -7.6760 -1.8504 0.9648
-2.0240 -8.5145 -1.8499 0.9649
-1.2559 -8.6604 -1.8498 0.9649
-0.4779 -8.7372 -1.8496 0.9649
0.3037 -8.7442 -1.8495 0.9649
1.0828 -8.6815 -1.8493 0.9649
4.0507 -7.7513 -1.8487 0.9649
4.7260 -7.3583 -1.8486 0.9649
5.3634 -6.9067 -1.8484 0.9649
5.9580 -6.4000 -1.8483 0.9649
6.5051 -5.8424 -1.8482 0.9649
7.4393 -4.5924 -1.8480 0.9649
9.2805 -1.8386 -1.9998 0.9621
9.4359 0.6854 -1.9998 0.9621
9.3372 1.5249 -1.9998 0.9621
9.1640 2.3521 -1.9999 0.9621
8.6004 3.9441 -2.0000 0.9621
4.3273 7.6416 -1.8563 0.9647
3.6283 7.9979 -1.8564 0.9647
2.1490 8.5170 -1.8567 0.9647
-2.5050 8.4238 -1.8577 0.9647
-3.2471 8.1673 -1.8578 0.9647
-3.9633 7.8455 -1.8580 0.9647
-4.6481 7.4611 -1.8581 0.9647
-5.9013 6.5168 -1.8584 0.9647
-6.6137 6.1067 -1.9028 0.9639
-7.5090 5.7821 -2.0033 0.9620
-7.9954 5.0891 -2.0034 0.9620
-8.7735 3.5868 -2.0035 0.9620
-9.2719 1.9700 -2.0036 0.9620
-9.4746 0.2903 -2.0037 0.9620
-9.4627 -0.5565 -2.0037 0.9620
-9.3752 -1.3988 -2.0037 0.9620
-8.6691 -3.8320 -2.0035 0.9620
-6.0165 -4.9083 -1.6413 0.9688
-6.2635 -6.1183 -1.8508 0.9648
-5.6921 -6.6524 -1.8507 0.9648
-5.0753 -7.1334 -1.8506 0.9648
-2.2578 -8.4557 -1.8500 0.9649
-1.4941 -8.6228 -1.8498 0.9649
-0.7185 -8.7209 -1.8497 0.9649
0.0627 -8.7495 -1.8495 0.9649
1.6169 -8.5975 -1.8492 0.9649
2.3776 -8.4182 -1.8490 0.9649
3.1192 -8.1717 -1.8489 0.9649
5.1712 -7.0519 -1.8485 0.9649
5.7796 -6.5619 -1.8484 0.9649
6.8533 -5.4292 -1.8481 0.9649
7.3101 -4.7956 -1.8480 0.9649
7.7086 -4.1239 -1.8480 0.9649
9.0029 -2.9088 -1.9999 0.9621
9.2264 -2.0936 -1.9999 0.9621
9.4514 -0.4200 -1.9998 0.9621
9.3756 1.2670 -1.9998 0.9621
9.2253 2.0988 -1.9999 0.9621
8.7057 3.7056 -2.0000 0.9621
8.3405 4.4680 -2.0000 0.9621
7.9088 5.1947 -2.0001 0.9621
7.4140 5.8801 -2.0002 0.9621
6.7561 6.4200 -1.9701 0.9626
5.7998 6.5922 -1.8560 0.9647
4.5360 7.5193 -1.8562 0.9647
1.6188 8.6340 -1.8568 0.9647
0.6399 6.6465 -1.4114 0.9731
-3.0208 8.2534 -1.8578 0.9647
-3.7456 7.9516 -1.8579 0.9647
-4.5894 6.4428 -1.6721 0.9682
-6.2928 6.1400 -1.8585 0.9647
-8.6713 3.8271 -2.0035 0.9620
-9.3760 1.3935 -2.0037 0.9620
-9.4630 0.5512 -2.0037 0.9620
-9.4744 -0.2956 -2.0037 0.9620
-7.3848 -4.7062 -1.8510 0.9648
-6.0935 -4.6975 -1.6263 0.9690
-5.2701 -6.9910 -1.8506 0.9648
-3.9426 -7.8154 -1.8503 0.9648
-0.9585 -8.6981 -1.8497 0.9649
0.6031 -8.7284 -1.8494 0.9649
2.8929 -8.2548 -1.8489 0.9649
3.6178 -7.9630 -1.8488 0.9649
4.9751 -7.1919 -1.8485 0.9649
6.1736 -6.1920 -1.8483 0.9649
6.7012 -5.6160 -1.8482 0.9649
7.1753 -4.9953 -1.8481 0.9649
8.5747 -3.9265 -1.9935 0.9622
8.9195 -3.1557 -1.9999 0.9621
9.1653 -2.3470 -1.9999 0.9621
9.4593 0.1647 -1.9998 0.9621
9.2795 1.8438 -1.9999 0.9621
8.4603 4.2365 -2.0000 0.9621
8.0488 4.9748 -2.0001 0.9621
7.5731 5.6736 -2.0002 0.9621
7.0369 6.3272 -2.0003 0.9620
5.9791 6.4298 -1.8560 0.9647
4.7414 7.3914 -1.8562 0.9647
4.0631 7.7856 -1.8563 0.9647
2.0592 6.6039 -1.4622 0.9721
1.8560 8.5859 -1.8568 0.9647
0.3001 8.7806 -1.8571 0.9647
-0.3938 7.1262 -1.5086 0.9712
-1.6669 6.9948 -1.5200 0.9710
-2.8575 6.5269 -1.5061 0.9713
-4.2299 7.7054 -1.8580 0.9647
-4.9010 7.2977 -1.8582 0.9647
-5.5332 6.8316 -1.8583 0.9647
-6.1212 6.3109 -1.8584 0.9647
-7.0591 6.0834 -1.9698 0.9626
-7.7028 5.5215 -2.0033 0.9620
-8.5625 4.0645 -2.0035 0.9620
-8.8913 3.2842 -2.0036 0.9620
-9.1492 2.4777 -2.0036 0.9620
-9.4442 0.8117 -2.0037 0.9620
-9.4790 -0.0344 -2.0037 0.9620
-9.4380 -0.8803 -2.0037 0.9620
-9.3217 -1.7191 -2.0036 0.9620
-9.1309 -2.5441 -2.0036 0.9620
-8.8671 -3.3488 -2.0035 0.9620
-7.5118 -4.5011 -1.8511 0.9648
-6.5912 -5.7642 -1.8509 0.9648
-4.8279 -7.3029 -1.8505 0.9648
-4.1565 -7.7040 -1.8504 0.9648
-2.7203 -8.3190 -1.8501 0.9648
-1.9668 -8.5278 -1.8499 0.9649
-0.4193 -8.7401 -1.8496 0.9649
0.3624 -8.7419 -1.8495 0.9649
1.1410 -8.6740 -1.8493 0.9649
1.9104 -8.5368 -1.8491 0.9649
2.6645 -8.3315 -1.8490 0.9649
3.3971 -8.0598 -1.8488 0.9649
4.1026 -7.7239 -1.8487 0.9649
4.7752 -7.3264 -1.8486 0.9649
5.4096 -6.8705 -1.8484 0.9649
6.0008 -6.3599 -1.8483 0.9649
7.0351 -5.1911 -1.8481 0.9649
7.4700 -4.5423 -1.8480 0.9649
9.0972 -2.5986 -1.9999 0.9621
9.4311 0.7487 -1.9998 0.9621
-0.2132 -7.8669 -1.8496 0.9682
1.1886 -7.7782 -1.8493 0.9682
1.8779 -7.6405 -1.8491 0.9682
4.4314 -6.4987 -1.8486 0.9682
5.5155 -5.6067 -1.8484 0.9682
5.9935 -5.0918 -1.8483 0.9682
6.4237 -4.5363 -1.8482 0.9682
7.7120 -3.5943 -1.9997 0.9656
8.0037 -2.8923 -2.0001 0.9656
8.3901 -1.4232 -2.0000 0.9656
8.4835 -0.6687 -2.0000 0.9656
8.4673 0.8501 -2.0000 0.9656
8.3577 1.6024 -2.0000 0.9656
8.1815 2.3420 -2.0001 0.9656
7.9401 3.0629 -2.0001 0.9656
7.6353 3.7594 -2.0002 0.9656
5.8383 6.1945 -2.0006 0.9656
5.0246 6.3889 -1.9103 0.9672
4.3091 6.6193 -1.8563 0.9681
1.7211 7.7109 -1.8568 0.9681
0.3229 7.8952 -1.8571 0.9681
-0.3461 7.1306 -1.6778 0.9711
-1.6212 7.0114 -1.6913 0.9709
-2.4608 7.5114 -1.8577 0.9680
-3.1216 7.2623 -1.8578 0.9680
-4.3636 6.5926 -1.8581 0.9680
-4.9349 6.1772 -1.8582 0.9680
-6.8938 5.0120 -2.0032 0.9656
-7.6757 3.7069 -2.0033 0.9656
-7.9761 3.0072 -2.0034 0.9656
-8.2129 2.2834 -2.0034 0.9656
-8.4882 0.7869 -2.0035 0.9656
-8.5246 0.0262 -2.0035 0.9656
-8.4929 -0.7347 -2.0035 0.9656
-7.9944 -2.9580 -2.0034 0.9656
-6.3980 -4.5917 -1.8508 0.9682
-5.4792 -5.6554 -1.8507 0.9682
-2.4967 -7.4653 -1.8500 0.9682
-1.8203 -7.6578 -1.8499 0.9682
-0.4299 -7.8582 -1.8496 0.9682
0.2732 -7.8646 -1.8495 0.9682
0.9739 -7.8082 -1.8493 0.9682
1.6667 -7.6896 -1.8492 0.9682
2.3462 -7.5096 -1.8491 0.9682
3.0068 -7.2697 -1.8489 0.9682
3.6434 -6.9718 -1.8488 0.9682
4.8242 -6.2122 -1.8485 0.9682
6.2964 -4.7116 -1.8483 0.9682
7.5971 -3.7989 -1.9963 0.9657
8.3477 -1.6538 -2.0000 0.9656
8.4875 0.6165 -2.0000 0.9656
8.3987 1.3716 -2.0000 0.9656
8.0214 2.8430 -2.0001 0.9656
7.3886 4.2240 -2.0002 0.9656
6.9825 4.8668 -2.0003 0.9656
6.5206 5.4708 -2.0004 0.9656
1.2415 7.8029 -1.8569 0.9681
0.4535 6.6181 -1.5591 0.9731
-4.1802 6.7101 -1.8580 0.9680
-4.7673 6.3168 -1.8599 0.9680
-6.2617 5.7816 -2.0030 0.9656
-6.7531 5.2000 -2.0031 0.9656
-7.1905 4.5767 -2.0032 0.9656
-8.1468 2.5087 -2.0034 0.9656
-8.3383 1.7717 -2.0034 0.9656
-8.5206 0.2610 -2.0035 0.9656
-8.2852 -2.0053 -2.0034 0.9656
-8.0730 -2.7367 -2.0034 0.9656
-7.7963 -3.4462 -2.0033 0.9656
-6.5222 -4.4137 -1.8509 0.9682
-4.5645 -6.4154 -1.8505 0.9682
-3.9735 -6.7968 -1.8503 0.9682
-2.7015 -7.3939 -1.8501 0.9682
-2.0307 -7.6049 -1.8499 0.9682
-0.6462 -7.8436 -1.8497 0.9682
0.7584 -7.8323 -1.8494 0.9682
1.4543 -7.7327 -1.8492 0.9682
2.1385 -7.5715 -1.8491 0.9682
3.4500 -7.0697 -1.8488 0.9682
4.6513 -6.3429 -1.8486 0.9682
5.7042 -5.4143 -1.8484 0.9682
6.1643 -4.8834 -1.8483 0.9682
6.5753 -4.3136 -1.8482 0.9682
7.4770 -4.0000 -1.9929 0.9658
8.0980 -2.6164 -2.0001 0.9656
8.2990 -1.8832 -2.0000 0.9656
8.5014 -0.3777 -2.0000 0.9656
8.5012 0.3825 -2.0000 0.9656
7.8306 3.3331 -2.0002 0.9656
7.5021 4.0188 -2.0002 0.9656
7.1138 4.6725 -2.0003 0.9656
6.1704 5.8634 -2.0005 0.9656
4.0799 6.7632 -1.8563 0.9681
2.8129 7.3819 -1.8566 0.9681
1.4560 7.7655 -1.8569 0.9681
0.7572 7.8651 -1.8570 0.9681
0.0522 7.9019 -1.8572 0.9681
-0.5896 7.1079 -1.6763 0.9711
-1.2253 7.0484 -1.6814 0.9710
-2.0433 7.6352 -1.8576 0.9680
-2.7168 7.4229 -1.8577 0.9680
-3.3687 7.1513 -1.8579 0.9680
-3.9937 6.8226 -1.8580 0.9680
-5.2597 6.1402 -1.9001 0.9673
-6.6071 5.3840 -2.0031 0.9656
-7.0616 4.7730 -2.0032 0.9656
-8.0745 2.7322 -2.0034 0.9656
-8.2863 2.0007 -2.0034 0.9656
-8.4319 1.2532 -2.0035 0.9656
-8.5102 0.4957 -2.0035 0.9656
-8.5205 -0.2658 -2.0035 0.9656
-8.3373 -1.7764 -2.0034 0.9656
-7.8883 -3.2301 -2.0033 0.9656
-7.5683 -3.9211 -2.0033 0.9656
-6.8817 -4.3856 -1.9179 0.9670
-6.0941 -4.6980 -1.8084 0.9689
-5.2822 -5.8396 -1.8506 0.9682
-4.7396 -6.2874 -1.8505 0.9682
-4.1593 -6.6849 -1.8504 0.9682
-3.5459 -7.0289 -1.8503 0.9682
-2.9042 -7.3168 -1.8501 0.9682
-1.5569 -7.7154 -1.8498 0.9682
-0.8620 -7.8230 -1.8497 0.9682
-0.1604 -7.8681 -1.8496 0.9682
0.5424 -7.8504 -1.8494 0.9682
1.2408 -7.7701 -1.8493 0.9682
1.9291 -7.6277 -1.8491 0.9682
3.2540 -7.1622 -1.8489 0.9682
3.8799 -6.8428 -1.8487 0.9682
5.0340 -6.0432 -1.8485 0.9682
5.5530 -5.5695 -1.8484 0.9682
6.0275 -5.0514 -1.8483 0.9682
6.4540 -4.4931 -1.8482 0.9682
7.0836 -4.0444 -1.9171 0.9670
8.0229 -2.8385 -2.0001 0.9656
8.2440 -2.1111 -2.0001 0.9656
8.5085 0.1482 -2.0000 0.9656
8.4614 0.9069 -2.0000 0.9656
7.6099 3.8106 -2.0002 0.9656
7.2397 4.4747 -2.0003 0.9656
6.8118 5.1032 -2.0004 0.9656
6.3294 5.6911 -2.0005 0.9656
5.7966 6.2336 -2.0006 0.9656
4.2646 6.6481 -1.8563 0.9681
3.0152 7.3014 -1.8566 0.9681
1.6693 7.7223 -1.8568 0.9681
0.9735 7.8411 -1.8570 0.9681
-0.3661 6.6241 -1.5592 0.9731
-1.0288 7.0668 -1.6784 0.9711
-1.6698 7.0069 -1.6929 0.9708
-2.8575 6.5268 -1.6745 0.9711
-3.8042 6.9299 -1.8579 0.9680
-4.9867 6.1569 -1.8621 0.9680
-6.9273 4.9657 -2.0032 0.9656
-7.7004 3.6553 -2.0033 0.9656
-7.9961 2.9536 -2.0034 0.9656
-8.3942 1.4850 -2.0035 0.9656
-8.2116 -2.2880 -2.0034 0.9656
-7.6736 -3.7112 -2.0033 0.9656
-5.9277 -5.1840 -1.8507 0.9682
-5.4411 -5.6920 -1.8506 0.9682
-4.9111 -6.1545 -1.8505 0.9682
-4.3420 -6.5679 -1.8504 0.9682
-2.4465 -7.4819 -1.8500 0.9682
-0.3771 -7.8609 -1.8496 0.9682
1.0263 -7.8015 -1.8493 0.9682
3.0555 -7.2493 -1.8489 0.9682
3.6900 -6.9472 -1.8488 0.9682
5.8862 -5.2156 -1.8483 0.9682
6.3279 -4.6693 -1.8482 0.9682
6.7190 -4.0857 -1.8482 0.9682
7.9417 -3.0584 -2.0001 0.9656
8.5094 -0.0863 -2.0000 0.9656
8.2285 2.1710 -2.0001 0.9656
-0.1935 -7.1408 -1.8496 0.9709
0.4445 -7.1291 -1.8494 0.9709
2.3166 -6.7553 -1.8491 0.9709
2.9101 -6.5212 -1.8489 0.9709
5.4407 -4.6222 -1.8484 0.9709
6.6679 -3.8666 -1.9957 0.9687
7.2656 -2.6255 -2.0003 0.9686
7.7247 0.0827 -2.0002 0.9686
7.5870 1.4547 -2.0002 0.9686
7.4270 2.1260 -2.0002 0.9686
7.2078 2.7804 -2.0003 0.9686
6.9311 3.4127 -2.0003 0.9686
6.5991 4.0178 -2.0004 0.9686
5.7802 5.1275 -2.0006 0.9686
4.7770 6.0740 -2.0008 0.9686
3.3725 6.3579 -1.8634 0.9707
1.5623 6.9994 -1.8569 0.9708
0.9314 7.1114 -1.8570 0.9708
-2.2337 6.8180 -1.8576 0.9708
-3.4107 6.3131 -1.8579 0.9708
-6.6385 3.9728 -2.0031 0.9685
-6.9668 3.3645 -2.0032 0.9685
-7.2395 2.7294 -2.0032 0.9685
-7.4543 2.0725 -2.0033 0.9685
-7.4669 -2.0266 -2.0033 0.9685
-7.2561 -2.6848 -2.0032 0.9685
-6.9873 -3.3216 -2.0032 0.9685
-6.6619 -3.9313 -2.0028 0.9685
-6.0785 -4.3624 -1.9372 0.9696
-5.4118 -4.6691 -1.8506 0.9709
-4.9733 -5.1332 -1.8505 0.9709
-4.4951 -5.5563 -1.8505 0.9709
-3.9810 -5.9349 -1.8503 0.9709
-3.4353 -6.2662 -1.8502 0.9709
-2.8621 -6.5473 -1.8501 0.9709
-1.6523 -6.9509 -1.8499 0.9709
-1.0253 -7.0702 -1.8497 0.9709
-0.3902 -7.1330 -1.8496 0.9709
0.2480 -7.1388 -1.8495 0.9709
0.8840 -7.0877 -1.8494 0.9709
1.5129 -6.9800 -1.8492 0.9709
2.7294 -6.5990 -1.8490 0.9709
3.8586 -6.0079 -1.8487 0.9709
4.3792 -5.6392 -1.8486 0.9709
4.8647 -5.2256 -1.8485 0.9709
5.3114 -4.7703 -1.8485 0.9709
5.7157 -4.2771 -1.8484 0.9709
6.5492 -4.0429 -1.9928 0.9687
6.9100 -3.4553 -2.0003 0.9686
7.4138 -2.1717 -2.0002 0.9686
7.5779 -1.5013 -2.0002 0.9686
7.7240 -0.1302 -2.0002 0.9686
7.7048 0.5597 -2.0002 0.9686
7.6242 1.2451 -2.0002 0.9686
7.4828 1.9206 -2.0002 0.9686
7.2816 2.5808 -2.0003 0.9686
7.0224 3.2205 -2.0003 0.9686
6.7072 3.8345 -2.0004 0.9686
6.3385 4.4179 -2.0005 0.9686
5.9192 4.9662 -2.0005 0.9686
2.9623 6.5300 -1.8566 0.9708
1.1270 7.0828 -1.8569 0.9708
0.4535 6.6180 -1.7175 0.9730
-0.7784 7.0283 -1.8309 0.9712
-2.6507 6.6673 -1.8577 0.9708
-3.8484 6.1775 -1.8844 0.9704
-4.6328 6.1386 -1.9912 0.9687
-6.1294 4.7198 -2.0030 0.9685
-6.8714 3.5552 -2.0032 0.9685
-7.1615 2.9278 -2.0032 0.9685
-7.5682 1.6081 -2.0033 0.9685
-7.6816 0.9262 -2.0033 0.9685
-7.7239 -0.4542 -2.0033 0.9685
-7.6525 -1.1417 -2.0033 0.9685
-7.3274 -2.4839 -2.0032 0.9685
-6.3847 -4.3207 -1.9961 0.9686
-5.1129 -4.9943 -1.8506 0.9709
-4.6465 -5.4304 -1.8505 0.9709
-4.1431 -5.8231 -1.8504 0.9709
-3.0415 -6.4661 -1.8502 0.9709
-1.8432 -6.9029 -1.8499 0.9709
-1.2197 -7.0394 -1.8498 0.9709
1.9412 -6.8729 -1.8491 0.9709
2.5466 -6.6718 -1.8490 0.9709
3.6917 -6.1120 -1.8488 0.9709
5.1781 -4.9149 -1.8485 0.9709
5.5958 -4.4330 -1.8484 0.9709
6.8090 -3.6427 -1.9994 0.9686
7.1101 -3.0218 -2.0003 0.9686
7.3512 -2.3751 -2.0002 0.9686
7.6561 -1.0303 -2.0002 0.9686
7.7175 -0.3429 -2.0002 0.9686
7.7173 0.3472 -2.0002 0.9686
7.6556 1.0346 -2.0002 0.9686
6.4577 4.2416 -2.0004 0.9686
5.6012 5.3226 -2.0006 0.9686
4.5662 6.2342 -2.0008 0.9686
2.5534 6.7008 -1.8567 0.9708
0.6873 7.1393 -1.8570 0.9708
-1.2147 6.9875 -1.8363 0.9711
-1.8547 6.9304 -1.8576 0.9708
-2.4660 6.7377 -1.8577 0.9708
-3.0577 6.4911 -1.8578 0.9708
-5.0322 5.8745 -2.0028 0.9685
-5.5367 5.4023 -2.0029 0.9685
-6.4095 4.3323 -2.0031 0.9685
-6.7708 3.7431 -2.0031 0.9685
-7.0780 3.1240 -2.0032 0.9685
-7.5210 1.8159 -2.0033 0.9685
-7.6532 1.1375 -2.0033 0.9685
-7.7242 0.4499 -2.0033 0.9685
-7.7335 -0.2413 -2.0033 0.9685
-7.6811 -0.9305 -2.0033 0.9685
-7.3931 -2.2812 -2.0032 0.9685
-6.8694 -3.5590 -2.0031 0.9685
-6.5110 -4.1494 -1.9990 0.9686
-5.2486 -4.8516 -1.8506 0.9709
-3.7753 -6.0677 -1.8503 0.9709
-2.0327 -6.8497 -1.8499 0.9709
-1.4132 -7.0033 -1.8498 0.9709
-0.7825 -7.1009 -1.8497 0.9709
-0.1456 -7.1419 -1.8496 0.9709
0.4923 -7.1259 -1.8494 0.9709
1.1263 -7.0531 -1.8493 0.9709
1.7511 -6.9239 -1.8492 0.9709
2.3619 -6.7396 -1.8491 0.9709
2.9538 -6.5015 -1.8489 0.9709
4.0621 -5.8720 -1.8487 0.9709
4.5697 -5.4858 -1.8486 0.9709
5.8728 -4.0885 -1.8528 0.9709
7.0242 -3.2165 -2.0003 0.9686
7.2831 -2.5767 -2.0003 0.9686
7.7239 0.1345 -2.0002 0.9686
6.1835 4.6325 -2.0005 0.9686
5.2619 5.6586 -2.0007 0.9686
4.0781 6.3574 -1.9556 0.9693
2.7370 6.6278 -1.8566 0.9708
2.0592 6.6038 -1.7910 0.9718
1.5153 7.0097 -1.8569 0.9708
-0.3904 7.0646 -1.8319 0.9712
-1.0199 7.0057 -1.8330 0.9712
-2.2794 6.8029 -1.8576 0.9708
-3.4530 6.2901 -1.8579 0.9708
-4.8684 6.0108 -2.0027 0.9685
-5.8600 5.0501 -2.0029 0.9685
-6.9892 3.3177 -2.0032 0.9685
-7.2576 2.6808 -2.0032 0.9685
-7.4681 2.0224 -2.0033 0.9685
-7.7089 0.6625 -2.0033 0.9685
-7.7372 -0.0281 -2.0033 0.9685
-7.7038 -0.7185 -2.0033 0.9685
-7.4532 -2.0766 -2.0033 0.9685
-7.2379 -2.7335 -2.0032 0.9685
-6.9649 -3.3684 -2.0032 0.9685
-6.6329 -3.9745 -2.0021 0.9686
-5.9948 -4.3636 -1.9198 0.9698
-4.4577 -5.5863 -1.8504 0.9709
-3.3931 -6.2890 -1.8502 0.9709
-2.8181 -6.5664 -1.8501 0.9709
-2.2207 -6.7912 -1.8500 0.9709
-1.6056 -6.9618 -1.8499 0.9709
-0.3423 -7.1354 -1.8496 0.9709
0.2959 -7.1369 -1.8495 0.9709
0.9316 -7.0816 -1.8493 0.9709
2.7736 -6.5805 -1.8490 0.9709
4.8997 -5.1928 -1.8485 0.9709
5.3433 -4.7346 -1.8484 0.9709
5.7534 -4.2454 -1.8513 0.9709
6.9330 -3.4088 -2.0003 0.9686
7.4282 -2.1219 -2.0002 0.9686
7.5878 -1.4504 -2.0002 0.9686
7.7247 -0.0783 -2.0002 0.9686
7.6157 1.2962 -2.0002 0.9686
7.4697 1.9708 -2.0002 0.9686
-0.7592 -6.4896 -1.8497 0.9732
-0.1770 -6.5310 -1.8496 0.9732
0.9868 -6.4576 -1.8493 0.9732
1.5591 -6.3434 -1.8492 0.9732
2.1189 -6.1786 -1.8491 0.9732
3.6792 -5.3956 -1.8488 0.9732
4.9764 -4.2277 -1.8485 0.9732
6.4049 -2.9851 -2.0004 0.9711
6.8332 -1.7988 -2.0003 0.9711
6.9664 -1.1817 -2.0003 0.9711
7.0306 0.7059 -2.0003 0.9711
6.9396 1.3305 -2.0003 0.9711
6.5927 2.5432 -2.0004 0.9711
6.3396 3.1215 -2.0005 0.9711
5.6841 4.1991 -2.0006 0.9710
5.2868 4.6898 -2.0007 0.9710
4.8474 5.1432 -2.0008 0.9710
4.3693 5.5556 -2.0009 0.9710
3.8562 5.9236 -2.0010 0.9710
3.3123 6.2445 -2.0011 0.9710
2.6619 6.3253 -1.9427 0.9719
0.2680 6.5546 -1.8571 0.9731
-1.4792 6.3975 -1.8589 0.9731
-2.0429 6.2357 -1.8576 0.9731
-2.6656 6.2014 -1.9109 0.9723
-3.3340 6.1712 -1.9857 0.9713
-3.9043 5.8987 -2.0025 0.9710
-4.4154 5.5270 -2.0027 0.9710
-4.8913 5.1112 -2.0027 0.9710
-5.3282 4.6544 -2.0028 0.9710
-6.6208 2.4962 -2.0031 0.9710
-6.8173 1.8954 -2.0031 0.9710
-6.9594 1.2794 -2.0032 0.9710
-7.0458 0.6532 -2.0032 0.9710
-7.0497 -0.6098 -2.0032 0.9710
-5.7371 -4.1174 -1.9991 0.9711
-5.0383 -4.3468 -1.8838 0.9727
-4.1110 -5.0816 -1.8504 0.9732
-3.6409 -5.4279 -1.8503 0.9732
-3.1418 -5.7309 -1.8502 0.9732
-2.6176 -5.9880 -1.8501 0.9732
-2.0726 -6.1974 -1.8500 0.9732
-1.5112 -6.3573 -1.8498 0.9732
-0.9377 -6.4663 -1.8497 0.9732
-0.3569 -6.5238 -1.8496 0.9732
1.3838 -6.3841 -1.8493 0.9732
1.9479 -6.2347 -1.8491 0.9732
2.4964 -6.0356 -1.8490 0.9732
3.0249 -5.7884 -1.8489 0.9732
3.5292 -5.4950 -1.8488 0.9732
4.4495 -4.7796 -1.8486 0.9732
5.4551 -4.0820 -1.9288 0.9721
6.0080 -3.7088 -1.9988 0.9711
6.3203 -3.1604 -2.0004 0.9711
6.5769 -2.5837 -2.0004 0.9711
6.7811 -1.9863 -2.0004 0.9711
6.9312 -1.3732 -2.0003 0.9711
7.0261 -0.7491 -2.0003 0.9711
7.0649 -0.1191 -2.0003 0.9711
6.9736 1.1389 -2.0003 0.9711
6.6602 2.3606 -2.0004 0.9711
6.4231 2.9456 -2.0004 0.9711
5.7975 4.0409 -2.0006 0.9710
5.4140 4.5423 -2.0006 0.9710
4.0178 5.8151 -2.0009 0.9710
2.2119 6.3229 -1.8963 0.9725
0.4485 6.5446 -1.8571 0.9731
-0.1374 6.5590 -1.8572 0.9731
-0.7223 6.5209 -1.8573 0.9731
-1.8703 6.2894 -1.8576 0.9731
-2.4688 6.2097 -1.8918 0.9726
-3.1225 6.1811 -1.9604 0.9716
-4.2615 5.6465 -2.0026 0.9710
-4.7486 5.2439 -2.0027 0.9710
-5.6057 4.3165 -2.0029 0.9710
-5.9688 3.7991 -2.0030 0.9710
-6.2842 3.2514 -2.0030 0.9710
-6.9215 1.4706 -2.0032 0.9710
-7.0252 0.8470 -2.0032 0.9710
-6.8773 -1.6646 -2.0031 0.9710
-6.1903 -3.4267 -2.0030 0.9710
-5.8562 -3.9631 -2.0018 0.9710
-2.7817 -5.9138 -1.8501 0.9732
-2.2426 -6.1381 -1.8500 0.9732
0.6297 -6.5024 -1.8494 0.9732
3.3766 -5.5903 -1.8488 0.9732
3.8618 -5.2663 -1.8487 0.9732
4.7361 -4.4954 -1.8486 0.9732
5.8958 -3.8678 -1.9962 0.9711
6.2309 -3.3334 -2.0005 0.9711
6.5033 -2.7639 -2.0004 0.9711
6.7239 -2.1724 -2.0004 0.9711
6.8908 -1.5636 -2.0003 0.9711
7.0028 -0.9424 -2.0003 0.9711
7.0587 0.3176 -2.0003 0.9711
6.8900 1.5675 -2.0003 0.9711
6.7227 2.1762 -2.0004 0.9711
6.2290 3.3369 -2.0005 0.9711
5.1232 4.8683 -2.0007 0.9710
4.6685 5.3063 -2.0008 0.9710
3.6511 6.0524 -2.0010 0.9710
2.4099 6.3241 -1.9159 0.9723
1.2088 6.4471 -1.8569 0.9731
-1.6963 6.3385 -1.8575 0.9731
-2.2757 6.2177 -1.8744 0.9729
-3.5734 6.1046 -2.0025 0.9710
-4.1042 5.7616 -2.0026 0.9710
-5.0636 4.9407 -2.0028 0.9710
-5.8618 3.9621 -2.0029 0.9710
-6.7025 2.2680 -2.0031 0.9710
-7.0641 0.4115 -2.0032 0.9710
-7.0726 -0.2206 -2.0032 0.9710
-6.9206 -1.4745 -2.0032 0.9710
-6.5480 -2.6813 -2.0031 0.9710
-6.2824 -3.2549 -2.0030 0.9710
-5.5836 -4.3044 -1.9958 0.9711
-4.8002 -4.4371 -1.8505 0.9732
-3.9345 -5.2193 -1.8503 0.9732
-3.4528 -5.5493 -1.8502 0.9732
-2.4109 -6.0741 -1.8500 0.9732
-1.8591 -6.2646 -1.8499 0.9732
1.0301 -6.4508 -1.8493 0.9732
1.6016 -6.3328 -1.8492 0.9732
2.7016 -5.9464 -1.8490 0.9732
3.2214 -5.6813 -1.8489 0.9732
3.7153 -5.3708 -1.8488 0.9732
4.6105 -4.6243 -1.8486 0.9732
6.9742 -1.1350 -2.0003 0.9711
7.0476 -0.5080 -2.0003 0.9711
7.0648 0.1230 -2.0003 0.9711
6.9305 1.3771 -2.0003 0.9711
6.3185 3.1640 -2.0005 0.9711
6.0111 3.7154 -2.0005 0.9710
5.6558 4.2372 -2.0006 0.9710
4.8128 5.1756 -2.0008 0.9710
3.8164 5.9494 -2.0010 0.9710
1.3859 6.4112 -1.8569 0.9731
0.2241 6.5563 -1.8571 0.9731
-0.9452 6.4925 -1.8574 0.9731
-1.5210 6.3827 -1.8575 0.9731
-3.9439 5.8724 -2.0026 0.9710
-4.4524 5.4973 -2.0027 0.9710
-5.3593 4.6186 -2.0028 0.9710
-5.7504 4.1220 -2.0029 0.9710
-6.9678 1.2327 -2.0032 0.9710
-6.9586 -1.2833 -2.0032 0.9710
-6.8162 -1.8992 -2.0031 0.9710
-6.3697 -3.0806 -2.0030 0.9710
-4.9716 -4.3478 -1.8697 0.9729
-4.0768 -5.1090 -1.8504 0.9732
-3.6044 -5.4522 -1.8503 0.9732
-3.1033 -5.7518 -1.8502 0.9732
-0.3131 -6.5260 -1.8496 0.9732
0.2706 -6.5275 -1.8495 0.9732
0.8520 -6.4769 -1.8494 0.9732
1.4266 -6.3746 -1.8492 0.9732
3.5660 -5.4712 -1.8488 0.9732
4.0399 -5.1308 -1.8487 0.9732
4.8872 -4.3305 -1.8485 0.9732
5.5259 -4.0775 -1.9441 0.9719
6.0347 -3.6696 -1.9994 0.9711
6.5941 -2.5395 -2.0004 0.9711
7.0309 -0.7020 -2.0003 0.9711
7.0655 -0.0717 -2.0003 0.9711
7.0437 0.5592 -2.0003 0.9711
6.9658 1.1856 -2.0003 0.9711
6.8323 1.8026 -2.0004 0.9711
6.6443 2.4052 -2.0004 0.9711
-0.6988 -5.9729 -1.8497 0.9751
-0.1629 -6.0111 -1.8496 0.9751
0.3742 -6.0013 -1.8495 0.9752
1.9502 -5.6868 -1.8491 0.9752
3.8160 -4.6440 -1.8488 0.9752
4.8197 -4.0945 -1.9452 0.9739
5.6267 -3.2629 -2.0006 0.9731
6.2896 -1.6557 -2.0005 0.9731
6.4837 -0.5111 -2.0004 0.9731
6.4712 0.6497 -2.0004 0.9731
6.3875 1.2247 -2.0004 0.9731
6.2528 1.7899 -2.0005 0.9731
6.0682 2.3408 -2.0005 0.9731
4.4617 4.7339 -2.0008 0.9731
4.0216 5.1135 -2.0009 0.9731
1.9786 6.1987 -2.0013 0.9731
0.8225 6.2795 -1.9479 0.9738
0.2564 6.2691 -1.9298 0.9741
-1.4385 6.2214 -1.9641 0.9736
-2.0266 6.1859 -2.0022 0.9731
-2.5707 5.9807 -2.0023 0.9731
-3.5934 5.4290 -2.0025 0.9731
-4.0638 5.0869 -2.0026 0.9731
-5.2668 3.8291 -2.0028 0.9731
-5.8640 2.8319 -2.0029 0.9731
-6.0934 2.2973 -2.0030 0.9731
-6.2743 1.7444 -2.0030 0.9731
-6.4050 1.1775 -2.0031 0.9731
-6.5124 0.0200 -2.0031 0.9731
-6.4121 -1.1381 -2.0030 0.9731
-6.2849 -1.7058 -2.0030 0.9731
-6.1074 -2.2598 -2.0030 0.9731
-5.8812 -2.7958 -2.0029 0.9731
-5.6081 -3.3094 -2.0029 0.9731
-5.2902 -3.7966 -2.0028 0.9731
-4.9148 -4.2402 -1.9965 0.9732
-4.1983 -4.3333 -1.8558 0.9751
-3.7836 -4.6769 -1.8503 0.9751
-2.8916 -5.2745 -1.8501 0.9751
-2.4092 -5.5112 -1.8500 0.9751
-1.9076 -5.7039 -1.8499 0.9751
-0.8631 -5.9515 -1.8497 0.9751
-0.3285 -6.0044 -1.8496 0.9751
0.2087 -6.0094 -1.8495 0.9751
1.2736 -5.8759 -1.8493 0.9752
1.7929 -5.7385 -1.8492 0.9752
2.2977 -5.5553 -1.8491 0.9752
3.2484 -5.0577 -1.8489 0.9752
3.6866 -4.7474 -1.8488 0.9752
4.0954 -4.3993 -1.8487 0.9752
4.5765 -4.1103 -1.8920 0.9746
5.5348 -3.4167 -2.0006 0.9731
5.8174 -2.9090 -2.0006 0.9731
6.2417 -1.8283 -2.0005 0.9731
6.3798 -1.2640 -2.0004 0.9731
6.4188 1.0483 -2.0004 0.9731
6.2997 1.6169 -2.0005 0.9731
5.9121 2.7113 -2.0005 0.9731
4.5903 4.6092 -2.0008 0.9731
4.1609 5.0007 -2.0009 0.9731
3.6981 5.3523 -2.0010 0.9731
3.2059 5.6613 -2.0011 0.9731
2.1485 6.1417 -2.0013 0.9731
0.9996 6.2822 -1.9566 0.9737
0.4299 6.2726 -1.9338 0.9740
-0.1311 6.2603 -1.9260 0.9741
-0.6917 6.2454 -1.9327 0.9740
-1.8456 6.2064 -1.9916 0.9733
-2.9354 5.8107 -2.0024 0.9731
-4.3704 4.8262 -2.0026 0.9731
-5.7837 2.9924 -2.0029 0.9731
-6.3701 1.3535 -2.0030 0.9731
-6.4655 0.7796 -2.0031 0.9731
-6.5093 0.1994 -2.0031 0.9731
-6.4410 -0.9610 -2.0031 0.9731
-5.9561 -2.6327 -2.0030 0.9731
-5.6972 -3.1537 -2.0029 0.9731
-5.3928 -3.6495 -2.0028 0.9731
-5.0355 -4.1080 -1.9988 0.9732
-4.4308 -4.3280 -1.9051 0.9744
-3.9111 -4.5709 -1.8503 0.9751
-3.4874 -4.9015 -1.8502 0.9751
-3.0359 -5.1929 -1.8502 0.9751
-2.0641 -5.6493 -1.8500 0.9751
-1.5516 -5.8107 -1.8498 0.9751
-1.0267 -5.9256 -1.8497 0.9751
0.0431 -6.0130 -1.8495 0.9751
0.5795 -5.9848 -1.8494 0.9752
3.1079 -5.1454 -1.8489 0.9752
4.3593 -4.1377 -1.8486 0.9752
5.0815 -4.0256 -1.9940 0.9732
5.4386 -3.5679 -2.0006 0.9731
5.7351 -3.0682 -2.0006 0.9731
5.9859 -2.5440 -2.0005 0.9731
6.1890 -1.9996 -2.0005 0.9731
6.3426 -1.4392 -2.0004 0.9731
6.4457 -0.8674 -2.0004 0.9731
6.4452 0.8710 -2.0004 0.9731
6.3418 1.4428 -2.0005 0.9731
6.1879 2.0030 -2.0005 0.9731
5.9845 2.5474 -2.0005 0.9731
3.8441 5.2483 -2.0010 0.9731
2.8501 5.8487 -2.0012 0.9731
1.7651 6.2630 -2.0014 0.9731
0.6042 6.2758 -1.9392 0.9740
0.0414 6.2644 -1.9268 0.9741
-0.5184 6.2503 -1.9291 0.9741
-1.6628 6.2133 -1.9783 0.9734
-2.2374 6.1130 -2.0022 0.9731
-2.7742 5.8893 -2.0023 0.9731
-4.6603 4.5472 -2.0027 0.9731
-5.6990 3.1506 -2.0029 0.9731
-5.9576 2.6294 -2.0030 0.9731
-6.3304 1.5285 -2.0030 0.9731
-6.4416 0.9574 -2.0031 0.9731
-6.5092 -0.2031 -2.0031 0.9731
-6.4651 -0.7832 -2.0031 0.9731
-6.2227 -1.9200 -2.0030 0.9731
-5.7820 -2.9956 -2.0029 0.9731
-5.4914 -3.4996 -2.0029 0.9731
-4.0356 -4.4615 -1.8504 0.9751
-2.2189 -5.5904 -1.8500 0.9751
-1.1896 -5.8952 -1.8498 0.9751
-0.6587 -5.9775 -1.8497 0.9751
-0.1226 -6.0120 -1.8496 0.9751
0.9481 -5.9374 -1.8493 0.9752
1.4741 -5.8287 -1.8492 0.9752
2.9650 -5.2291 -1.8489 0.9752
4.8810 -4.0905 -1.9588 0.9737
5.9136 -2.7080 -2.0005 0.9731
6.1316 -2.1693 -2.0005 0.9731
6.3006 -1.6134 -2.0005 0.9731
6.4194 -1.0447 -2.0004 0.9731
6.4869 -0.4676 -2.0004 0.9731
6.5028 0.1132 -2.0004 0.9731
6.4667 0.6931 -2.0004 0.9731
6.3791 1.2675 -2.0004 0.9731
6.0524 2.3815 -2.0005 0.9731
5.5329 3.4198 -2.0006 0.9731
5.2058 3.9000 -2.0007 0.9731
4.4298 4.7638 -2.0008 0.9731
3.5127 5.4760 -2.0010 0.9731
3.0101 5.7679 -2.0011 0.9731
1.9369 6.2118 -2.0014 0.9731
1.3590 6.2869 -1.9784 0.9734
0.7796 6.2788 -1.9461 0.9739
0.2142 6.2682 -1.9291 0.9741
-1.4822 6.2199 -1.9667 0.9736
-2.6108 5.9634 -2.0023 0.9731
-3.6298 5.4048 -2.0025 0.9731
-4.5332 4.6738 -2.0027 0.9731
-4.9325 4.2507 -2.0028 0.9731
-5.6100 3.3063 -2.0029 0.9731
-5.8828 2.7925 -2.0029 0.9731
-6.1087 2.2564 -2.0030 0.9731
-6.4885 0.5576 -2.0031 0.9731
-6.4842 -0.6048 -2.0031 0.9731
-6.2733 -1.7479 -2.0030 0.9731
-6.0921 -2.3007 -2.0030 0.9731
-5.8623 -2.8352 -2.0029 0.9731
-5.5858 -3.3470 -2.0029 0.9731
-5.2646 -3.8320 -2.0028 0.9731
-4.8848 -4.2719 -1.9960 0.9732
-4.1570 -4.3487 -1.8504 0.9751
-2.8561 -5.2938 -1.8501 0.9751
-2.3722 -5.5273 -1.8500 0.9751
-1.3516 -5.8603 -1.8498 0.9751
-0.2882 -6.0065 -1.8496 0.9751
0.2491 -6.0079 -1.8495 0.9751
0.7842 -5.9613 -1.8494 0.9752
2.8199 -5.3089 -1.8490 0.9752
3.2823 -5.0358 -1.8489 0.9752
3.7184 -4.7226 -1.8488 0.9752
5.2238 -3.8546 -1.9968 0.9732
5.8368 -2.8699 -2.0005 0.9731
6.0695 -2.3374 -2.0005 0.9731
6.2538 -1.7864 -2.0005 0.9731
6.4716 -0.6461 -2.0004 0.9731
6.4116 1.0913 -2.0004 0.9731
-0.6466 -5.5268 -1.8497 0.9768
-0.1507 -5.5621 -1.8496 0.9768
0.3462 -5.5531 -1.8495 0.9768
0.8404 -5.4997 -1.8494 0.9768
3.5311 -4.2973 -1.8488 0.9768
4.0510 -4.1180 -1.9201 0.9759
4.9166 -3.4720 -2.0007 0.9749
5.4552 -2.5425 -2.0006 0.9749
5.8201 -1.5321 -2.0006 0.9750
5.9336 -1.0065 -2.0005 0.9750
5.7861 1.6563 -2.0006 0.9750
5.6152 2.1661 -2.0006 0.9749
5.3996 2.6587 -2.0006 0.9749
4.5029 3.9944 -2.0008 0.9749
3.7213 4.7317 -2.0010 0.9749
3.2843 5.0452 -2.0011 0.9749
2.8211 5.3184 -2.0012 0.9749
2.3353 5.5492 -2.0013 0.9749
1.3117 5.8766 -2.0015 0.9749
0.2460 6.0168 -2.0017 0.9749
-0.8276 5.9654 -2.0019 0.9749
-1.3568 5.8680 -2.0020 0.9749
-2.3787 5.5339 -2.0022 0.9749
-3.3249 5.0234 -2.0024 0.9749
-4.1654 4.3526 -2.0026 0.9749
-4.8732 3.5430 -2.0027 0.9749
-5.1701 3.0940 -2.0028 0.9749
-5.4257 2.6203 -2.0029 0.9749
-5.6381 2.1257 -2.0029 0.9749
-5.8054 1.6140 -2.0029 0.9749
-6.0257 0.0185 -2.0030 0.9749
-6.0033 -0.5193 -2.0030 0.9749
-5.9329 -1.0530 -2.0030 0.9749
-5.8152 -1.5783 -2.0029 0.9749
-5.6510 -2.0909 -2.0029 0.9749
-5.1890 -3.0621 -2.0028 0.9749
-4.8949 -3.5129 -2.0027 0.9749
-4.1714 -4.3055 -1.9927 0.9750
-3.5009 -4.3274 -1.8503 0.9768
-2.6756 -4.8804 -1.8501 0.9768
-1.7651 -5.2778 -1.8499 0.9768
-0.7986 -5.5070 -1.8497 0.9768
0.1931 -5.5606 -1.8495 0.9768
1.1785 -5.4371 -1.8493 0.9768
2.1261 -5.1404 -1.8491 0.9768
3.0059 -4.6801 -1.8489 0.9768
3.8458 -4.1311 -1.8762 0.9765
5.1216 -3.1616 -2.0007 0.9749
5.7757 -1.6918 -2.0006 0.9750
5.9036 -1.1696 -2.0005 0.9750
5.9844 -0.6381 -2.0005 0.9750
5.9397 0.9700 -2.0005 0.9750
5.2252 2.9872 -2.0007 0.9749
4.2476 4.2651 -2.0009 0.9749
3.8502 4.6273 -2.0010 0.9749
3.4220 4.9527 -2.0011 0.9749
2.9665 5.2386 -2.0011 0.9749
2.4872 5.4827 -2.0012 0.9749
1.9881 5.6831 -2.0013 0.9749
0.4117 6.0077 -2.0017 0.9749
-0.1261 6.0208 -2.0018 0.9749
-0.6630 5.9858 -2.0019 0.9749
-1.7168 5.7732 -2.0021 0.9749
-2.2253 5.5972 -2.0022 0.9749
-3.6290 4.8085 -2.0025 0.9749
-4.0438 4.4656 -2.0026 0.9749
-4.4264 4.0871 -2.0027 0.9749
-4.7737 3.6758 -2.0027 0.9749
-5.0829 3.2352 -2.0028 0.9749
-5.5773 2.2802 -2.0029 0.9749
-5.7587 1.7733 -2.0029 0.9749
-5.8940 1.2523 -2.0029 0.9749
-6.0153 -0.3537 -2.0030 0.9749
-5.7065 -1.9345 -2.0029 0.9749
-5.5110 -2.4360 -2.0029 0.9749
-4.9898 -3.3768 -2.0028 0.9749
-4.6684 -3.8085 -2.0027 0.9749
-4.2973 -4.1977 -1.9969 0.9750
-3.6907 -4.3133 -1.8870 0.9764
-2.8090 -4.8050 -1.8501 0.9768
-1.9099 -5.2273 -1.8499 0.9768
-1.4357 -5.3766 -1.8498 0.9768
-0.4569 -5.5456 -1.8496 0.9768
0.0399 -5.5639 -1.8495 0.9768
0.5363 -5.5379 -1.8494 0.9768
1.5121 -5.3537 -1.8492 0.9768
1.9838 -5.1971 -1.8491 0.9768
2.8758 -4.7612 -1.8489 0.9768
5.5391 -2.3541 -2.0006 0.9749
5.9646 -0.8027 -2.0005 0.9750
6.0124 -0.2671 -2.0005 0.9750
6.0122 0.2705 -2.0005 0.9750
5.9641 0.8060 -2.0005 0.9750
5.5378 2.3572 -2.0006 0.9749
5.3054 2.8421 -2.0007 0.9749
5.0308 3.3043 -2.0007 0.9749
4.7159 3.7403 -2.0008 0.9749
3.1096 5.1548 -2.0011 0.9749
2.6373 5.4120 -2.0012 0.9749
2.1439 5.6261 -2.0013 0.9749
1.1096 5.9182 -2.0015 0.9749
0.5770 5.9940 -2.0016 0.9749
0.0398 6.0219 -2.0017 0.9749
-1.0315 5.9337 -2.0020 0.9749
-3.0431 5.1987 -2.0024 0.9749
-3.4951 4.9066 -2.0025 0.9749
-3.9192 4.5753 -2.0025 0.9749
-4.6706 3.8059 -2.0027 0.9749
-4.9918 3.3740 -2.0028 0.9749
-5.2731 2.9151 -2.0028 0.9749
-5.5124 2.4329 -2.0029 0.9749
-5.7076 1.9313 -2.0029 0.9749
-5.8573 1.4142 -2.0029 0.9749
-6.0155 0.3504 -2.0030 0.9749
-6.0228 -0.1879 -2.0030 0.9749
-5.9819 -0.7246 -2.0030 0.9749
-5.8933 -1.2556 -2.0029 0.9749
-5.7577 -1.7765 -2.0029 0.9749
-5.3499 -2.7717 -2.0028 0.9749
-4.7716 -3.6785 -2.0027 0.9749
-4.4159 -4.0819 -1.9989 0.9750
-3.3506 -4.4447 -1.8502 0.9768
-2.9404 -4.7258 -1.8501 0.9768
-2.5068 -4.9691 -1.8500 0.9768
-1.5833 -5.3351 -1.8499 0.9768
-1.1007 -5.4548 -1.8498 0.9768
-0.6095 -5.5310 -1.8497 0.9768
-0.1134 -5.5630 -1.8496 0.9768
0.3835 -5.5506 -1.8495 0.9768
1.8399 -5.2499 -1.8492 0.9768
3.1644 -4.5743 -1.8489 0.9768
3.5598 -4.2735 -1.8488 0.9768
4.9398 -3.4389 -2.0007 0.9749
5.4722 -2.5058 -2.0006 0.9749
5.9402 -0.9667 -2.0005 0.9750
6.0027 -0.4327 -2.0005 0.9750
5.9840 0.6414 -2.0005 0.9750
5.7748 1.6951 -2.0006 0.9750
5.6006 2.2037 -2.0006 0.9749
5.3817 2.6948 -2.0006 0.9749
5.1198 3.1645 -2.0007 0.9749
4.8171 3.6089 -2.0008 0.9749
4.4760 4.0245 -2.0008 0.9749
4.0991 4.4081 -2.0009 0.9749
2.2980 5.5648 -2.0013 0.9749
-0.3323 6.0130 -2.0018 0.9749
-1.9136 5.7111 -2.0021 0.9749
-3.3586 5.0009 -2.0024 0.9749
-3.7917 4.6815 -2.0025 0.9749
-4.1945 4.3245 -2.0026 0.9749
-4.5639 3.9331 -2.0027 0.9749
-5.1908 3.0592 -2.0028 0.9749
-5.6522 2.0878 -2.0029 0.9749
-6.0035 0.5160 -2.0030 0.9749
-5.9996 -0.5596 -2.0030 0.9749
-5.9257 -1.0928 -2.0029 0.9749
-5.8045 -1.6173 -2.0029 0.9749
-5.6369 -2.1288 -2.0029 0.9749
-5.1683 -3.0969 -2.0028 0.9749
-4.5314 -3.9628 -2.0010 0.9749
-3.4718 -4.3508 -1.8502 0.9768
-2.6428 -4.8983 -1.8501 0.9768
-2.1949 -5.1143 -1.8500 0.9768
-0.7616 -5.5122 -1.8497 0.9768
-0.2666 -5.5579 -1.8496 0.9768
0.2305 -5.5592 -1.8495 0.9768
1.2150 -5.4291 -1.8493 0.9768
1.6946 -5.2987 -1.8492 0.9768
2.6093 -4.9125 -1.8490 0.9768
3.4408 -4.3700 -1.8488 0.9768
3.8949 -4.1280 -1.8866 0.9764
4.8432 -3.5737 -2.0007 0.9749
5.4011 -2.6556 -2.0006 0.9749
5.9113 -1.1300 -2.0005 0.9750
6.0180 -0.0610 -2.0005 0.9750
5.9994 0.4763 -2.0005 0.9750
5.9330 1.0098 -2.0005 0.9750
5.8193 1.5353 -2.0006 0.9750
5.6591 2.0486 -2.0006 0.9749
-0.6010 -5.1373 -1.8497 0.9783
1.6774 -4.8914 -1.8492 0.9783
2.5201 -4.5148 -1.8490 0.9783
3.9133 -3.9780 -1.9955 0.9766
5.0710 -2.3634 -2.0007 0.9765
5.2616 -1.9014 -2.0007 0.9765
5.4102 -1.4242 -2.0006 0.9765
5.5157 -0.9356 -2.0006 0.9765
5.0193 2.4714 -2.0007 0.9765
4.7788 2.9096 -2.0008 0.9765
3.8377 4.0719 -2.0010 0.9765
3.0529 4.6897 -2.0011 0.9765
2.1708 5.1582 -2.0013 0.9765
1.7018 5.3316 -2.0014 0.9765
1.2193 5.4625 -2.0015 0.9765
0.7269 5.5498 -2.0016 0.9765
-0.2714 5.5912 -2.0018 0.9765
-1.2612 5.4544 -2.0020 0.9765
-1.7430 5.3204 -2.0021 0.9765
-2.2110 5.1438 -2.0022 0.9765
-2.6614 4.9262 -2.0023 0.9765
-4.5296 3.2932 -2.0027 0.9765
-4.8056 2.8759 -2.0027 0.9765
-5.0432 2.4355 -2.0028 0.9765
-5.6008 0.0172 -2.0029 0.9765
-5.5799 -0.4827 -2.0029 0.9765
-5.5146 -0.9788 -2.0029 0.9765
-5.4051 -1.4670 -2.0028 0.9765
-5.2526 -1.9435 -2.0028 0.9765
-5.0580 -2.4045 -2.0028 0.9765
-4.5498 -3.2652 -2.0027 0.9765
-3.4721 -4.2918 -1.9742 0.9768
-1.6407 -4.9058 -1.8499 0.9783
-0.7423 -5.1188 -1.8497 0.9783
0.6401 -5.1318 -1.8494 0.9783
1.5421 -4.9358 -1.8492 0.9783
1.9763 -4.7783 -1.8491 0.9783
2.3948 -4.5826 -1.8490 0.9783
3.2198 -4.1462 -1.8773 0.9779
3.7991 -4.0809 -1.9938 0.9766
4.1598 -3.7360 -1.9995 0.9765
4.7608 -2.9389 -2.0008 0.9765
5.0040 -2.5022 -2.0007 0.9765
5.2072 -2.0456 -2.0007 0.9765
5.3689 -1.5727 -2.0006 0.9765
5.4878 -1.0872 -2.0006 0.9765
5.5213 0.9017 -2.0006 0.9765
5.2732 1.8690 -2.0007 0.9765
4.8571 2.7768 -2.0008 0.9765
4.5901 3.1993 -2.0008 0.9765
4.2863 3.5963 -2.0009 0.9765
3.9484 3.9646 -2.0009 0.9765
3.1809 4.6038 -2.0011 0.9765
0.8795 5.5276 -2.0016 0.9765
0.3827 5.5843 -2.0017 0.9765
-1.1104 5.4870 -2.0020 0.9765
-1.5958 5.3663 -2.0021 0.9765
-2.0684 5.2027 -2.0022 0.9765
-2.9607 4.7525 -2.0024 0.9765
-3.3732 4.4695 -2.0024 0.9765
-3.7588 4.1508 -2.0025 0.9765
-4.1144 3.7989 -2.0026 0.9765
-4.7245 3.0071 -2.0027 0.9765
-4.9741 2.5735 -2.0028 0.9765
-5.1841 2.1194 -2.0028 0.9765
-5.3526 1.6483 -2.0028 0.9765
-5.4784 1.1640 -2.0029 0.9765
-5.5982 0.1715 -2.0029 0.9765
-5.4435 -1.3175 -2.0029 0.9765
-5.3041 -1.7981 -2.0028 0.9765
-5.1224 -2.2642 -2.0028 0.9765
-4.8998 -2.7123 -2.0027 0.9765
-4.6380 -3.1387 -2.0027 0.9765
-3.6283 -4.2404 -1.9957 0.9766
-3.0580 -4.2980 -1.8863 0.9778
-2.6110 -4.4662 -1.8501 0.9783
-1.7752 -4.8588 -1.8499 0.9783
-0.8831 -5.0965 -1.8497 0.9783
0.4985 -5.1476 -1.8494 0.9783
1.4055 -4.9765 -1.8492 0.9783
1.8440 -4.8310 -1.8492 0.9783
2.2677 -4.6469 -1.8491 0.9783
3.0574 -4.1694 -1.8489 0.9783
3.6290 -4.1202 -1.9635 0.9769
4.0517 -3.8458 -1.9977 0.9765
4.3857 -3.4743 -2.0008 0.9765
4.9332 -2.6391 -2.0007 0.9765
5.3236 -1.7200 -2.0007 0.9765
5.4558 -1.2380 -2.0006 0.9765
5.5889 -0.2483 -2.0006 0.9765
5.5440 0.7492 -2.0006 0.9765
5.3226 1.7230 -2.0007 0.9765
4.9317 2.6419 -2.0007 0.9765
4.6764 3.0716 -2.0008 0.9765
4.3837 3.4768 -2.0009 0.9765
3.6961 4.2011 -2.0010 0.9765
3.3065 4.5143 -2.0011 0.9765
2.4515 5.0307 -2.0013 0.9765
1.9928 5.2297 -2.0013 0.9765
1.5182 5.3869 -2.0014 0.9765
1.0314 5.5012 -2.0015 0.9765
0.5364 5.5716 -2.0016 0.9765
0.0370 5.5975 -2.0017 0.9765
-1.9243 5.2576 -2.0021 0.9765
-2.3860 5.0652 -2.0022 0.9765
-2.8286 4.8322 -2.0023 0.9765
-3.6429 4.2527 -2.0025 0.9765
-4.9013 2.7096 -2.0027 0.9765
-5.1237 2.2614 -2.0028 0.9765
-5.3052 1.7951 -2.0028 0.9765
-5.5913 0.3257 -2.0029 0.9765
-5.4778 -1.1671 -2.0029 0.9765
-5.3517 -1.6513 -2.0028 0.9765
-5.1829 -2.1223 -2.0028 0.9765
-4.9727 -2.5763 -2.0028 0.9765
-4.1122 -3.8012 -2.0026 0.9765
-3.7469 -4.1424 -1.9975 0.9766
-2.7331 -4.3927 -1.8501 0.9783
-2.3301 -4.6189 -1.8500 0.9783
-1.0232 -5.0704 -1.8497 0.9783
-0.5665 -5.1412 -1.8497 0.9783
-0.1054 -5.1710 -1.8496 0.9783
1.7102 -4.8800 -1.8492 0.9783
2.1388 -4.7077 -1.8491 0.9783
2.5503 -4.4978 -1.8490 0.9783
2.9414 -4.2521 -1.8489 0.9783
3.9407 -3.9525 -1.9959 0.9766
4.5918 -3.1967 -2.0008 0.9765
4.8587 -2.7741 -2.0007 0.9765
5.2742 -1.8660 -2.0007 0.9765
5.5799 -0.4022 -2.0006 0.9765
5.5936 0.0974 -2.0006 0.9765
5.4872 1.0903 -2.0006 0.9765
5.2061 2.0485 -2.0007 0.9765
5.0026 2.5050 -2.0007 0.9765
4.7592 2.9416 -2.0008 0.9765
4.4778 3.3547 -2.0008 0.9765
3.8103 4.0976 -2.0010 0.9765
3.4296 4.4215 -2.0011 0.9765
3.0214 4.7101 -2.0011 0.9765
2.5891 4.9612 -2.0012 0.9765
2.1361 5.1727 -2.0013 0.9765
1.1826 5.4706 -2.0015 0.9765
0.6896 5.5546 -2.0016 0.9765
-0.3089 5.5893 -2.0018 0.9765
-0.8065 5.5397 -2.0019 0.9765
-1.2978 5.4459 -2.0020 0.9765
-3.1218 4.6484 -2.0024 0.9765
-4.2421 3.6558 -2.0026 0.9765
-4.8248 2.8435 -2.0027 0.9765
-5.2537 1.9406 -2.0028 0.9765
-5.5151 0.9757 -2.0029 0.9765
-5.3952 -1.5032 -2.0028 0.9765
-5.0418 -2.4384 -2.0028 0.9765
-4.5277 -3.2957 -2.0027 0.9765
-4.2154 -3.6865 -2.0026 0.9765
-3.8631 -4.0412 -1.9992 0.9765
-3.4253 -4.2926 -1.9639 0.9769
-2.4565 -4.5530 -1.8500 0.9783
-2.0402 -4.7538 -1.8500 0.9783
-1.6077 -4.9167 -1.8499 0.9783
-1.1625 -5.0403 -1.8498 0.9783
-0.2478 -5.1662 -1.8496 0.9783
0.6745 -5.1274 -1.8494 0.9783
1.1294 -5.0465 -1.8493 0.9783
2.0083 -4.7649 -1.8491 0.9783
2.8232 -4.3315 -1.8490 0.9783
3.2625 -4.1436 -1.8860 0.9778
4.1857 -3.7089 -1.9999 0.9765
4.7804 -2.9069 -2.0008 0.9765
5.5667 -0.5558 -2.0006 0.9765
5.5941 -0.0567 -2.0006 0.9765
5.2605 1.9043 -2.0007 0.9765
0.7290 -4.7706 -1.8494 0.9795
1.5654 -4.5645 -1.8492 0.9795
2.3517 -4.2132 -1.8491 0.9795
3.6601 -3.7206 -2.0000 0.9779
3.9793 -3.3806 -2.0009 0.9779
4.5166 -2.6191 -2.0008 0.9779
5.0488 -1.3290 -2.0007 0.9779
5.2046 -0.4103 -2.0007 0.9779
5.1946 0.5215 -2.0007 0.9779
4.8711 1.8790 -2.0008 0.9779
4.6840 2.3063 -2.0008 0.9779
4.4596 2.7152 -2.0008 0.9779
3.9061 3.4650 -2.0010 0.9779
3.2281 4.1045 -2.0011 0.9779
2.8490 4.3764 -2.0012 0.9779
2.4471 4.6134 -2.0013 0.9779
1.1378 5.0975 -2.0015 0.9779
0.6783 5.1789 -2.0016 0.9779
-0.2532 5.2175 -2.0018 0.9779
-1.1769 5.0899 -2.0020 0.9779
-1.6265 4.9647 -2.0021 0.9779
-2.0632 4.8000 -2.0022 0.9779
-2.4835 4.5969 -2.0023 0.9779
-3.9355 3.4379 -2.0026 0.9779
-4.2268 3.0730 -2.0026 0.9779
-5.0352 1.3999 -2.0028 0.9779
-5.1401 0.9450 -2.0028 0.9779
-5.2263 0.0161 -2.0028 0.9779
-4.9014 -1.8135 -2.0027 0.9779
-4.2456 -3.0469 -2.0026 0.9779
-3.9566 -3.4136 -2.0025 0.9779
-3.2803 -4.0547 -1.9987 0.9779
-2.8690 -4.2772 -1.9737 0.9782
-1.5310 -4.5779 -1.8498 0.9795
-1.1163 -4.6961 -1.8498 0.9795
1.0223 -4.7163 -1.8493 0.9795
1.4390 -4.6060 -1.8492 0.9795
2.2348 -4.2764 -1.8491 0.9795
2.6697 -4.1567 -1.8932 0.9791
3.1910 -4.1091 -1.9937 0.9780
3.5534 -3.8170 -1.9985 0.9779
3.8847 -3.4889 -2.0009 0.9779
4.1804 -3.1282 -2.0009 0.9779
4.6697 -2.3351 -2.0008 0.9779
5.1212 -1.0146 -2.0007 0.9779
5.2200 -0.0880 -2.0007 0.9779
4.9210 1.7441 -2.0007 0.9779
4.7457 2.1764 -2.0008 0.9779
4.2834 2.9856 -2.0009 0.9779
3.6846 3.6997 -2.0010 0.9779
1.7245 4.9297 -2.0014 0.9779
1.2778 5.0641 -2.0015 0.9779
-0.1094 5.2224 -2.0018 0.9779
-0.5751 5.1921 -2.0019 0.9779
-1.0362 5.1203 -2.0020 0.9779
-1.4891 5.0076 -2.0021 0.9779
-1.9302 4.8549 -2.0021 0.9779
-2.3559 4.6635 -2.0022 0.9779
-4.1405 3.1882 -2.0026 0.9779
-4.8374 1.9777 -2.0027 0.9779
-5.1887 0.6256 -2.0028 0.9779
-5.2238 0.1600 -2.0028 0.9779
-5.2173 -0.3068 -2.0028 0.9779
-4.5722 -2.5309 -2.0027 0.9779
-4.3279 -2.9288 -2.0026 0.9779
-4.0492 -3.3033 -2.0026 0.9779
-3.3934 -3.9659 -2.0002 0.9779
-3.0185 -4.2425 -1.9953 0.9779
-1.6566 -4.5341 -1.8499 0.9795
-1.2453 -4.6636 -1.8498 0.9795
-0.8240 -4.7559 -1.8497 0.9795
0.0346 -4.8262 -1.8495 0.9795
0.8920 -4.7427 -1.8494 0.9795
3.0319 -4.1346 -1.9648 0.9783
3.7871 -3.5947 -2.0010 0.9779
4.0927 -3.2422 -2.0009 0.9779
4.6037 -2.4628 -2.0008 0.9779
5.2156 -0.2317 -2.0007 0.9779
5.2155 0.2347 -2.0007 0.9779
5.1737 0.6992 -2.0007 0.9779
5.0907 1.1582 -2.0007 0.9779
4.6023 2.4654 -2.0008 0.9779
4.3640 2.8664 -2.0009 0.9779
4.0909 3.2445 -2.0009 0.9779
3.4491 3.9204 -2.0010 0.9779
3.0856 4.2127 -2.0011 0.9779
