ply
format ascii 1.0
element vertex 1596
property float32 x
property float32 y
property float32 z
property float32 I
end_header
-8.4654 0.7966 -1.9984 0.9657
-8.3868 -1.4755 -2.0014 0.9656
-8.2260 -2.2188 -2.0024 0.9656
-7.9993 -2.9453 -2.0034 0.9656
-7.3560 -4.3242 -2.0054 0.9655
-5.5038 -5.6601 -1.8555 0.9681
-4.9790 -6.1311 -1.8562 0.9681
-3.8131 -6.9233 -1.8576 0.9680
-1.1522 -7.8278 -1.8595 0.9680
-0.4494 -7.9006 -1.8598 0.9680
0.9619 -7.8562 -1.8602 0.9680
3.2549 -7.9230 -2.0131 0.9654
3.9482 -7.6002 -2.0129 0.9654
6.8353 -5.1432 -2.0104 0.9655
7.6348 -3.8439 -2.0089 0.9655
7.9439 -3.1462 -2.0081 0.9655
8.1893 -2.4240 -2.0072 0.9655
8.3690 -1.6830 -2.0063 0.9655
8.4817 -0.9293 -2.0053 0.9655
8.5266 -0.1689 -2.0043 0.9656
8.4327 0.5871 -1.9867 0.9659
7.8048 1.2502 -1.8577 0.9680
7.1843 3.2671 -1.8549 0.9681
6.8608 3.8930 -1.8539 0.9681
6.0541 5.0454 -1.8522 0.9681
5.5775 5.5629 -1.8514 0.9681
4.6302 5.5264 -1.6944 0.9708
4.8467 6.9633 -1.9939 0.9657
2.7015 4.7320 -1.2806 0.9779
3.5298 7.7085 -1.9926 0.9658
2.8273 7.9903 -1.9920 0.9658
0.6104 8.4486 -1.9908 0.9658
-0.1456 8.4684 -1.9906 0.9658
-1.6480 8.3069 -1.9904 0.9658
-2.3824 8.1269 -1.9904 0.9658
-3.0981 7.8825 -1.9905 0.9658
-5.6631 6.3055 -1.9919 0.9658
-7.5206 3.9318 -1.9945 0.9657
-8.3040 1.8026 -1.9971 0.9657
-8.4357 1.0552 -1.9980 0.9657
-8.5003 0.2986 -1.9990 0.9657
-8.4973 -0.4611 -2.0000 0.9656
-8.2886 -1.9657 -2.0020 0.9656
-8.0843 -2.6986 -2.0031 0.9656
-7.8153 -3.4107 -2.0041 0.9656
-7.0918 -4.7498 -2.0060 0.9655
-6.6251 -5.3516 -2.0016 0.9656
-5.6737 -5.4882 -1.8552 0.9681
-4.6119 -6.4143 -1.8567 0.9681
-3.4011 -7.1367 -1.8580 0.9680
-2.0799 -7.6316 -1.8590 0.9680
-0.6910 -7.8828 -1.8597 0.9680
0.0150 -7.9140 -1.8600 0.9680
2.2341 -8.0770 -1.9696 0.9662
3.0090 -8.0140 -2.0119 0.9654
4.3869 -7.3547 -2.0127 0.9654
5.0245 -6.9327 -2.0123 0.9654
5.6216 -6.4554 -2.0118 0.9654
6.6754 -5.3506 -2.0106 0.9655
7.1236 -4.7322 -2.0100 0.9655
7.5145 -4.0763 -2.0092 0.9655
8.1125 -2.6739 -2.0075 0.9655
8.4507 -1.1887 -2.0057 0.9655
7.8408 1.0109 -1.8580 0.9680
7.5287 2.3856 -1.8561 0.9681
7.2821 3.0462 -1.8552 0.9681
6.1410 4.8070 -1.8329 0.9685
3.5885 3.3665 -1.1564 0.9800
2.8642 4.6785 -1.2893 0.9777
0.5766 5.5923 -1.3213 0.9772
0.1136 8.4692 -1.9906 0.9658
-1.3929 8.3535 -1.9904 0.9658
-2.8553 7.9734 -1.9905 0.9658
-3.5555 7.6876 -1.9906 0.9658
-4.2276 7.3408 -1.9909 0.9658
-4.8665 6.9357 -1.9913 0.9658
-5.4670 6.4753 -1.9917 0.9658
-6.9926 4.8010 -1.9935 0.9657
-7.7403 3.4847 -1.9950 0.9657
-8.0237 2.7815 -1.9959 0.9657
-8.4858 0.5586 -1.9987 0.9657
-7.6043 -3.8646 -2.0047 0.9656
-7.2327 -4.5298 -2.0057 0.9655
-5.9723 -5.4332 -1.8975 0.9674
-5.3434 -5.8133 -1.8557 0.9681
-4.2286 -6.6754 -1.8572 0.9681
-2.9771 -7.3254 -1.8584 0.9680
-1.6288 -7.7416 -1.8593 0.9680
1.1822 -7.8261 -1.8602 0.9680
1.9394 -7.9512 -1.9235 0.9669
3.4760 -7.8282 -2.0130 0.9654
4.1599 -7.4859 -2.0128 0.9654
4.8103 -7.0838 -2.0124 0.9654
5.4218 -6.6250 -2.0120 0.9654
5.9897 -6.1134 -2.0115 0.9654
6.9763 -4.9486 -2.0102 0.9655
7.7387 -3.6274 -2.0087 0.9655
8.0281 -2.9214 -2.0078 0.9655
8.2530 -2.1927 -2.0069 0.9655
8.4117 -1.4471 -2.0060 0.9655
8.5031 -0.6906 -2.0050 0.9656
8.5266 0.0706 -2.0040 0.9656
8.0363 0.7869 -1.8977 0.9674
6.5196 1.8483 -1.5926 0.9725
7.3732 2.8223 -1.8555 0.9681
6.7477 4.0836 -1.8537 0.9681
6.3535 4.6670 -1.8528 0.9681
5.9092 5.2128 -1.8519 0.9681
5.4183 5.7166 -1.8511 0.9682
3.1478 4.8050 -1.3500 0.9767
2.5900 4.8482 -1.2918 0.9777
0.3728 8.4621 -1.9907 0.9658
-1.1366 8.3923 -1.9904 0.9658
-1.8806 8.2573 -1.9904 0.9658
-4.0007 7.4664 -1.9908 0.9658
-4.6516 7.0809 -1.9911 0.9658
-5.2658 6.6391 -1.9915 0.9658
-6.3651 5.6007 -1.9926 0.9658
-7.6290 3.7195 -1.9947 0.9657
-7.9337 3.0254 -1.9956 0.9657
-8.1755 2.3066 -1.9964 0.9657
-8.4633 0.8179 -1.9983 0.9657
-8.4824 -0.6997 -2.0003 0.9656
-8.3904 -1.4543 -2.0013 0.9656
-7.3668 -4.3055 -2.0054 0.9655
-6.9567 -4.9479 -2.0063 0.9655
-6.3756 -5.4530 -1.9717 0.9661
-5.5180 -5.6462 -1.8555 0.9681
-4.4304 -6.5421 -1.8569 0.9681
-3.8305 -6.9136 -1.8576 0.9680
-3.1996 -7.2301 -1.8582 0.9680
-1.8649 -7.6876 -1.8592 0.9680
-0.4693 -7.8994 -1.8598 0.9680
0.2373 -7.9107 -1.8600 0.9680
0.9420 -7.8585 -1.8602 0.9680
2.5058 -8.1597 -2.0061 0.9655
3.9290 -7.6101 -2.0129 0.9654
4.5915 -7.2282 -2.0125 0.9654
5.2169 -6.7884 -2.0121 0.9654
5.8003 -6.2944 -2.0116 0.9654
6.3368 -5.7503 -2.0111 0.9655
6.8223 -5.1605 -2.0104 0.9655
7.2529 -4.5297 -2.0097 0.9655
7.6251 -3.8632 -2.0090 0.9655
8.1832 -2.4447 -2.0072 0.9655
8.3648 -1.7041 -2.0063 0.9655
8.4794 -0.9507 -2.0054 0.9655
8.5262 -0.1904 -2.0044 0.9656
7.8080 1.2305 -1.8577 0.9680
7.6632 1.9211 -1.8568 0.9681
7.4575 2.5957 -1.8558 0.9681
7.1926 3.2490 -1.8549 0.9681
6.0669 5.0302 -1.8522 0.9681
3.5493 7.6996 -1.9926 0.9658
2.8475 7.9832 -1.9920 0.9658
2.1235 8.2034 -1.9915 0.9658
0.9148 5.5287 -1.3170 0.9772
0.6317 8.4471 -1.9908 0.9658
-1.6270 8.3110 -1.9904 0.9658
-3.0782 7.8902 -1.9905 0.9658
-5.0597 6.7967 -1.9914 0.9658
-5.6471 6.3197 -1.9919 0.9658
-7.1255 4.6032 -1.9937 0.9657
-7.5105 3.9508 -1.9945 0.9657
-8.4994 0.3201 -1.9990 0.9657
-8.4983 -0.4396 -2.0000 0.9656
-8.2934 -1.9447 -2.0020 0.9656
-8.0910 -2.6781 -2.0030 0.9656
-7.8238 -3.3909 -2.0041 0.9656
-7.1037 -4.7319 -2.0060 0.9655
-6.6395 -5.3356 -2.0019 0.9656
6.1166 3.7227 -1.8540 0.9708
5.7577 4.2517 -1.8532 0.9709
3.0850 4.7351 -1.4632 0.9769
2.0924 3.9407 -1.1552 0.9817
2.5520 6.0563 -1.7016 0.9732
1.5590 6.9667 -1.8484 0.9709
0.3192 7.6858 -1.9917 0.9687
-0.3676 7.6830 -1.9915 0.9687
-2.3886 7.3112 -1.9915 0.9687
-3.0315 7.0694 -1.9916 0.9687
-5.7930 5.0714 -1.9935 0.9687
-6.2241 4.5358 -1.9941 0.9687
-7.2105 2.7288 -1.9962 0.9686
-7.4666 -2.0140 -2.0023 0.9686
-6.3020 -4.5063 -2.0059 0.9685
-5.8727 -5.0486 -2.0052 0.9685
-5.2545 -5.4037 -1.9515 0.9693
-4.5180 -5.5634 -1.8556 0.9708
-4.0051 -5.9463 -1.8563 0.9708
-3.4598 -6.2819 -1.8569 0.9708
-2.2897 -6.8004 -1.8579 0.9708
-1.0453 -7.1019 -1.8586 0.9708
-0.4077 -7.1678 -1.8589 0.9708
0.2336 -7.1859 -1.8615 0.9707
0.9153 -7.4759 -1.9501 0.9694
1.6252 -7.5823 -2.0078 0.9685
2.9529 -7.1880 -2.0120 0.9684
4.1822 -6.5473 -2.0115 0.9684
4.7487 -6.1470 -2.0112 0.9684
5.2769 -5.6976 -2.0107 0.9684
6.2020 -4.6667 -2.0096 0.9684
7.4316 -2.1997 -2.0067 0.9685
7.6977 -0.8434 -2.0050 0.9685
7.7181 0.5374 -2.0032 0.9685
7.2282 1.1578 -1.8954 0.9702
6.5220 2.9659 -1.8551 0.9708
5.8860 4.0741 -1.8534 0.9709
5.4968 4.5809 -1.8527 0.9709
5.0642 5.0510 -1.8519 0.9709
4.5917 5.4805 -1.8512 0.9709
3.8148 5.4807 -1.7290 0.9728
2.7015 4.7322 -1.4108 0.9777
-0.1323 7.6908 -1.9916 0.9687
-2.1637 7.3807 -1.9914 0.9687
-2.8136 7.1587 -1.9915 0.9687
-5.1428 5.7262 -1.9928 0.9687
-5.6345 5.2459 -1.9933 0.9687
-6.0817 4.7237 -1.9938 0.9687
-6.8288 3.5702 -1.9952 0.9687
-7.1227 2.9479 -1.9959 0.9687
-7.5236 -1.7842 -2.0020 0.9686
-7.0933 -3.0956 -2.0039 0.9685
-6.4361 -4.3106 -2.0056 0.9685
-5.5523 -5.3708 -2.0001 0.9686
-4.1848 -5.8202 -1.8561 0.9708
-3.0859 -6.4753 -1.8572 0.9708
-1.8871 -6.9241 -1.8581 0.9708
-1.2621 -7.0662 -1.8585 0.9708
-0.6269 -7.1517 -1.8588 0.9708
0.0136 -7.1799 -1.8590 0.9708
2.0718 -7.4903 -2.0122 0.9684
2.7316 -7.2752 -2.0121 0.9684
3.3694 -7.0019 -2.0119 0.9684
3.9800 -6.6726 -2.0116 0.9684
5.1005 -5.8569 -2.0109 0.9684
7.5458 -1.7594 -2.0062 0.9685
7.6694 -1.0788 -2.0053 0.9685
7.7316 -0.3902 -2.0044 0.9685
7.7321 0.3009 -2.0035 0.9685
7.5837 0.9777 -1.9798 0.9689
7.0034 1.5480 -1.8571 0.9708
6.6108 2.7653 -1.8554 0.9708
4.9859 2.6307 -1.4596 0.9770
6.0088 3.8925 -1.8537 0.9709
5.6352 4.4112 -1.8529 0.9709
4.2613 5.7392 -1.8508 0.9709
2.5873 6.6566 -1.8491 0.9709
1.3626 7.0074 -1.8483 0.9709
-0.5833 7.6694 -1.9915 0.9687
-3.2290 6.9817 -1.9917 0.9687
-3.8394 6.6667 -1.9919 0.9687
-5.9337 4.9072 -1.9936 0.9687
-6.3497 4.3596 -1.9942 0.9687
-7.0282 3.1641 -1.9956 0.9687
-7.4845 1.8664 -1.9972 0.9686
-7.6782 -0.8707 -2.0008 0.9686
-7.5735 -1.5528 -2.0017 0.9686
-7.4082 -2.2233 -2.0026 0.9685
-7.1836 -2.8766 -2.0035 0.9685
-6.9015 -3.5075 -2.0045 0.9685
-5.7214 -5.2050 -2.0027 0.9685
-4.9833 -5.4216 -1.9066 0.9700
-4.3605 -5.6887 -1.8558 0.9708
-3.2823 -6.3772 -1.8570 0.9708
-2.7011 -6.6464 -1.8576 0.9708
-1.4778 -7.0238 -1.8584 0.9708
0.4412 -7.2715 -1.8862 0.9703
1.1441 -7.5740 -1.9833 0.9688
1.8395 -7.5417 -2.0099 0.9684
2.5077 -7.3556 -2.0121 0.9684
3.7741 -6.7916 -2.0117 0.9684
4.3642 -6.4269 -2.0114 0.9684
4.9192 -6.0108 -2.0110 0.9684
5.4345 -5.5467 -2.0106 0.9684
6.3300 -4.4902 -2.0094 0.9684
6.7031 -3.9063 -2.0088 0.9685
7.4895 -1.9898 -2.0064 0.9685
7.7173 -0.6268 -2.0047 0.9685
7.6988 0.7538 -2.0029 0.9685
6.4352 3.1475 -1.8548 0.9708
6.1261 3.7073 -1.8540 0.9708
5.7684 4.2372 -1.8532 0.9709
4.9197 5.1906 -1.8517 0.9709
3.3413 4.2237 -1.3944 0.9780
2.1024 3.9355 -1.1553 0.9817
2.7901 6.5749 -1.8493 0.9709
0.7372 5.4955 -1.4356 0.9774
-2.3702 7.3172 -1.9915 0.9687
-3.0137 7.0770 -1.9916 0.9687
-3.6334 6.7807 -1.9918 0.9687
-4.7821 6.0292 -1.9925 0.9687
-5.3020 5.5799 -1.9929 0.9687
-5.7801 5.0860 -1.9935 0.9687
-6.2126 4.5514 -1.9940 0.9687
-6.9272 3.3773 -1.9954 0.9687
-7.4228 2.0943 -1.9969 0.9686
-7.5832 1.4244 -1.9978 0.9686
-7.6834 0.7426 -1.9986 0.9686
-7.7001 -0.6351 -2.0005 0.9686
-7.6162 -1.3201 -2.0014 0.9686
-7.4716 -1.9951 -2.0023 0.9686
-6.6858 -3.9075 -2.0050 0.9685
-6.3133 -4.4903 -2.0059 0.9685
-5.2803 -5.4030 -1.9561 0.9693
-2.3069 -6.7946 -1.8579 0.9708
-1.6920 -6.9748 -1.8583 0.9708
0.2153 -7.1795 -1.8597 0.9708
2.2814 -7.4290 -2.0122 0.9684
4.1657 -6.5578 -2.0115 0.9684
4.7332 -6.1590 -2.0112 0.9684
5.2626 -5.7109 -2.0107 0.9684
5.7495 -5.2174 -2.0102 0.9684
6.9191 -3.5055 -2.0083 0.9685
7.2015 -2.8732 -2.0075 0.9685
7.4262 -2.2185 -2.0067 0.9685
7.6956 -0.8628 -2.0050 0.9685
7.7195 0.5179 -2.0032 0.9685
6.9561 1.7439 -1.8568 0.9708
6.7697 2.3563 -1.8559 0.9708
5.0770 5.0383 -1.8519 0.9709
4.6056 5.4690 -1.8512 0.9709
2.7112 4.7214 -1.4097 0.9778
2.9903 6.4870 -1.8495 0.9709
2.3991 6.7261 -1.8490 0.9709
0.9061 5.4765 -1.4372 0.9773
0.5737 7.6714 -1.9918 0.9687
-0.1129 7.6911 -1.9916 0.9687
-0.7984 7.6499 -1.9915 0.9687
-1.4776 7.5480 -1.9914 0.9687
-2.1451 7.3862 -1.9914 0.9687
-2.7955 7.1658 -1.9915 0.9687
-4.0253 6.5565 -1.9920 0.9687
-4.5949 6.1724 -1.9923 0.9687
-5.1283 5.7391 -1.9928 0.9687
-5.6212 5.2601 -1.9933 0.9687
-6.8197 3.5874 -1.9951 0.9687
-7.6559 0.9773 -1.9983 0.9686
-7.7160 0.2906 -1.9992 0.9686
-7.7147 -0.3991 -2.0001 0.9686
-7.5280 -1.7652 -2.0020 0.9686
-7.3439 -2.4308 -2.0029 0.9685
-7.1010 -3.0776 -2.0038 0.9685
-6.4469 -4.2943 -2.0056 0.9685
-6.0406 -4.8543 -2.0065 0.9685
5.5951 3.4053 -1.8542 0.9731
4.8972 4.3420 -1.8528 0.9732
1.9698 4.6746 -1.4360 0.9791
1.9898 6.2229 -1.8495 0.9732
0.7216 5.4841 -1.5659 0.9773
-0.3364 7.0299 -1.9924 0.9712
-0.9621 6.9715 -1.9923 0.9712
-1.5801 6.8579 -1.9923 0.9712
-2.1856 6.6898 -1.9923 0.9712
-3.3401 6.1959 -1.9927 0.9712
-4.3893 5.5055 -1.9933 0.9712
-4.8640 5.0931 -1.9937 0.9711
-5.3002 4.6400 -1.9942 0.9711
-5.6945 4.1498 -1.9947 0.9711
-6.0437 3.6264 -1.9953 0.9711
-6.3452 3.0738 -1.9959 0.9711
-6.5964 2.4964 -1.9966 0.9711
-6.7952 1.8987 -1.9974 0.9711
-7.0300 0.6615 -1.9989 0.9711
-6.8288 -1.8420 -2.0023 0.9710
-6.6401 -2.4448 -2.0031 0.9710
-6.1050 -3.5888 -2.0048 0.9710
-5.7628 -4.1207 -2.0056 0.9710
-5.3743 -4.6201 -2.0063 0.9710
-4.4271 -5.4514 -1.9881 0.9712
-3.1633 -5.7435 -1.8562 0.9731
-2.0934 -6.2173 -1.8572 0.9731
-1.5308 -6.3805 -1.8575 0.9731
-0.9744 -6.6203 -1.8944 0.9726
0.2301 -7.0775 -2.0046 0.9710
1.4891 -6.9470 -2.0113 0.9709
2.1028 -6.7863 -2.0113 0.9709
6.5915 -2.6106 -2.0070 0.9710
6.7956 -2.0114 -2.0063 0.9710
6.9453 -1.3967 -2.0055 0.9710
7.0393 -0.7713 -2.0047 0.9710
7.0772 -0.1402 -2.0039 0.9710
6.9836 1.1187 -2.0022 0.9710
6.1864 2.1708 -1.8560 0.9731
5.6975 3.2329 -1.8545 0.9731
5.3843 3.7268 -1.8538 0.9731
2.1795 6.1595 -1.8497 0.9732
0.8860 5.4400 -1.5603 0.9773
-0.1210 7.0371 -1.9924 0.9712
-0.7482 6.9978 -1.9923 0.9712
-1.3695 6.9030 -1.9923 0.9712
-1.9798 6.7534 -1.9923 0.9712
-2.5745 6.5502 -1.9924 0.9712
-3.1488 6.2950 -1.9926 0.9712
-4.7054 5.2392 -1.9935 0.9711
-5.1552 4.7997 -1.9940 0.9711
-6.7331 2.1056 -1.9971 0.9711
-6.8967 1.4971 -1.9979 0.9711
-6.8810 -1.6318 -2.0020 0.9710
-6.7109 -2.2401 -2.0028 0.9710
-6.2112 -3.3998 -2.0045 0.9710
-5.5125 -4.4529 -2.0061 0.9710
-5.0952 -4.9287 -2.0068 0.9710
-3.9777 -5.5322 -1.9289 0.9721
-2.8214 -5.9202 -1.8566 0.9731
-2.2826 -6.1498 -1.8570 0.9731
-1.7252 -6.3303 -1.8574 0.9731
-1.1673 -6.5349 -1.8793 0.9728
0.0133 -7.0526 -1.9965 0.9711
0.6461 -7.0632 -2.0079 0.9709
1.2757 -6.9893 -2.0113 0.9709
1.8941 -6.8476 -2.0113 0.9709
2.4972 -6.6510 -2.0112 0.9709
3.0803 -6.4012 -2.0110 0.9709
3.6386 -6.1002 -2.0108 0.9709
4.1676 -5.7504 -2.0105 0.9709
5.5377 -4.4387 -2.0091 0.9709
6.2346 -3.3820 -2.0079 0.9709
6.5092 -2.8115 -2.0073 0.9710
6.9002 -1.6089 -2.0058 0.9710
7.0706 -0.3568 -2.0042 0.9710
7.0156 0.9045 -2.0025 0.9710
6.5773 1.4539 -1.9069 0.9724
6.0467 2.5294 -1.8555 0.9731
5.1550 4.0353 -1.8533 0.9732
4.3528 4.8835 -1.8519 0.9732
3.0791 4.1470 -1.4622 0.9788
1.9824 4.0009 -1.2640 0.9816
1.8141 6.2759 -1.8494 0.9732
0.5723 5.5510 -1.5798 0.9771
0.0944 7.0377 -1.9925 0.9712
-0.5337 7.0176 -1.9924 0.9712
-1.1575 6.9417 -1.9923 0.9712
-1.7721 6.8108 -1.9923 0.9712
-2.3727 6.6258 -1.9924 0.9712
-3.5130 6.0999 -1.9927 0.9712
-5.4288 4.4897 -1.9943 0.9711
-5.8093 3.9886 -1.9949 0.9711
-6.1438 3.4555 -1.9955 0.9711
-6.4297 2.8947 -1.9962 0.9711
-6.6646 2.3104 -1.9969 0.9711
-6.8467 1.7073 -1.9976 0.9711
-7.0228 -0.7963 -2.0009 0.9710
-6.9267 -1.4202 -2.0017 0.9710
-6.7753 -2.0333 -2.0026 0.9710
-6.0026 -3.7593 -2.0050 0.9710
-5.6455 -4.2815 -2.0058 0.9710
-5.2431 -4.7698 -2.0066 0.9710
-4.2088 -5.4908 -1.9585 0.9716
-3.0010 -5.8306 -1.8564 0.9731
-2.4695 -6.0766 -1.8569 0.9731
-1.9181 -6.2740 -1.8573 0.9731
-0.7946 -6.6996 -1.9099 0.9723
-0.2000 -6.9599 -1.9711 0.9715
1.0611 -7.0250 -2.0113 0.9709
1.6836 -6.9024 -2.0113 0.9709
2.8830 -6.4927 -2.0111 0.9709
3.4503 -6.2090 -2.0109 0.9709
3.9899 -5.8756 -2.0106 0.9709
4.4973 -5.4953 -2.0102 0.9709
5.3997 -4.6066 -2.0093 0.9709
5.7875 -4.1054 -2.0088 0.9709
6.1288 -3.5717 -2.0082 0.9709
6.4209 -3.0097 -2.0075 0.9710
6.8486 -1.8196 -2.0060 0.9710
6.8780 1.3009 -1.9816 0.9713
6.3095 1.7887 -1.8566 0.9731
6.1222 2.3434 -1.8558 0.9731
5.6037 3.3912 -1.8543 0.9731
5.2768 3.8761 -1.8535 0.9731
3.2256 4.0773 -1.4718 0.9786
2.8028 4.2784 -1.4479 0.9790
2.0835 3.9001 -1.2518 0.9818
2.0055 6.2179 -1.8495 0.9732
1.4425 6.3708 -1.8492 0.9732
0.7349 5.4781 -1.5647 0.9773
-0.9445 6.9740 -1.9923 0.9712
-1.5628 6.8618 -1.9923 0.9712
-2.1687 6.6952 -1.9923 0.9712
-2.7575 6.4755 -1.9925 0.9712
-3.3245 6.2043 -1.9927 0.9712
-3.8652 5.8838 -1.9929 0.9712
-4.3754 5.5165 -1.9933 0.9712
-5.2884 4.6533 -1.9942 0.9711
-5.6839 4.1641 -1.9947 0.9711
-7.0637 0.0496 -1.9997 0.9711
-7.0429 -0.5809 -2.0006 0.9710
-6.6462 -2.4280 -2.0031 0.9710
-6.4058 -3.0125 -2.0039 0.9710
-5.7732 -4.1061 -2.0056 0.9710
-4.9507 -5.0657 -2.0052 0.9710
-3.7741 -5.5729 -1.9054 0.9724
-2.1091 -6.2119 -1.8571 0.9731
-0.4081 -6.8691 -1.9480 0.9718
0.2123 -7.0776 -2.0045 0.9710
0.8449 -7.0482 -2.0096 0.9709
2.0856 -6.7916 -2.0113 0.9709
2.6830 -6.5781 -2.0112 0.9709
3.8084 -5.9953 -2.0107 0.9709
4.8113 -5.2212 -2.0100 0.9709
5.2567 -4.7701 -2.0095 0.9709
6.0173 -3.7580 -2.0084 0.9709
6.3265 -3.2052 -2.0077 0.9709
6.5849 -2.6272 -2.0070 0.9710
7.0769 -0.1581 -2.0039 0.9710
6.9865 1.1011 -2.0022 0.9710
6.1919 2.1553 -1.8560 0.9731
5.9725 2.6979 -1.8553 0.9731
5.7057 3.2186 -1.8545 0.9731
3.3992 3.3732 -1.3557 0.9803
4.2134 5.0033 -1.8517 0.9732
1.6370 6.3240 -1.8493 0.9732
-0.1033 7.0374 -1.9925 0.9712
-0.7306 6.9997 -1.9923 0.9712
-4.6922 5.2510 -1.9935 0.9711
-6.5092 2.7132 -1.9964 0.9711
-6.7277 2.1225 -1.9971 0.9711
-6.8928 1.5145 -1.9978 0.9711
-7.0579 0.2658 -1.9994 0.9711
-7.0564 -0.3650 -2.0003 0.9711
-6.2196 -3.3841 -2.0045 0.9710
-5.8954 -3.9269 -2.0053 0.9710
-5.5237 -4.4389 -2.0061 0.9710
5.1503 3.1346 -1.8545 0.9751
4.8484 3.5803 -1.8538 0.9751
4.5082 3.9971 -1.8532 0.9751
3.2478 3.4440 -1.4560 0.9804
2.7912 4.2841 -1.5727 0.9788
1.9698 4.6747 -1.5603 0.9790
0.7139 5.4257 -1.6832 0.9774
-0.3097 6.4727 -1.9931 0.9732
-0.8858 6.4190 -1.9931 0.9732
-2.0124 6.1595 -1.9931 0.9732
-2.5540 5.9558 -1.9932 0.9732
-3.5724 5.4084 -1.9936 0.9732
-4.4782 4.6891 -1.9943 0.9732
-4.8797 4.2719 -1.9948 0.9732
-5.5640 3.3386 -1.9958 0.9732
-5.8414 2.8298 -1.9964 0.9732
-6.0725 2.2981 -1.9970 0.9732
-6.2554 1.7479 -1.9977 0.9732
-6.4711 0.6089 -1.9992 0.9732
-6.4087 -1.1275 -2.0015 0.9731
-6.2851 -1.6953 -2.0022 0.9731
-6.1112 -2.2501 -2.0030 0.9731
-5.8884 -2.7873 -2.0038 0.9731
-4.9456 -4.2516 -2.0060 0.9731
-4.5481 -4.6773 -2.0067 0.9731
-2.0570 -6.1090 -1.9827 0.9734
-1.5187 -6.3303 -2.0023 0.9731
-0.3707 -6.5182 -2.0081 0.9730
0.2124 -6.5328 -2.0104 0.9730
0.7944 -6.4882 -2.0105 0.9730
1.3700 -6.3915 -2.0105 0.9730
2.4838 -6.0459 -2.0104 0.9730
3.5178 -5.5072 -2.0100 0.9730
5.2176 -3.9259 -2.0084 0.9730
5.8288 -2.9347 -2.0072 0.9731
6.2535 -1.8510 -2.0059 0.9731
6.3914 -1.2853 -2.0052 0.9731
6.4782 -0.7098 -2.0045 0.9731
6.4963 0.4523 -2.0030 0.9731
6.4275 1.0296 -2.0022 0.9731
6.2563 1.5852 -1.9851 0.9734
5.2445 2.9759 -1.8547 0.9751
4.6289 3.8577 -1.8534 0.9751
2.9344 4.2159 -1.5799 0.9787
2.1100 4.6080 -1.5588 0.9790
2.0066 5.6710 -1.8503 0.9751
1.4925 5.8263 -1.8499 0.9751
0.8749 5.3721 -1.6741 0.9775
0.4333 5.9971 -1.8494 0.9752
-0.1114 6.4793 -1.9932 0.9732
-1.8229 6.2181 -1.9931 0.9732
-2.8992 5.7960 -1.9933 0.9732
-3.4050 5.5149 -1.9935 0.9732
-5.4587 3.5070 -1.9956 0.9732
-6.1982 1.9383 -1.9975 0.9732
-6.1764 -2.0617 -2.0028 0.9731
-5.9701 -2.6054 -2.0035 0.9731
-5.7161 -3.1288 -2.0043 0.9731
-5.4162 -3.6275 -2.0050 0.9731
-5.0728 -4.0977 -2.0057 0.9731
-4.6887 -4.5354 -2.0064 0.9731
-2.7780 -5.8293 -1.9861 0.9733
-1.1456 -6.4136 -2.0039 0.9731
1.1737 -6.4305 -2.0105 0.9730
1.7426 -6.3001 -2.0105 0.9730
2.2976 -6.1193 -2.0104 0.9730
2.8341 -5.8895 -2.0103 0.9730
3.3478 -5.6125 -2.0101 0.9730
4.7118 -4.5235 -2.0090 0.9730
5.7369 -3.1120 -2.0074 0.9731
6.1946 -2.0418 -2.0062 0.9731
6.3498 -1.4805 -2.0055 0.9731
6.3544 1.4046 -2.0017 0.9731
4.9858 2.6307 -1.7339 0.9767
2.6607 4.3461 -1.5674 0.9789
2.1794 5.6073 -1.8504 0.9751
1.6702 5.7782 -1.8500 0.9751
1.1149 5.7333 -1.7965 0.9759
-0.4914 6.4613 -1.9931 0.9732
-1.0658 6.3915 -1.9930 0.9732
-2.1846 6.1006 -1.9931 0.9732
-2.7203 5.8819 -1.9932 0.9732
-4.1823 4.9537 -1.9941 0.9732
-4.6084 4.5618 -1.9945 0.9732
-4.9981 4.1335 -1.9949 0.9732
-5.3483 3.6721 -1.9954 0.9732
-5.6561 3.1812 -1.9960 0.9732
-6.1353 2.1269 -1.9972 0.9732
-6.3027 1.5717 -1.9979 0.9732
-6.4864 0.4270 -1.9994 0.9732
-6.5011 -0.1534 -2.0002 0.9732
-6.3753 -1.3072 -2.0017 0.9731
-4.4154 -4.8037 -2.0069 0.9731
-3.9669 -5.1753 -2.0056 0.9731
-3.4839 -5.4998 -2.0025 0.9731
-2.4220 -5.9596 -1.9786 0.9734
-1.8897 -6.1812 -1.9881 0.9733
-0.1876 -6.5299 -2.0093 0.9730
0.3958 -6.5244 -2.0105 0.9730
2.1092 -6.1868 -2.0105 0.9730
2.6525 -5.9736 -2.0104 0.9730
3.6710 -5.4060 -2.0099 0.9730
4.1379 -5.0561 -2.0096 0.9730
4.5715 -4.6659 -2.0092 0.9730
5.3253 -3.7775 -2.0082 0.9730
5.9084 -2.7695 -2.0070 0.9731
6.1299 -2.2307 -2.0064 0.9731
6.4243 -1.1052 -2.0050 0.9731
6.5135 0.0540 -2.0035 0.9731
6.0189 1.7064 -1.9242 0.9742
5.6352 2.1570 -1.8559 0.9751
4.8575 3.5681 -1.8538 0.9751
2.8029 4.2785 -1.5732 0.9788
2.0836 3.9003 -1.3601 0.9817
1.9814 4.6692 -1.5601 0.9790
0.2652 6.0181 -1.8528 0.9751
-0.2934 6.4735 -1.9931 0.9732
-1.4389 6.3180 -1.9930 0.9732
-1.9968 6.1646 -1.9931 0.9732
-4.0285 5.0791 -1.9939 0.9732
-4.4663 4.7004 -1.9943 0.9732
-4.8689 4.2842 -1.9948 0.9732
-5.2329 3.8337 -1.9953 0.9732
-5.5555 3.3525 -1.9958 0.9732
-5.8342 2.8445 -1.9964 0.9732
-6.4694 0.6252 -1.9991 0.9732
-6.5019 0.0457 -1.9999 0.9732
-6.4115 -1.1113 -2.0014 0.9731
-6.2893 -1.6794 -2.0022 0.9731
-6.1168 -2.2346 -2.0030 0.9731
-5.6266 -3.2885 -2.0045 0.9731
-5.3128 -3.7787 -2.0053 0.9731
-4.9563 -4.2390 -2.0060 0.9731
-4.5599 -4.6658 -2.0066 0.9731
-3.1529 -5.6906 -2.0010 0.9731
-2.0720 -6.1029 -1.9824 0.9734
-1.5346 -6.3263 -2.0023 0.9731
-0.9654 -6.4460 -2.0048 0.9731
0.1959 -6.5333 -2.0104 0.9730
0.7780 -6.4901 -2.0105 0.9730
1.9189 -6.2486 -2.0105 0.9730
2.4685 -6.0522 -2.0104 0.9730
2.9983 -5.8073 -2.0102 0.9730
3.5039 -5.5161 -2.0100 0.9730
4.4269 -4.8040 -2.0093 0.9730
5.5368 -3.4579 -2.0078 0.9731
5.8215 -2.9494 -2.0072 0.9731
6.2488 -1.8668 -2.0059 0.9731
6.3882 -1.3015 -2.0052 0.9731
6.5130 -0.1455 -2.0037 0.9731
6.4975 0.4359 -2.0030 0.9731
6.4302 1.0134 -2.0022 0.9731
5.4975 2.4833 -1.8554 0.9751
4.9650 3.4181 -1.8540 0.9751
4.6387 3.8460 -1.8534 0.9751
4.2757 4.2431 -1.8528 0.9751
3.8789 4.6061 -1.8522 0.9751
2.9463 4.2103 -1.5806 0.9787
2.5311 4.4077 -1.5633 0.9790
2.1216 4.6025 -1.5588 0.9790
1.5072 5.8226 -1.8499 0.9751
0.4484 5.9960 -1.8494 0.9752
-0.0951 6.4796 -1.9932 0.9732
-1.2449 6.3590 -1.9930 0.9732
-1.8072 6.2227 -1.9931 0.9732
-3.3911 5.5235 -1.9935 0.9732
-3.8709 5.1997 -1.9938 0.9732
-4.3200 4.8346 -1.9942 0.9732
-6.3451 1.3941 -1.9982 0.9732
-6.4465 0.8229 -1.9989 0.9732
-6.4950 -0.3360 -2.0004 0.9731
-6.4416 -0.9144 -2.0012 0.9731
-6.3369 -1.4859 -2.0020 0.9731
-6.1815 -2.0461 -2.0027 0.9731
-5.9766 -2.5903 -2.0035 0.9731
-5.7239 -3.1143 -2.0043 0.9731
-5.0831 -4.0848 -2.0057 0.9731
4.4869 3.3133 -1.8540 0.9768
3.8243 4.0553 -1.8529 0.9768
2.8528 3.6249 -1.5334 0.9807
2.0713 3.9009 -1.4681 0.9816
1.9699 4.6748 -1.6863 0.9788
1.2156 5.4322 -1.8504 0.9768
0.7130 5.4183 -1.8166 0.9772
0.2309 5.5604 -1.8499 0.9768
-0.2867 5.9912 -1.9938 0.9750
-0.8199 5.9415 -1.9937 0.9750
-1.8627 5.7013 -1.9937 0.9750
-2.3640 5.5127 -1.9938 0.9750
-3.7405 4.6917 -1.9945 0.9750
-4.1449 4.3401 -1.9949 0.9750
-4.8522 3.5360 -1.9957 0.9750
-5.4062 2.6189 -1.9968 0.9750
-5.6199 2.1269 -1.9974 0.9750
-5.7890 1.6176 -1.9980 0.9750
-5.9122 1.0951 -1.9987 0.9750
-5.9883 0.5635 -1.9993 0.9750
-6.0168 0.0271 -2.0000 0.9750
-5.9301 -1.0433 -2.0015 0.9749
-5.8155 -1.5687 -2.0022 0.9749
-5.6545 -2.0819 -2.0029 0.9749
-5.4481 -2.5789 -2.0036 0.9749
-5.1982 -3.0557 -2.0043 0.9749
-4.5755 -3.9334 -2.0057 0.9749
-4.2077 -4.3272 -2.0063 0.9749
-3.8060 -4.6866 -2.0069 0.9749
-3.3737 -5.0088 -2.0074 0.9749
-2.9142 -5.2911 -2.0079 0.9749
-1.4100 -5.8774 -2.0091 0.9748
-0.3433 -6.0359 -2.0096 0.9748
0.1965 -6.0429 -2.0098 0.9748
1.7896 -5.7755 -2.0099 0.9748
2.2975 -5.5926 -2.0098 0.9748
3.2541 -5.0943 -2.0094 0.9748
3.6950 -4.7830 -2.0091 0.9748
4.1062 -4.4336 -2.0087 0.9748
4.4845 -4.0488 -2.0083 0.9749
4.8267 -3.6318 -2.0079 0.9749
5.3924 -2.7149 -2.0068 0.9749
5.6114 -2.2224 -2.0062 0.9749
5.7855 -1.7125 -2.0056 0.9749
5.9937 -0.6567 -2.0043 0.9749
6.0108 0.4185 -2.0029 0.9749
5.8366 1.4789 -2.0014 0.9749
5.5132 1.9346 -1.9422 0.9757
4.8533 2.7539 -1.8549 0.9768
4.5868 3.1748 -1.8543 0.9768
4.2839 3.5701 -1.8537 0.9768
3.9471 3.9368 -1.8531 0.9768
3.5791 4.2719 -1.8525 0.9768
2.6011 3.7370 -1.5135 0.9810
1.8573 5.2489 -1.8508 0.9768
1.3814 5.3927 -1.8505 0.9768
0.8709 5.3474 -1.8009 0.9774
-1.6873 5.7556 -1.9937 0.9750
-2.1941 5.5824 -1.9938 0.9750
-3.5950 4.8038 -1.9944 0.9750
-4.7413 3.6826 -1.9956 0.9750
-5.0522 3.2458 -1.9961 0.9750
-5.5516 2.2976 -1.9972 0.9750
-5.9676 0.7465 -1.9991 0.9750
-6.0125 0.2112 -1.9998 0.9750
-6.0095 -0.3261 -2.0005 0.9750
-5.9586 -0.8611 -2.0012 0.9749
-5.5239 -2.4107 -2.0034 0.9749
-5.0110 -3.3562 -2.0048 0.9749
-4.6932 -3.7911 -2.0054 0.9749
-3.9473 -4.5675 -2.0067 0.9749
-3.0745 -5.1990 -2.0077 0.9749
-2.5982 -5.4521 -2.0076 0.9749
-1.5891 -5.8307 -2.0089 0.9748
-0.5279 -6.0223 -2.0095 0.9748
0.0114 -6.0460 -2.0097 0.9748
1.6119 -5.8276 -2.0099 0.9748
2.1253 -5.6604 -2.0098 0.9748
2.6216 -5.4478 -2.0097 0.9748
3.9689 -4.5575 -2.0089 0.9748
4.3587 -4.1845 -2.0085 0.9749
4.7136 -3.7782 -2.0080 0.9749
5.0306 -3.3418 -2.0075 0.9749
5.7310 -1.8890 -2.0058 0.9749
6.0206 -0.3038 -2.0038 0.9749
6.0215 0.2343 -2.0031 0.9749
5.9745 0.7703 -2.0024 0.9749
5.8798 1.2997 -2.0017 0.9749
5.7384 1.8183 -2.0009 0.9749
5.1504 2.1544 -1.8558 0.9767
4.6823 3.0332 -1.8545 0.9768
2.6608 4.3462 -1.6939 0.9787
1.9823 4.0007 -1.4842 0.9814
1.5459 5.3482 -1.8506 0.9768
1.0625 5.4640 -1.8503 0.9768
0.5657 5.4864 -1.8334 0.9770
0.0747 5.5646 -1.8499 0.9768
-0.4548 5.9807 -1.9937 0.9750
-1.5103 5.8045 -1.9937 0.9750
-2.0221 5.6468 -1.9938 0.9750
-2.5179 5.4443 -1.9939 0.9750
-3.4461 4.9113 -1.9943 0.9750
-3.8710 4.5850 -1.9946 0.9750
-4.2654 4.2222 -1.9950 0.9750
-4.6260 3.8257 -1.9954 0.9750
-5.4781 2.4663 -1.9970 0.9750
-5.8328 1.4545 -1.9982 0.9750
-5.9412 0.9287 -1.9989 0.9750
-5.9814 -0.6783 -2.0010 0.9749
-5.8992 -1.2095 -2.0017 0.9749
-5.3741 -2.7312 -2.0039 0.9749
-5.1108 -3.2009 -2.0046 0.9749
-4.4636 -4.0607 -2.0059 0.9749
-2.7643 -5.3708 -2.0079 0.9749
-2.2738 -5.5949 -2.0075 0.9749
-0.7120 -6.0031 -2.0095 0.9748
-0.1736 -6.0433 -2.0097 0.9748
0.3662 -6.0351 -2.0098 0.9748
0.9031 -5.9786 -2.0099 0.9748
2.4536 -5.5257 -2.0097 0.9748
3.3958 -5.0007 -2.0093 0.9748
3.8277 -4.6771 -2.0090 0.9748
4.2289 -4.3162 -2.0086 0.9749
4.9264 -3.4945 -2.0077 0.9749
6.0092 -0.4880 -2.0041 0.9749
5.9960 0.5871 -2.0026 0.9749
5.9176 1.1192 -2.0019 0.9749
5.3163 2.0350 -1.8922 0.9763
4.7735 2.8888 -1.8547 0.9768
2.8634 3.6196 -1.5341 0.9807
1.9814 4.6693 -1.6861 0.9788
1.7090 5.2987 -1.8507 0.9768
0.2450 5.5598 -1.8499 0.9768
-0.2716 5.9919 -1.9938 0.9750
-3.7287 4.7011 -1.9945 0.9750
-4.1339 4.3505 -1.9949 0.9750
-4.5064 3.9652 -1.9953 0.9750
-4.8432 3.5482 -1.9957 0.9750
-5.1418 3.1028 -1.9962 0.9750
-5.9094 1.1100 -1.9987 0.9750
-5.9327 -1.0283 -2.0015 0.9749
-5.8194 -1.5540 -2.0022 0.9749
-5.4546 -2.5652 -2.0036 0.9749
-4.9153 -3.4960 -2.0050 0.9749
-4.5854 -3.9218 -2.0056 0.9749
-4.2185 -4.3165 -2.0063 0.9749
-3.3863 -5.0003 -2.0074 0.9749
-2.4438 -5.5224 -2.0074 0.9749
-1.9420 -5.7199 -2.0079 0.9749
-1.4249 -5.8737 -2.0091 0.9748
-0.8954 -5.9783 -2.0094 0.9748
0.1813 -6.0434 -2.0098 0.9748
1.2523 -5.9154 -2.0099 0.9748
1.7750 -5.7800 -2.0099 0.9748
2.2834 -5.5983 -2.0098 0.9748
3.6830 -4.7924 -2.0091 0.9748
4.4743 -4.0601 -2.0083 0.9749
4.8175 -3.6440 -2.0079 0.9749
5.1221 -3.1989 -2.0074 0.9749
5.6058 -2.2366 -2.0062 0.9749
5.9921 -0.6718 -2.0043 0.9749
5.8404 1.4642 -2.0014 0.9749
5.5313 1.9253 -1.9468 0.9756
5.0873 2.2980 -1.8556 0.9767
4.8603 2.7417 -1.8549 0.9768
4.5948 3.1632 -1.8543 0.9768
3.9570 3.9269 -1.8531 0.9768
2.6121 3.7327 -1.5144 0.9810
1.8705 5.2442 -1.8508 0.9768
1.3950 5.3893 -1.8505 0.9768
0.4151 5.5499 -1.8500 0.9768
-1.1523 5.8860 -1.9937 0.9750
-1.6727 5.7598 -1.9937 0.9750
-2.1800 5.5879 -1.9938 0.9750
-2.6699 5.3715 -1.9939 0.9750
-4.3826 4.1010 -1.9951 0.9750
-5.0439 3.2585 -1.9961 0.9750
-5.3159 2.7963 -1.9966 0.9750
-5.5457 2.3116 -1.9972 0.9750
-5.7316 1.8083 -1.9978 0.9750
-5.8719 1.2902 -1.9984 0.9750
-6.0118 0.2264 -1.9998 0.9750
-5.7196 -1.8932 -2.0027 0.9749
-5.2959 -2.8814 -2.0041 0.9749
-5.0195 -3.3435 -2.0048 0.9749
-4.7027 -3.7792 -2.0054 0.9749
4.4307 2.6967 -1.8548 0.9782
4.1712 3.0802 -1.8543 0.9782
3.1675 4.0248 -1.8316 0.9785
2.0714 3.9010 -1.5795 0.9814
1.5765 4.9305 -1.8511 0.9783
1.1302 5.0507 -1.8508 0.9783
-0.2665 5.5705 -1.9943 0.9766
-0.7624 5.5243 -1.9943 0.9766
-1.7319 5.3010 -1.9943 0.9766
-3.4778 4.3622 -1.9950 0.9766
-4.5112 3.2875 -1.9962 0.9766
-4.7876 2.8727 -1.9966 0.9766
-5.2247 1.9773 -1.9977 0.9765
-5.3818 1.5038 -1.9983 0.9765
-5.4961 1.0180 -1.9989 0.9765
-5.5668 0.5238 -1.9995 0.9765
-5.5749 -0.4740 -2.0008 0.9765
-5.4056 -1.4581 -2.0022 0.9765
-5.2558 -1.9351 -2.0028 0.9765
-5.0639 -2.3970 -2.0035 0.9765
-4.2525 -3.6557 -2.0054 0.9765
-3.1353 -4.6549 -2.0070 0.9764
-2.7082 -4.9172 -2.0075 0.9764
-1.7920 -5.3222 -2.0083 0.9764
-0.8180 -5.5576 -2.0088 0.9764
-0.3190 -5.6090 -2.0091 0.9764
0.1826 -5.6155 -2.0092 0.9764
0.6828 -5.5770 -2.0093 0.9764
1.1776 -5.4940 -2.0093 0.9764
3.8159 -4.1201 -2.0082 0.9764
4.1675 -3.7626 -2.0079 0.9764
4.7676 -2.9609 -2.0070 0.9764
5.0115 -2.5231 -2.0065 0.9764
5.2151 -2.0655 -2.0059 0.9765
5.6013 -0.1110 -2.0034 0.9765
5.4253 1.3747 -2.0014 0.9765
5.2793 1.8525 -2.0008 0.9765
4.2640 2.9514 -1.8545 0.9782
3.6695 3.6599 -1.8534 0.9782
2.8924 4.1556 -1.8106 0.9787
2.0799 4.5420 -1.7865 0.9790
1.2844 5.0140 -1.8509 0.9783
0.8319 5.1079 -1.8507 0.9783
0.3729 5.1612 -1.8505 0.9783
-0.0959 5.5762 -1.9944 0.9766
-1.0852 5.4700 -1.9942 0.9766
-3.3425 4.4664 -1.9949 0.9766
-3.7281 4.1510 -1.9953 0.9766
-4.0843 3.8026 -1.9956 0.9766
-4.6971 3.0176 -1.9965 0.9766
-4.9487 2.5873 -1.9970 0.9766
-5.1612 2.1361 -1.9975 0.9766
-5.3327 1.6676 -1.9981 0.9765
-5.5891 0.1964 -1.9999 0.9765
-5.5862 -0.3031 -2.0006 0.9765
-5.3119 -1.7731 -2.0026 0.9765
-4.6574 -3.1193 -2.0046 0.9765
-4.3619 -3.5234 -2.0052 0.9765
-1.4768 -5.4188 -2.0085 0.9764
-0.4906 -5.5964 -2.0090 0.9764
0.0106 -5.6183 -2.0092 0.9764
1.0089 -5.5274 -2.0093 0.9764
1.4979 -5.4154 -2.0093 0.9764
2.8777 -4.8246 -2.0089 0.9764
3.6882 -4.2352 -2.0084 0.9764
5.1500 -2.2244 -2.0061 0.9765
5.3263 -1.7556 -2.0055 0.9765
5.4601 -1.2731 -2.0049 0.9765
5.5502 -0.7807 -2.0043 0.9765
5.5959 -0.2824 -2.0037 0.9765
5.4655 1.2081 -2.0017 0.9765
5.3341 1.6903 -2.0010 0.9765
5.0828 2.1262 -1.9703 0.9769
4.3528 2.8198 -1.8547 0.9782
3.4885 3.2727 -1.7106 0.9799
3.0351 4.0878 -1.8207 0.9786
1.8144 4.6683 -1.7911 0.9789
0.9879 5.0802 -1.8508 0.9783
0.5307 5.1475 -1.8505 0.9783
0.0694 5.1739 -1.8504 0.9783
-0.4229 5.5608 -1.9943 0.9766
-0.9172 5.5007 -1.9943 0.9766
-2.3411 5.0620 -1.9944 0.9766
-2.7836 4.8334 -1.9946 0.9766
-3.9657 3.9256 -1.9955 0.9766
-4.3010 3.5569 -1.9959 0.9766
-4.6021 3.1598 -1.9963 0.9766
-5.2786 1.8299 -1.9979 0.9765
-5.4224 1.3521 -1.9985 0.9765
-5.5231 0.8633 -1.9991 0.9765
-5.5922 -0.1319 -2.0004 0.9765
-5.3631 -1.6095 -2.0024 0.9765
-5.1999 -2.0822 -2.0031 0.9765
-4.9950 -2.5386 -2.0037 0.9765
-4.7502 -2.9750 -2.0044 0.9765
-4.1485 -3.7740 -2.0056 0.9765
-3.7964 -4.1302 -2.0061 0.9765
-3.4137 -4.4536 -2.0067 0.9764
-3.0036 -4.7415 -2.0072 0.9764
-2.1141 -5.2020 -2.0080 0.9764
-0.1614 -5.6159 -2.0091 0.9764
1.3315 -5.4587 -2.0093 0.9764
1.8130 -5.3181 -2.0093 0.9764
3.1556 -4.6470 -2.0087 0.9764
3.5571 -4.3464 -2.0085 0.9764
3.9299 -4.0111 -2.0081 0.9764
4.2712 -3.6438 -2.0077 0.9764
4.5783 -3.2476 -2.0073 0.9764
4.8485 -2.8256 -2.0068 0.9764
5.0799 -2.3812 -2.0063 0.9764
5.2706 -1.9180 -2.0057 0.9765
5.5733 0.5457 -2.0026 0.9765
5.5005 1.0403 -2.0019 0.9765
5.3840 1.5264 -2.0012 0.9765
4.7223 2.3097 -1.8799 0.9779
4.4375 2.6855 -1.8549 0.9782
3.8873 3.4292 -1.8537 0.9782
2.7628 4.2173 -1.8029 0.9788
1.5890 4.9265 -1.8511 0.9783
1.1430 5.0478 -1.8508 0.9783
0.6881 5.1290 -1.8506 0.9783
0.2278 5.1694 -1.8504 0.9783
-0.2525 5.5712 -1.9943 0.9766
-1.7185 5.3054 -1.9943 0.9766
-2.1850 5.1312 -1.9944 0.9766
-2.6343 4.9162 -1.9945 0.9766
-3.0626 4.6621 -1.9948 0.9766
-3.8435 4.0449 -1.9954 0.9766
-4.7803 2.8847 -1.9966 0.9766
-5.0199 2.4474 -1.9971 0.9766
-5.2196 1.9904 -1.9977 0.9765
-5.4935 1.0319 -1.9989 0.9765
-5.5654 0.5379 -1.9995 0.9765
-5.5761 -0.4599 -2.0008 0.9765
-5.5147 -0.9558 -2.0015 0.9765
-5.4092 -1.4444 -2.0022 0.9765
-5.2606 -1.9218 -2.0028 0.9765
-5.0698 -2.3842 -2.0035 0.9765
-4.8385 -2.8279 -2.0041 0.9765
-4.5684 -3.2492 -2.0048 0.9765
-3.9206 -4.0117 -2.0059 0.9765
-3.5481 -4.3466 -2.0065 0.9764
-3.1470 -4.6470 -2.0070 0.9764
-0.8320 -5.5555 -2.0088 0.9764
0.6688 -5.5788 -2.0093 0.9764
1.6494 -5.3711 -2.0093 0.9764
2.1219 -5.2023 -2.0092 0.9764
3.0120 -4.7417 -2.0088 0.9764
4.4770 -3.3865 -2.0075 0.9764
4.7602 -2.9729 -2.0070 0.9764
5.2100 -2.0786 -2.0059 0.9765
5.3731 -1.6051 -2.0054 0.9765
5.4932 -1.1191 -2.0047 0.9765
5.5693 -0.6244 -2.0041 0.9765
5.5880 0.3749 -2.0028 0.9765
5.5304 0.8716 -2.0021 0.9765
5.4288 1.3610 -2.0015 0.9765
5.2840 1.8392 -2.0008 0.9765
4.5182 2.5487 -1.8551 0.9782
4.2714 2.9406 -1.8545 0.9782
3.6787 3.6507 -1.8534 0.9782
3.3375 3.9632 -1.8529 0.9782
2.9041 4.1500 -1.8114 0.9787
2.0912 4.5366 -1.7864 0.9790
-0.0818 5.5764 -1.9944 0.9766
-1.0714 5.4728 -1.9942 0.9766
-1.5553 5.3554 -1.9943 0.9766
-2.0269 5.1955 -1.9943 0.9766
-2.9184 4.7535 -1.9947 0.9766
-3.7176 4.1604 -1.9952 0.9766
-4.6894 3.0295 -1.9965 0.9766
-4.9422 2.5997 -1.9970 0.9766
-5.5457 0.7079 -1.9993 0.9765
-5.5869 -0.2890 -2.0006 0.9765
-5.5407 -0.7865 -2.0013 0.9765
-5.1399 -2.2277 -2.0033 0.9765
-4.6652 -3.1075 -2.0046 0.9765
3.8928 2.8746 -1.8545 0.9795
3.5872 3.1806 -1.8372 0.9797
2.9904 3.7997 -1.8530 0.9795
2.6389 4.0504 -1.8526 0.9795
2.0714 3.9012 -1.6927 0.9813
1.0549 4.7142 -1.8513 0.9795
0.6301 4.7890 -1.8510 0.9795
0.2004 4.8256 -1.8509 0.9795
-1.1687 5.0723 -1.9947 0.9779
-1.6166 4.9480 -1.9948 0.9779
-2.8696 4.3443 -1.9952 0.9779
-3.2461 4.0716 -1.9955 0.9779
-3.5969 3.7663 -1.9958 0.9779
-3.9192 3.4311 -1.9961 0.9779
-4.2105 3.0684 -1.9965 0.9779
-4.8761 1.8454 -1.9980 0.9779
-5.2196 0.0235 -2.0003 0.9779
-5.2025 -0.4423 -2.0009 0.9779
-5.0443 -1.3606 -2.0021 0.9779
-3.6487 -3.7523 -2.0057 0.9778
-2.5267 -4.5877 -2.0071 0.9778
-2.1078 -4.7957 -2.0075 0.9778
-1.6719 -4.9655 -2.0078 0.9778
-0.7632 -5.1849 -2.0084 0.9778
1.0986 -5.1255 -2.0088 0.9778
1.5514 -5.0070 -2.0088 0.9778
1.9918 -4.8484 -2.0087 0.9778
2.8212 -4.4166 -2.0084 0.9778
3.8882 -3.5104 -2.0075 0.9778
4.1850 -3.1490 -2.0071 0.9778
4.6758 -2.3541 -2.0061 0.9778
4.8659 -1.9272 -2.0056 0.9778
5.1281 -1.0313 -2.0045 0.9778
5.1587 0.8263 -2.0021 0.9779
5.0628 1.2828 -2.0015 0.9779
4.9266 1.7288 -2.0008 0.9779
4.7513 2.1607 -2.0002 0.9779
3.9794 2.7544 -1.8546 0.9795
3.4247 3.4158 -1.8536 0.9795
1.6118 4.5550 -1.8516 0.9795
0.3481 4.8174 -1.8509 0.9795
-1.4643 4.9951 -1.9948 0.9779
-1.9041 4.8447 -1.9948 0.9779
-3.8121 3.5492 -1.9960 0.9779
-4.8169 1.9936 -1.9978 0.9779
-5.0973 1.1065 -1.9989 0.9779
-5.1772 0.6476 -1.9995 0.9779
-5.2159 0.1832 -2.0001 0.9779
-5.1687 -0.7470 -2.0013 0.9779
-4.9568 -1.6546 -2.0026 0.9779
-4.5867 -2.5106 -2.0038 0.9779
-4.3457 -2.9106 -2.0044 0.9778
-4.0699 -3.2876 -2.0050 0.9778
-3.7615 -3.6385 -2.0055 0.9778
-2.6658 -4.5079 -2.0070 0.9778
-2.2535 -4.7286 -2.0074 0.9778
-1.8230 -4.9117 -2.0077 0.9778
-1.3778 -5.0555 -2.0080 0.9778
-0.9215 -5.1589 -2.0083 0.9778
0.4775 -5.2200 -2.0088 0.9778
1.3975 -5.0522 -2.0088 0.9778
2.2728 -4.7230 -2.0086 0.9778
2.6848 -4.5011 -2.0084 0.9778
3.0752 -4.2431 -2.0082 0.9778
3.4410 -3.9513 -2.0079 0.9778
4.8051 -2.0754 -2.0058 0.9778
4.9698 -1.6381 -2.0053 0.9778
5.1788 -0.7285 -2.0041 0.9778
5.2216 -0.2635 -2.0035 0.9779
5.1821 0.6681 -2.0023 0.9779
5.1002 1.1274 -2.0017 0.9779
4.8157 2.0144 -2.0004 0.9779
4.5216 2.3857 -1.9592 0.9783
3.8102 2.9826 -1.8543 0.9795
3.4656 3.2511 -1.8210 0.9799
3.2179 3.6102 -1.8533 0.9795
2.8823 3.8820 -1.8529 0.9795
2.5239 4.1227 -1.8524 0.9795
1.9822 4.0006 -1.7110 0.9811
1.7505 4.5038 -1.8517 0.9795
1.3416 4.6413 -1.8514 0.9795
0.9221 4.7418 -1.8512 0.9795
-0.3947 5.1904 -1.9948 0.9779
-0.8561 5.1344 -1.9948 0.9779
-2.1852 4.7249 -1.9949 0.9779
-2.5982 4.5115 -1.9951 0.9779
-3.7015 3.6640 -1.9959 0.9779
-4.2953 2.9491 -1.9967 0.9779
-4.5423 2.5548 -1.9971 0.9779
-4.7532 2.1399 -1.9976 0.9779
-5.0606 1.2619 -1.9987 0.9779
-5.2187 -0.1231 -2.0005 0.9779
-5.1885 -0.5884 -2.0011 0.9779
-5.0046 -1.5019 -2.0023 0.9779
-4.8521 -1.9430 -2.0030 0.9779
-4.6609 -2.3688 -2.0036 0.9779
-4.4324 -2.7759 -2.0042 0.9778
-3.1850 -4.1553 -2.0063 0.9778
-2.8023 -4.4238 -2.0068 0.9778
-1.9724 -4.8533 -2.0076 0.9778
-0.6173 -5.2045 -2.0084 0.9778
-0.1505 -5.2393 -2.0086 0.9778
1.6914 -4.9614 -2.0088 0.9778
2.9440 -4.3355 -2.0083 0.9778
3.3186 -4.0550 -2.0080 0.9778
4.2715 -3.0300 -2.0069 0.9778
5.0564 -1.3434 -2.0049 0.9778
5.2116 -0.4233 -2.0038 0.9779
5.2270 0.0433 -2.0031 0.9779
5.2007 0.5092 -2.0025 0.9779
5.1329 0.9708 -2.0019 0.9779
4.8757 1.8663 -2.0006 0.9779
4.6883 2.2931 -2.0000 0.9779
3.3272 3.5104 -1.8535 0.9795
3.0000 3.7922 -1.8530 0.9795
2.6492 4.0438 -1.8526 0.9795
1.0668 4.7116 -1.8513 0.9795
0.6422 4.7874 -1.8510 0.9795
-0.2357 5.2001 -1.9948 0.9779
-1.6041 4.9520 -1.9948 0.9779
-2.0395 4.7894 -1.9949 0.9779
-2.4588 4.5887 -1.9950 0.9779
-2.8586 4.3515 -1.9952 0.9779
-3.2358 4.0797 -1.9955 0.9779
-3.5874 3.7754 -1.9958 0.9779
-3.9105 3.4409 -1.9961 0.9779
-4.2027 3.0790 -1.9965 0.9779
-5.0191 1.4161 -1.9985 0.9779
-5.1269 0.9630 -1.9991 0.9779
-5.1939 0.5020 -1.9997 0.9779
-5.2195 0.0367 -2.0003 0.9779
-5.2036 -0.4292 -2.0009 0.9779
-4.9088 -1.7933 -2.0028 0.9779
-4.7307 -2.2248 -2.0034 0.9779
-3.6581 -3.7431 -2.0057 0.9778
-3.3105 -4.0555 -2.0062 0.9778
-1.6844 -4.9612 -2.0078 0.9778
-1.2353 -5.0924 -2.0081 0.9778
1.0857 -5.1283 -2.0088 0.9778
1.9796 -4.8535 -2.0087 0.9778
2.4045 -4.6572 -2.0086 0.9778
3.5504 -3.8529 -2.0078 0.9778
4.6699 -2.3660 -2.0062 0.9778
5.0134 -1.4977 -2.0051 0.9778
5.1255 -1.0442 -2.0045 0.9778
5.2264 -0.1167 -2.0034 0.9779
5.0661 1.2700 -2.0015 0.9779
3.9864 2.7444 -1.8547 0.9795
3.7246 3.0882 -1.8541 0.9795
1.6232 4.5510 -1.8516 0.9795
0.7885 4.7656 -1.8511 0.9795
0.3602 4.8165 -1.8509 0.9795
-0.0764 5.2050 -1.9949 0.9779
-0.5404 5.1772 -1.9948 0.9779
-1.0000 5.1083 -1.9947 0.9779
-2.3171 4.6617 -1.9950 0.9779
-2.7240 4.4369 -1.9952 0.9779
-3.8031 3.5588 -1.9960 0.9779
-4.3768 2.8275 -1.9968 0.9779
-4.6126 2.4264 -1.9973 0.9779
-4.9729 1.5689 -1.9983 0.9779
-5.2154 0.1964 -2.0000 0.9779
-5.0860 -1.1926 -2.0019 0.9779
-4.9609 -1.6421 -2.0025 0.9779
-4.7961 -2.0787 -2.0032 0.9779
-4.5930 -2.4990 -2.0038 0.9779
-4.3530 -2.8996 -2.0044 0.9778
-4.0782 -3.2773 -2.0049 0.9778
4.1709 2.5385 -1.9984 0.9791
2.4713 3.7931 -1.8529 0.9806
1.3781 4.3098 -1.8519 0.9806
-0.2330 4.8696 -1.9953 0.9791
-0.6664 4.8292 -1.9952 0.9792
-1.0946 4.7505 -1.9952 0.9792
-1.9214 4.4807 -1.9953 0.9791
-2.3136 4.2917 -1.9955 0.9791
-2.6875 4.0686 -1.9956 0.9791
-3.0400 3.8131 -1.9959 0.9791
-3.3686 3.5272 -1.9962 0.9791
-3.6704 3.2132 -1.9965 0.9791
-4.1846 2.5108 -1.9973 0.9791
-4.3928 2.1280 -1.9977 0.9791
-4.5663 1.7281 -1.9982 0.9791
-4.7034 1.3142 -1.9987 0.9791
-2.1897 0.4056 -0.9114 0.9904
-1.9579 0.1842 -0.8049 0.9915
-1.9025 0.0086 -0.7787 0.9918
-1.9574 -0.1664 -0.8040 0.9915
-2.1523 -0.3786 -0.8944 0.9906
-4.7231 -1.2740 -2.0021 0.9791
-4.5919 -1.6907 -2.0027 0.9791
-4.4241 -2.0942 -2.0033 0.9791
-4.2208 -2.4812 -2.0038 0.9791
-3.9838 -2.8486 -2.0044 0.9791
-3.7148 -3.1934 -2.0049 0.9791
-3.0897 -3.8046 -2.0059 0.9790
-2.7386 -4.0659 -2.0063 0.9790
-2.3655 -4.2949 -2.0068 0.9790
-1.9733 -4.4896 -2.0071 0.9790
-1.5652 -4.6484 -2.0074 0.9790
-0.2786 -4.8986 -2.0081 0.9790
1.0285 -4.7981 -2.0084 0.9790
1.4523 -4.6872 -2.0083 0.9790
2.6410 -4.1345 -2.0079 0.9790
4.6972 -1.3903 -2.0049 0.9791
4.8936 -0.0970 -2.0032 0.9791
4.8814 0.3399 -2.0027 0.9791
4.8302 0.7737 -2.0021 0.9791
4.4490 2.0232 -2.0003 0.9791
4.2496 2.4113 -1.9998 0.9791
3.4805 2.9006 -1.8543 0.9806
3.2071 3.1987 -1.8538 0.9806
2.5865 3.7160 -1.8530 0.9806
2.2442 3.9311 -1.8526 0.9806
1.8842 4.1148 -1.8523 0.9806
0.7272 4.4650 -1.8515 0.9806
0.3298 4.5645 -1.8730 0.9804
-0.0838 4.8745 -1.9953 0.9791
-0.9486 4.7817 -1.9952 0.9792
-1.3714 4.6781 -1.9952 0.9792
-2.1811 4.3604 -1.9954 0.9791
-2.5616 4.1488 -1.9956 0.9791
-3.8530 2.9927 -1.9967 0.9791
-4.3253 2.2613 -1.9976 0.9791
-1.9528 0.2443 -0.8055 0.9915
-4.7594 -1.1287 -2.0019 0.9791
-4.2944 -2.3506 -2.0037 0.9791
-4.0687 -2.7251 -2.0042 0.9791
-3.5216 -3.4065 -2.0053 0.9790
-3.2044 -3.7079 -2.0057 0.9790
-2.8616 -3.9799 -2.0062 0.9790
-1.7066 -4.5981 -2.0073 0.9790
-1.2898 -4.7327 -2.0076 0.9790
0.0093 -4.9068 -2.0082 0.9790
0.4470 -4.8866 -2.0083 0.9790
0.8811 -4.8274 -2.0084 0.9790
2.5133 -4.2136 -2.0080 0.9790
2.8788 -3.9722 -2.0078 0.9790
3.5379 -3.3964 -2.0072 0.9790
3.8260 -3.0668 -2.0069 0.9790
4.0836 -2.7127 -2.0065 0.9790
4.3083 -2.3371 -2.0060 0.9790
4.7698 -1.1121 -2.0045 0.9791
4.8487 -0.6820 -2.0040 0.9791
4.6610 1.4769 -2.0011 0.9791
4.5093 1.8863 -2.0005 0.9791
4.3219 2.2804 -1.9999 0.9791
2.3636 3.8608 -1.8527 0.9806
0.8636 4.4408 -1.8516 0.9806
-1.6436 4.5897 -1.9953 0.9792
-2.0465 4.4250 -1.9954 0.9791
-2.4333 4.2251 -1.9955 0.9791
-2.8008 3.9917 -1.9957 0.9791
-3.7594 3.1090 -1.9966 0.9791
-4.2537 2.3925 -1.9974 0.9791
-4.4512 2.0040 -1.9979 0.9791
-4.7388 1.1817 -1.9989 0.9791
-1.9208 -0.0453 -0.7864 0.9917
-4.7912 -0.9824 -2.0017 0.9791
-4.6859 -1.4063 -2.0023 0.9791
-3.9025 -2.9596 -2.0046 0.9791
-2.9818 -3.8901 -2.0060 0.9790
-1.8465 -4.5435 -2.0072 0.9790
-1.4341 -4.6908 -2.0075 0.9790
-1.0100 -4.8006 -2.0078 0.9790
1.1628 -4.7673 -2.0084 0.9790
1.5834 -4.6445 -2.0083 0.9790
1.9913 -4.4845 -2.0082 0.9790
3.4324 -3.5033 -2.0073 0.9790
3.7306 -3.1826 -2.0070 0.9790
4.7340 -1.2577 -2.0047 0.9791
4.8940 0.0405 -2.0031 0.9791
4.7045 1.3337 -2.0013 0.9791
4.5654 1.7475 -2.0007 0.9791
4.3901 2.1472 -2.0001 0.9791
4.1798 2.5295 -1.9996 0.9791
3.7469 2.7523 -1.9028 0.9801
3.3974 2.9970 -1.8542 0.9806
3.1157 3.2873 -1.8537 0.9806
2.4809 3.7869 -1.8529 0.9806
1.7678 4.1659 -1.8522 0.9806
0.6015 4.4835 -1.8514 0.9806
-2.6772 4.0754 -1.9956 0.9791
-3.3596 3.5357 -1.9962 0.9791
-3.6622 3.2224 -1.9965 0.9791
-4.3874 2.1391 -1.9977 0.9791
-4.7000 1.3261 -1.9987 0.9791
-1.9579 0.1892 -0.8051 0.9915
-4.5961 -1.6791 -2.0027 0.9791
-4.4293 -2.0830 -2.0033 0.9791
-4.2270 -2.4705 -2.0038 0.9791
-3.7228 -3.1840 -2.0049 0.9791
-3.4248 -3.5043 -2.0054 0.9790
-3.0993 -3.7967 -2.0059 0.9790
-2.3763 -4.2889 -2.0067 0.9790
-1.5769 -4.6445 -2.0074 0.9790
-0.7267 -4.8520 -2.0079 0.9790
0.1471 -4.9046 -2.0083 0.9790
1.0163 -4.8007 -2.0084 0.9790
1.4405 -4.6908 -2.0083 0.9790
2.2509 -4.3597 -2.0081 0.9790
2.6306 -4.1412 -2.0079 0.9790
2.9892 -3.8896 -2.0077 0.9790
3.6317 -3.2955 -2.0071 0.9790
3.9104 -2.9579 -2.0067 0.9790
4.3720 -2.2150 -2.0059 0.9790
4.5510 -1.8158 -2.0054 0.9790
4.6937 -1.4022 -2.0049 0.9791
4.8655 -0.5455 -2.0038 0.9791
4.8934 -0.1093 -2.0033 0.9791
4.8822 0.3276 -2.0027 0.9791
4.8321 0.7615 -2.0021 0.9791
4.7436 1.1892 -2.0015 0.9791
4.6172 1.6071 -2.0009 0.9791
4.4542 2.0120 -2.0003 0.9791
4.2557 2.4006 -1.9998 0.9791
3.4878 2.8918 -1.8543 0.9806
3.2152 3.1906 -1.8539 0.9806
1.8946 4.1101 -1.8523 0.9806
0.7385 4.4632 -1.8515 0.9806
-0.5061 4.8487 -1.9952 0.9792
-0.9366 4.7841 -1.9952 0.9792
-1.7719 4.5418 -1.9953 0.9791
-2.1701 4.3659 -1.9954 0.9791
-2.5511 4.1552 -1.9956 0.9791
-2.9119 3.9115 -1.9958 0.9791
-3.2497 3.6367 -1.9961 0.9791
-4.0988 2.6479 -1.9971 0.9791
-4.6568 1.4692 -1.9985 0.9791
-4.7706 1.0482 -1.9990 0.9791
-1.9519 0.2492 -0.8054 0.9915
-1.9420 -0.1005 -0.7959 0.9916
-1.9459 -0.2762 -0.8044 0.9915
-4.7622 -1.1167 -2.0019 0.9791
-4.4906 -1.9463 -2.0031 0.9791
-4.3003 -2.3397 -2.0036 0.9791
-4.0756 -2.7148 -2.0042 0.9791
-3.8182 -3.0683 -2.0047 0.9791
3.3187 2.9425 -1.9330 0.9808
2.9471 3.1251 -1.8721 0.9814
2.6302 3.3421 -1.8535 0.9816
1.6505 3.9170 -1.8525 0.9816
1.2973 4.0572 -1.8564 0.9816
0.9280 4.1468 -1.8520 0.9816
0.1900 4.5754 -1.9958 0.9802
-0.2189 4.5739 -1.9957 0.9802
-1.8047 4.2086 -1.9957 0.9802
-2.1731 4.0311 -1.9958 0.9802
-2.5243 3.8215 -1.9960 0.9802
-2.8554 3.5815 -1.9962 0.9802
-3.1639 3.3130 -1.9965 0.9802
-3.4474 3.0180 -1.9968 0.9802
-3.7035 2.6989 -1.9972 0.9802
-4.1258 1.9987 -1.9980 0.9802
-4.2886 1.6230 -1.9984 0.9802
-1.4978 0.2774 -0.6639 0.9934
-1.5283 -0.1299 -0.6685 0.9933
-1.5575 -0.4201 -0.7030 0.9930
-3.9635 -2.3299 -2.0037 0.9801
-3.7409 -2.6749 -2.0042 0.9801
-2.9012 -3.5724 -2.0057 0.9801
-2.5715 -3.8178 -2.0061 0.9801
-2.2211 -4.0327 -2.0064 0.9801
-0.6708 -4.5573 -2.0076 0.9801
0.1497 -4.6047 -2.0079 0.9801
2.4797 -3.8820 -2.0076 0.9801
3.4177 -3.0857 -2.0068 0.9801
4.1104 -2.0695 -2.0056 0.9801
4.2777 -1.6942 -2.0052 0.9801
4.4107 -1.3055 -2.0047 0.9801
4.5702 -0.5007 -2.0037 0.9801
4.5360 0.7266 -2.0021 0.9802
4.4518 1.1280 -2.0015 0.9802
3.9911 2.2646 -1.9999 0.9802
3.7722 2.6109 -1.9994 0.9802
3.4516 2.8765 -1.9581 0.9806
3.0721 3.0640 -1.8910 0.9812
1.4177 4.0067 -1.8523 0.9816
0.6891 4.2314 -1.8684 0.9815
0.3277 4.5361 -1.9821 0.9804
-0.0787 4.5785 -1.9957 0.9802
-0.8910 4.4914 -1.9956 0.9802
-1.2881 4.3941 -1.9956 0.9802
-1.6750 4.2618 -1.9957 0.9802
-2.0486 4.0956 -1.9958 0.9802
-2.7443 3.6671 -1.9962 0.9802
-1.5208 0.1902 -0.6680 0.9933
-1.5362 -0.3643 -0.6881 0.9931
-4.2123 -1.8383 -2.0030 0.9801
-3.5780 -2.8902 -2.0046 0.9801
-2.6869 -3.7370 -2.0059 0.9801
-2.3433 -3.9626 -2.0063 0.9801
-1.9808 -4.1565 -2.0067 0.9801
0.0087 -4.6070 -2.0078 0.9801
0.4197 -4.5881 -2.0079 0.9801
1.9976 -4.1513 -2.0078 0.9801
2.3598 -3.9562 -2.0076 0.9801
2.7030 -3.7296 -2.0074 0.9801
3.3218 -3.1890 -2.0069 0.9801
3.5925 -2.8795 -2.0065 0.9801
3.8343 -2.5471 -2.0062 0.9801
4.4790 -1.0443 -2.0044 0.9801
4.5909 -0.2317 -2.0033 0.9801
4.5920 0.1787 -2.0028 0.9801
4.4847 0.9913 -2.0017 0.9802
4.3772 1.3870 -2.0011 0.9802
4.0589 2.1416 -2.0001 0.9802
3.8506 2.4945 -1.9995 0.9802
3.5878 2.8084 -1.9857 0.9803
3.1994 3.0014 -1.9119 0.9810
2.5351 3.4144 -1.8534 0.9816
2.2235 3.6319 -1.8559 0.9816
1.8874 3.8091 -1.8527 0.9816
1.5398 3.9616 -1.8524 0.9816
1.1801 4.0826 -1.8521 0.9816
0.8111 4.1711 -1.8519 0.9816
0.0614 4.5789 -1.9957 0.9802
-1.1530 4.4314 -1.9956 0.9802
-2.2855 3.9686 -1.9959 0.9802
-2.9550 3.5000 -1.9963 0.9802
-3.9952 2.2471 -1.9977 0.9802
-4.1806 1.8821 -1.9981 0.9802
-1.5446 0.3852 -0.6938 0.9931
-1.5106 0.2361 -0.6663 0.9934
-1.5269 -0.0360 -0.6656 0.9934
-1.5237 -0.1728 -0.6683 0.9933
-4.2662 -1.7083 -2.0028 0.9801
-4.0979 -2.0827 -2.0034 0.9801
-3.8968 -2.4405 -2.0039 0.9801
-3.6645 -2.7791 -2.0044 0.9801
-3.4028 -3.0957 -2.0049 0.9801
-2.7999 -3.6527 -2.0058 0.9801
-1.7337 -4.2661 -2.0069 0.9801
-1.3465 -4.4043 -2.0072 0.9801
-0.5425 -4.5745 -2.0076 0.9801
-0.1323 -4.6050 -2.0078 0.9801
0.2790 -4.5987 -2.0079 0.9801
0.6881 -4.5556 -2.0079 0.9801
1.0918 -4.4761 -2.0079 0.9801
1.4867 -4.3608 -2.0079 0.9801
1.8697 -4.2106 -2.0078 0.9801
2.2377 -4.0267 -2.0077 0.9801
2.9170 -3.5643 -2.0073 0.9801
3.2228 -3.2894 -2.0070 0.9801
3.5029 -2.9883 -2.0067 0.9801
3.7548 -2.6635 -2.0063 0.9801
3.9766 -2.3175 -2.0059 0.9801
4.1666 -1.9531 -2.0055 0.9801
4.3232 -1.5732 -2.0050 0.9801
4.5821 -0.3721 -2.0035 0.9801
4.5957 0.0381 -2.0030 0.9801
4.5134 0.8536 -2.0019 0.9802
2.6387 3.3354 -1.8535 0.9816
1.6604 3.9129 -1.8525 0.9816
1.3072 4.0529 -1.8559 0.9816
0.9385 4.1445 -1.8520 0.9816
0.5785 4.3125 -1.8963 0.9812
0.2016 4.5750 -1.9958 0.9802
-0.2073 4.5745 -1.9957 0.9802
-1.0168 4.4646 -1.9956 0.9802
-1.4111 4.3562 -1.9956 0.9802
-1.7941 4.2131 -1.9957 0.9802
-2.8464 3.5887 -1.9962 0.9802
-3.1556 3.3209 -1.9965 0.9802
-3.4397 3.0267 -1.9968 0.9802
-3.6967 2.7082 -1.9972 0.9802
-4.1207 2.0091 -1.9980 0.9802
-4.2845 1.6338 -1.9984 0.9802
-1.5646 0.4414 -0.7085 0.9929
-1.4968 0.2811 -0.6637 0.9934
-1.5238 0.0107 -0.6641 0.9934
-1.5034 -0.2606 -0.6650 0.9934
-1.5558 -0.4155 -0.7018 0.9930
-3.4957 -2.9898 -2.0047 0.9801
-2.9101 -3.5651 -2.0056 0.9801
-2.5811 -3.8112 -2.0061 0.9801
-1.4806 -4.3609 -2.0071 0.9801
0.1381 -4.6050 -2.0079 0.9801
0.5484 -4.5745 -2.0079 0.9801
0.9543 -4.5074 -2.0080 0.9801
1.7399 -4.2659 -2.0079 0.9801
2.1134 -4.0934 -2.0077 0.9801
2.4699 -3.8883 -2.0076 0.9801
2.8066 -3.6520 -2.0073 0.9801
3.4099 -3.0943 -2.0068 0.9801
3.9041 -2.4383 -2.0060 0.9801
4.1052 -2.0798 -2.0056 0.9801
4.2734 -1.7050 -2.0052 0.9801
4.4074 -1.3167 -2.0047 0.9801
4.5689 -0.5123 -2.0037 0.9801
4.5848 0.3076 -2.0026 0.9801
4.4547 1.1168 -2.0015 0.9802
4.3361 1.5093 -2.0010 0.9802
4.1831 1.8896 -2.0004 0.9802
3.9968 2.2546 -1.9999 0.9802
3.7788 2.6014 -1.9994 0.9802
2.1172 3.6869 -1.8529 0.9816
1.7795 3.8604 -1.8526 0.9816
0.3384 4.5250 -1.9776 0.9804
-0.0672 4.5787 -1.9957 0.9802
-0.4753 4.5543 -1.9956 0.9802
-1.6643 4.2660 -1.9957 0.9802
-2.0383 4.1008 -1.9958 0.9802
-2.3962 3.9029 -1.9959 0.9802
-3.3453 3.1304 -1.9967 0.9802
-4.0570 2.1341 -1.9978 0.9802
-4.2321 1.7641 -1.9983 0.9802
-1.5808 0.4987 -0.7224 0.9928
-1.5231 0.3347 -0.6796 0.9932
-1.5201 0.1940 -0.6679 0.9933
-1.5295 -0.0791 -0.6675 0.9933
-1.5343 -0.3598 -0.6868 0.9931
-1.5869 -0.5253 -0.7285 0.9927
-4.2169 -1.8277 -2.0030 0.9801
-3.8271 -2.5492 -2.0040 0.9801
3.6905 2.2462 -1.9998 0.9811
3.4746 2.5658 -1.9993 0.9811
2.9329 3.1101 -1.9788 0.9813
2.5817 3.2805 -1.9323 0.9818
1.9103 3.5977 -1.8855 0.9822
1.5800 3.7496 -1.8834 0.9822
1.2473 3.9009 -1.8957 0.9821
0.9112 4.0716 -1.9313 0.9818
-0.2061 4.3072 -1.9960 0.9812
-1.3391 4.0988 -1.9960 0.9812
-2.3770 3.5987 -1.9964 0.9812
-2.6889 3.3726 -1.9966 0.9812
-2.9794 3.1197 -1.9968 0.9812
-3.2463 2.8419 -1.9971 0.9812
-3.7009 2.2206 -1.9978 0.9812
-1.3319 0.5040 -0.6592 0.9937
-1.3199 0.3688 -0.6344 0.9940
-1.3328 -0.4907 -0.6574 0.9938
