ply
format ascii 1.0
element vertex 1571
property float32 x
property float32 y
property float32 z
property float32 I
end_header
12.2049 4.2916 -0.9486 0.9494
-3.2343 -18.6511 -1.3880 0.9269
-1.4541 -17.6317 -1.2972 0.9315
1.3914 -14.3667 -1.0583 0.9438
3.1352 -16.6647 -1.2433 0.9343
15.9420 0.7311 -1.1701 0.9380
12.3404 4.0085 -0.9514 0.9493
-1.8559 -17.3872 -1.2821 0.9323
-0.2282 -13.4880 -0.9891 0.9473
1.0287 -14.1652 -1.0414 0.9446
4.0723 -15.8608 -1.2007 0.9364
18.6763 2.0852 -1.3779 0.9274
0.6609 -13.6323 -1.0007 0.9467
3.6488 -15.7770 -1.1873 0.9371
17.3509 -0.0395 -1.2722 0.9328
17.1992 3.0685 -1.2810 0.9323
10.5374 5.0227 -0.8559 0.9543
-0.9900 -15.2031 -1.1171 0.9407
1.6591 -14.5154 -1.0712 0.9431
1.2525 -6.0780 -0.4550 0.9754
4.8404 -16.0656 -1.2303 0.9349
-7.7882 -17.6341 -1.8507 0.9255
-6.1816 -18.2565 -1.8505 0.9255
-4.5260 -18.7329 -1.8502 0.9255
-2.6928 -18.1051 -1.7573 0.9291
1.7580 -14.5060 -1.4028 0.9430
11.7552 -15.2375 -1.8476 0.9256
13.0674 -14.1253 -1.8474 0.9256
14.2751 -12.9007 -1.8472 0.9256
19.3083 -0.3773 -1.8540 0.9253
19.2650 1.3484 -1.8541 0.9253
-8.2104 -17.4422 -1.8508 0.9255
-6.6191 -18.1033 -1.8505 0.9255
-4.9754 -18.6194 -1.8503 0.9255
-3.2343 -18.6513 -1.8173 0.9268
-1.4542 -17.6324 -1.6985 0.9314
0.0949 -13.3027 -1.2772 0.9479
1.3846 -14.2967 -1.3790 0.9439
3.1354 -16.6657 -1.6281 0.9341
4.5653 -16.1571 -1.6119 0.9348
6.0197 -15.7629 -1.6199 0.9344
8.4462 -17.2985 -1.8481 0.9256
12.7243 -14.4359 -1.8474 0.9256
13.9610 -13.2406 -1.8473 0.9256
15.0862 -11.9399 -1.8471 0.9256
12.3698 4.0181 -1.2486 0.9491
-8.6279 -17.2404 -1.8509 0.9255
-7.0529 -17.9395 -1.8506 0.9255
-3.6733 -18.5249 -1.8131 0.9269
-1.8560 -17.3879 -1.6788 0.9321
1.0235 -14.0943 -1.3567 0.9448
3.1047 -19.0073 -1.8490 0.9255
12.3738 -14.7382 -1.8475 0.9256
14.7950 -12.2996 -1.8471 0.9256
19.3074 0.4205 -1.8540 0.9253
14.8120 4.4204 -1.4840 0.9398
-7.4826 -17.7653 -1.8507 0.9255
-5.8655 -18.3600 -1.8504 0.9255
-4.2019 -18.8077 -1.8501 0.9255
-0.5776 -14.0881 -1.3537 0.9449
0.6609 -13.6322 -1.3103 0.9466
9.1528 -16.9339 -1.8480 0.9256
13.3089 -13.8974 -1.8474 0.9256
14.4953 -12.6522 -1.8472 0.9256
19.6573 -1.8076 -1.8952 0.9237
17.3509 -0.0396 -1.6658 0.9327
19.2389 1.6807 -1.8541 0.9253
13.2611 2.3659 -1.2932 0.9473
11.7016 3.1878 -1.1644 0.9524
10.5012 5.0055 -1.1168 0.9543
-6.3056 -18.2143 -1.8505 0.9255
-0.9899 -15.2010 -1.4625 0.9406
1.2523 -6.0772 -0.5957 0.9754
4.8403 -16.0656 -1.6108 0.9348
7.1778 -17.8644 -1.8483 0.9256
8.7432 -17.1497 -1.8481 0.9256
10.2384 -16.2984 -1.8478 0.9256
11.6515 -15.3172 -1.8476 0.9256
14.1872 -12.9975 -1.8472 0.9256
15.2897 -11.6776 -1.8470 0.9256
-15.7602 6.0255 -2.0042 0.9343
-16.5817 3.1261 -2.0044 0.9343
-16.8737 0.1267 -2.0044 0.9343
-16.8175 -1.3805 -2.0044 0.9343
-16.6267 -2.8767 -2.0044 0.9343
-15.2679 -7.1798 -2.0041 0.9343
-14.5649 -8.5140 -2.0040 0.9343
-13.7456 -9.7800 -2.0039 0.9343
-12.8164 -10.9675 -2.0037 0.9343
-9.4486 -13.9684 -2.0032 0.9343
-3.6577 -15.1392 -1.8501 0.9392
-2.2910 -15.4035 -1.8498 0.9392
0.4209 -13.4925 -1.6035 0.9471
1.7578 -14.5047 -1.7356 0.9428
4.5910 -14.8712 -1.8487 0.9392
7.1614 -13.8143 -1.8483 0.9392
9.5026 -12.3176 -1.8480 0.9393
13.4142 -10.1016 -1.9947 0.9346
16.4991 -3.3165 -1.9991 0.9345
16.8256 -0.3288 -1.9990 0.9345
15.5752 1.0902 -1.8546 0.9390
11.6735 4.1048 -1.4699 0.9514
14.6324 8.3190 -1.9994 0.9344
13.8320 9.5930 -1.9995 0.9344
10.7974 12.9192 -2.0000 0.9344
9.6015 13.8331 -2.0002 0.9344
8.3288 14.6367 -2.0004 0.9344
-1.8263 16.7549 -2.0020 0.9344
-4.7787 16.1667 -2.0025 0.9343
-11.3043 12.5182 -2.0035 0.9343
-12.3780 11.4597 -2.0037 0.9343
-13.3529 10.3094 -2.0039 0.9343
-15.6105 6.4027 -2.0042 0.9343
-16.1205 4.9833 -2.0043 0.9343
-16.5016 3.5240 -2.0044 0.9343
-16.7507 2.0364 -2.0044 0.9343
-16.8658 0.5325 -2.0044 0.9343
-13.0767 -10.6563 -2.0038 0.9343
-10.9707 -12.8103 -2.0034 0.9343
-8.5154 -14.5546 -2.0030 0.9343
-6.6349 -14.0953 -1.8505 0.9392
-4.0209 -15.0473 -1.8501 0.9392
-2.6609 -15.3444 -1.8499 0.9392
1.3845 -14.2955 -1.7060 0.9438
4.2321 -14.9778 -1.8488 0.9392
6.8273 -13.9829 -1.8484 0.9392
8.0479 -13.3160 -1.8482 0.9392
9.2039 -12.5429 -1.8480 0.9393
10.2862 -11.6699 -1.8478 0.9393
14.0788 -9.2257 -1.9994 0.9344
14.8455 -7.9312 -1.9993 0.9344
15.4937 -6.5735 -1.9992 0.9345
16.0181 -5.1635 -1.9991 0.9345
16.4147 -3.7124 -1.9991 0.9345
16.6803 -2.2318 -1.9990 0.9345
15.5969 0.7153 -1.8546 0.9390
15.4709 2.1052 -1.8547 0.9390
14.8280 7.9645 -1.9994 0.9344
13.1766 10.4766 -1.9996 0.9344
9.9312 13.5978 -2.0002 0.9344
8.6782 14.4318 -2.0004 0.9344
7.3556 15.1507 -2.0006 0.9344
5.9739 15.7487 -2.0008 0.9344
1.5868 16.7747 -2.0015 0.9344
-2.9171 16.6013 -2.0022 0.9344
-5.8249 15.8213 -2.0027 0.9343
-7.2153 15.2397 -2.0029 0.9343
-8.5482 14.5360 -2.0031 0.9343
-9.8131 13.7160 -2.0033 0.9343
-12.0986 11.7538 -2.0037 0.9343
-13.1008 10.6273 -2.0038 0.9343
-13.9985 9.4157 -2.0040 0.9343
-16.4120 3.9198 -2.0043 0.9343
-16.6968 2.4387 -2.0044 0.9343
-16.8645 -0.5702 -2.0044 0.9343
-16.7460 -2.0739 -2.0044 0.9343
-16.4936 -3.5609 -2.0043 0.9343
-15.5959 -6.4375 -2.0042 0.9343
-14.9580 -7.8041 -2.0041 0.9343
-14.2005 -9.1080 -2.0040 0.9343
-13.3295 -10.3390 -2.0038 0.9343
-8.8632 -14.3460 -2.0031 0.9343
-6.9722 -13.9320 -1.8506 0.9392
-5.6996 -14.4974 -1.8504 0.9392
-4.3818 -14.9467 -1.8502 0.9392
-1.6528 -15.4841 -1.8497 0.9392
2.5094 -15.3629 -1.8491 0.9392
6.4892 -14.1435 -1.8484 0.9392
7.7255 -13.5061 -1.8483 0.9392
8.8998 -12.7610 -1.8481 0.9393
11.0257 -10.9724 -1.8477 0.9393
11.9606 -9.9432 -1.8476 0.9393
13.8531 -9.5619 -1.9995 0.9344
15.3312 -6.9444 -1.9992 0.9345
16.3208 -4.1062 -1.9991 0.9345
16.7903 -1.1375 -1.9990 0.9345
15.9338 0.3470 -1.8932 0.9378
14.4914 1.6179 -1.7321 0.9430
12.2080 3.6433 -1.5133 0.9500
14.2768 8.9165 -1.9995 0.9344
12.4649 11.3155 -1.9997 0.9344
11.4056 12.3844 -1.9999 0.9344
10.2551 13.3547 -2.0001 0.9344
9.0225 14.2185 -2.0003 0.9344
7.7176 14.9689 -2.0005 0.9344
6.3508 15.6000 -2.0007 0.9344
3.4753 16.4847 -2.0012 0.9344
1.9897 16.7312 -2.0014 0.9344
0.4877 16.8440 -2.0017 0.9344
-1.0185 16.8223 -2.0019 0.9344
-3.9955 16.3768 -2.0024 0.9344
-5.4426 15.9564 -2.0026 0.9343
-8.1959 14.7370 -2.0031 0.9343
-10.6887 13.0466 -2.0034 0.9343
-11.8121 12.0411 -2.0036 0.9343
-12.8412 10.9391 -2.0038 0.9343
-13.7677 9.7494 -2.0039 0.9343
-16.3128 4.3134 -2.0043 0.9343
-16.2254 -4.6305 -2.0043 0.9343
-13.5746 -10.0156 -2.0039 0.9343
-12.6250 -11.1869 -2.0037 0.9343
-11.5746 -12.2685 -2.0035 0.9343
-9.2059 -14.1291 -2.0032 0.9343
-7.8933 -14.8680 -1.9996 0.9344
-4.7401 -14.8375 -1.8502 0.9392
-0.5776 -14.0882 -1.6749 0.9448
0.6609 -13.6322 -1.6212 0.9465
2.1392 -15.4193 -1.8491 0.9392
6.1474 -14.2959 -1.8485 0.9392
9.7136 -12.1516 -1.8479 0.9393
10.7589 -11.2347 -1.8478 0.9393
16.2174 -4.4975 -1.9991 0.9345
16.7581 -1.5410 -1.9990 0.9345
16.5711 -0.0378 -1.9684 0.9354
11.8483 4.3974 -1.5012 0.9504
13.6646 9.8304 -1.9996 0.9344
12.7331 11.0122 -1.9997 0.9344
11.6999 12.1062 -1.9999 0.9344
10.5730 13.1038 -2.0001 0.9344
6.7239 15.4423 -2.0007 0.9344
5.3187 15.9828 -2.0009 0.9344
-0.6136 16.8414 -2.0018 0.9344
-2.1152 16.7213 -2.0021 0.9344
-6.4737 15.5681 -2.0028 0.9343
-10.3716 13.2996 -2.0034 0.9343
-12.5741 11.2446 -2.0037 0.9343
-14.3758 8.8298 -2.0040 0.9343
-15.1077 7.5112 -2.0041 0.9343
-15.7188 6.1324 -2.0042 0.9343
-16.2042 4.7044 -2.0043 0.9343
-16.5600 3.2388 -2.0044 0.9343
-16.8724 0.2414 -2.0044 0.9343
-16.6459 -2.7637 -2.0044 0.9343
-16.3322 -4.2389 -2.0043 0.9343
-15.8879 -5.6802 -2.0042 0.9343
-15.3164 -7.0759 -2.0041 0.9343
-13.8118 -9.6864 -2.0039 0.9343
-12.8907 -10.8802 -2.0038 0.9343
-11.8666 -11.9869 -2.0036 0.9343
-9.5434 -13.9040 -2.0032 0.9343
-8.2628 -14.6991 -2.0030 0.9343
-6.3906 -14.2074 -1.8505 0.9392
-5.0958 -14.7196 -1.8503 0.9392
-2.3956 -15.3877 -1.8499 0.9392
-0.9897 -15.1988 -1.8092 0.9405
0.3278 -13.4383 -1.5968 0.9473
1.6510 -14.4449 -1.7270 0.9431
1.2521 -6.0762 -0.7369 0.9753
7.0674 -13.8628 -1.8484 0.9392
9.4188 -12.3820 -1.8480 0.9393
10.4859 -11.4905 -1.8478 0.9393
11.4691 -10.5073 -1.8477 0.9393
14.9800 -7.6737 -1.9993 0.9344
-13.2099 5.0504 -2.0038 0.9445
-13.8984 2.6202 -2.0039 0.9445
-14.0770 1.3687 -2.0040 0.9445
-13.9361 -2.4112 -2.0039 0.9445
-13.2842 -4.8515 -2.0038 0.9445
-11.5216 -8.1977 -2.0035 0.9445
-10.7429 -9.1932 -2.0034 0.9445
-6.8425 -12.3685 -2.0028 0.9445
-5.2760 -11.9459 -1.8503 0.9486
-4.1878 -12.3681 -1.8502 0.9486
-3.0663 -12.6914 -1.8500 0.9486
-1.9206 -12.9132 -1.8498 0.9486
0.4070 -13.0463 -1.8494 0.9486
3.8491 -12.4682 -1.8489 0.9486
8.8574 -9.5745 -1.8481 0.9487
9.6763 -8.7447 -1.8479 0.9487
11.9877 -7.4496 -1.9998 0.9446
12.6044 -6.3491 -1.9997 0.9446
13.1205 -5.1980 -1.9996 0.9446
13.5318 -4.0054 -1.9995 0.9446
14.0280 -1.5345 -1.9995 0.9446
14.1089 -0.2757 -1.9995 0.9446
12.6900 3.2229 -1.8551 0.9485
11.3954 6.4786 -1.8573 0.9484
11.5982 8.0438 -1.9999 0.9446
10.8342 9.0479 -2.0000 0.9446
9.9837 9.9799 -2.0001 0.9446
9.0533 10.8323 -2.0003 0.9446
8.0505 11.5985 -2.0005 0.9446
5.8600 12.8478 -2.0008 0.9445
4.6898 13.3210 -2.0010 0.9445
0.9917 14.0917 -2.0016 0.9445
-1.5311 14.0462 -2.0020 0.9445
-5.2007 13.1419 -2.0026 0.9445
-6.3540 12.6262 -2.0028 0.9445
-7.4568 12.0094 -2.0029 0.9445
-8.5001 11.2965 -2.0031 0.9445
-11.1925 8.6414 -2.0035 0.9445
-11.9201 7.6079 -2.0036 0.9445
-13.0845 5.3666 -2.0038 0.9445
-13.5119 4.1769 -2.0039 0.9445
-14.0400 1.7069 -2.0040 0.9445
-14.1364 0.4463 -2.0040 0.9445
-14.1198 -0.8178 -2.0040 0.9445
-13.9901 -2.0753 -2.0039 0.9445
-13.3972 -4.5306 -2.0038 0.9445
-12.9386 -5.7086 -2.0038 0.9445
-11.7156 -7.9183 -2.0036 0.9445
-10.9611 -8.9323 -2.0034 0.9445
-9.1961 -10.7381 -2.0032 0.9445
-8.1998 -11.5154 -2.0030 0.9445
-5.5619 -11.8158 -1.8504 0.9486
-3.3708 -12.6143 -1.8500 0.9486
-2.2307 -12.8637 -1.8498 0.9486
-1.0730 -13.0102 -1.8497 0.9486
0.0931 -13.0527 -1.8495 0.9486
3.5482 -12.5575 -1.8489 0.9486
5.7243 -11.7238 -1.8486 0.9487
6.7477 -11.1648 -1.8484 0.9487
11.0403 -8.7378 -1.9949 0.9447
11.8052 -7.7359 -1.9998 0.9446
12.4482 -6.6505 -1.9997 0.9446
12.9918 -5.5121 -1.9996 0.9446
13.9870 -1.8714 -1.9995 0.9446
14.0982 -0.6149 -1.9995 0.9446
12.0421 5.1410 -1.8552 0.9485
11.5354 6.1960 -1.8553 0.9485
8.3269 11.4012 -2.0004 0.9446
6.1671 12.7028 -2.0008 0.9445
-2.4454 13.9173 -2.0021 0.9445
-4.8830 13.2629 -2.0025 0.9445
-6.0484 12.7750 -2.0027 0.9445
-7.1656 12.1850 -2.0029 0.9445
-9.2203 10.7178 -2.0032 0.9445
-10.1413 9.8523 -2.0034 0.9445
-11.7336 7.8922 -2.0036 0.9445
-13.7561 3.2855 -2.0039 0.9445
-13.9948 2.0441 -2.0040 0.9445
-14.1216 0.7862 -2.0040 0.9445
-14.0361 -1.7383 -2.0040 0.9445
-13.8245 -2.9846 -2.0039 0.9445
-13.5024 -4.2071 -2.0039 0.9445
-13.0723 -5.3958 -2.0038 0.9445
-11.9029 -7.6343 -2.0036 0.9445
-11.1729 -8.6663 -2.0035 0.9445
-9.4519 -10.5140 -2.0032 0.9445
-8.4746 -11.3151 -2.0030 0.9445
-6.3030 -12.5948 -1.9955 0.9447
-3.6733 -12.5299 -1.8501 0.9486
-1.3856 -12.9809 -1.8497 0.9486
-0.2209 -13.0515 -1.8495 0.9486
0.9454 -13.0177 -1.8493 0.9486
2.1038 -12.8801 -1.8492 0.9486
3.2452 -12.6395 -1.8490 0.9486
5.4408 -11.8584 -1.8486 0.9487
9.2449 -9.2002 -1.8480 0.9487
10.1161 -8.4099 -1.8640 0.9482
11.6159 -8.0177 -1.9998 0.9446
13.3238 -4.6516 -1.9996 0.9446
13.6855 -3.4432 -1.9995 0.9446
13.9380 -2.2073 -1.9995 0.9446
14.1082 0.3072 -1.9995 0.9446
13.8345 1.5446 -1.9724 0.9453
12.8301 2.6089 -1.8551 0.9485
11.9936 4.7826 -1.8295 0.9492
10.4516 9.4879 -2.0001 0.9446
8.5985 11.1974 -2.0004 0.9446
7.5649 11.9215 -2.0005 0.9446
6.4707 12.5505 -2.0007 0.9446
5.3246 13.0794 -2.0009 0.9445
2.9137 13.8206 -2.0013 0.9445
1.6681 14.0270 -2.0015 0.9445
0.4089 14.1213 -2.0017 0.9445
-0.8538 14.1028 -2.0019 0.9445
-3.3495 13.7288 -2.0023 0.9445
-7.9467 11.6916 -2.0030 0.9445
-8.9597 10.9362 -2.0032 0.9445
-10.7637 9.1693 -2.0035 0.9445
-11.5402 8.1720 -2.0036 0.9445
-12.8110 5.9895 -2.0038 0.9445
-13.6731 3.6154 -2.0039 0.9445
-14.1428 -0.1379 -2.0040 0.9445
-14.0739 -1.4002 -2.0040 0.9445
-13.8924 -2.6513 -2.0039 0.9445
-12.0832 -7.3460 -2.0036 0.9445
-10.5825 -9.3771 -2.0034 0.9445
-8.7445 -11.1083 -2.0031 0.9445
-6.6231 -12.4754 -2.0013 0.9445
-3.9737 -12.4383 -1.8501 0.9486
-0.5347 -13.0428 -1.8496 0.9486
1.7935 -12.9273 -1.8492 0.9486
2.9404 -12.7142 -1.8490 0.9486
4.0636 -12.3997 -1.8488 0.9486
6.2033 -11.4769 -1.8485 0.9487
8.1446 -10.1888 -1.8482 0.9487
9.8256 -8.5763 -1.8479 0.9487
12.7120 -6.1306 -1.9997 0.9446
13.5988 -3.7713 -1.9995 0.9446
13.8810 -2.5419 -1.9995 0.9446
14.1115 -0.0322 -1.9995 0.9446
14.0581 1.2281 -1.9995 0.9446
12.8891 2.2995 -1.8551 0.9485
11.7015 3.1878 -1.7184 0.9522
11.7394 4.3570 -1.7742 0.9507
12.1474 7.1863 -1.9998 0.9446
7.8493 11.7358 -2.0005 0.9446
6.7705 12.3909 -2.0007 0.9446
2.0049 13.9824 -2.0014 0.9445
0.7484 14.1070 -2.0016 0.9445
-0.5144 14.1189 -2.0018 0.9445
-3.0182 13.8050 -2.0022 0.9445
-7.6630 11.8791 -2.0030 0.9445
-8.6939 11.1483 -2.0031 0.9445
-9.6554 10.3282 -2.0033 0.9445
-10.5398 9.4254 -2.0034 0.9445
-12.6631 6.2958 -2.0038 0.9445
-13.5821 3.9432 -2.0039 0.9445
-13.8802 2.7146 -2.0039 0.9445
-14.1420 0.2023 -2.0040 0.9445
-14.1035 -1.0613 -2.0040 0.9445
-13.6893 -3.5530 -2.0039 0.9445
-12.8381 -5.9310 -2.0038 0.9445
-12.2566 -7.0533 -2.0037 0.9445
-10.8052 -9.1200 -2.0034 0.9445
-9.9469 -10.0477 -2.0033 0.9445
-9.0093 -10.8950 -2.0031 0.9445
-7.9998 -11.6550 -2.0030 0.9445
-5.3571 -11.9098 -1.8503 0.9486
-3.1525 -12.6704 -1.8500 0.9486
0.3183 -13.0489 -1.8494 0.9486
3.7643 -12.4941 -1.8489 0.9486
4.8645 -12.1069 -1.8487 0.9487
6.9393 -11.0466 -1.8484 0.9487
7.8973 -10.3819 -1.8482 0.9487
8.7922 -9.6345 -1.8481 0.9487
9.6167 -8.8103 -1.8480 0.9487
11.2118 -8.5631 -1.9989 0.9446
12.5610 -6.4346 -1.9997 0.9446
13.0849 -5.2870 -1.9996 0.9446
-12.1055 1.1770 -2.0037 0.9519
-12.1623 0.0913 -2.0037 0.9519
-11.9843 -2.0735 -2.0036 0.9519
-11.4239 -4.1720 -2.0035 0.9519
-10.4987 -6.1371 -2.0034 0.9519
-9.2387 -7.9060 -2.0032 0.9519
-8.4953 -8.6988 -2.0031 0.9519
-6.8115 -10.0699 -2.0028 0.9519
-4.5375 -10.2738 -1.8502 0.9555
-3.6017 -10.6371 -1.8501 0.9555
-2.6372 -10.9153 -1.8499 0.9555
-0.6534 -11.2084 -1.8496 0.9555
1.3505 -11.1439 -1.8493 0.9555
1.2910 -6.0565 -1.0202 0.9752
6.8535 -8.8838 -1.8484 0.9555
7.6189 -8.2357 -1.8483 0.9555
9.6988 -7.3037 -2.0001 0.9520
10.3118 -6.4081 -2.0001 0.9520
10.8424 -5.4615 -2.0000 0.9520
11.9012 -2.3923 -1.9998 0.9520
12.0671 -1.3200 -1.9998 0.9520
12.1367 -0.2371 -1.9998 0.9520
11.9855 1.9256 -1.9998 0.9520
11.4751 2.9143 -1.9504 0.9531
10.6252 3.7362 -1.8554 0.9554
10.2494 4.6702 -1.8555 0.9554
9.9767 6.9192 -2.0001 0.9520
9.3194 7.7829 -2.0002 0.9520
7.7874 9.3176 -2.0005 0.9520
5.0404 11.0508 -2.0009 0.9520
2.9948 11.7731 -2.0013 0.9519
-0.2328 12.1490 -2.0018 0.9519
-1.3168 12.0807 -2.0019 0.9519
-2.3905 11.9159 -2.0021 0.9519
-7.3101 9.7150 -2.0029 0.9519
-8.1489 9.0240 -2.0030 0.9519
-8.9227 8.2608 -2.0032 0.9519
-10.7947 5.6012 -2.0035 0.9519
-11.2521 4.6151 -2.0035 0.9519
-11.8942 2.5401 -2.0036 0.9519
-12.0736 1.4678 -2.0036 0.9519
-12.1565 0.3838 -2.0037 0.9519
-11.8232 -2.8518 -2.0036 0.9519
-11.5210 -3.8961 -2.0035 0.9519
-11.1267 -4.9092 -2.0035 0.9519
-6.1389 -10.4927 -2.0027 0.9519
-3.8565 -10.5476 -1.8501 0.9555
-2.8990 -10.8489 -1.8500 0.9555
-1.9185 -11.0635 -1.8498 0.9555
0.0801 -11.2264 -1.8495 0.9555
1.0821 -11.1734 -1.8493 0.9555
2.0754 -11.0312 -1.8492 0.9555
4.9237 -10.0842 -1.8487 0.9555
5.8041 -9.6035 -1.8486 0.9555
11.1757 -4.7415 -1.9999 0.9520
11.5541 -3.7245 -1.9999 0.9520
12.0319 -1.6098 -1.9998 0.9520
12.1275 -0.5290 -1.9998 0.9520
12.1263 0.5561 -1.9998 0.9520
11.8243 2.7021 -1.9981 0.9520
10.7119 3.4795 -1.8554 0.9554
10.3587 4.4223 -1.8555 0.9554
10.1400 6.6772 -2.0001 0.9520
8.7916 8.3753 -2.0003 0.9520
7.1625 9.8069 -2.0006 0.9520
5.3046 10.9262 -2.0009 0.9520
1.1442 12.0959 -2.0016 0.9519
0.0595 12.1508 -2.0017 0.9519
-1.0259 12.1086 -2.0019 0.9519
-2.1032 11.9696 -2.0021 0.9519
-4.1995 11.4065 -2.0024 0.9519
-8.7213 8.4728 -2.0031 0.9519
-11.5298 3.8704 -2.0036 0.9519
-11.8296 2.8254 -2.0036 0.9519
-12.1438 0.6761 -2.0037 0.9519
-12.1556 -0.4110 -2.0037 0.9519
-11.6114 -3.6179 -2.0036 0.9519
-8.1285 -9.0420 -2.0030 0.9519
-7.2892 -9.7305 -2.0029 0.9519
-6.3896 -10.3423 -2.0027 0.9519
-5.4267 -10.8437 -1.9976 0.9520
-4.1092 -10.4520 -1.8501 0.9555
-3.1592 -10.7763 -1.8500 0.9555
-2.1841 -11.0144 -1.8498 0.9555
1.8095 -11.0782 -1.8492 0.9555
3.7506 -10.5779 -1.8489 0.9555
5.5716 -9.7405 -1.8486 0.9555
6.4186 -9.2034 -1.8485 0.9555
7.2143 -8.5929 -1.8483 0.9555
7.9523 -7.9138 -1.8482 0.9555
9.3131 -7.7423 -1.9952 0.9521
9.9919 -6.8968 -2.0001 0.9520
10.5674 -5.9767 -2.0000 0.9520
11.0585 -5.0090 -1.9999 0.9520
12.1113 -0.8205 -1.9998 0.9520
12.0641 1.3469 -1.9998 0.9520
11.8959 2.4189 -1.9998 0.9520
10.4620 4.1718 -1.8555 0.9554
10.0480 5.0896 -1.8555 0.9554
9.6826 7.3255 -2.0002 0.9520
7.3961 9.6316 -2.0006 0.9520
5.5657 10.7952 -2.0008 0.9520
3.5573 11.6150 -2.0012 0.9519
2.5061 11.8872 -2.0013 0.9519
1.4347 12.0646 -2.0015 0.9519
0.3517 12.1455 -2.0017 0.9519
-0.7344 12.1295 -2.0019 0.9519
-1.8147 12.0165 -2.0020 0.9519
-3.9239 11.5040 -2.0024 0.9519
-4.9359 11.1085 -2.0025 0.9519
-5.9086 10.6242 -2.0027 0.9519
-6.8342 10.0549 -2.0028 0.9519
-7.7053 9.4051 -2.0030 0.9519
-8.5149 8.6800 -2.0031 0.9519
-9.2565 7.8854 -2.0032 0.9519
-10.5126 6.1137 -2.0034 0.9519
-11.9890 2.0467 -2.0036 0.9519
-11.6952 -3.3376 -2.0036 0.9519
-11.3501 -4.3685 -2.0035 0.9519
-10.9143 -5.3644 -2.0034 0.9519
-10.3912 -6.3173 -2.0034 0.9519
-8.3438 -8.8440 -2.0030 0.9519
-7.5202 -9.5531 -2.0029 0.9519
-5.7000 -10.7366 -2.0025 0.9519
-4.3595 -10.3504 -1.8502 0.9555
2.5291 -10.9357 -1.8491 0.9555
4.4333 -10.3097 -1.8488 0.9555
5.3359 -9.8717 -1.8486 0.9555
7.7598 -8.1029 -1.8483 0.9555
8.6668 -7.5648 -1.8951 0.9544
10.4207 -6.2292 -2.0000 0.9520
11.6979 -3.2441 -1.9998 0.9520
12.0930 1.0564 -1.9998 0.9520
10.5592 3.9190 -1.8555 0.9554
9.8559 7.0904 -2.0002 0.9520
9.1838 7.9426 -2.0003 0.9520
7.6255 9.4508 -2.0005 0.9520
6.7516 10.0946 -2.0007 0.9520
5.8236 10.6580 -2.0008 0.9520
3.8355 11.5258 -2.0011 0.9519
-0.4424 12.1433 -2.0018 0.9519
-1.5251 12.0564 -2.0020 0.9519
-5.6512 10.7630 -2.0026 0.9519
-6.5903 10.2161 -2.0028 0.9519
-7.4767 9.5875 -2.0029 0.9519
-8.3035 8.8821 -2.0031 0.9519
-9.7522 7.2643 -2.0033 0.9519
-10.3624 6.3647 -2.0034 0.9519
-11.6799 3.3909 -2.0036 0.9519
-11.9363 2.3345 -2.0036 0.9519
-12.0972 1.2593 -2.0036 0.9519
-12.1614 0.1740 -2.0037 0.9519
-12.1283 -0.9127 -2.0036 0.9519
-11.9982 -1.9920 -2.0036 0.9519
-11.7721 -3.0554 -2.0036 0.9519
-11.4520 -4.0943 -2.0035 0.9519
-11.0402 -5.1004 -2.0035 0.9519
-10.5403 -6.0656 -2.0034 0.9519
-9.9560 -6.9823 -2.0033 0.9519
-9.2922 -7.8430 -2.0032 0.9519
-7.7480 -9.3697 -2.0029 0.9519
-5.9569 -10.5969 -2.0026 0.9519
-4.6073 -10.2428 -1.8502 0.9555
-1.7273 -11.0948 -1.8498 0.9555
-0.7296 -11.2038 -1.8496 0.9555
0.2738 -11.2232 -1.8494 0.9555
1.2748 -11.1529 -1.8493 0.9555
1.2517 -6.0744 -1.0217 0.9752
5.9689 -9.5018 -1.8485 0.9555
6.7930 -8.9302 -1.8484 0.9555
7.5628 -8.2874 -1.8483 0.9555
8.2721 -7.5785 -1.8482 0.9555
9.6490 -7.3695 -2.0002 0.9520
10.2680 -6.4781 -2.0001 0.9520
10.8050 -5.5351 -2.0000 0.9520
11.2557 -4.5479 -1.9999 0.9520
-9.9554 3.8062 -2.0033 0.9575
-10.2557 2.9020 -2.0034 0.9575
-10.4740 1.9747 -2.0034 0.9575
-10.6229 -0.8720 -2.0034 0.9575
-10.5025 -1.8171 -2.0034 0.9575
-10.2981 -2.7477 -2.0034 0.9575
-10.0114 -3.6562 -2.0033 0.9575
-9.6446 -4.5354 -2.0032 0.9575
-5.9696 -8.8252 -2.0026 0.9576
-5.1574 -9.3224 -2.0025 0.9576
-2.3113 -9.5665 -1.8499 0.9607
-1.4477 -9.7339 -1.8497 0.9607
-0.5727 -9.8236 -1.8496 0.9607
0.3068 -9.8347 -1.8494 0.9607
1.1837 -9.7673 -1.8493 0.9607
2.9018 -9.3996 -1.8490 0.9608
4.5269 -8.7323 -1.8488 0.9608
6.0073 -7.7868 -1.8485 0.9608
7.7922 -7.0420 -1.9741 0.9582
9.0387 -5.6170 -2.0003 0.9576
9.5039 -4.7873 -2.0002 0.9576
10.2033 -3.0202 -2.0001 0.9576
10.6386 -0.2079 -2.0000 0.9576
10.5060 1.6879 -2.0000 0.9576
9.6836 4.4123 -2.0002 0.9576
7.5274 7.5245 -2.0005 0.9576
6.0696 8.7445 -2.0008 0.9576
5.2648 9.2522 -2.0009 0.9576
4.4179 9.6860 -2.0010 0.9576
2.6248 10.3189 -2.0013 0.9576
0.7476 10.6228 -2.0016 0.9576
-0.2040 10.6480 -2.0018 0.9576
-2.0951 10.4435 -2.0021 0.9576
-3.0196 10.2154 -2.0022 0.9576
-3.9200 9.9056 -2.0024 0.9576
-4.7892 9.5167 -2.0025 0.9576
-7.8197 7.2395 -2.0030 0.9576
-8.9836 5.7336 -2.0032 0.9576
-9.4600 4.9087 -2.0032 0.9575
-10.4235 2.2260 -2.0034 0.9575
-10.5807 1.2863 -2.0034 0.9575
-10.3613 -2.4992 -2.0034 0.9575
-10.0965 -3.4144 -2.0033 0.9575
-8.8295 -5.9676 -2.0031 0.9576
-7.6264 -7.4423 -2.0029 0.9576
-6.9310 -8.0932 -2.0028 0.9576
-5.3802 -9.1958 -2.0026 0.9576
-2.5408 -9.5083 -1.8499 0.9607
0.9484 -9.7931 -1.8493 0.9607
2.6749 -9.4668 -1.8491 0.9608
5.8183 -7.9291 -1.8486 0.9608
6.5027 -7.3775 -1.8485 0.9608
8.3451 -6.6047 -2.0004 0.9576
9.7960 -4.1562 -2.0001 0.9576
10.1205 3.2874 -2.0001 0.9576
9.7868 4.1781 -2.0002 0.9576
9.3749 5.0355 -2.0002 0.9576
8.8882 5.8528 -2.0003 0.9576
8.3304 6.6234 -2.0004 0.9576
7.0201 8.0005 -2.0006 0.9576
2.8722 10.2526 -2.0013 0.9576
-0.8991 10.6125 -2.0019 0.9576
-5.4008 9.1840 -2.0026 0.9576
-8.2761 6.7136 -2.0031 0.9576
-9.3391 5.1348 -2.0032 0.9576
-9.7607 4.2804 -2.0033 0.9575
-10.6422 0.5925 -2.0034 0.9575
-10.5778 -1.3100 -2.0034 0.9575
-8.9706 -5.7536 -2.0031 0.9576
-7.1237 -7.9243 -2.0028 0.9576
-6.3873 -8.5282 -2.0027 0.9576
-5.5999 -9.0640 -2.0026 0.9576
-4.7600 -9.5115 -1.9992 0.9576
-3.6014 -9.1603 -1.8501 0.9607
-2.7688 -9.4447 -1.8499 0.9607
-1.9142 -9.6535 -1.8498 0.9607
-1.0445 -9.7851 -1.8497 0.9607
0.7127 -9.8133 -1.8494 0.9607
1.5860 -9.7098 -1.8492 0.9607
2.4465 -9.5286 -1.8491 0.9608
4.8835 -8.5376 -1.8487 0.9608
6.9704 -6.9367 -1.8484 0.9608
9.6933 -4.3906 -2.0002 0.9576
10.0464 -3.5074 -2.0001 0.9576
10.2093 -2.5686 -1.9788 0.9581
10.5097 -1.6643 -2.0000 0.9576
10.6163 -0.7192 -2.0000 0.9576
10.6381 0.2317 -2.0000 0.9576
10.5749 1.1807 -2.0000 0.9576
10.4274 2.1203 -2.0001 0.9576
10.1966 3.0430 -2.0001 0.9576
8.4872 6.4211 -2.0004 0.9576
7.2104 7.8292 -2.0006 0.9576
6.4828 8.4423 -2.0007 0.9576
4.8784 9.4620 -2.0010 0.9576
3.1179 10.1803 -2.0012 0.9576
2.1965 10.4189 -2.0014 0.9576
1.2575 10.5742 -2.0015 0.9576
-1.5905 10.5317 -2.0020 0.9576
-2.5247 10.3484 -2.0021 0.9576
-3.4390 10.0823 -2.0023 0.9576
-5.9895 8.8120 -2.0027 0.9576
-6.7528 8.2425 -2.0028 0.9576
-7.4623 7.6070 -2.0029 0.9576
-9.2129 5.3578 -2.0032 0.9576
-10.0196 3.6338 -2.0033 0.9575
-10.3043 2.7246 -2.0034 0.9575
-10.5066 1.7936 -2.0034 0.9575
-10.6063 -1.0552 -2.0034 0.9575
-9.9467 -3.8284 -2.0033 0.9575
-9.5648 -4.7012 -2.0032 0.9575
-9.1065 -5.5363 -2.0032 0.9576
-8.5754 -6.3271 -2.0031 0.9576
-7.9757 -7.0672 -2.0030 0.9576
-2.9952 -9.3755 -1.8500 0.9607
-2.1459 -9.6048 -1.8498 0.9607
-1.2795 -9.7573 -1.8497 0.9607
0.4765 -9.8278 -1.8494 0.9607
1.3520 -9.7453 -1.8493 0.9607
1.4054 -6.0771 -1.1724 0.9749
3.0635 -9.3480 -1.8490 0.9608
3.8858 -9.0364 -1.8489 0.9608
5.4305 -8.2000 -1.8486 0.9608
7.9978 -6.9809 -1.9954 0.9577
8.6105 -6.2543 -2.0003 0.9576
9.5850 -4.6225 -2.0002 0.9576
9.9592 -3.7480 -2.0001 0.9576
10.2276 -2.8364 -1.9950 0.9577
10.4667 -1.9166 -2.0000 0.9576
10.5959 -0.9743 -2.0000 0.9576
10.6406 -0.0242 -2.0000 0.9576
10.6003 0.9260 -2.0000 0.9576
10.4753 1.8689 -2.0000 0.9576
10.2668 2.7969 -2.0001 0.9576
9.1591 5.4185 -2.0003 0.9576
8.0500 6.9620 -2.0004 0.9576
6.6839 8.2838 -2.0007 0.9576
5.1044 9.3418 -2.0009 0.9576
4.2501 9.7610 -2.0011 0.9576
1.5114 10.5407 -2.0015 0.9576
0.5642 10.6343 -2.0016 0.9576
-2.2751 10.4059 -2.0021 0.9576
-3.1954 10.1619 -2.0022 0.9576
-4.0904 9.8367 -2.0024 0.9576
-7.2771 7.7841 -2.0029 0.9576
-7.9435 7.1036 -2.0030 0.9576
-9.5434 4.7448 -2.0032 0.9575
-10.2357 2.9717 -2.0034 0.9575
-10.4604 2.0458 -2.0034 0.9575
-10.6014 1.1036 -2.0034 0.9575
-10.6576 0.1525 -2.0034 0.9575
-10.0360 -3.5881 -2.0033 0.9575
-9.6752 -4.4698 -2.0033 0.9575
-9.2371 -5.3157 -2.0032 0.9576
-6.0295 -8.7845 -2.0027 0.9576
-4.0379 -8.9769 -1.8501 0.9607
-3.2199 -9.3010 -1.8500 0.9607
-1.5139 -9.7239 -1.8497 0.9607
-0.6394 -9.8195 -1.8496 0.9607
0.2399 -9.8366 -1.8495 0.9607
1.1173 -9.7752 -1.8493 0.9607
1.2438 -6.0357 -1.1583 0.9752
6.6290 -7.2641 -1.8484 0.9608
7.5387 -6.9065 -1.9217 0.9592
9.0004 -5.6783 -2.0003 0.9576
9.4711 -4.8518 -2.0002 0.9576
-9.3127 1.7557 -2.0032 0.9620
-9.1563 -2.4430 -2.0032 0.9620
-8.9014 -3.2508 -2.0031 0.9620
-7.1990 -6.1605 -2.0029 0.9620
-5.9878 -7.3421 -2.0027 0.9620
-4.5858 -8.2892 -2.0024 0.9620
-3.7027 -8.3837 -1.9373 0.9632
-2.0552 -8.5064 -1.8498 0.9649
-1.2873 -8.6554 -1.8497 0.9649
2.5804 -8.3584 -1.8491 0.9649
3.3162 -8.0941 -1.8490 0.9649
4.0255 -7.7652 -1.8489 0.9649
5.3420 -6.9245 -1.8486 0.9649
7.0080 -6.3333 -1.9966 0.9621
7.5601 -5.6931 -2.0005 0.9620
8.0380 -4.9951 -2.0004 0.9620
9.0737 -2.6858 -2.0003 0.9621
9.2771 -1.8648 -2.0002 0.9621
9.4065 -1.0289 -2.0002 0.9621
9.4608 -0.1849 -2.0002 0.9621
9.4395 0.6607 -2.0002 0.9621
9.3429 1.5010 -2.0002 0.9621
9.1717 2.3293 -2.0003 0.9621
8.9272 3.1391 -2.0003 0.9621
8.6114 3.9238 -2.0003 0.9620
8.2269 4.6773 -2.0004 0.9620
7.7767 5.3934 -2.0005 0.9620
3.1439 8.9302 -2.0012 0.9620
1.5055 9.3483 -2.0015 0.9620
0.6648 9.4460 -2.0016 0.9620
-0.1814 9.4682 -2.0018 0.9620
-1.8630 9.2862 -2.0020 0.9620
-2.6850 9.0834 -2.0022 0.9620
-3.4856 8.8079 -2.0023 0.9620
-4.2584 8.4620 -2.0024 0.9620
-4.9973 8.0483 -2.0025 0.9620
-5.6964 7.5704 -2.0026 0.9620
-6.3499 7.0318 -2.0027 0.9620
-6.9528 6.4370 -2.0028 0.9620
-7.9876 5.0980 -2.0030 0.9620
-8.7676 3.5961 -2.0031 0.9620
-9.2678 1.9792 -2.0032 0.9620
-9.4076 1.1437 -2.0032 0.9620
-9.4722 0.2991 -2.0032 0.9620
-8.9771 -3.0358 -2.0031 0.9620
-8.6699 -3.8252 -2.0031 0.9620
-8.2934 -4.5840 -2.0030 0.9620
-7.3452 -5.9857 -2.0029 0.9620
-5.4952 -7.7172 -2.0026 0.9620
-3.0054 -8.2197 -1.8500 0.9649
-2.2593 -8.4547 -1.8499 0.9649
-1.4951 -8.6221 -1.8497 0.9649
3.1207 -8.1717 -1.8490 0.9649
4.5239 -7.4853 -1.8488 0.9649
5.1740 -7.0511 -1.8487 0.9649
5.7827 -6.5605 -1.8486 0.9649
6.8404 -6.4874 -1.9928 0.9622
7.9156 -5.1870 -2.0004 0.9620
8.3469 -4.4593 -2.0004 0.9620
8.7115 -3.6960 -2.0003 0.9620
9.0065 -2.9033 -2.0003 0.9621
9.2296 -2.0874 -2.0002 0.9621
9.3763 1.2759 -2.0002 0.9621
9.0001 2.9235 -2.0003 0.9621
8.7033 3.7156 -2.0003 0.9620
8.3370 4.4780 -2.0004 0.9620
7.9041 5.2048 -2.0005 0.9620
7.4080 5.8900 -2.0005 0.9620
6.2427 7.1145 -2.0007 0.9620
5.5828 7.6440 -2.0008 0.9620
2.5541 9.1169 -2.0013 0.9620
1.7299 9.3092 -2.0015 0.9620
0.8917 9.4271 -2.0016 0.9620
0.0464 9.4697 -2.0017 0.9620
-0.7995 9.4366 -2.0019 0.9620
-1.6391 9.3282 -2.0020 0.9620
-6.1789 7.1824 -2.0027 0.9620
-6.7959 6.6023 -2.0028 0.9620
-7.3587 5.9693 -2.0029 0.9620
-7.8626 5.2886 -2.0030 0.9620
-8.3037 4.5655 -2.0031 0.9620
-8.6785 3.8058 -2.0031 0.9620
-8.9839 3.0158 -2.0032 0.9620
-9.3773 1.3696 -2.0032 0.9620
-9.4050 -1.1648 -2.0032 0.9620
-9.0475 -2.8191 -2.0032 0.9620
-7.4871 -5.8074 -2.0029 0.9620
-4.2365 -8.4654 -2.0010 0.9620
-2.4620 -8.3980 -1.8499 0.9649
-1.7021 -8.5838 -1.8498 0.9649
-0.9287 -8.7009 -1.8496 0.9649
2.9233 -8.2445 -1.8490 0.9649
3.6476 -7.9500 -1.8489 0.9649
4.3427 -7.5921 -1.8488 0.9649
5.0030 -7.1736 -1.8487 0.9649
6.2139 -6.1838 -1.8531 0.9648
8.6201 -3.9045 -2.0003 0.9620
8.9341 -3.1191 -2.0003 0.9621
9.1768 -2.3088 -2.0002 0.9621
9.3462 -1.4801 -2.0002 0.9621
9.4603 0.2060 -2.0002 0.9621
9.4042 1.0500 -2.0002 0.9621
9.2730 1.8856 -2.0002 0.9621
9.0677 2.7061 -2.0003 0.9621
8.7900 3.5051 -2.0003 0.9620
8.4422 4.2762 -2.0004 0.9620
7.0077 6.3615 -2.0006 0.9620
5.0718 7.9926 -2.0009 0.9620
4.3381 8.4141 -2.0010 0.9620
2.7725 9.0527 -2.0013 0.9620
0.2741 9.4657 -2.0017 0.9620
-0.5723 9.4530 -2.0018 0.9620
-4.6044 8.2791 -2.0025 0.9620
-6.0043 7.3288 -2.0027 0.9620
-6.6351 6.7637 -2.0028 0.9620
-7.2129 6.1445 -2.0029 0.9620
-8.1915 4.7638 -2.0030 0.9620
-9.4468 0.7542 -2.0032 0.9620
-9.4765 -0.0924 -2.0032 0.9620
-9.1128 -2.6007 -2.0032 0.9620
-7.0916 -6.2838 -2.0028 0.9620
-5.8601 -7.4443 -2.0026 0.9620
-4.4420 -8.3670 -2.0024 0.9620
-3.3973 -8.0659 -1.8500 0.9649
-1.9081 -8.5405 -1.8498 0.9649
-0.3584 -8.7425 -1.8496 0.9649
1.3770 -5.9541 -1.2918 0.9753
4.8291 -7.2919 -1.8487 0.9649
6.0485 -6.3160 -1.8485 0.9649
9.3079 -1.7045 -2.0002 0.9621
9.4229 -0.8665 -2.0002 0.9621
9.4626 -0.0216 -2.0002 0.9621
9.1301 2.4873 -2.0003 0.9621
8.8717 3.2927 -2.0003 0.9621
7.6825 5.5269 -2.0005 0.9620
7.1586 6.1911 -2.0006 0.9620
6.5775 6.8059 -2.0007 0.9620
5.2625 7.8682 -2.0009 0.9620
4.5391 8.3072 -2.0010 0.9620
3.7794 8.6798 -2.0011 0.9620
0.5017 9.4562 -2.0017 0.9620
-1.1886 9.3959 -2.0019 0.9620
-2.0230 9.2528 -2.0021 0.9620
-3.6371 8.7465 -2.0023 0.9620
-4.4039 8.3873 -2.0024 0.9620
-5.1355 7.9610 -2.0026 0.9620
-5.8262 7.4710 -2.0027 0.9620
-7.0629 6.3161 -2.0029 0.9620
-8.0745 4.9594 -2.0030 0.9620
-9.4259 0.9812 -2.0032 0.9620
-9.4759 0.1356 -2.0032 0.9620
-9.1727 -2.3807 -2.0032 0.9620
-8.2130 -4.7264 -2.0030 0.9620
-7.7579 -5.4407 -2.0029 0.9620
-6.0376 -7.3013 -2.0027 0.9620
-4.6420 -8.2579 -2.0024 0.9620
-2.8631 -8.2702 -1.8500 0.9649
-1.3461 -8.6465 -1.8497 0.9649
-0.5686 -8.7316 -1.8496 0.9649
1.2376 -6.0057 -1.2962 0.9752
2.5235 -8.3758 -1.8491 0.9649
5.2948 -6.9607 -1.8487 0.9649
5.8949 -6.4597 -1.8486 0.9649
6.9612 -6.3774 -1.9956 0.9621
9.0552 -2.7474 -2.0003 0.9621
-8.3753 1.5790 -2.0031 0.9656
-8.4829 0.8248 -2.0031 0.9656
-8.5226 0.0640 -2.0031 0.9656
-8.4943 -0.6973 -2.0031 0.9656
-8.3980 -1.4530 -2.0031 0.9656
-8.2346 -2.1971 -2.0030 0.9656
-8.0054 -2.9236 -2.0030 0.9656
-7.7121 -3.6267 -2.0029 0.9656
-6.4744 -5.5405 -2.0027 0.9656
-5.3852 -6.6032 -2.0026 0.9656
-4.1243 -7.4551 -2.0024 0.9656
-2.5244 -7.4554 -1.8499 0.9682
-1.8484 -7.6505 -1.8498 0.9682
0.2454 -7.8654 -1.8495 0.9682
1.2742 -5.9775 -1.4364 0.9752
3.6207 -6.9842 -1.8489 0.9682
4.2297 -6.6327 -1.8488 0.9682
5.3984 -5.8354 -1.8683 0.9679
6.3155 -5.7074 -2.0006 0.9656
7.9133 -3.1350 -2.0004 0.9656
8.4609 -0.9255 -2.0004 0.9656
8.5097 -0.1663 -2.0004 0.9656
8.4906 0.5943 -2.0004 0.9656
8.2496 2.0952 -2.0004 0.9656
7.7457 3.5293 -2.0005 0.9656
7.3998 4.2070 -2.0005 0.9656
6.9948 4.8512 -2.0006 0.9656
6.5339 5.4566 -2.0007 0.9656
5.4595 6.5324 -2.0009 0.9656
4.8546 6.9942 -2.0010 0.9656
4.2109 7.4001 -2.0011 0.9656
2.8277 8.0320 -2.0013 0.9656
0.5979 8.4958 -2.0016 0.9656
-0.9230 8.4676 -2.0019 0.9656
-1.6755 8.3519 -2.0020 0.9656
-2.4148 8.1694 -2.0021 0.9656
-3.1348 7.9216 -2.0022 0.9656
-4.4944 7.2384 -2.0024 0.9656
-6.7453 5.2078 -2.0028 0.9656
-7.5645 3.9252 -2.0029 0.9656
-7.8850 3.2341 -2.0030 0.9656
-8.1425 2.5171 -2.0030 0.9656
-8.4606 1.0286 -2.0031 0.9656
-8.5086 -0.4928 -2.0031 0.9656
-8.4306 -1.2506 -2.0031 0.9656
-8.0734 -2.7302 -2.0030 0.9656
-7.7972 -3.4402 -2.0030 0.9656
-7.0605 -4.7720 -2.0028 0.9656
-6.6059 -5.3832 -2.0028 0.9656
-6.0985 -5.9513 -2.0027 0.9656
-3.6259 -7.7029 -2.0009 0.9656
-2.7030 -7.3926 -1.8499 0.9682
-1.3447 -7.7546 -1.8497 0.9682
-0.6468 -7.8432 -1.8496 0.9682
0.7585 -7.8323 -1.8494 0.9682
2.8068 -7.3498 -1.8490 0.9682
3.4517 -7.0694 -1.8489 0.9682
4.0690 -6.7326 -1.8488 0.9682
4.6537 -6.3420 -1.8488 0.9682
6.6749 -5.2828 -2.0006 0.9656
7.8357 -3.3245 -2.0005 0.9656
8.4362 -1.1287 -2.0004 0.9656
8.5032 -0.3709 -2.0004 0.9656
8.2976 1.8961 -2.0004 0.9656
8.0952 2.6296 -2.0004 0.9656
7.8283 3.3420 -2.0005 0.9656
7.4988 4.0278 -2.0005 0.9656
7.1094 4.6815 -2.0006 0.9656
6.6632 5.2978 -2.0007 0.9656
6.1637 5.8719 -2.0007 0.9656
5.6150 6.3991 -2.0008 0.9656
5.0214 6.8753 -2.0009 0.9656
4.3876 7.2966 -2.0010 0.9656
1.5558 8.3728 -2.0015 0.9656
-1.4742 8.3896 -2.0020 0.9656
-2.9434 7.9946 -2.0022 0.9656
-3.6457 7.7002 -2.0023 0.9656
-4.9578 6.9296 -2.0025 0.9656
-7.0712 4.7562 -2.0029 0.9656
-8.5097 0.4738 -2.0031 0.9656
-8.4582 -1.0475 -2.0031 0.9656
-8.3308 -1.7986 -2.0030 0.9656
-8.1368 -2.5353 -2.0030 0.9656
-7.5557 -3.9420 -2.0029 0.9656
-7.1733 -4.6008 -2.0029 0.9656
-5.6966 -6.3368 -2.0026 0.9656
-5.1078 -6.8198 -2.0025 0.9656
-3.8128 -7.6188 -2.0023 0.9656
-0.8353 -7.8255 -1.8496 0.9682
1.2685 -7.7656 -1.8493 0.9682
2.6293 -7.4153 -1.8491 0.9682
3.2807 -7.1505 -1.8490 0.9682
3.9060 -6.8286 -1.8489 0.9682
4.4999 -6.4522 -1.8488 0.9682
6.0147 -5.9856 -1.9943 0.9657
6.5460 -5.4419 -2.0007 0.9656
7.0055 -4.8355 -2.0006 0.9656
7.4091 -4.1904 -2.0005 0.9656
8.0360 -2.8055 -2.0004 0.9656
8.2542 -2.0767 -2.0004 0.9656
8.4066 -1.3313 -2.0004 0.9656
8.4918 -0.5753 -2.0004 0.9656
8.4588 0.9444 -2.0004 0.9656
8.3407 1.6960 -2.0004 0.9656
8.1561 2.4341 -2.0004 0.9656
7.2198 4.5091 -2.0006 0.9656
6.3031 5.7219 -2.0007 0.9656
5.7672 6.2621 -2.0008 0.9656
4.5618 7.1888 -2.0010 0.9656
3.9018 7.5679 -2.0011 0.9656
2.4937 8.1422 -2.0013 0.9656
1.7567 8.3328 -2.0015 0.9656
1.0057 8.4569 -2.0016 0.9656
0.2465 8.5134 -2.0017 0.9656
-2.0191 8.2758 -2.0021 0.9656
-3.4594 7.7855 -2.0023 0.9656
-5.4000 6.5912 -2.0026 0.9656
-7.7203 3.6094 -2.0030 0.9656
-8.2395 2.1787 -2.0030 0.9656
-8.4013 1.4342 -2.0031 0.9656
-8.4958 0.6783 -2.0031 0.9656
-8.5225 -0.0831 -2.0031 0.9656
-8.4810 -0.8438 -2.0031 0.9656
-7.6484 -3.7592 -2.0029 0.9656
-7.2819 -4.4270 -2.0029 0.9656
-3.9950 -7.5250 -2.0023 0.9656
-3.2955 -7.8243 -1.9953 0.9657
-2.3953 -7.4977 -1.8499 0.9682
-1.0233 -7.8033 -1.8497 0.9682
-0.3224 -7.8630 -1.8495 0.9682
1.0813 -7.7940 -1.8493 0.9682
1.3719 -5.9321 -1.4310 0.9753
2.4502 -7.4765 -1.8491 0.9682
3.1079 -7.2274 -1.8490 0.9682
4.3435 -6.5586 -1.8488 0.9682
6.4133 -5.5978 -2.0007 0.9656
7.6668 -3.6975 -2.0005 0.9656
8.2019 -2.2746 -2.0004 0.9656
8.4756 -0.7794 -2.0004 0.9656
8.4790 0.7407 -2.0004 0.9656
8.3791 1.4949 -2.0004 0.9656
8.2122 2.2372 -2.0004 0.9656
7.9798 2.9617 -2.0004 0.9656
7.6837 3.6625 -2.0005 0.9656
7.3261 4.3341 -2.0006 0.9656
6.4388 5.5686 -2.0007 0.9656
5.9161 6.1216 -2.0008 0.9656
5.3460 6.6257 -2.0009 0.9656
4.7333 7.0770 -2.0010 0.9656
4.0826 7.4717 -2.0011 0.9656
2.6887 8.0797 -2.0013 0.9656
1.9566 8.2880 -2.0014 0.9656
0.4512 8.5049 -2.0017 0.9656
-0.3101 8.5117 -2.0018 0.9656
-1.0690 8.4506 -2.0019 0.9656
-1.8194 8.3218 -2.0020 0.9656
-4.6187 7.1598 -2.0025 0.9656
-5.2399 6.7191 -2.0026 0.9656
-5.8192 6.2247 -2.0027 0.9656
-6.3520 5.6804 -2.0027 0.9656
-7.6312 3.7941 -2.0029 0.9656
-8.5220 0.1219 -2.0031 0.9656
-8.4988 -0.6396 -2.0031 0.9656
-8.4077 -1.3959 -2.0031 0.9656
-8.2494 -2.1411 -2.0030 0.9656
-8.0251 -2.8691 -2.0030 0.9656
-7.7366 -3.5742 -2.0029 0.9656
-7.3863 -4.2506 -2.0029 0.9656
-6.5120 -5.4963 -2.0027 0.9656
-5.4299 -6.5665 -2.0026 0.9656
-4.8216 -7.0248 -2.0025 0.9656
-4.1749 -7.4269 -2.0024 0.9656
-3.4883 -7.7552 -1.9985 0.9657
-1.2107 -7.7766 -1.8497 0.9682
0.1919 -7.8670 -1.8495 0.9682
2.9332 -7.3002 -1.8490 0.9682
3.5732 -7.0087 -1.8489 0.9682
4.7624 -6.2607 -1.8487 0.9682
7.1992 -4.5419 -2.0006 0.9656
7.5757 -3.8808 -2.0005 0.9656
-7.6019 1.4332 -2.0029 0.9685
-7.6995 0.7486 -2.0029 0.9685
-7.7356 0.0581 -2.0029 0.9685
-7.6225 -1.3188 -2.0029 0.9685
-7.2661 -2.6536 -2.0029 0.9685
-6.6779 -3.9036 -2.0028 0.9685
-5.8767 -5.0289 -2.0026 0.9685
-5.4039 -5.5334 -2.0026 0.9685
-1.0509 -7.0661 -1.8497 0.9709
-0.4157 -7.1313 -1.8496 0.9709
1.2711 -5.9633 -1.5787 0.9751
2.1067 -6.8241 -1.8492 0.9709
4.3616 -5.6536 -1.8488 0.9709
5.2320 -5.6556 -1.9948 0.9687
5.7332 -5.1812 -2.0008 0.9686
7.1834 -2.8459 -2.0006 0.9686
7.4087 -2.1930 -2.0005 0.9686
7.7248 -0.1509 -2.0005 0.9686
7.6285 1.2256 -2.0005 0.9686
7.2891 2.5631 -2.0006 0.9686
7.0312 3.2038 -2.0006 0.9686
6.3496 4.4037 -2.0007 0.9686
4.4068 6.3489 -2.0010 0.9686
-0.8378 7.6861 -2.0019 0.9686
-2.1919 7.4153 -2.0021 0.9686
-4.6501 6.1799 -2.0025 0.9685
-5.1836 5.7402 -2.0026 0.9685
-6.5203 4.1615 -2.0028 0.9685
-7.1569 2.9354 -2.0029 0.9685
-7.3906 2.2847 -2.0029 0.9685
-7.7320 0.2441 -2.0029 0.9685
-7.7229 -0.4473 -2.0029 0.9685
-7.6521 -1.1351 -2.0029 0.9685
-7.3279 -2.4781 -2.0029 0.9685
-5.9960 -4.8862 -2.0027 0.9685
-5.0308 -5.8743 -2.0025 0.9685
-4.4859 -6.2998 -2.0024 0.9685
-3.9053 -6.6749 -2.0023 0.9686
-2.6457 -7.2360 -1.9948 0.9687
-0.5871 -7.1194 -1.8496 0.9709
0.0509 -7.1430 -1.8495 0.9709
0.6885 -7.1095 -1.8494 0.9709
1.1276 -5.9937 -1.5791 0.9751
1.9420 -6.8729 -1.8492 0.9709
5.6070 -5.3176 -2.0008 0.9686
6.0592 -4.7955 -2.0007 0.9686
6.8152 -3.6410 -2.0006 0.9686
7.3539 -2.3706 -2.0005 0.9686
7.6581 -1.0246 -2.0005 0.9686
7.6558 1.0418 -2.0005 0.9686
7.3486 2.3870 -2.0005 0.9686
7.1062 3.0338 -2.0006 0.9686
6.8071 3.6563 -2.0006 0.9686
6.4536 4.2497 -2.0007 0.9686
6.0485 4.8091 -2.0008 0.9686
5.5951 5.3302 -2.0008 0.9686
4.5581 6.2410 -2.0010 0.9686
2.7414 7.2270 -2.0013 0.9686
2.0852 7.4433 -2.0014 0.9686
1.4123 7.6002 -2.0015 0.9686
0.7280 7.6963 -2.0016 0.9686
0.0378 7.7310 -2.0017 0.9686
-2.0129 7.4658 -2.0021 0.9686
-3.3091 6.9894 -2.0023 0.9686
-3.9202 6.6663 -2.0024 0.9686
-4.5001 6.2899 -2.0024 0.9685
-5.5476 5.3895 -2.0026 0.9685
-6.7783 3.7268 -2.0028 0.9685
-7.0842 3.1067 -2.0029 0.9685
-7.3335 2.4617 -2.0029 0.9685
-7.5241 1.7971 -2.0029 0.9685
-7.6546 1.1180 -2.0029 0.9685
-7.7314 -0.2614 -2.0029 0.9685
-7.5615 -1.6325 -2.0029 0.9685
-7.3854 -2.3012 -2.0029 0.9685
-7.1503 -2.9514 -2.0029 0.9685
-6.8580 -3.5780 -2.0028 0.9685
-6.5109 -4.1760 -2.0027 0.9685
-5.6639 -5.2672 -2.0026 0.9685
-5.1707 -5.7517 -2.0025 0.9685
-4.6362 -6.1902 -2.0024 0.9685
-3.4608 -6.9155 -2.0023 0.9686
-2.8228 -7.1799 -1.9975 0.9686
-0.7582 -7.1033 -1.8496 0.9709
0.5174 -7.1241 -1.8494 0.9709
1.7762 -6.9177 -1.8492 0.9709
2.3867 -6.7311 -1.8491 0.9709
4.0848 -5.8570 -1.8488 0.9709
5.4738 -5.4473 -1.9995 0.9686
5.9422 -4.9399 -2.0008 0.9686
6.3593 -4.3894 -2.0007 0.9686
7.4929 -1.8852 -2.0005 0.9686
7.6313 -1.2085 -2.0005 0.9686
7.7245 0.1682 -2.0005 0.9686
7.6786 0.8573 -2.0005 0.9686
7.5715 1.5396 -2.0005 0.9686
7.4038 2.2096 -2.0005 0.9686
7.1771 2.8620 -2.0006 0.9686
6.8930 3.4915 -2.0006 0.9686
6.5539 4.0932 -2.0007 0.9686
6.1624 4.6622 -2.0007 0.9686
5.7216 5.1941 -2.0008 0.9686
4.1409 6.5256 -2.0011 0.9686
2.9144 7.1589 -2.0013 0.9686
1.5946 7.5639 -2.0015 0.9686
0.9129 7.6765 -2.0016 0.9686
-1.1546 7.6452 -2.0019 0.9686
-4.3475 6.3962 -2.0024 0.9685
-4.9015 5.9827 -2.0025 0.9685
-5.4163 5.5213 -2.0026 0.9685
-5.8880 5.0158 -2.0027 0.9685
-6.3125 4.4701 -2.0027 0.9685
-7.0074 3.2762 -2.0028 0.9685
-7.2721 2.6374 -2.0029 0.9685
-7.7355 -0.0754 -2.0029 0.9685
-7.5986 -1.4502 -2.0029 0.9685
-7.4387 -2.1229 -2.0029 0.9685
-6.9421 -3.4121 -2.0028 0.9685
-6.6095 -4.0183 -2.0028 0.9685
-6.2241 -4.5923 -2.0027 0.9685
-5.7890 -5.1295 -2.0026 0.9685
-4.7838 -6.0770 -2.0025 0.9685
-3.6262 -6.8304 -2.0023 0.9686
-2.9988 -7.1199 -2.0003 0.9686
-0.9288 -7.0831 -1.8496 0.9709
-0.2926 -7.1374 -1.8495 0.9709
0.3459 -7.1346 -1.8494 0.9709
0.9815 -7.0748 -1.8493 0.9709
2.8211 -6.5606 -1.8490 0.9709
3.3955 -6.2822 -1.8490 0.9709
3.9428 -5.9536 -1.8489 0.9709
4.4585 -5.5775 -1.8488 0.9709
5.8217 -5.0815 -2.0008 0.9686
6.2520 -4.5411 -2.0007 0.9686
7.4454 -2.0648 -2.0005 0.9686
7.6000 -1.3917 -2.0005 0.9686
7.6939 -0.7075 -2.0005 0.9686
7.6970 0.6724 -2.0005 0.9686
7.4548 2.0309 -2.0005 0.9686
7.2438 2.6885 -2.0006 0.9686
6.6504 3.9343 -2.0007 0.9686
5.8449 5.0549 -2.0008 0.9686
4.8529 6.0145 -2.0010 0.9686
3.0857 7.0866 -2.0012 0.9686
2.4406 7.3342 -2.0013 0.9686
1.7761 7.5232 -2.0014 0.9686
-2.3196 7.3765 -2.0021 0.9686
-2.9691 7.1402 -2.0022 0.9686
-3.5951 6.8469 -2.0023 0.9686
-4.1923 6.4988 -2.0024 0.9686
-4.7561 6.0988 -2.0025 0.9685
-6.2032 4.6206 -2.0027 0.9685
-6.5912 4.0484 -2.0028 0.9685
-6.9265 3.4437 -2.0028 0.9685
-7.2065 2.8115 -2.0029 0.9685
-7.6943 0.8009 -2.0029 0.9685
-7.4876 -1.9434 -2.0029 0.9685
-7.2840 -2.6042 -2.0029 0.9685
-6.7043 -3.8582 -2.0028 0.9685
-6.3328 -4.4413 -2.0027 0.9685
-5.4414 -5.4965 -2.0026 0.9685
-4.9286 -5.9602 -2.0025 0.9685
-3.7895 -6.7413 -2.0023 0.9686
-1.0989 -7.0588 -1.8497 0.9709
-0.4642 -7.1284 -1.8496 0.9709
0.8111 -7.0965 -1.8494 0.9709
2.0603 -6.8383 -1.8492 0.9709
2.6626 -6.6266 -1.8491 0.9709
3.2435 -6.3621 -1.8490 0.9709
3.7985 -6.0468 -1.8489 0.9709
5.6979 -5.2200 -2.0008 0.9686
6.8770 -3.5229 -2.0006 0.9686
-6.8074 1.9263 -2.0028 0.9710
-7.0416 0.6847 -2.0028 0.9710
-7.0747 0.0531 -2.0028 0.9710
-6.9712 -1.2062 -2.0028 0.9710
-6.6453 -2.4269 -2.0028 0.9710
-4.9423 -5.0607 -2.0025 0.9710
-4.4704 -5.4816 -2.0024 0.9710
-3.9629 -5.8586 -2.0023 0.9710
-1.5721 -6.5070 -1.8951 0.9726
-0.3802 -6.5223 -1.8496 0.9732
0.2037 -6.5299 -1.8495 0.9732
3.0061 -5.7986 -1.8490 0.9732
5.2438 -4.7389 -2.0009 0.9710
5.6458 -4.2516 -2.0008 0.9710
6.0028 -3.7303 -2.0007 0.9710
7.0250 -0.7684 -2.0006 0.9710
7.0655 -0.1381 -2.0006 0.9710
7.0496 0.4934 -2.0006 0.9710
6.9775 1.1210 -2.0006 0.9710
6.6670 2.3443 -2.0007 0.9710
6.4311 2.9303 -2.0007 0.9710
5.4249 4.5304 -2.0009 0.9710
4.9988 4.9969 -2.0009 0.9710
4.0306 5.8069 -2.0011 0.9710
3.4961 6.1439 -2.0012 0.9710
2.9336 6.4318 -2.0013 0.9710
1.7429 6.8517 -2.0014 0.9710
0.4964 7.0532 -2.0016 0.9710
-0.1355 7.0697 -2.0018 0.9710
-0.7663 7.0297 -2.0019 0.9710
-1.3910 6.9336 -2.0020 0.9710
-2.0047 6.7820 -2.0020 0.9710
-3.7310 6.0089 -2.0023 0.9710
-4.7408 5.2498 -2.0025 0.9710
-5.1908 4.8057 -2.0026 0.9710
-5.5994 4.3231 -2.0026 0.9710
-5.9632 3.8059 -2.0027 0.9710
-6.2794 3.2583 -2.0027 0.9710
-6.5454 2.6846 -2.0028 0.9710
-6.7591 2.0894 -2.0028 0.9710
-6.9188 1.4776 -2.0028 0.9710
-6.9982 -1.0381 -2.0028 0.9710
-6.4725 -2.8557 -2.0027 0.9710
-6.1915 -3.4222 -2.0027 0.9710
-5.8610 -3.9613 -2.0026 0.9710
-5.4837 -4.4687 -2.0026 0.9710
-5.0626 -4.9404 -2.0025 0.9710
-4.6010 -5.3725 -2.0024 0.9710
-2.4266 -6.6366 -2.0004 0.9711
0.6297 -6.5024 -1.8494 0.9732
2.3303 -6.1021 -1.8491 0.9732
3.3783 -5.5897 -1.8490 0.9732
4.0065 -5.4601 -1.9172 0.9722
4.6672 -5.2950 -1.9981 0.9711
5.5420 -4.3862 -2.0008 0.9710
5.9114 -3.8737 -2.0008 0.9710
6.2335 -3.3302 -2.0007 0.9710
6.5058 -2.7602 -2.0007 0.9710
6.7262 -2.1682 -2.0006 0.9710
6.7214 2.1833 -2.0006 0.9710
6.4997 2.7748 -2.0007 0.9710
5.9027 3.8869 -2.0008 0.9710
5.5322 4.3986 -2.0008 0.9710
4.1690 5.7082 -2.0011 0.9710
3.0874 6.3593 -2.0012 0.9710
2.5073 6.6099 -2.0013 0.9710
1.9018 6.7885 -1.9958 0.9711
1.2917 6.9512 -2.0015 0.9710
0.0346 7.0708 -2.0017 0.9710
-1.2238 6.9649 -2.0019 0.9710
-1.8410 6.8281 -2.0020 0.9710
-4.1157 5.7526 -2.0024 0.9710
-4.6131 5.3623 -2.0025 0.9710
-6.1992 3.4084 -2.0027 0.9710
-6.4789 2.8412 -2.0028 0.9710
-6.8812 1.6435 -2.0028 0.9710
-7.0006 1.0225 -2.0028 0.9710
-7.0639 0.3933 -2.0028 0.9710
-7.0708 -0.2391 -2.0028 0.9710
-7.0212 -0.8695 -2.0028 0.9710
-6.5394 -2.6992 -2.0028 0.9710
-6.2721 -3.2723 -2.0027 0.9710
-5.9546 -3.8192 -2.0027 0.9710
-5.5896 -4.3356 -2.0026 0.9710
-5.1800 -4.8172 -2.0025 0.9710
-4.7290 -5.2604 -2.0025 0.9710
-4.2402 -5.6614 -2.0024 0.9710
-3.7175 -6.0172 -2.0023 0.9710
-3.1652 -6.3248 -2.0022 0.9710
-2.5877 -6.5819 -2.0021 0.9710
-0.6935 -6.4967 -1.8496 0.9732
2.1829 -6.1564 -1.8492 0.9732
3.7875 -5.4307 -1.8744 0.9729
4.5333 -5.3996 -1.9959 0.9711
5.4350 -4.5182 -2.0008 0.9710
6.1516 -3.4792 -2.0007 0.9710
7.0507 -0.4777 -2.0006 0.9710
6.9253 1.4082 -2.0006 0.9710
6.7719 2.0210 -2.0006 0.9710
6.5645 2.6177 -2.0007 0.9710
5.2332 4.7507 -2.0009 0.9710
4.7883 5.1992 -2.0010 0.9710
4.3050 5.6062 -2.0010 0.9710
3.2394 6.2832 -2.0012 0.9710
2.6655 6.5476 -2.0013 0.9710
2.0703 6.7598 -2.0014 0.9710
-0.4273 7.0582 -2.0018 0.9710
-1.0559 6.9922 -2.0019 0.9710
-2.2831 6.6935 -2.0021 0.9710
-3.9761 5.8498 -2.0024 0.9710
-6.6508 2.4120 -2.0028 0.9710
-6.8397 1.8085 -2.0028 0.9710
-7.0524 0.5631 -2.0028 0.9710
-7.0745 -0.0690 -2.0028 0.9710
-6.9494 -1.3263 -2.0028 0.9710
-6.6024 -2.5412 -2.0028 0.9710
-6.0448 -3.6749 -2.0027 0.9710
-5.6923 -4.1999 -2.0026 0.9710
-3.8612 -5.9261 -2.0023 0.9710
-2.1461 -6.7177 -1.9964 0.9711
-0.2676 -6.5279 -1.8495 0.9732
0.3164 -6.5253 -1.8494 0.9732
0.8977 -6.4707 -1.8494 0.9732
3.1056 -5.7458 -1.8490 0.9732
3.6062 -5.4453 -1.8489 0.9732
4.3973 -5.5009 -1.9937 0.9711
5.3248 -4.6477 -2.0009 0.9710
5.7183 -4.1535 -2.0008 0.9710
6.6142 -2.4892 -2.0007 0.9710
6.8100 -1.8886 -2.0006 0.9710
6.9514 -1.2729 -2.0006 0.9710
7.0372 -0.6471 -2.0006 0.9710
7.0669 -0.0161 -2.0006 0.9710
6.9571 1.2412 -2.0006 0.9710
6.3796 3.0409 -2.0007 0.9710
5.7373 4.1274 -2.0008 0.9710
5.3459 4.6234 -2.0009 0.9710
4.9119 5.0825 -2.0009 0.9710
4.4386 5.5010 -2.0010 0.9710
2.2323 6.7080 -2.0014 0.9710
1.6244 6.8809 -2.0015 0.9710
1.0035 6.9988 -2.0016 0.9710
-0.2574 7.0664 -2.0018 0.9710
-0.8875 7.0155 -2.0019 0.9710
-1.5105 6.9086 -2.0020 0.9710
-3.2880 6.2621 -2.0023 0.9710
-3.8342 5.9437 -2.0023 0.9710
-4.3498 5.5778 -2.0024 0.9710
-4.8307 5.1673 -2.0025 0.9710
-5.2730 4.7154 -2.0026 0.9710
-6.5908 2.5713 -2.0028 0.9710
-6.7942 1.9725 -2.0028 0.9710
-6.9433 1.3579 -2.0028 0.9710
-7.0368 0.7325 -2.0028 0.9710
-7.0741 0.1012 -2.0028 0.9710
-6.9793 -1.1587 -2.0028 0.9710
-6.8478 -1.7773 -2.0028 0.9710
-6.6617 -2.3817 -2.0028 0.9710
-6.1315 -3.5285 -2.0027 0.9710
-5.7918 -4.0618 -2.0026 0.9710
-5.4057 -4.5627 -2.0026 0.9710
-2.3097 -6.6719 -1.9987 0.9711
-1.6272 -6.5397 -1.9078 0.9724
1.2288 -5.9630 -1.7236 0.9750
2.4352 -6.0609 -1.8491 0.9732
2.9666 -5.8189 -1.8490 0.9732
3.4742 -5.5305 -1.8489 0.9732
5.2115 -4.7745 -2.0009 0.9710
5.6168 -4.2899 -2.0008 0.9710
5.9773 -3.7711 -2.0008 0.9710
6.2900 -3.2222 -2.0007 0.9710
6.5525 -2.6476 -2.0007 0.9710
6.7626 -2.0518 -2.0006 0.9710
-6.2652 1.7729 -2.0027 0.9731
-6.1160 -2.2336 -2.0027 0.9731
-4.9466 -4.2330 -2.0025 0.9731
-3.6474 -5.3921 -2.0023 0.9731
-3.1512 -5.6960 -2.0022 0.9731
-2.0875 -6.1652 -2.0020 0.9731
-1.5244 -6.3092 -1.9964 0.9732
-0.9136 -6.1424 -1.9100 0.9743
1.2535 -5.8803 -1.8493 0.9752
1.7735 -5.7447 -1.8492 0.9752
2.2793 -5.5631 -1.8491 0.9752
3.4266 -5.3733 -1.9602 0.9737
3.9686 -5.1442 -1.9984 0.9732
4.4179 -4.7755 -2.0010 0.9731
4.8265 -4.3618 -2.0009 0.9731
5.1966 -3.9133 -2.0009 0.9731
5.8095 -2.9264 -2.0008 0.9731
6.2372 -1.8462 -2.0007 0.9731
5.9194 2.6972 -2.0008 0.9731
5.6550 3.2151 -2.0008 0.9731
4.9932 4.1699 -2.0009 0.9731
4.1721 4.9920 -2.0011 0.9731
3.7098 5.3448 -2.0011 0.9731
2.1608 6.1376 -2.0014 0.9731
1.0347 6.4247 -2.0016 0.9731
-0.7053 6.4701 -2.0018 0.9731
-1.2803 6.3815 -2.0019 0.9731
-1.8451 6.2420 -2.0020 0.9731
-2.3952 6.0526 -2.0021 0.9731
-3.4339 5.5304 -2.0023 0.9731
-4.3632 4.8318 -2.0024 0.9731
-4.7774 4.4230 -2.0025 0.9731
-5.1534 3.9788 -2.0025 0.9731
-5.7793 2.9988 -2.0026 0.9731
-6.3677 1.3599 -2.0027 0.9731
-6.5081 0.2055 -2.0028 0.9731
-6.5005 -0.3765 -2.0028 0.9731
-6.3297 -1.5268 -2.0027 0.9731
-5.9570 -2.6283 -2.0027 0.9731
-5.3942 -3.6458 -2.0026 0.9731
-5.0470 -4.1128 -2.0025 0.9731
-4.6594 -4.5469 -2.0024 0.9731
-3.2873 -5.6187 -2.0022 0.9731
-2.7723 -5.8895 -2.0021 0.9731
-1.6772 -6.2766 -1.9983 0.9732
0.0429 -6.0129 -1.8495 0.9751
0.5796 -5.9848 -1.8494 0.9752
1.1117 -5.9089 -1.8493 0.9752
1.6348 -5.7857 -1.8492 0.9752
3.2411 -5.3627 -1.9273 0.9741
3.8402 -5.2334 -1.9965 0.9732
4.7203 -4.4767 -2.0009 0.9731
5.1010 -4.0372 -2.0009 0.9731
5.7375 -3.0653 -2.0008 0.9731
6.1910 -1.9957 -2.0007 0.9731
6.3444 -1.4349 -2.0007 0.9731
6.4472 -0.8626 -2.0007 0.9731
6.4984 -0.2834 -2.0007 0.9731
6.4978 0.2980 -2.0007 0.9731
6.4452 0.8770 -2.0007 0.9731
6.1866 2.0096 -2.0007 0.9731
5.9825 2.5540 -2.0008 0.9731
5.0920 4.0486 -2.0009 0.9731
1.1889 6.3979 -2.0015 0.9731
0.6128 6.4788 -2.0016 0.9731
-1.1264 6.4104 -2.0019 0.9731
-2.2489 6.1083 -2.0021 0.9731
-2.7855 5.8834 -2.0022 0.9731
-4.2457 4.9353 -2.0024 0.9731
-5.4024 3.6338 -2.0026 0.9731
-5.9629 2.6150 -2.0027 0.9731
-6.3331 1.5126 -2.0027 0.9731
-6.4430 0.9411 -2.0027 0.9731
-6.5013 0.3619 -2.0028 0.9731
-6.5076 -0.2200 -2.0028 0.9731
-5.4804 -3.5151 -2.0026 0.9731
-4.7675 -4.4336 -2.0025 0.9731
-4.3524 -4.8415 -2.0024 0.9731
-3.9025 -5.2106 -2.0023 0.9731
-3.4215 -5.5380 -2.0022 0.9731
-2.3816 -6.0578 -2.0021 0.9731
-0.1017 -6.0123 -1.8495 0.9751
0.4355 -5.9971 -1.8494 0.9752
2.0092 -5.6664 -1.8492 0.9752
2.5070 -5.4641 -1.8491 0.9752
3.7099 -5.3194 -1.9948 0.9732
4.1832 -4.9825 -2.0010 0.9731
5.0025 -4.1587 -2.0009 0.9731
5.3537 -3.6953 -2.0009 0.9731
5.9254 -2.6839 -2.0008 0.9731
6.3081 -1.5871 -2.0007 0.9731
6.4246 -1.0174 -2.0007 0.9731
6.4897 -0.4397 -2.0007 0.9731
6.4645 0.7217 -2.0007 0.9731
6.2331 1.8602 -2.0007 0.9731
5.8030 2.9394 -2.0008 0.9731
5.5175 3.4459 -2.0008 0.9731
5.1879 3.9249 -2.0009 0.9731
4.8168 4.3726 -2.0010 0.9731
4.4072 4.7855 -2.0010 0.9731
3.9624 5.1601 -2.0011 0.9731
3.4860 5.4935 -2.0012 0.9731
2.9816 5.7831 -2.0012 0.9731
2.4534 6.0265 -2.0013 0.9731
1.9055 6.2218 -2.0014 0.9731
0.7685 6.4621 -2.0016 0.9731
0.1884 6.5052 -2.0017 0.9731
