ply
format ascii 1.0
element vertex 1577
property float32 x
property float32 y
property float32 z
property float32 I
end_header
0.5800 5.1768 -0.1467 0.9794
-1.4261 5.6716 -0.1647 0.9769
-0.5264 -16.4595 -0.4637 0.9362
6.2915 -18.6143 -0.5533 0.9244
-0.8476 -16.3707 -0.4616 0.9365
5.8487 -18.5014 -0.5464 0.9253
0.8053 5.2894 -0.1507 0.9788
-5.4399 -15.3820 -0.4594 0.9368
0.3053 -16.9708 -0.4779 0.9343
3.5661 -17.8730 -0.5132 0.9297
5.3237 -18.0759 -0.5306 0.9274
9.3986 3.1796 -0.2794 0.9611
0.4240 5.1994 -0.1469 0.9793
-5.9197 -15.2568 -0.8299 0.9366
-1.6477 -16.1479 -0.8232 0.9371
-0.2021 -16.5474 -0.8393 0.9359
3.0003 -17.8263 -0.9167 0.9302
4.6891 -17.8987 -0.9383 0.9286
14.7892 -10.0908 -0.9080 0.9308
18.5713 0.5125 -0.9422 0.9283
-1.4262 5.6722 -0.2966 0.9768
-6.1268 -14.9101 -0.8175 0.9375
-1.9941 -16.3389 -0.8348 0.9362
-0.4981 -15.5756 -0.7903 0.9395
2.7675 -18.6929 -0.9583 0.9271
4.2862 -17.7874 -0.9279 0.9293
6.2902 -18.6105 -0.9963 0.9243
15.1563 -8.8608 -0.8904 0.9321
0.6835 5.1742 -0.2647 0.9793
0.2270 5.4211 -0.2752 0.9785
-6.4368 -14.8244 -0.8196 0.9373
-2.3093 -16.2450 -0.8321 0.9364
5.8475 -18.4977 -0.9839 0.9252
15.0272 -9.1884 -0.8933 0.9319
0.8017 5.2658 -0.2701 0.9789
0.3239 5.2501 -0.2668 0.9792
-6.7486 -14.7382 -0.8221 0.9371
-5.4389 -15.3794 -0.8273 0.9368
-2.6226 -16.1517 -0.8298 0.9366
-1.1659 -16.2811 -0.8278 0.9367
9.3981 3.1794 -0.5032 0.9610
0.4760 5.1702 -0.3807 0.9794
-0.2021 -16.5457 -1.2132 0.9358
13.1954 -9.0033 -1.1713 0.9379
15.9431 -8.9028 -1.3389 0.9294
18.6432 0.5145 -1.3675 0.9279
-1.9866 -16.2774 -1.2024 0.9363
2.7488 -18.5664 -1.3762 0.9275
14.5619 -8.5133 -1.2368 0.9346
0.6825 5.1668 -0.3821 0.9793
0.2308 5.5124 -0.4045 0.9781
-6.4362 -14.8229 -1.1849 0.9372
-0.8083 -15.6109 -1.1462 0.9392
0.6417 -16.9929 -1.2468 0.9341
3.9448 -17.9180 -1.3452 0.9291
9.6863 -10.3235 -1.0380 0.9448
13.0470 -9.6792 -1.1911 0.9369
13.6038 -8.3181 -1.1692 0.9380
19.7975 1.5383 -1.4560 0.9234
0.7990 5.2478 -0.3892 0.9789
0.3243 5.2573 -0.3862 0.9791
-6.7479 -14.7367 -1.1884 0.9371
-1.1658 -16.2794 -1.1967 0.9366
0.3041 -16.9055 -1.2397 0.9344
3.5521 -17.8027 -1.3311 0.9298
5.3224 -18.0716 -1.3813 0.9272
16.6632 2.4717 -1.2351 0.9347
0.4241 5.2000 -0.3825 0.9793
9.4969 15.8721 -1.7757 0.9284
8.0252 16.6254 -1.7723 0.9285
0.4758 5.1682 -0.4983 0.9794
-1.6474 -16.1446 -1.5580 0.9369
-0.2020 -16.5439 -1.5884 0.9357
2.9761 -17.6829 -1.7215 0.9305
4.6880 -17.8945 -1.7759 0.9284
16.1040 -8.9927 -1.7708 0.9286
19.3542 -1.1994 -1.8617 0.9250
14.3705 0.3965 -1.3802 0.9439
11.8798 3.6231 -1.1924 0.9513
8.3555 16.4701 -1.7730 0.9285
0.4323 19.5654 -1.8788 0.9244
-1.3398 19.8518 -1.9102 0.9232
-3.1099 19.6627 -1.9112 0.9231
-1.4266 5.6734 -0.5616 0.9768
-1.9863 -16.2747 -1.5740 0.9362
2.7488 -18.5667 -1.8019 0.9274
4.2852 -17.7833 -1.7561 0.9291
15.1016 -12.9276 -1.9085 0.9232
14.7152 -8.6029 -1.6364 0.9338
19.1527 1.8695 -1.8475 0.9256
8.6828 16.3085 -1.7738 0.9284
7.1784 16.9898 -1.7707 0.9286
4.0298 17.9529 -1.7665 0.9287
0.6811 5.1565 -0.4994 0.9793
-6.4355 -14.8214 -1.5513 0.9371
-2.3004 -16.1824 -1.5692 0.9364
3.9440 -17.9145 -1.7611 0.9289
9.5788 -10.2089 -1.3440 0.9453
14.8543 -13.2334 -1.9099 0.9232
10.5515 15.4736 -1.7980 0.9275
9.0072 16.1406 -1.7745 0.9284
7.5153 16.8505 -1.7713 0.9285
-0.5543 19.8870 -1.9100 0.9232
-2.3300 19.7649 -1.9107 0.9231
-5.4180 -15.3203 -1.5601 0.9368
-2.6127 -16.0907 -1.5650 0.9366
-1.1657 -16.2777 -1.5667 0.9365
0.3041 -16.9025 -1.6230 0.9343
3.5514 -17.7993 -1.7425 0.9297
5.3218 -18.0695 -1.8084 0.9271
15.6977 -12.1337 -1.9048 0.9234
13.1081 -8.3752 -1.4934 0.9394
17.5637 -0.5568 -1.6871 0.9318
9.3971 3.1790 -0.9524 0.9609
12.7192 14.8665 -1.8783 0.9244
10.9303 15.3678 -1.8105 0.9270
7.8497 16.7049 -1.7720 0.9285
6.3159 17.3129 -1.7693 0.9286
4.7380 17.7870 -1.7672 0.9287
0.9203 5.3345 -0.5197 0.9785
-1.9388 19.8049 -1.9105 0.9231
7.0766 14.6602 -1.9337 0.9365
4.3441 15.6499 -1.9293 0.9367
2.9262 15.9642 -1.9279 0.9367
0.0378 16.2216 -1.9269 0.9367
-1.4121 16.1630 -1.9273 0.9367
-2.8522 15.9799 -1.9282 0.9367
-4.2720 15.6733 -1.9297 0.9367
-5.6615 15.2452 -1.9318 0.9366
-8.3094 14.0356 -1.9375 0.9364
-11.8094 11.4015 -1.9499 0.9360
-14.5302 7.9266 -1.9661 0.9355
-15.2275 6.6169 -1.9722 0.9353
-16.6016 2.3647 -1.9919 0.9347
-16.8044 0.8748 -1.9988 0.9345
-16.8083 -2.1453 -2.0128 0.9340
-16.2688 -5.1379 -2.0266 0.9336
-15.7966 -6.5928 -2.0333 0.9334
-14.4606 -9.3574 -2.0460 0.9330
-10.6748 -11.9757 -1.9056 0.9374
-9.5834 -12.9104 -1.9099 0.9373
-5.8457 -15.0662 -1.9196 0.9370
-4.4810 -15.5455 -1.9218 0.9369
1.2504 -16.1508 -1.9242 0.9368
2.6873 -15.9666 -1.9233 0.9369
6.8030 -14.6332 -1.9169 0.9371
12.7079 -10.4506 -1.9544 0.9359
14.2270 -9.7072 -2.0459 0.9330
14.9918 -8.3716 -2.0396 0.9332
16.5114 -4.0554 -2.0196 0.9338
14.3701 0.3965 -1.7076 0.9437
15.1746 3.1795 -1.8417 0.9395
10.2489 4.1590 -1.3138 0.9564
8.7240 4.4862 -1.1653 0.9613
13.9424 8.8279 -1.9602 0.9357
13.0616 10.0107 -1.9548 0.9359
12.0837 11.1093 -1.9498 0.9360
11.0167 12.1160 -1.9452 0.9362
9.8690 13.0243 -1.9411 0.9363
7.3672 14.5221 -1.9343 0.9365
3.2415 15.9053 -1.9282 0.9367
-2.5355 16.0310 -1.9279 0.9367
-1.4267 5.6740 -0.6950 0.9767
-11.5755 11.6264 -1.9488 0.9360
-13.5311 9.4297 -1.9591 0.9357
-14.3613 8.2067 -1.9648 0.9355
-15.6906 5.5539 -1.9771 0.9352
-16.5391 2.6902 -1.9904 0.9347
-16.7710 1.2057 -1.9973 0.9345
-16.8702 -0.2988 -2.0043 0.9343
-16.8345 -1.8114 -2.0112 0.9341
-16.6628 -3.3198 -2.0182 0.9339
-15.9123 -6.2749 -2.0318 0.9334
-15.3371 -7.6964 -2.0384 0.9332
-14.6330 -9.0639 -2.0446 0.9330
-13.8047 -10.3654 -2.0506 0.9328
-10.9036 -11.7562 -1.9046 0.9375
-4.7863 -15.4506 -1.9214 0.9369
-3.3894 -15.8302 -1.9230 0.9369
2.3716 -16.0188 -1.9235 0.9369
7.7956 -14.1053 -1.9144 0.9371
11.1843 -11.4577 -1.9019 0.9375
14.8336 -8.6721 -2.0410 0.9331
15.5002 -7.2888 -2.0346 0.9333
16.0368 -5.8554 -2.0280 0.9335
16.4404 -4.3842 -2.0211 0.9338
16.7089 -2.8876 -2.0142 0.9340
16.8415 -1.3782 -2.0072 0.9342
15.4952 1.5125 -1.8494 0.9392
14.9902 2.8329 -1.8121 0.9404
16.0357 4.5463 -1.9799 0.9351
15.5149 5.9417 -1.9735 0.9353
14.8753 7.2815 -1.9673 0.9355
14.1231 8.5561 -1.9615 0.9356
13.2647 9.7565 -1.9560 0.9358
12.3076 10.8743 -1.9509 0.9360
10.1289 12.8325 -1.9420 0.9363
8.9244 13.6598 -1.9382 0.9364
7.6553 14.3785 -1.9350 0.9365
6.3309 14.9840 -1.9322 0.9366
4.9611 15.4723 -1.9301 0.9366
3.5557 15.8405 -1.9284 0.9367
0.6806 5.1529 -0.6174 0.9793
0.6787 16.2076 -1.9269 0.9367
-2.2180 16.0761 -1.9277 0.9367
-3.6480 15.8239 -1.9290 0.9367
-6.4203 14.9542 -1.9331 0.9365
-9.0091 13.6170 -1.9395 0.9363
-10.2105 12.7834 -1.9434 0.9362
-11.3375 11.8466 -1.9478 0.9361
-12.3814 10.8129 -1.9526 0.9359
-13.3339 9.6892 -1.9579 0.9358
-14.9335 7.2034 -1.9695 0.9354
-15.5667 5.8587 -1.9757 0.9352
-16.4702 3.0142 -1.9889 0.9348
-16.7311 1.5357 -1.9958 0.9346
-16.8541 -1.4772 -2.0097 0.9341
-16.4347 -4.4844 -2.0236 0.9337
-15.4754 -7.3866 -2.0369 0.9333
-13.0771 -11.3260 -2.0550 0.9327
-11.1278 -11.5323 -1.9036 0.9375
-6.4315 -14.8106 -1.9185 0.9370
-3.7009 -15.7575 -1.9227 0.9369
-2.2795 -16.0352 -1.9239 0.9368
-0.8081 -15.6078 -1.8565 0.9390
3.4798 -15.8060 -1.9225 0.9369
4.8735 -15.4167 -1.9206 0.9369
9.8974 -12.6456 -1.9075 0.9374
9.5426 -10.1703 -1.6566 0.9454
11.9309 -10.6290 -1.8981 0.9377
13.6424 -8.3417 -1.8995 0.9376
16.6613 -3.2197 -2.0157 0.9339
15.6338 -0.1866 -1.8572 0.9390
15.5339 1.2070 -1.8508 0.9392
16.1342 4.2316 -1.9813 0.9350
9.3403 3.3669 -1.1794 0.9608
14.2986 8.2807 -1.9627 0.9356
12.5271 10.6349 -1.9520 0.9360
9.1963 13.4863 -1.9390 0.9364
7.9407 14.2294 -1.9356 0.9365
6.6277 14.8602 -1.9328 0.9366
5.2670 15.3747 -1.9305 0.9366
0.7939 5.2148 -0.6266 0.9790
0.3295 5.3407 -0.6356 0.9787
-0.4520 16.2158 -1.9270 0.9367
-3.3341 15.8902 -1.9286 0.9367
-4.7448 15.5423 -1.9303 0.9366
-7.4550 14.4872 -1.9354 0.9365
-11.0955 12.0620 -1.9468 0.9361
-12.1585 11.0491 -1.9515 0.9360
-14.7781 7.4919 -1.9681 0.9354
-16.3951 3.3366 -1.9874 0.9348
-15.6073 -7.0745 -2.0355 0.9333
-14.1855 -9.7994 -2.0480 0.9329
-9.1956 -13.2030 -1.9112 0.9372
-6.7220 -14.6801 -1.9179 0.9370
-4.0108 -15.6785 -1.9224 0.9369
-1.1572 -16.1592 -1.9244 0.9368
1.7372 -16.1036 -1.9240 0.9368
3.1674 -15.8745 -1.9228 0.9369
4.5691 -15.5138 -1.9211 0.9369
7.2378 -14.4132 -1.9158 0.9371
8.4815 -13.6842 -1.9124 0.9372
9.4354 -10.4630 -1.6736 0.9448
13.6185 -10.5266 -2.0446 0.9330
14.4989 -9.2639 -2.0438 0.9330
15.2215 -7.9067 -2.0375 0.9332
15.8161 -6.4939 -2.0309 0.9334
16.2787 -5.0378 -2.0242 0.9337
16.7997 -2.0457 -2.0103 0.9341
16.0984 -0.5104 -1.9132 0.9372
12.7918 0.7400 -1.5220 0.9497
15.3709 2.2800 -1.8458 0.9393
13.4318 3.2406 -1.6413 0.9459
9.2857 3.1414 -1.1644 0.9613
15.1721 6.6972 -1.9700 0.9354
13.6565 9.2360 -1.9584 0.9357
11.7332 11.4596 -1.9482 0.9361
8.2232 14.0748 -1.9363 0.9364
4.1801 15.6929 -1.9291 0.9367
0.4251 5.2128 -0.6213 0.9792
-4.4359 15.6296 -1.9299 0.9367
-5.8211 15.1874 -1.9320 0.9366
-8.4572 13.9510 -1.9379 0.9364
-10.8495 12.2726 -1.9458 0.9361
-11.9312 11.2809 -1.9505 0.9360
-12.9250 10.1961 -1.9555 0.9358
-14.6174 7.7772 -1.9668 0.9355
7.0553 11.7914 -1.9469 0.9460
4.8321 12.8282 -1.9423 0.9461
3.6634 13.1975 -1.9407 0.9462
0.9791 5.3416 -0.7695 0.9783
0.4775 5.1869 -0.7380 0.9792
-1.1910 13.6325 -1.9389 0.9462
-2.4054 13.4770 -1.9397 0.9462
-4.7734 12.8536 -1.9428 0.9461
-7.0026 11.8283 -1.9476 0.9460
-8.0443 11.1730 -1.9507 0.9459
-9.0267 10.4281 -1.9542 0.9458
-9.9422 9.5988 -1.9581 0.9457
-10.7835 8.6908 -1.9624 0.9456
-11.5438 7.7104 -1.9669 0.9455
-12.7967 5.5606 -1.9769 0.9452
-13.2783 4.4068 -1.9823 0.9450
-13.6571 3.2116 -1.9878 0.9449
-14.0915 0.7336 -1.9993 0.9446
-14.1419 -0.5301 -2.0052 0.9444
-13.9021 -3.0566 -2.0168 0.9441
-12.6979 -6.6892 -2.0335 0.9437
-12.0801 -7.8170 -2.0387 0.9435
-8.9057 -9.9910 -1.8964 0.9474
-7.9922 -10.7668 -1.8999 0.9473
-3.7332 -12.9510 -1.9097 0.9470
-1.3697 -13.4230 -1.9118 0.9469
-0.1648 -13.4935 -1.9120 0.9469
7.7266 -10.9584 -1.8998 0.9473
8.6588 -10.2051 -1.8963 0.9474
9.8075 -9.6578 -1.9503 0.9459
11.1396 -9.1608 -2.0435 0.9434
11.8850 -8.1093 -2.0386 0.9435
14.1240 -0.8753 -2.0051 0.9444
13.0858 0.3611 -1.8548 0.9485
11.2228 1.3198 -1.6011 0.9554
11.8823 3.6239 -1.7601 0.9511
11.7281 7.4259 -1.9668 0.9455
10.9920 8.4246 -1.9623 0.9456
8.3145 10.9728 -1.9507 0.9459
5.0858 12.7330 -1.9427 0.9461
0.5726 5.1106 -0.7286 0.9794
0.3022 13.6789 -1.9386 0.9462
-2.1384 13.5204 -1.9395 0.9462
-1.4269 5.6746 -0.8291 0.9766
-6.7654 11.9605 -1.9470 0.9460
-7.8191 11.3255 -1.9500 0.9459
-8.8153 10.6001 -1.9534 0.9458
-10.6044 8.8978 -1.9614 0.9456
-12.0760 6.9007 -1.9707 0.9454
-12.6769 5.8090 -1.9758 0.9452
-13.1806 4.6655 -1.9811 0.9451
-13.8784 2.2575 -1.9923 0.9448
-14.1026 -1.5174 -2.0097 0.9443
-13.9509 -2.7795 -2.0155 0.9442
-13.6857 -4.0265 -2.0213 0.9440
-12.8202 -6.4333 -2.0324 0.9437
-12.2254 -7.5726 -2.0376 0.9436
-11.5279 -8.6558 -2.0426 0.9434
-9.9167 -8.9378 -1.8916 0.9475
-6.2015 -11.9306 -1.9052 0.9471
-5.1169 -12.4524 -1.9075 0.9471
-3.9876 -12.8724 -1.9094 0.9470
-1.6345 -13.3925 -1.9117 0.9470
4.3126 -12.7596 -1.9084 0.9470
5.4294 -12.3093 -1.9062 0.9471
7.5115 -11.1132 -1.9006 0.9473
9.3338 -9.5619 -1.8933 0.9474
10.9620 -9.3839 -2.0446 0.9434
11.7289 -8.3471 -2.0397 0.9435
13.7615 -3.6698 -2.0180 0.9441
13.9940 -2.4184 -2.0122 0.9442
14.1131 -1.1549 -2.0064 0.9444
12.9995 1.2689 -1.8506 0.9486
11.1619 8.2098 -1.9633 0.9456
10.3608 9.1542 -1.9589 0.9457
9.4822 10.0231 -1.9550 0.9458
7.5205 11.5110 -1.9482 0.9460
5.3376 12.6329 -1.9432 0.9461
4.1834 13.0470 -1.9413 0.9462
0.6792 5.1420 -0.7349 0.9793
0.5725 13.6705 -1.9387 0.9462
-0.6514 13.6675 -1.9387 0.9462
-1.8707 13.5587 -1.9393 0.9462
-3.0765 13.3446 -1.9404 0.9462
-11.2184 8.1519 -1.9649 0.9455
-13.8223 2.5296 -1.9910 0.9448
-14.0335 1.2881 -1.9968 0.9447
-14.1336 0.0290 -2.0026 0.9445
-13.9942 -2.5018 -2.0143 0.9442
-13.4010 -4.9809 -2.0257 0.9439
-12.9373 -6.1751 -2.0312 0.9437
-11.6905 -8.4219 -2.0415 0.9435
-10.0864 -8.7358 -1.8906 0.9475
-9.2853 -9.6228 -1.8947 0.9474
-8.4046 -10.4343 -1.8984 0.9473
-6.4341 -11.8022 -1.9046 0.9471
-3.0830 -13.1266 -1.9105 0.9470
-1.8987 -13.3565 -1.9115 0.9470
-0.6978 -13.4761 -1.9120 0.9469
2.8989 -13.1673 -1.9103 0.9470
4.0606 -12.8450 -1.9088 0.9470
5.1866 -12.4175 -1.9067 0.9471
8.2558 -10.5482 -1.8979 0.9473
12.2579 -7.4951 -2.0358 0.9436
13.9524 -2.6962 -2.0135 0.9442
14.0966 -1.4345 -2.0076 0.9444
7.9907 2.0958 -1.1705 0.9672
9.3147 3.3577 -1.4029 0.9608
12.6314 5.8766 -1.9739 0.9453
10.5447 8.9519 -1.9599 0.9457
8.7482 10.6439 -1.9521 0.9459
7.7491 11.3640 -1.9489 0.9459
6.6929 11.9934 -1.9460 0.9460
4.4412 12.9642 -1.9417 0.9461
3.2625 13.2991 -1.9402 0.9462
0.7885 5.1790 -0.7423 0.9791
-1.6023 13.5918 -1.9391 0.9462
-2.8118 13.4009 -1.9401 0.9462
-6.2837 12.2110 -1.9458 0.9460
-8.3829 10.9313 -1.9519 0.9459
-10.2347 9.3009 -1.9595 0.9457
-11.0494 8.3677 -1.9639 0.9455
-12.4232 6.2981 -1.9735 0.9453
-12.9705 5.1764 -1.9787 0.9451
-13.7610 2.8005 -1.9898 0.9448
-14.1212 0.3081 -2.0013 0.9445
-14.0320 -2.2233 -2.0130 0.9442
-13.4885 -4.7123 -2.0245 0.9439
-13.0491 -5.9148 -2.0300 0.9438
-12.5011 -7.0757 -2.0353 0.9436
-11.0692 -9.2106 -2.0403 0.9435
-7.4251 -7.3967 -1.4850 0.9585
-8.6056 -10.2620 -1.8976 0.9473
-7.6679 -11.0096 -1.9010 0.9472
-5.6020 -12.2342 -1.9065 0.9471
-4.4913 -12.6997 -1.9086 0.9470
-2.1620 -13.3152 -1.9113 0.9470
-0.9639 -13.4593 -1.9119 0.9469
0.2427 -13.4921 -1.9120 0.9469
2.6385 -13.2239 -1.9106 0.9470
3.8067 -12.9254 -1.9092 0.9470
4.9415 -12.5208 -1.9072 0.9471
6.0329 -12.0140 -1.9048 0.9471
7.0717 -11.4097 -1.9020 0.9472
8.0491 -10.7136 -1.8987 0.9473
11.4020 -8.8133 -2.0419 0.9434
13.2284 -5.4315 -2.0262 0.9439
12.8991 1.9134 -1.8477 0.9487
12.6406 3.0497 -1.8424 0.9488
9.2531 3.1303 -1.3841 0.9613
9.7281 4.2942 -1.5067 0.9579
11.4893 7.7704 -1.9653 0.9455
10.7246 8.7460 -1.9608 0.9456
9.8794 9.6490 -1.9567 0.9457
5.8354 12.4183 -1.9441 0.9461
4.6974 12.8765 -1.9421 0.9461
0.4262 5.2263 -0.7430 0.9790
-1.3333 13.6198 -1.9390 0.9462
-3.7406 13.1798 -1.9412 0.9462
-4.9079 12.8047 -1.9430 0.9461
-7.1269 11.7566 -1.9480 0.9460
-11.6269 7.5917 -1.9675 0.9454
5.1515 10.6722 -1.9522 0.9531
4.1734 11.0794 -1.9504 0.9531
0.0276 11.8201 -1.9472 0.9532
-1.0289 11.7769 -1.9475 0.9532
-2.0779 11.6419 -1.9482 0.9532
-4.1225 11.1011 -1.9508 0.9531
-6.9436 9.6441 -1.9577 0.9530
-7.7896 8.9990 -1.9607 0.9529
-9.9529 6.6478 -1.9717 0.9526
-11.0254 4.7909 -1.9804 0.9524
-11.4361 3.7954 -1.9850 0.9523
-12.1220 0.6310 -1.9997 0.9520
-12.1604 -0.4558 -2.0047 0.9519
-11.9445 -2.6262 -2.0147 0.9516
-11.6904 -3.6920 -2.0196 0.9515
-11.3406 -4.7330 -2.0244 0.9514
-10.8971 -5.7406 -2.0290 0.9513
-8.3526 -7.8327 -1.8864 0.9546
-2.1939 -11.3363 -1.9022 0.9543
-0.1411 -11.5510 -1.9031 0.9542
0.8916 -11.5161 -1.9028 0.9543
2.9245 -11.1632 -1.9011 0.9543
5.7630 -9.9576 -1.8953 0.9544
6.6204 -9.3895 -1.8927 0.9545
7.7043 -9.0801 -1.9617 0.9529
10.7533 -6.0047 -2.0290 0.9513
11.2211 -5.0084 -2.0243 0.9514
11.5963 -3.9762 -2.0195 0.9515
11.8762 -2.9170 -2.0146 0.9516
12.0594 -1.8395 -2.0096 0.9517
7.6751 4.8596 -1.4965 0.9638
7.1768 9.4714 -1.9577 0.9530
3.3895 11.3366 -1.9493 0.9532
-0.7960 11.7943 -1.9474 0.9532
-1.8473 11.6796 -1.9480 0.9532
-3.9016 11.1782 -1.9504 0.9531
-5.8412 10.3266 -1.9545 0.9530
-6.7495 9.7763 -1.9571 0.9530
-9.1465 7.6746 -1.9669 0.9527
-9.8151 6.8401 -1.9708 0.9527
-10.4090 5.9482 -1.9750 0.9526
-11.3529 4.0185 -1.9840 0.9524
-11.9446 1.9429 -1.9936 0.9521
-12.1228 -1.3044 -2.0086 0.9518
-11.7548 -3.4584 -2.0186 0.9515
-11.4260 -4.5057 -2.0234 0.9514
-10.4887 -6.4968 -2.0325 0.9512
-9.8868 -7.4236 -2.0368 0.9511
-7.7974 -8.4072 -1.8890 0.9546
-7.0265 -9.0851 -1.8921 0.9545
-6.1955 -9.6907 -1.8948 0.9544
-5.3115 -10.2184 -1.8972 0.9544
-0.3693 -11.5459 -1.9030 0.9542
3.6928 -10.9258 -1.8999 0.9543
4.6499 -10.5419 -1.8981 0.9544
5.5667 -10.0724 -1.8959 0.9544
7.3243 -8.9864 -1.9098 0.9541
11.1257 -5.2318 -2.0254 0.9514
11.8227 -3.1527 -2.0157 0.9516
12.0273 -2.0785 -2.0107 0.9517
12.1346 -0.9930 -2.0057 0.9518
11.1862 1.0919 -1.8516 0.9555
10.7605 3.0507 -1.8425 0.9557
7.9105 4.7924 -1.5237 0.9632
8.1823 8.6491 -1.9614 0.9529
6.4926 9.9376 -1.9555 0.9530
2.5903 11.5399 -1.9484 0.9532
0.6768 5.1236 -0.8514 0.9793
0.4946 11.8099 -1.9473 0.9532
-3.6794 11.2511 -1.9501 0.9531
-4.6742 10.8871 -1.9518 0.9531
-6.5530 9.9047 -1.9565 0.9530
-7.4228 9.2932 -1.9594 0.9529
-8.2370 8.6069 -1.9626 0.9529
-8.9894 7.8505 -1.9661 0.9528
-10.8167 5.2176 -1.9784 0.9525
-11.6269 3.2239 -1.9877 0.9523
-12.1554 0.0250 -2.0025 0.9519
-12.1395 -1.0640 -2.0075 0.9518
-12.0258 -2.1499 -2.0125 0.9517
-11.8145 -3.2238 -2.0175 0.9516
-11.5068 -4.2768 -2.0223 0.9515
-11.1044 -5.3003 -2.0270 0.9513
-10.0270 -7.2235 -2.0358 0.9511
-8.6483 -7.4903 -1.8848 0.9547
-7.9590 -8.2483 -1.8883 0.9546
-3.6307 -10.9501 -1.9005 0.9543
-2.6395 -11.2382 -1.9018 0.9543
-1.6254 -11.4342 -1.9026 0.9543
-0.5973 -11.5362 -1.9030 0.9543
0.4359 -11.5432 -1.9030 0.9543
1.4653 -11.4553 -1.9025 0.9543
3.4769 -10.9986 -1.9003 0.9543
5.3681 -10.1832 -1.8964 0.9544
6.2483 -9.6500 -1.8939 0.9545
8.4710 -9.0283 -2.0395 0.9511
10.5179 -6.4312 -2.0310 0.9513
11.9905 -2.3171 -2.0119 0.9517
12.1193 -1.2333 -2.0068 0.9518
12.1505 -0.1450 -2.0018 0.9519
7.9908 2.0958 -1.3609 0.9671
9.2990 3.3521 -1.6284 0.9607
10.3666 6.0036 -1.9735 0.9526
7.0671 4.9859 -1.4248 0.9655
9.0960 7.7221 -1.9656 0.9528
8.3547 8.4888 -1.9621 0.9529
3.9534 5.7976 -1.1560 0.9720
3.8359 11.1974 -1.9499 0.9532
2.8182 11.4878 -1.9486 0.9532
0.7837 5.1474 -0.8578 0.9791
-0.3293 11.8158 -1.9473 0.9532
-1.3842 11.7416 -1.9477 0.9532
-2.4289 11.5758 -1.9485 0.9532
-3.4557 11.3197 -1.9498 0.9532
-5.4258 10.5438 -1.9535 0.9531
-6.3541 10.0293 -1.9559 0.9530
-7.2353 9.4348 -1.9587 0.9529
-8.0623 8.7646 -1.9618 0.9529
-8.8288 8.0233 -1.9653 0.9528
-9.5287 7.2161 -1.9691 0.9527
-11.1737 4.4594 -1.9819 0.9524
-11.5547 3.4512 -1.9866 0.9523
-12.0434 1.3459 -1.9964 0.9521
-12.1458 0.2650 -2.0014 0.9519
-12.0593 -1.9108 -2.0114 0.9517
-10.1632 -7.0208 -2.0349 0.9512
-8.9915 -7.4818 -1.9270 0.9537
-7.3748 -8.7943 -1.8907 0.9545
-6.5695 -9.4325 -1.8936 0.9545
-5.7080 -9.9953 -1.8962 0.9544
-4.7975 -10.4773 -1.8984 0.9544
-3.8457 -10.8743 -1.9001 0.9543
-0.8251 -11.5218 -1.9030 0.9543
0.2078 -11.5499 -1.9030 0.9542
1.2388 -11.4829 -1.9027 0.9543
3.2594 -11.0671 -1.9006 0.9543
6.0583 -9.7746 -1.8945 0.9545
8.2802 -9.1820 -2.0368 0.9511
9.0826 -8.4192 -2.0402 0.9510
9.7793 -7.5590 -2.0362 0.9511
10.3938 -6.6409 -2.0319 0.9512
10.9213 -5.6730 -2.0274 0.9513
12.1520 -0.3853 -2.0029 0.9519
11.7301 0.6786 -1.9356 0.9535
11.1023 1.6469 -1.8490 0.9555
8.3797 2.0217 -1.4201 0.9657
9.2278 3.1218 -1.6048 0.9613
10.4881 5.8003 -1.9744 0.9526
9.9071 6.7003 -1.9703 0.9527
9.2506 7.5440 -1.9664 0.9528
5.0393 10.7241 -1.9520 0.9531
3.0450 11.4313 -1.9489 0.9532
0.9041 5.2403 -0.8760 0.9787
0.4263 5.2281 -0.8641 0.9790
-1.1518 11.7658 -1.9476 0.9532
-4.2386 11.0586 -1.9510 0.9531
-5.2151 10.6463 -1.9530 0.9531
-7.0451 9.5728 -1.9581 0.9530
-7.8847 8.9189 -1.9611 0.9529
-10.0242 6.5452 -1.9722 0.9526
4.5290 9.3824 -1.9582 0.9585
0.9656 5.2682 -1.0067 0.9784
0.4790 5.2026 -0.9820 0.9790
-3.6246 9.7603 -1.9570 0.9585
-4.4862 9.4055 -1.9587 0.9585
-5.3142 8.9763 -1.9607 0.9584
-6.1024 8.4757 -1.9631 0.9584
-7.5352 7.2750 -1.9687 0.9583
-8.1685 6.5833 -1.9719 0.9582
-9.6761 4.2046 -1.9830 0.9580
-10.5109 1.4972 -1.9956 0.9577
-10.6259 0.5531 -1.9999 0.9576
-10.6011 -1.3530 -2.0088 0.9574
-9.9257 -4.1425 -2.0216 0.9572
-9.5349 -5.0229 -2.0257 0.9571
-9.0652 -5.8660 -2.0295 0.9570
-6.6719 -7.4849 -1.8847 0.9600
-5.2468 -8.5755 -1.8896 0.9599
-3.6436 -9.3906 -1.8933 0.9598
0.7787 -10.0576 -1.8961 0.9598
2.5544 -9.7505 -1.8946 0.9598
3.4131 -9.4767 -1.8933 0.9598
4.2425 -9.1257 -1.8916 0.9599
7.0207 -8.2745 -2.0397 0.9568
7.7201 -7.6023 -2.0365 0.9569
8.3545 -6.8705 -2.0331 0.9569
8.9189 -6.0855 -2.0294 0.9570
9.4090 -5.2541 -2.0256 0.9571
10.1525 -3.4812 -2.0173 0.9573
10.5645 -1.6114 -2.0087 0.9574
10.6358 0.2935 -1.9999 0.9576
8.8792 5.6220 -1.9753 0.9581
8.3266 6.3817 -1.9719 0.9582
7.7104 7.0886 -1.9686 0.9583
6.3074 8.3240 -1.9630 0.9584
5.5317 8.8437 -1.9607 0.9584
2.9804 9.9684 -1.9556 0.9585
0.5753 5.1349 -0.9712 0.9792
-0.7000 10.3721 -1.9540 0.9586
-4.2986 9.4904 -1.9583 0.9585
-5.1345 9.0774 -1.9602 0.9584
-5.9321 8.5923 -1.9625 0.9584
-7.3874 7.4199 -1.9680 0.9583
-8.0338 6.7409 -1.9712 0.9582
-9.5869 4.3930 -1.9821 0.9580
-10.6077 0.7626 -1.9990 0.9576
-10.6568 -0.1887 -2.0034 0.9575
-10.6206 -1.1428 -2.0078 0.9575
-10.4989 -2.0918 -2.0122 0.9574
-10.0011 -3.9438 -2.0207 0.9572
-9.6281 -4.8315 -2.0248 0.9571
-9.1755 -5.6834 -2.0287 0.9570
-7.4340 -6.7002 -1.8811 0.9601
-6.8162 -7.3492 -1.8840 0.9600
-5.4138 -8.4679 -1.8891 0.9599
-2.9822 -9.6270 -1.8943 0.9598
-2.1112 -9.8603 -1.8954 0.9598
-0.3225 -10.0835 -1.8963 0.9598
3.2258 -9.5439 -1.8936 0.9598
4.0623 -9.2097 -1.8920 0.9599
7.5710 -7.7561 -2.0373 0.9568
8.2202 -7.0369 -2.0339 0.9569
8.8005 -6.2630 -2.0303 0.9570
9.3074 -5.4413 -2.0264 0.9571
9.7370 -4.5788 -2.0224 0.9572
10.0864 -3.6828 -2.0183 0.9572
10.3532 -2.7609 -2.0140 0.9573
10.5356 -1.8208 -2.0096 0.9574
10.6446 0.0833 -2.0008 0.9576
9.4403 2.6764 -1.8443 0.9609
8.3427 5.0542 -1.8334 0.9611
6.4725 8.2001 -1.9636 0.9584
5.7068 8.7349 -1.9612 0.9584
3.1772 9.9089 -1.9559 0.9585
2.2778 10.1477 -1.9548 0.9586
0.6762 5.1192 -0.9706 0.9792
-1.4211 10.3001 -1.9544 0.9586
-1.3155 5.7061 -1.1007 0.9764
-4.1094 9.5716 -1.9579 0.9585
-7.2369 7.5619 -1.9674 0.9583
-7.8962 6.8958 -1.9705 0.9582
-8.4953 6.1732 -1.9738 0.9582
-9.4941 4.5796 -1.9813 0.9580
-9.8852 3.7204 -1.9853 0.9579
-10.4335 1.9094 -1.9937 0.9577
-10.6360 -0.9322 -2.0068 0.9575
-10.5331 -1.8830 -2.0112 0.9574
-10.0725 -3.7437 -2.0198 0.9572
-9.2821 -5.4987 -2.0278 0.9570
-8.7698 -6.3178 -2.0316 0.9570
-5.5786 -8.3571 -1.8886 0.9599
-4.0103 -9.2360 -1.8926 0.9598
-2.3054 -9.8156 -1.8952 0.9598
0.3807 -10.0812 -1.8962 0.9598
1.2797 -10.0047 -1.8958 0.9598
2.1677 -9.8463 -1.8950 0.9598
3.8803 -9.2900 -1.8924 0.9599
4.6903 -8.8974 -1.8905 0.9599
5.4959 -8.4879 -1.9006 0.9597
7.4189 -7.9069 -2.0380 0.9568
8.0826 -7.2006 -2.0347 0.9569
9.2019 -5.6266 -2.0273 0.9571
9.6490 -4.7724 -2.0233 0.9571
10.3015 -2.9663 -2.0150 0.9573
10.6188 -1.0806 -2.0062 0.9575
10.5949 0.8232 -1.9974 0.9577
9.5728 1.6139 -1.8247 0.9613
7.9909 2.0958 -1.5528 0.9669
9.2161 3.3222 -1.8414 0.9609
8.8646 4.1242 -1.8377 0.9610
8.4444 4.8904 -1.8342 0.9611
3.9538 5.7983 -1.3191 0.9718
3.3728 9.8456 -1.9562 0.9585
0.3350 5.4307 -1.0227 0.9781
-0.2896 10.3910 -1.9539 0.9586
-2.1358 10.1792 -1.9550 0.9586
-4.7697 9.2688 -1.9593 0.9585
-6.3583 8.2913 -1.9639 0.9584
-7.7556 7.0480 -1.9698 0.9582
-8.3684 6.3374 -1.9731 0.9582
-10.1368 3.0277 -1.9885 0.9579
-10.6456 0.2322 -2.0014 0.9576
-10.5632 -1.6737 -2.0102 0.9574
-10.3938 -2.6166 -2.0146 0.9573
-10.1398 -3.5424 -2.0188 0.9572
-9.3850 -5.3120 -2.0270 0.9571
-8.8894 -6.1409 -2.0308 0.9570
-8.2964 -6.9034 -2.0286 0.9570
-4.9873 -8.7332 -1.8903 0.9599
-4.1912 -9.1531 -1.8922 0.9599
-3.3592 -9.4988 -1.8938 0.9598
-1.6165 -9.9556 -1.8958 0.9598
0.1814 -10.0870 -1.8963 0.9598
1.9730 -9.8883 -1.8952 0.9598
4.5146 -8.9904 -1.8909 0.9599
7.2637 -8.0547 -2.0386 0.9568
7.9417 -7.3617 -2.0354 0.9569
9.9422 -4.0822 -2.0201 0.9572
10.4655 -2.2377 -2.0116 0.9574
9.5476 2.3035 -1.8461 0.9608
8.7001 5.8840 -1.9741 0.9582
8.1255 6.6264 -1.9708 0.9582
6.7955 7.9427 -1.9648 0.9583
6.0506 8.5070 -1.9622 0.9584
5.2602 9.0034 -1.9599 0.9584
4.4303 9.4282 -1.9580 0.9585
0.8985 5.2078 -0.9933 0.9787
-1.0129 10.3469 -1.9541 0.9586
-1.9341 10.2184 -1.9548 0.9586
-4.5846 9.3592 -1.9589 0.9585
-5.4083 8.9215 -1.9610 0.9584
-7.6121 7.1973 -1.9691 0.9583
-8.8018 5.7471 -1.9758 0.9581
4.7723 7.9760 -1.9647 0.9627
2.3503 6.2395 -1.4094 0.9731
0.0216 9.2678 -1.9590 0.9628
-1.6290 9.1271 -1.9598 0.9628
-3.9987 8.3835 -1.9634 0.9627
-4.7362 8.0000 -1.9652 0.9627
-5.4380 7.5529 -1.9673 0.9627
-6.7127 6.4809 -1.9723 0.9626
-7.7826 5.1982 -1.9783 0.9625
-8.2297 4.4895 -1.9816 0.9624
-8.6131 3.7427 -1.9851 0.9623
-8.9293 2.9635 -1.9887 0.9623
-9.4496 0.4919 -2.0002 0.9621
-9.4230 -1.2027 -2.0080 0.9619
-9.2958 -2.0438 -2.0119 0.9618
-8.8164 -3.6796 -2.0194 0.9617
-7.5630 -5.9160 -2.0297 0.9615
-5.9203 -6.6417 -1.8807 0.9643
-2.4758 -8.5892 -1.8895 0.9641
1.4842 -8.8188 -1.8903 0.9641
3.0271 -8.4048 -1.8883 0.9641
3.7630 -8.0943 -1.8868 0.9642
6.2298 -7.3424 -2.0354 0.9614
7.9187 -5.4030 -2.0264 0.9616
8.3556 -4.6659 -2.0229 0.9616
9.3905 -1.4324 -2.0079 0.9619
9.3790 1.1030 -1.9962 0.9621
8.5590 1.7934 -1.8485 0.9649
8.3488 2.5462 -1.8450 0.9649
6.4063 2.5997 -1.4614 0.9721
7.7345 3.9774 -1.8384 0.9651
4.8284 3.0572 -1.2080 0.9769
6.8688 6.3148 -1.9723 0.9626
6.2686 6.8941 -1.9696 0.9626
4.2022 8.2832 -1.9633 0.9627
3.4426 8.6190 -1.9618 0.9628
1.8514 9.0846 -1.9598 0.9628
0.2047 9.2656 -1.9590 0.9628
-0.6241 9.2474 -1.9592 0.9628
-3.0581 8.7614 -1.9616 0.9628
-3.8316 8.4593 -1.9630 0.9627
-4.5762 8.0903 -1.9648 0.9627
-5.2864 7.6570 -1.9668 0.9627
-5.9564 7.1624 -1.9691 0.9626
-6.5813 6.6102 -1.9717 0.9626
-7.1559 6.0043 -1.9745 0.9625
-8.8654 3.1380 -1.9879 0.9623
-9.1273 2.3376 -1.9916 0.9622
-9.4753 -0.1678 -2.0032 0.9620
-9.4409 -1.0158 -2.0071 0.9619
-9.3304 -1.8590 -2.0110 0.9619
-8.8838 -3.5032 -2.0186 0.9617
-8.5505 -4.2907 -2.0222 0.9616
-8.1468 -5.0463 -2.0257 0.9616
-5.4485 -7.0449 -1.8825 0.9642
-4.8026 -7.5120 -1.8847 0.9642
-4.1162 -7.9188 -1.8865 0.9642
-2.6448 -8.5376 -1.8893 0.9641
-1.8722 -8.7439 -1.8902 0.9641
-0.2860 -8.9414 -1.8910 0.9641
0.5141 -8.9307 -1.8909 0.9641
1.3098 -8.8470 -1.8905 0.9641
2.0943 -8.6911 -1.8897 0.9641
2.8609 -8.4642 -1.8886 0.9641
6.7191 -6.8833 -2.0333 0.9614
7.2966 -6.2462 -2.0303 0.9615
7.8132 -5.5604 -2.0271 0.9616
8.9608 -3.2718 -2.0164 0.9617
9.2000 -2.4534 -2.0126 0.9618
9.4531 -0.7736 -2.0049 0.9620
9.4659 0.0741 -2.0010 0.9620
8.4009 2.3817 -1.8458 0.9649
7.8146 3.8253 -1.8391 0.9651
6.9860 5.1383 -1.8331 0.9652
5.7676 7.3071 -1.9677 0.9627
4.3658 8.2001 -1.9637 0.9627
3.6127 8.5506 -1.9621 0.9628
2.0307 9.0470 -1.9599 0.9628
0.6759 5.1169 -1.0910 0.9791
0.3878 9.2598 -1.9590 0.9628
-1.2956 5.6200 -1.2191 0.9767
-2.8840 8.8189 -1.9613 0.9628
-5.1328 7.7581 -1.9663 0.9627
-7.5658 5.4978 -1.9769 0.9625
-8.0399 4.8076 -1.9801 0.9624
-9.0756 2.5165 -1.9908 0.9622
-9.4147 0.8641 -1.9984 0.9621
-9.4727 0.0194 -2.0023 0.9620
-9.4550 -0.8287 -2.0063 0.9619
-9.3613 -1.6735 -2.0102 0.9619
-8.6303 -4.1193 -2.0214 0.9617
-8.2419 -4.8825 -2.0249 0.9616
-6.1744 -6.3988 -1.8796 0.9643
-4.9490 -7.4139 -1.8842 0.9642
-4.2710 -7.8344 -1.8861 0.9642
-0.4626 -8.9339 -1.8910 0.9641
1.9223 -8.7317 -1.8899 0.9641
2.6934 -8.5203 -1.8889 0.9641
3.4416 -8.2397 -1.8875 0.9642
5.9382 -7.5871 -2.0366 0.9614
8.5698 -4.2386 -2.0209 0.9617
9.4400 -0.9606 -2.0057 0.9619
9.4696 -0.1130 -2.0018 0.9620
9.4234 0.7322 -1.9979 0.9621
8.8094 1.4852 -1.8884 0.9641
7.9911 2.0959 -1.7463 0.9668
8.2028 2.9569 -1.8431 0.9650
6.6033 5.6059 -1.8310 0.9652
6.5399 6.6449 -1.9708 0.9626
5.9124 7.1936 -1.9683 0.9626
3.9543 5.7989 -1.4836 0.9717
4.5279 8.1139 -1.9641 0.9627
2.7671 6.2041 -1.4360 0.9726
3.0068 8.7770 -1.9611 0.9628
0.7809 5.1294 -1.0968 0.9790
0.5707 9.2505 -1.9591 0.9628
-1.0852 9.2058 -1.9594 0.9628
-1.2272 5.8489 -1.2633 0.9759
-2.7088 8.8730 -1.9610 0.9628
-4.2512 8.2614 -1.9639 0.9627
-4.9773 7.8561 -1.9659 0.9627
-5.6658 7.3882 -1.9681 0.9627
-6.3112 6.8610 -1.9705 0.9626
-6.9086 6.2783 -1.9733 0.9626
-7.4532 5.6443 -1.9762 0.9625
-8.3664 4.2414 -1.9828 0.9624
-8.7274 3.4831 -1.9863 0.9623
-9.0204 2.6942 -1.9900 0.9622
-9.3885 -1.4876 -2.0093 0.9619
-9.0079 -3.1470 -2.0169 0.9617
-7.8919 -5.4518 -2.0275 0.9615
-7.3843 -6.1444 -2.0306 0.9615
-6.3422 -6.3180 -1.8923 0.9641
-5.7195 -6.8204 -1.8815 0.9643
-4.4240 -7.7468 -1.8857 0.9642
-3.7174 -8.1183 -1.8874 0.9642
-2.9792 -8.4242 -1.8888 0.9641
-2.2158 -8.6615 -1.8898 0.9641
-1.4335 -8.8282 -1.8905 0.9641
0.1609 -8.9445 -1.8910 0.9641
2.5249 -8.5730 -1.8891 0.9641
3.2787 -8.3075 -1.8879 0.9641
4.0642 -8.0935 -1.9144 0.9637
6.4458 -7.1477 -2.0345 0.9614
7.0487 -6.5339 -2.0316 0.9615
7.5928 -5.8689 -2.0285 0.9615
8.4876 -4.4089 -2.0217 0.9617
9.3010 -1.9887 -2.0105 0.9619
9.4400 0.5461 -1.9988 0.9621
8.4955 2.0497 -1.8473 0.9649
8.2630 2.7954 -1.8439 0.9650
7.9658 3.5162 -1.8406 0.9650
7.1885 4.8617 -1.8344 0.9651
6.7244 5.4838 -1.8341 0.9651
6.0550 7.0772 -1.9688 0.9626
5.3921 7.5812 -1.9665 0.9627
2.3871 8.9614 -1.9603 0.9628
-0.0751 9.2676 -1.9590 0.9628
-1.5994 5.6356 -1.2383 0.9763
-3.3220 8.6671 -1.9620 0.9628
-4.0864 8.3421 -1.9636 0.9627
-4.8200 7.9511 -1.9654 0.9627
-6.1726 6.9823 -1.9700 0.9626
-6.7811 6.4115 -1.9726 0.9626
-7.8380 5.1177 -1.9787 0.9625
-8.2778 4.4042 -1.9820 0.9624
0.9556 5.2136 -1.2457 0.9785
0.0195 8.3535 -1.9633 0.9663
-0.7271 8.3226 -1.9634 0.9663
-1.5260 5.5987 -1.3638 0.9764
-2.9119 7.8411 -1.9658 0.9662
-4.2676 7.2085 -1.9688 0.9662
-5.4939 6.3468 -1.9729 0.9661
-6.5524 5.2809 -1.9779 0.9660
-7.7531 3.3690 -1.9868 0.9659
-8.2564 1.9416 -1.9934 0.9657
-8.4997 0.4425 -2.0003 0.9656
-7.2299 -4.6784 -2.0239 0.9652
-6.2947 -5.9029 -2.0281 0.9652
-5.4756 -6.1428 -1.9340 0.9668
-4.1781 -6.8287 -1.8815 0.9676
-2.9003 -7.4749 -1.8844 0.9676
-0.0980 -8.0274 -1.8868 0.9676
0.6196 -8.0034 -1.8866 0.9676
1.3320 -7.9141 -1.8862 0.9676
2.7878 -7.7405 -1.9336 0.9668
3.6451 -7.8407 -2.0321 0.9651
4.9878 -7.0740 -2.0343 0.9651
6.6607 -5.4776 -2.0268 0.9652
7.5071 -4.1920 -2.0208 0.9653
7.8391 -3.4989 -2.0176 0.9653
8.3088 -2.0407 -2.0108 0.9655
8.5096 -0.5273 -2.0038 0.9656
8.4379 0.9923 -1.9968 0.9657
8.0454 1.6857 -1.9319 0.9668
7.5139 2.2916 -1.8462 0.9682
6.4054 2.5993 -1.6247 0.9720
6.9636 3.5810 -1.8403 0.9683
4.8274 3.0566 -1.3429 0.9768
5.7401 5.2772 -1.8325 0.9685
5.2393 5.7621 -1.8303 0.9685
5.0640 6.6831 -1.9707 0.9661
4.4423 7.1020 -1.9688 0.9662
3.7868 7.4644 -1.9671 0.9662
3.1025 7.7675 -1.9658 0.9662
2.3947 8.0093 -1.9647 0.9662
0.5783 5.1617 -1.2207 0.9789
-0.5625 8.3350 -1.9634 0.9663
-1.3053 8.2532 -1.9638 0.9662
-2.7560 7.8960 -1.9655 0.9662
-3.4529 7.6232 -1.9668 0.9662
-4.7629 6.8989 -1.9703 0.9661
-5.3661 6.4525 -1.9724 0.9661
-5.9282 5.9542 -1.9747 0.9661
-6.4449 5.4077 -1.9773 0.9660
-6.9120 4.8169 -1.9800 0.9660
-7.6823 3.5203 -1.9861 0.9659
-7.9791 2.8243 -1.9893 0.9658
-8.2134 2.1036 -1.9926 0.9658
-8.4860 0.6101 -1.9996 0.9656
-8.4889 -0.9134 -2.0066 0.9655
-7.3185 -4.5332 -2.0233 0.9652
-6.8942 -5.1766 -2.0262 0.9652
-6.4128 -5.7798 -2.0290 0.9651
-5.7289 -6.1769 -1.9800 0.9660
-4.8917 -6.3248 -1.8792 0.9677
-4.3113 -6.7435 -1.8811 0.9676
-3.0470 -7.4151 -1.8841 0.9676
-2.3736 -7.6622 -1.8852 0.9676
-0.9725 -7.9679 -1.8865 0.9676
-0.2566 -8.0239 -1.8868 0.9676
1.1754 -7.9394 -1.8863 0.9676
2.6006 -7.6941 -1.9088 0.9672
3.4870 -7.9055 -2.0307 0.9651
4.8481 -7.1728 -2.0347 0.9651
6.5532 -5.6098 -2.0274 0.9652
7.4253 -4.3411 -2.0215 0.9653
7.7713 -3.6544 -2.0183 0.9653
8.2700 -2.2054 -2.0116 0.9654
8.5140 0.0667 -2.0010 0.9656
8.4591 0.8257 -1.9975 0.9657
8.3370 1.5756 -1.9941 0.9657
7.5605 2.1435 -1.8469 0.9682
7.0354 3.4438 -1.8409 0.9683
4.8283 2.9251 -1.3268 0.9771
5.8449 5.1642 -1.8331 0.9685
4.5827 7.0143 -1.9692 0.9662
3.9342 7.3894 -1.9675 0.9662
2.5527 7.9613 -1.9649 0.9662
-0.3977 8.3443 -1.9633 0.9663
-1.1420 8.2769 -1.9637 0.9663
-1.2884 5.5887 -1.3479 0.9767
-3.3010 7.6887 -1.9665 0.9662
-6.3349 5.5323 -1.9767 0.9660
-6.8133 4.9509 -1.9794 0.9660
-7.2390 4.3286 -1.9823 0.9659
-7.6086 3.6701 -1.9854 0.9659
-8.3511 1.5283 -1.9953 0.9657
-8.4690 0.7774 -1.9988 0.9657
-8.5196 0.0175 -2.0023 0.9656
-8.5020 -0.7452 -2.0058 0.9655
-8.4161 -1.5046 -2.0093 0.9655
-8.2621 -2.2545 -2.0128 0.9654
-8.0411 -2.9887 -2.0162 0.9654
-7.7544 -3.7013 -2.0194 0.9653
-7.4042 -4.3862 -2.0226 0.9653
-6.9929 -5.0378 -2.0256 0.9652
-6.5238 -5.6503 -2.0284 0.9652
-5.9784 -6.1957 -2.0235 0.9652
-5.0145 -6.2255 -1.8787 0.9677
-2.5242 -7.6129 -1.8850 0.9676
-0.4151 -8.0171 -1.8867 0.9676
0.3029 -8.0221 -1.8867 0.9676
1.0184 -7.9616 -1.8864 0.9676
1.7252 -7.8361 -1.8858 0.9676
2.4196 -7.6540 -1.8866 0.9676
3.2841 -7.8627 -2.0026 0.9656
4.0397 -7.6632 -2.0360 0.9650
4.7065 -7.2688 -2.0352 0.9650
5.3315 -6.8119 -2.0330 0.9651
6.4430 -5.7399 -2.0280 0.9652
7.3406 -4.4884 -2.0222 0.9653
8.2279 -2.3692 -2.0123 0.9654
8.4887 -0.8638 -2.0053 0.9655
8.3697 1.4111 -1.9948 0.9657
7.3833 2.6615 -1.8445 0.9683
5.8456 2.7196 -1.5152 0.9739
6.7703 3.9209 -1.8388 0.9684
5.4657 5.5535 -1.8313 0.9685
4.9419 6.0128 -1.8292 0.9685
4.0802 7.3115 -1.9678 0.9662
2.7098 7.9102 -1.9651 0.9662
1.9912 8.1170 -1.9642 0.9662
0.7788 5.1153 -1.2161 0.9790
0.5144 8.3378 -1.9633 0.9663
-0.2327 8.3504 -1.9633 0.9663
-1.2191 5.8104 -1.3953 0.9759
-3.8309 7.4445 -1.9677 0.9662
-4.4847 7.0786 -1.9694 0.9662
-5.6853 6.1805 -1.9736 0.9661
-6.2226 5.6548 -1.9761 0.9660
-6.7120 5.0830 -1.9788 0.9660
-8.1178 2.4246 -1.9911 0.9658
-8.5142 0.1857 -2.0015 0.9656
-8.4409 -1.3374 -2.0086 0.9655
-8.3019 -2.0900 -2.0120 0.9654
-7.8233 -3.5461 -2.0187 0.9653
-7.4869 -4.2377 -2.0219 0.9653
-6.6322 -5.5186 -2.0278 0.9652
-6.1049 -6.0816 -2.0252 0.9652
-4.5724 -6.5650 -1.8803 0.9677
-1.9885 -7.7732 -1.8857 0.9676
-1.2864 -7.9225 -1.8864 0.9676
-0.5734 -8.0072 -1.8867 0.9676
0.1444 -8.0266 -1.8867 0.9676
0.8609 -7.9805 -1.8865 0.9676
3.0837 -7.8135 -1.9742 0.9661
3.8846 -7.7357 -2.0344 0.9651
5.1972 -6.9177 -2.0335 0.9651
5.7879 -6.4182 -2.0312 0.9651
7.9368 -3.2588 -2.0164 0.9654
8.1825 -2.5323 -2.0131 0.9654
8.3617 -1.7879 -2.0096 0.9655
8.4733 -1.0318 -2.0061 0.9655
8.5166 -0.2700 -2.0026 0.9656
8.4917 0.4912 -1.9991 0.9657
7.4371 2.5160 -1.8452 0.9683
6.8487 3.7876 -1.8394 0.9684
6.4734 4.3780 -1.8367 0.9684
5.4879 5.3599 -1.8029 0.9690
4.2246 7.2308 -1.9682 0.9662
2.2958 6.2933 -1.5744 0.9728
0.8881 5.1475 -1.2276 0.9788
0.4296 5.2680 -1.2422 0.9785
-0.0677 8.3532 -1.9633 0.9663
-0.8140 8.3147 -1.9635 0.9663
-1.5541 8.2109 -1.9640 0.9662
-1.5940 5.6163 -1.3721 0.9763
-2.9938 7.8108 -1.9659 0.9662
-3.6824 7.5174 -1.9673 0.9662
-4.3431 7.1644 -1.9690 0.9662
-4.9708 6.7542 -1.9710 0.9661
-7.0577 4.6082 -1.9810 0.9660
3.0687 6.3572 -1.8277 0.9713
2.3508 6.2408 -1.7267 0.9728
0.4825 5.2413 -1.3628 0.9785
0.0164 7.0474 -1.8247 0.9713
-1.2387 6.9400 -1.8253 0.9713
-1.5208 5.5797 -1.4974 0.9764
-2.6476 7.1293 -1.9691 0.9691
-3.2761 6.8685 -1.9703 0.9690
-4.4537 6.1858 -1.9735 0.9690
-4.9936 5.7688 -1.9755 0.9690
-5.9543 4.7988 -1.9800 0.9689
-6.7312 3.6720 -1.9853 0.9688
-7.2987 2.4223 -1.9911 0.9687
-7.4974 1.7631 -1.9942 0.9687
-7.6369 1.0878 -1.9973 0.9686
-7.7332 -0.2899 -2.0037 0.9685
-7.6886 -0.9813 -2.0069 0.9685
-6.5560 -4.2424 -2.0219 0.9682
-6.1587 -4.8175 -2.0245 0.9682
-5.7105 -5.3551 -2.0270 0.9682
-5.2065 -5.8410 -2.0259 0.9682
-3.2208 -6.5073 -1.8799 0.9704
-2.6281 -6.7733 -1.8811 0.9704
-2.0133 -6.9846 -1.8821 0.9704
-1.3816 -7.1391 -1.8827 0.9704
-0.7383 -7.2356 -1.8831 0.9704
0.5614 -7.2514 -1.8831 0.9704
1.9651 -7.5008 -2.0076 0.9685
2.6608 -7.3878 -2.0331 0.9681
3.9332 -6.7959 -2.0330 0.9681
4.5207 -6.4116 -2.0312 0.9681
5.0704 -5.9759 -2.0292 0.9681
6.8083 -3.8019 -2.0190 0.9683
7.1105 -3.1737 -2.0161 0.9683
7.5389 -1.8516 -2.0100 0.9684
7.7236 -0.4786 -2.0036 0.9685
7.7231 0.2131 -2.0004 0.9686
7.5380 1.5794 -1.9941 0.9687
6.3263 3.2532 -1.8419 0.9710
5.6312 4.3159 -1.8370 0.9711
4.2708 5.6363 -1.8310 0.9712
3.1942 6.2962 -1.8280 0.9712
2.0201 6.7567 -1.8259 0.9713
1.0819 5.3086 -1.4027 0.9779
-0.4746 7.0319 -1.8248 0.9713
-1.1012 6.9627 -1.8252 0.9713
-1.3948 5.5470 -1.4809 0.9766
-3.1393 6.9309 -1.9700 0.9691
-3.7488 6.6275 -1.9715 0.9690
-4.8775 5.8650 -1.9751 0.9690
-5.3878 5.4115 -1.9772 0.9689
-5.8567 4.9142 -1.9795 0.9689
-6.6553 3.8031 -1.9847 0.9688
-7.2470 2.5652 -1.9904 0.9687
-7.7037 0.5538 -1.9998 0.9686
-7.7347 -0.1370 -2.0030 0.9685
-7.7038 -0.8289 -2.0062 0.9685
-7.6109 -1.5164 -2.0093 0.9684
-7.4565 -2.1938 -2.0125 0.9684
-7.2416 -2.8556 -2.0155 0.9683
-6.6366 -4.1108 -2.0213 0.9683
-6.2509 -4.6936 -2.0239 0.9682
-5.3246 -5.7410 -2.0273 0.9682
-4.6955 -6.0712 -1.9872 0.9688
-3.3482 -6.4413 -1.8796 0.9704
-2.7610 -6.7192 -1.8809 0.9704
-2.1507 -6.9427 -1.8819 0.9704
-1.5223 -7.1099 -1.8826 0.9704
-0.8811 -7.2193 -1.8831 0.9704
0.4183 -7.2655 -1.8843 0.9704
1.0775 -7.2782 -1.9050 0.9701
1.7974 -7.4591 -1.9866 0.9688
2.5128 -7.4345 -2.0319 0.9681
3.1718 -7.1908 -2.0349 0.9680
7.0487 -3.3146 -2.0168 0.9683
7.5034 -2.0009 -2.0107 0.9684
7.6402 -1.3204 -2.0075 0.9685
7.6800 0.7497 -1.9979 0.9686
6.9929 1.9826 -1.8820 0.9704
6.3913 3.1286 -1.8424 0.9710
4.8287 2.9254 -1.4618 0.9769
4.3823 5.5520 -1.8314 0.9712
3.8513 5.8949 -1.8232 0.9713
1.5441 6.8789 -1.8254 0.9713
0.2949 7.0413 -1.8247 0.9713
-0.3355 7.0397 -1.8248 0.9713
-1.2821 5.5615 -1.4777 0.9767
-2.3633 7.2266 -1.9686 0.9691
-4.2041 6.3544 -1.9728 0.9690
-4.7596 5.9589 -1.9746 0.9690
-5.2786 5.5156 -1.9767 0.9689
-5.7570 5.0276 -1.9790 0.9689
-6.1909 4.4987 -1.9814 0.9689
-7.5827 1.3877 -1.9959 0.9687
-7.6885 0.7057 -1.9991 0.9686
-7.7332 0.0159 -2.0023 0.9686
-7.7159 -0.6763 -2.0055 0.9685
-7.2942 -2.7111 -2.0148 0.9684
-6.3406 -4.5678 -2.0234 0.9682
-5.9145 -5.1226 -2.0259 0.9682
-2.8929 -6.6625 -1.8806 0.9704
-2.2872 -6.8982 -1.8817 0.9704
-1.6624 -7.0779 -1.8825 0.9704
-1.0235 -7.2002 -1.8830 0.9704
-0.3761 -7.2638 -1.8833 0.9704
0.9261 -7.2404 -1.8899 0.9703
2.3641 -7.4784 -2.0307 0.9681
5.3592 -5.7118 -2.0279 0.9682
6.9841 -3.4544 -2.0174 0.9683
7.4650 -2.1495 -2.0113 0.9684
7.7310 -0.0923 -2.0018 0.9686
7.6960 0.5980 -1.9986 0.9686
6.7061 2.4174 -1.8457 0.9710
6.1512 3.5623 -1.8404 0.9711
5.8006 4.0923 -1.8380 0.9711
3.2844 3.3372 -1.2123 0.9808
4.4921 5.4655 -1.8318 0.9712
3.9379 5.7749 -1.8098 0.9715
2.8747 6.4455 -1.8273 0.9713
2.2860 6.6729 -1.8263 0.9713
1.6798 6.8476 -1.8255 0.9713
0.4339 7.0342 -1.8247 0.9713
-0.1964 7.0448 -1.8247 0.9713
-4.0769 6.4350 -1.9724 0.9690
-5.1673 5.6174 -1.9762 0.9690
-6.8423 3.4688 -1.9862 0.9688
-7.5512 1.5367 -1.9952 0.9687
-7.7286 0.1686 -2.0016 0.9686
-7.7251 -0.5235 -2.0047 0.9685
-7.5322 -1.8962 -2.0111 0.9684
-7.3439 -2.5656 -2.0142 0.9684
-6.7897 -3.8430 -2.0200 0.9683
-6.0130 -5.0034 -2.0253 0.9682
-4.2345 -6.0798 -1.9184 0.9699
-3.5989 -6.3019 -1.8790 0.9705
-3.0235 -6.6031 -1.8804 0.9704
-1.1656 -7.1782 -1.8829 0.9704
-0.5195 -7.2548 -1.8832 0.9704
0.7801 -7.2307 -1.8830 0.9704
3.5255 -7.0207 -2.0341 0.9681
4.1354 -6.6721 -2.0324 0.9681
5.2466 -5.8180 -2.0284 0.9681
6.5772 -4.2024 -2.0209 0.9683
7.5873 -1.6223 -2.0089 0.9684
7.6898 -0.9364 -2.0057 0.9685
7.7090 0.4460 -1.9993 0.9686
7.6262 1.1312 -1.9962 0.9686
7.4830 1.8054 -1.9931 0.9687
5.0677 4.9495 -1.8341 0.9712
4.6002 5.3769 -1.8322 0.9712
4.0975 5.7609 -1.8304 0.9712
3.5633 6.0989 -1.8289 0.9712
3.0019 6.3884 -1.8276 0.9713
2.2960 6.2938 -1.7346 0.9727
1.8179 6.8247 -1.8287 0.9712
0.8824 5.1145 -1.3438 0.9788
0.4345 5.3282 -1.3841 0.9782
-1.3111 6.9269 -1.8254 0.9713
-2.7220 7.1017 -1.9692 0.9691
-3.9482 6.5130 -1.9720 0.9690
-5.0541 5.7171 -1.9757 0.9690
-6.0049 4.7371 -1.9803 0.9689
-6.7703 3.6022 -1.9856 0.9688
0.0114 4.9119 -1.3905 0.9798
-1.1346 6.3567 -1.8280 0.9735
-2.4249 6.5296 -1.9718 0.9715
-3.0004 6.2904 -1.9730 0.9714
-3.5529 6.0013 -1.9743 0.9714
-4.0783 5.6644 -1.9759 0.9714
-4.5723 5.2821 -1.9777 0.9714
-5.0310 4.8573 -1.9797 0.9713
-5.4509 4.3931 -1.9819 0.9713
-6.9861 0.9951 -1.9977 0.9711
-7.0574 0.3674 -2.0006 0.9710
-7.0305 -0.8973 -2.0064 0.9710
-6.9322 -1.5242 -2.0093 0.9709
-5.9910 -3.8768 -2.0201 0.9708
-5.6273 -4.4019 -2.0225 0.9707
-5.2173 -4.8925 -2.0248 0.9707
-4.7640 -5.3446 -2.0268 0.9707
-3.0616 -6.1856 -1.9539 0.9717
-2.4516 -6.3185 -1.9186 0.9722
-0.0848 -6.9479 -1.9671 0.9715
0.5506 -7.1115 -2.0192 0.9708
1.8207 -6.9499 -2.0339 0.9706
2.4334 -6.7563 -2.0329 0.9706
3.5925 -6.2073 -2.0303 0.9706
4.1295 -5.8567 -2.0287 0.9706
6.2224 -3.4747 -2.0175 0.9708
6.4994 -2.9009 -2.0149 0.9708
6.7234 -2.3053 -2.0121 0.9709
6.8927 -1.6929 -2.0093 0.9709
7.0635 -0.4377 -2.0035 0.9710
7.0640 0.1949 -2.0005 0.9710
7.0082 0.8242 -1.9976 0.9711
6.8966 1.4450 -1.9948 0.9711
5.7901 2.9775 -1.8432 0.9733
4.8255 3.0554 -1.6169 0.9765
4.3604 4.7955 -1.8349 0.9734
3.9109 5.1612 -1.8332 0.9734
2.3970 6.0012 -1.8294 0.9735
1.8503 6.1886 -1.8286 0.9735
0.5781 5.1604 -1.4700 0.9786
0.0931 4.2144 -1.1933 0.9826
-0.4347 6.4410 -1.8275 0.9735
-2.2951 6.5755 -1.9716 0.9715
-2.8751 6.3476 -1.9727 0.9714
-3.4331 6.0694 -1.9740 0.9714
-6.0914 3.4809 -1.9861 0.9713
-6.3864 2.9265 -1.9887 0.9712
-6.6313 2.3473 -1.9914 0.9712
-6.9629 1.1326 -1.9970 0.9711
-6.6193 -2.6103 -2.0143 0.9709
-6.0648 -3.7566 -2.0196 0.9708
-5.3117 -4.7873 -2.0243 0.9707
-4.8677 -5.2483 -2.0264 0.9707
-4.3814 -5.6650 -2.0274 0.9707
-3.2030 -6.1621 -1.9660 0.9715
-2.5834 -6.2869 -1.9242 0.9721
-1.4123 -6.5960 -1.9096 0.9723
-0.8243 -6.7537 -1.9261 0.9721
1.0499 -7.0917 -2.0295 0.9706
2.8968 -6.5675 -2.0320 0.9706
4.0137 -5.9383 -2.0291 0.9706
4.5242 -5.5509 -2.0272 0.9707
4.9971 -5.1193 -2.0252 0.9707
6.4427 -3.0296 -2.0155 0.9708
6.8601 -1.8294 -2.0099 0.9709
7.0557 -0.5774 -2.0041 0.9710
7.0253 0.6858 -1.9983 0.9711
6.0900 2.3323 -1.8461 0.9733
4.2833 3.1505 -1.5052 0.9781
3.5396 5.4177 -1.8320 0.9735
1.3606 6.0617 -1.7587 0.9745
0.1775 4.2376 -1.2007 0.9825
-2.0082 6.1408 -1.8290 0.9735
-2.7487 6.4024 -1.9724 0.9715
-3.3120 6.1351 -1.9737 0.9714
-4.8330 5.0500 -1.9788 0.9714
-7.0726 0.0145 -2.0022 0.9710
-7.0559 -0.6184 -2.0051 0.9710
-6.9826 -1.2483 -2.0081 0.9709
-6.8528 -1.8699 -2.0109 0.9709
-6.4281 -3.0682 -2.0164 0.9708
-6.1362 -3.6351 -2.0190 0.9708
-5.4039 -4.6803 -2.0238 0.9707
-4.9693 -5.1499 -2.0260 0.9707
-3.3463 -6.1382 -1.9791 0.9714
-2.7159 -6.2550 -1.9305 0.9720
-1.5410 -6.5612 -1.9080 0.9724
-0.3561 -6.8772 -1.9495 0.9718
0.9092 -7.1082 -2.0287 0.9706
1.5437 -7.0120 -2.0326 0.9706
2.1650 -6.8487 -2.0334 0.9706
3.3456 -6.3465 -2.0310 0.9706
4.8961 -5.2182 -2.0257 0.9707
5.3371 -4.7547 -2.0235 0.9707
6.0837 -3.7199 -2.0187 0.9708
6.3835 -3.1573 -2.0161 0.9708
6.6311 -2.5708 -2.0133 0.9709
7.0452 -0.7169 -2.0048 0.9710
7.0708 -0.0844 -2.0018 0.9710
7.0398 0.5470 -1.9989 0.9711
6.9527 1.1722 -1.9960 0.9711
6.1550 2.2187 -1.8522 0.9732
5.9066 2.7480 -1.8442 0.9733
5.3099 3.7462 -1.8397 0.9733
4.1133 5.0046 -1.8339 0.9734
3.1518 5.6479 -1.8310 0.9735
2.0937 6.1118 -1.8289 0.9735
1.4787 6.0276 -1.7570 0.9745
0.3740 6.0624 -1.7195 0.9751
-0.1386 4.9717 -1.4080 0.9795
-3.1896 6.1984 -1.9734 0.9714
-3.7335 5.8929 -1.9749 0.9714
-4.2487 5.5403 -1.9765 0.9714
-4.7312 5.1433 -1.9784 0.9714
-5.1773 4.7049 -1.9804 0.9713
-5.5832 4.2282 -1.9827 0.9713
-5.9459 3.7168 -1.9850 0.9713
-6.2622 3.1747 -1.9876 0.9712
-6.9083 1.4059 -1.9958 0.9711
-7.0164 0.7841 -1.9987 0.9711
-7.0645 -0.4787 -2.0045 0.9710
-7.0036 -1.1097 -2.0074 0.9710
-6.8863 -1.7336 -2.0103 0.9709
-6.4856 -2.9398 -2.0158 0.9708
-5.4940 -4.5715 -2.0233 0.9707
-5.0690 -5.0496 -2.0255 0.9707
-4.6020 -5.4878 -2.0275 0.9707
-4.0880 -5.8695 -2.0249 0.9707
-3.4914 -6.1138 -1.9931 0.9712
-2.8494 -6.2227 -1.9375 0.9719
-2.2514 -6.3662 -1.9116 0.9723
-1.0853 -6.6841 -1.9170 0.9722
0.7683 -7.1220 -2.0279 0.9707
1.4043 -7.0380 -2.0317 0.9706
3.7773 -6.0944 -2.0298 0.9706
4.3031 -5.7276 -2.0281 0.9707
6.8465 1.6518 -1.9938 0.9711
5.9615 2.6315 -1.8448 0.9733
4.2123 4.9234 -1.8343 0.9734
3.2633 5.5854 -1.8313 0.9735
2.2143 6.0698 -1.8291 0.9735
1.5965 5.9937 -1.7559 0.9745
0.4348 5.3315 -1.5143 0.9780
-0.0401 4.9432 -1.3994 0.9797
-1.5817 5.5732 -1.6401 0.9762
-3.0661 6.2593 -1.9731 0.9714
-3.6157 5.9644 -1.9745 0.9714
-5.0821 4.8051 -1.9800 0.9713
-5.8697 3.8325 -1.9845 0.9713
-6.1964 3.2968 -1.9870 0.9712
3.0606 5.1152 -1.8335 0.9754
2.0989 5.5721 -1.8314 0.9754
0.8586 4.6844 -1.4648 0.9803
0.4423 4.8045 -1.4840 0.9800
-0.5178 5.9269 -1.8299 0.9754
-1.0456 5.8580 -1.8303 0.9754
-3.2737 5.5296 -1.9765 0.9735
-3.7575 5.2189 -1.9780 0.9734
-4.2123 4.8663 -1.9796 0.9734
-5.6737 3.0951 -1.9879 0.9733
-6.1492 2.0408 -1.9928 0.9733
-6.4959 0.3381 -2.0007 0.9731
-6.4697 -0.8257 -2.0061 0.9731
-6.2357 -1.9693 -2.0113 0.9730
-5.7999 -3.0554 -2.0163 0.9729
-5.5101 -3.5656 -2.0187 0.9729
-5.1751 -4.0481 -2.0209 0.9729
-4.7976 -4.4989 -2.0229 0.9729
-4.3804 -4.9142 -2.0248 0.9728
-1.8242 -6.3285 -2.0258 0.9728
-1.2519 -6.4690 -2.0266 0.9728
1.0964 -6.5145 -2.0319 0.9727
1.6737 -6.3885 -2.0313 0.9727
2.2369 -6.2108 -2.0304 0.9728
3.3028 -5.7067 -2.0280 0.9728
4.6862 -4.6147 -2.0229 0.9729
5.4213 -3.6990 -2.0186 0.9729
5.9789 -2.6686 -2.0138 0.9730
6.1856 -2.1210 -2.0113 0.9730
6.3421 -1.5577 -2.0087 0.9730
6.5020 0.1794 -2.0006 0.9731
6.4513 0.7587 -1.9980 0.9732
6.3494 1.3304 -1.9953 0.9732
6.1971 1.8900 -1.9928 0.9733
5.7280 2.3244 -1.9013 0.9745
4.3999 4.0451 -1.8383 0.9753
4.0171 4.4180 -1.8366 0.9753
3.6032 4.7553 -1.8351 0.9753
1.5549 3.8929 -1.2893 0.9826
1.7051 5.7029 -1.8308 0.9754
0.9493 4.6582 -1.4622 0.9803
0.5353 4.7777 -1.4787 0.9801
-0.9296 5.8772 -1.8302 0.9754
-1.3748 5.4676 -1.7341 0.9767
-3.1633 5.5924 -1.9762 0.9735
-3.6530 5.2912 -1.9776 0.9735
-4.5443 4.5643 -1.9810 0.9734
-5.6100 3.2058 -1.9874 0.9733
-5.8811 2.6949 -1.9898 0.9733
-6.1060 2.1613 -1.9922 0.9733
-6.4098 1.0426 -1.9974 0.9732
-6.4030 -1.2757 -2.0081 0.9730
-5.5781 -3.4551 -2.0182 0.9729
-5.2528 -3.9441 -2.0204 0.9729
-4.8844 -4.4023 -2.0225 0.9729
-4.0302 -5.2109 -2.0262 0.9728
-3.5511 -5.5545 -2.0277 0.9728
-2.5033 -6.0919 -2.0258 0.9728
-1.9488 -6.2909 -2.0257 0.9728
-0.7987 -6.5441 -2.0278 0.9728
-0.2109 -6.5957 -2.0297 0.9728
0.3798 -6.5966 -2.0323 0.9727
0.9675 -6.5352 -2.0320 0.9727
1.5472 -6.4208 -2.0314 0.9727
2.1140 -6.2544 -2.0306 0.9727
3.1899 -5.7717 -2.0283 0.9728
3.6902 -5.4596 -2.0269 0.9728
4.1599 -5.1038 -2.0252 0.9728
4.9923 -4.2736 -2.0213 0.9729
6.4286 -1.1110 -2.0066 0.9731
6.3762 1.2050 -1.9959 0.9732
4.4799 3.9582 -1.8387 0.9753
3.2128 3.3961 -1.4379 0.9806
3.2613 4.9918 -1.8340 0.9754
1.6194 3.8328 -1.2798 0.9827
-0.8132 5.8942 -1.8301 0.9754
-2.5329 5.8996 -1.9748 0.9735
-3.0518 5.6530 -1.9759 0.9735
-3.5471 5.3614 -1.9773 0.9735
-5.8251 2.8098 -1.9892 0.9733
-6.4934 -0.5691 -2.0049 0.9731
-6.4251 -1.1486 -2.0076 0.9731
-6.3050 -1.7204 -2.0102 0.9730
-6.1339 -2.2799 -2.0128 0.9730
-5.6438 -3.3434 -2.0177 0.9729
-5.3285 -3.8387 -2.0199 0.9729
-4.9694 -4.3040 -2.0221 0.9729
-4.5693 -4.7354 -2.0240 0.9728
-4.1316 -5.1293 -2.0258 0.9728
-1.5062 -6.4130 -2.0262 0.9728
-0.3411 -6.5887 -2.0292 0.9728
0.2493 -6.6008 -2.0317 0.9727
1.9902 -6.2956 -2.0308 0.9727
4.0590 -5.1860 -2.0256 0.9728
4.9080 -4.3725 -2.0218 0.9729
5.2735 -3.9122 -2.0196 0.9729
5.8720 -2.9043 -2.0149 0.9730
6.2793 -1.8081 -2.0098 0.9730
6.4073 -1.2382 -2.0072 0.9731
6.4836 -0.6598 -2.0045 0.9731
6.5079 -0.0777 -2.0018 0.9731
6.4801 0.5035 -1.9991 0.9732
6.4007 1.0791 -1.9965 0.9732
6.2704 1.6446 -1.9939 0.9732
6.0907 2.1955 -1.9914 0.9733
5.4395 2.5306 -1.8453 0.9752
5.1855 3.0031 -1.8431 0.9752
4.8909 3.4506 -1.8410 0.9753
2.9042 5.2042 -1.8331 0.9754
1.9294 5.6321 -1.8311 0.9754
0.2622 4.2496 -1.3096 0.9823
-1.6964 5.5567 -1.7870 0.9760
-2.4155 5.9478 -1.9745 0.9735
-2.9390 5.7114 -1.9756 0.9735
-3.4400 5.4296 -1.9770 0.9735
-3.9144 5.1044 -1.9785 0.9734
-4.7692 4.3340 -1.9821 0.9734
-6.3599 1.2943 -1.9963 0.9732
-6.4587 0.7218 -1.9989 0.9732
-6.5061 0.1419 -2.0016 0.9731
-6.5015 -0.4406 -2.0043 0.9731
-6.3360 -1.5951 -2.0096 0.9730
-5.7073 -3.2304 -2.0171 0.9729
-5.4020 -3.7317 -2.0194 0.9729
-5.0523 -4.2040 -2.0216 0.9729
-4.6610 -4.6432 -2.0236 0.9728
-3.2695 -5.7252 -2.0279 0.9728
-2.7424 -5.9892 -2.0261 0.9728
-1.6325 -6.3814 -2.0260 0.9728
0.7087 -6.5689 -2.0322 0.9727
1.2925 -6.4779 -2.0317 0.9727
1.8655 -6.3343 -2.0310 0.9727
3.4728 -5.6030 -2.0275 0.9728
3.9564 -5.2662 -2.0260 0.9728
4.8218 -4.4696 -2.0222 0.9729
5.1964 -4.0166 -2.0201 0.9729
5.5284 -3.5323 -2.0179 0.9729
5.8150 -3.0206 -2.0155 0.9729
6.0542 -2.4858 -2.0130 0.9730
6.2441 -1.9324 -2.0104 0.9730
6.3834 -1.3649 -2.0078 0.9731
6.4712 -0.7880 -2.0051 0.9731
6.4226 0.9527 -1.9971 0.9732
6.3035 1.5208 -1.9945 0.9732
6.1345 2.0753 -1.9919 0.9733
5.2451 2.9007 -1.8436 0.9752
4.9593 3.3541 -1.8415 0.9753
4.6349 3.7798 -1.8395 0.9753
4.2744 4.1747 -1.8377 0.9753
2.9968 3.5027 -1.4178 0.9809
3.0068 5.1465 -1.8333 0.9754
2.5334 5.3913 -1.8322 0.9754
2.0405 5.5934 -1.8313 0.9754
-0.5797 5.9212 -1.8300 0.9754
-2.1314 5.5608 -1.8317 0.9754
-3.3315 5.4956 -1.9767 0.9735
-4.6816 4.4264 -1.9817 0.9734
-5.7065 3.0362 -1.9882 0.9733
