ply
format ascii 1.0
element vertex 1598
property float32 x
property float32 y
property float32 z
property float32 I
end_header
4.0051 -5.2397 -2.0285 0.9728
4.8618 -4.4356 -2.0242 0.9728
5.8400 -2.9794 -2.0165 0.9729
6.4754 -0.7455 -2.0048 0.9731
6.5063 -0.1649 -2.0018 0.9731
5.8969 2.6410 -1.9874 0.9733
5.6305 3.1521 -1.9847 0.9734
4.9691 4.0922 -1.9800 0.9734
4.2646 4.2037 -1.8418 0.9753
2.9810 5.1497 -1.8302 0.9754
2.5083 5.3914 -1.8290 0.9754
-0.5943 5.9092 -1.8267 0.9755
-1.1192 5.8342 -1.8272 0.9754
-1.6355 5.7134 -1.8279 0.9754
-2.1395 5.5476 -1.8288 0.9754
-2.6273 5.3381 -1.8300 0.9754
-3.5394 4.7943 -1.8329 0.9754
-4.6970 3.6984 -1.8388 0.9753
-5.6120 2.9821 -1.9547 0.9738
-6.3303 1.4195 -1.9954 0.9732
-6.4412 0.8507 -1.9984 0.9732
-6.0261 -2.5790 -2.0161 0.9729
-5.7800 -3.1103 -2.0188 0.9729
-5.4867 -3.6179 -2.0214 0.9729
-4.7679 -4.5455 -2.0262 0.9728
-4.3481 -4.9576 -2.0282 0.9728
-3.8923 -5.3304 -2.0301 0.9728
-3.4043 -5.6608 -2.0317 0.9727
-0.6276 -6.5850 -2.0346 0.9727
1.1359 -6.5068 -2.0316 0.9727
1.7117 -6.3803 -2.0318 0.9727
2.8187 -5.9768 -2.0325 0.9727
3.8293 -5.3724 -2.0292 0.9728
4.2889 -5.0047 -2.0273 0.9728
4.7130 -4.5974 -2.0251 0.9728
5.0982 -4.1540 -2.0227 0.9729
5.9922 -2.6462 -2.0148 0.9730
6.1954 -2.0984 -2.0119 0.9730
6.3485 -1.5353 -2.0090 0.9730
6.4505 -0.9617 -2.0060 0.9731
6.4992 0.1987 -1.9999 0.9732
5.9848 2.4440 -1.9884 0.9733
4.5861 4.2283 -1.9186 0.9742
3.5926 4.7513 -1.8321 0.9754
2.7059 4.3340 -1.5715 0.9788
2.6875 5.3059 -1.8294 0.9754
1.7006 5.6931 -1.8275 0.9754
0.6620 5.9016 -1.8266 0.9755
-0.3968 5.9254 -1.8266 0.9755
-0.6212 3.9459 -1.2286 0.9834
-2.4471 5.4215 -1.8295 0.9754
-4.2026 4.2387 -1.8359 0.9753
-5.8701 2.7102 -1.9887 0.9733
-6.2759 1.6291 -1.9943 0.9732
-6.4848 0.4900 -2.0003 0.9732
-6.5124 -0.0903 -2.0033 0.9731
-6.4882 -0.6716 -2.0063 0.9731
-6.4120 -1.2494 -2.0093 0.9730
-6.2842 -1.8188 -2.0122 0.9730
-5.8777 -2.9142 -2.0178 0.9729
-5.6017 -3.4311 -2.0205 0.9729
-5.2800 -3.9218 -2.0230 0.9729
-4.9150 -4.3820 -2.0253 0.9728
-1.9991 -6.3066 -2.0349 0.9727
-1.4293 -6.4621 -2.0356 0.9727
0.3313 -6.5991 -2.0323 0.9727
0.9181 -6.5413 -2.0317 0.9727
1.4977 -6.4334 -2.0317 0.9727
2.0660 -6.2760 -2.0323 0.9727
2.6183 -6.0690 -2.0330 0.9727
3.1468 -5.8073 -2.0316 0.9727
3.6491 -5.4991 -2.0299 0.9728
4.1210 -5.1470 -2.0280 0.9728
4.9589 -4.3238 -2.0236 0.9728
5.3182 -3.8597 -2.0212 0.9729
5.6339 -3.3658 -2.0186 0.9729
6.1252 -2.3052 -2.0130 0.9730
6.2972 -1.7474 -2.0101 0.9730
6.4184 -1.1772 -2.0071 0.9731
6.5058 -0.0184 -2.0011 0.9731
6.4719 0.5609 -1.9981 0.9732
5.8340 2.7722 -1.9867 0.9733
5.2356 3.7548 -1.9817 0.9734
4.8743 4.2018 -1.9794 0.9734
3.7504 4.6303 -1.8328 0.9754
3.3198 4.9421 -1.8312 0.9754
2.3860 5.4458 -1.8287 0.9754
0.9941 4.1634 -1.3166 0.9822
0.8587 5.8765 -1.8267 0.9755
0.3313 5.9291 -1.8265 0.9755
-0.1987 5.9351 -1.8265 0.9755
-0.4930 3.9960 -1.2384 0.9833
-1.2503 5.8080 -1.8273 0.9754
-2.0024 3.8473 -1.3340 0.9820
-4.0571 4.3748 -1.8352 0.9753
-4.4359 4.0000 -1.8372 0.9753
-4.7805 3.5928 -1.8393 0.9753
-5.0882 3.1562 -1.8416 0.9753
3.6700 4.1356 -1.8379 0.9770
3.2793 4.4364 -1.8338 0.9770
1.5179 5.2908 -1.8296 0.9771
-0.3163 4.0611 -1.3540 0.9830
-0.9148 5.4266 -1.8293 0.9771
-1.8656 5.1818 -1.8307 0.9771
-2.3215 4.9976 -1.8317 0.9770
-2.1712 3.7558 -1.4420 0.9819
-3.1768 4.5123 -1.8343 0.9770
-3.9350 3.8834 -1.8377 0.9770
-5.2154 2.9238 -1.9875 0.9751
-5.6662 1.9559 -1.9925 0.9750
-5.9396 0.9209 -1.9979 0.9750
-6.0064 0.3882 -2.0007 0.9749
-5.7949 -1.7457 -2.0118 0.9748
-5.6236 -2.2584 -2.0144 0.9748
-5.4066 -2.7543 -2.0169 0.9747
-4.8427 -3.6794 -2.0217 0.9747
-4.5001 -4.1008 -2.0238 0.9747
-4.1206 -4.4901 -2.0258 0.9746
-1.2559 -5.9861 -2.0331 0.9745
-0.1728 -6.1155 -2.0337 0.9745
0.9160 -6.0475 -2.0331 0.9745
1.4511 -5.9399 -2.0325 0.9746
1.9741 -5.7843 -2.0316 0.9746
2.9665 -5.3352 -2.0292 0.9746
3.4277 -5.0456 -2.0276 0.9746
4.6274 -3.9470 -2.0217 0.9747
4.9553 -3.5147 -2.0194 0.9747
5.4873 -2.5723 -2.0145 0.9748
5.8414 -1.5527 -2.0091 0.9748
5.9484 -1.0242 -2.0064 0.9749
6.0189 0.0485 -2.0008 0.9749
5.7678 1.6330 -1.9926 0.9750
5.3723 2.6247 -1.9875 0.9751
4.8094 3.5290 -1.9829 0.9752
4.4709 3.9396 -1.9808 0.9752
3.9406 4.1527 -1.9029 0.9762
3.4266 4.3258 -1.8344 0.9770
3.0248 4.6105 -1.8330 0.9770
2.6000 4.8586 -1.8317 0.9770
2.1552 5.0682 -1.8307 0.9771
1.6939 5.2379 -1.8299 0.9771
1.2198 5.3663 -1.8293 0.9771
0.2471 5.4960 -1.8288 0.9771
-0.2439 5.4964 -1.8288 0.9771
-0.5312 3.9519 -1.3254 0.9833
-3.0235 4.6144 -1.8338 0.9770
-3.4257 4.3301 -1.8353 0.9770
-4.1484 3.6598 -1.8389 0.9770
-4.4632 3.2790 -1.8409 0.9769
-5.0401 3.0510 -1.9584 0.9755
-5.3747 2.6299 -1.9890 0.9751
-5.7715 1.6377 -1.9942 0.9750
-5.9870 0.5882 -1.9997 0.9750
-6.0240 0.0521 -2.0025 0.9749
-6.0130 -0.4859 -2.0053 0.9749
-5.9539 -1.0216 -2.0080 0.9749
-5.4930 -2.5711 -2.0160 0.9748
-4.9608 -3.5142 -2.0208 0.9747
-4.6327 -3.9468 -2.0230 0.9747
-4.2667 -4.3485 -2.0251 0.9746
-3.8654 -4.7160 -2.0269 0.9746
-3.4324 -5.0459 -2.0286 0.9746
-2.9709 -5.3357 -2.0300 0.9746
-2.4848 -5.5826 -2.0312 0.9746
-1.9781 -5.7847 -2.0322 0.9746
-1.4549 -5.9402 -2.0329 0.9746
-0.9197 -6.0477 -2.0334 0.9745
-0.3768 -6.1063 -2.0336 0.9745
0.1692 -6.1155 -2.0336 0.9745
1.2522 -5.9858 -2.0328 0.9746
1.7802 -5.8480 -2.0320 0.9746
2.2934 -5.6631 -2.0310 0.9746
3.2584 -5.1587 -2.0282 0.9746
3.7023 -4.8436 -2.0265 0.9746
4.1156 -4.4900 -2.0246 0.9747
4.4949 -4.1009 -2.0225 0.9747
5.1401 -3.2300 -2.0179 0.9747
5.4009 -2.7554 -2.0154 0.9748
5.6178 -2.2599 -2.0128 0.9748
5.9911 -0.6897 -2.0046 0.9749
6.0203 -0.1526 -2.0018 0.9749
6.0016 0.3843 -1.9990 0.9750
5.9352 0.9166 -1.9963 0.9750
5.8220 1.4403 -1.9936 0.9750
5.6629 1.9511 -1.9910 0.9751
4.9266 3.3679 -1.9837 0.9752
4.6017 3.7897 -1.9816 0.9752
4.2356 4.1751 -1.9769 0.9752
3.5702 4.2103 -1.8350 0.9770
2.3236 4.9945 -1.8311 0.9770
0.4305 5.4848 -1.8288 0.9771
-0.0603 5.5013 -1.8288 0.9771
-0.5506 5.4746 -1.8290 0.9771
-1.0368 5.4050 -1.8294 0.9771
-2.4338 4.9448 -1.8320 0.9770
-3.6644 4.1343 -1.8364 0.9770
-3.7919 3.5774 -1.7329 0.9783
-4.3494 3.4247 -1.8401 0.9769
-5.5177 2.3274 -1.9906 0.9751
-5.9609 0.7873 -1.9986 0.9750
-6.0157 0.2530 -2.0014 0.9749
-5.8926 -1.3538 -2.0097 0.9748
-5.7561 -1.8763 -2.0124 0.9748
-5.0732 -3.3452 -2.0200 0.9747
-4.7600 -3.7885 -2.0222 0.9747
-4.4078 -4.2022 -2.0243 0.9747
-4.0194 -4.5828 -2.0262 0.9746
-2.6692 -5.4954 -2.0308 0.9746
-1.1210 -6.0132 -2.0333 0.9745
1.0518 -6.0249 -2.0330 0.9745
2.1035 -5.7377 -2.0314 0.9746
3.5397 -4.9661 -2.0272 0.9746
4.3572 -4.2504 -2.0233 0.9747
4.7138 -3.8408 -2.0212 0.9747
5.5420 -2.4474 -2.0138 0.9748
5.5406 2.2626 -1.9894 0.9751
5.0384 3.2029 -1.9846 0.9751
2.4896 4.9152 -1.8314 0.9770
2.0403 5.1148 -1.8305 0.9771
1.5755 5.2742 -1.8297 0.9771
1.0986 5.3921 -1.8292 0.9771
0.1234 5.5002 -1.8287 0.9771
-0.3676 5.4896 -1.8289 0.9771
-0.6212 3.9464 -1.3280 0.9833
-1.3374 5.3397 -1.8298 0.9771
-2.2668 5.0222 -1.8316 0.9770
-3.5232 4.2528 -1.8357 0.9770
-4.2309 3.5665 -1.8394 0.9769
-5.1825 2.9799 -1.9872 0.9751
-5.4343 2.5090 -1.9896 0.9751
-5.8088 1.5079 -1.9949 0.9750
-5.9282 0.9853 -1.9976 0.9750
-6.0008 0.4534 -2.0004 0.9750
-6.0257 -0.0836 -2.0032 0.9749
-5.9315 -1.1557 -2.0087 0.9748
-5.6469 -2.1967 -2.0141 0.9748
-5.4354 -2.6949 -2.0166 0.9748
-4.5439 -4.0512 -2.0236 0.9747
-3.3185 -5.1229 -2.0289 0.9746
-2.3588 -5.6379 -2.0315 0.9746
-0.7833 -6.0671 -2.0335 0.9745
-0.2393 -6.1133 -2.0337 0.9745
0.3068 -6.1100 -2.0336 0.9745
0.8502 -6.0573 -2.0332 0.9745
1.3865 -5.9556 -2.0326 0.9746
1.9112 -5.8058 -2.0318 0.9746
2.9085 -5.3676 -2.0293 0.9746
3.3730 -5.0830 -2.0278 0.9746
4.5848 -3.9976 -2.0220 0.9747
5.2099 -3.1125 -2.0173 0.9747
5.6654 -2.1322 -2.0122 0.9748
5.8251 -1.6164 -2.0095 0.9748
5.9379 -1.0890 -2.0067 0.9749
6.0030 -0.5545 -2.0039 0.9749
6.0201 -0.0170 -2.0011 0.9749
5.9893 0.5191 -1.9984 0.9750
5.9111 1.0497 -1.9956 0.9750
5.7861 1.5704 -1.9929 0.9750
4.8482 3.4770 -1.9832 0.9752
4.5141 3.8913 -1.9811 0.9752
4.0343 4.1598 -1.9262 0.9759
3.0751 4.5778 -1.8331 0.9770
2.2103 5.0448 -1.8308 0.9771
1.7509 5.2194 -1.8300 0.9771
-0.1841 5.4986 -1.8288 0.9771
-1.1583 5.3807 -1.8295 0.9771
-2.5449 4.8896 -1.8323 0.9770
-2.9729 4.6466 -1.8336 0.9770
-3.3781 4.3666 -1.8351 0.9770
-4.9444 3.0670 -1.9341 0.9758
3.6434 4.1057 -1.9630 0.9770
2.6359 4.3260 -1.8116 0.9787
2.2664 4.5979 -1.8331 0.9785
1.8465 4.7793 -1.8322 0.9785
1.4125 4.9231 -1.8316 0.9785
0.9676 5.0281 -1.8311 0.9785
0.5154 5.0936 -1.8308 0.9785
-1.0384 3.9623 -1.4648 0.9828
-2.1714 3.7562 -1.5515 0.9817
-3.3207 3.9209 -1.8374 0.9784
-3.6604 3.6124 -1.8391 0.9784
-3.9718 3.2748 -1.8409 0.9784
-4.5429 3.1095 -1.9687 0.9769
-4.8503 2.7191 -1.9885 0.9767
-5.5730 -0.6382 -2.0060 0.9765
-4.1798 -3.8089 -2.0222 0.9763
-3.8270 -4.1702 -2.0241 0.9762
-3.0301 -4.7910 -2.0272 0.9762
-2.5924 -5.0452 -2.0284 0.9762
-2.1333 -5.2589 -2.0295 0.9762
-1.6566 -5.4304 -2.0303 0.9762
-1.1661 -5.5581 -2.0309 0.9762
-0.6660 -5.6410 -2.0313 0.9762
-0.1604 -5.6782 -2.0314 0.9762
0.3465 -5.6696 -2.0313 0.9762
1.8330 -5.3711 -2.0295 0.9762
2.3035 -5.1836 -2.0285 0.9762
3.9582 -4.0389 -2.0223 0.9763
4.2983 -3.6663 -2.0203 0.9763
4.6032 -3.2650 -2.0182 0.9763
5.0983 -2.3900 -2.0136 0.9764
5.4283 -1.4429 -2.0086 0.9764
5.5283 -0.9519 -2.0061 0.9765
5.5615 0.5430 -1.9983 0.9765
5.4839 1.0354 -1.9957 0.9766
5.3631 1.5184 -1.9933 0.9766
4.7534 2.8736 -1.9863 0.9767
4.1589 3.6647 -1.9823 0.9767
2.8143 4.2896 -1.8347 0.9784
2.0053 4.7158 -1.8326 0.9785
1.5762 4.8738 -1.8318 0.9785
1.1350 4.9934 -1.8312 0.9785
0.6851 5.0738 -1.8309 0.9785
-0.5313 3.9523 -1.4261 0.9832
-1.1322 4.9950 -1.8315 0.9785
-1.6530 3.8936 -1.5126 0.9822
-3.8588 3.4043 -1.8402 0.9784
-4.7548 2.8783 -1.9876 0.9767
-4.9982 2.4457 -1.9899 0.9766
-5.3662 1.5227 -1.9947 0.9766
-5.4875 1.0395 -1.9973 0.9766
-5.5886 -0.4516 -2.0050 0.9765
-5.4333 -1.4408 -2.0101 0.9764
-5.2897 -1.9219 -2.0126 0.9764
-4.3030 -3.6660 -2.0215 0.9763
-3.5899 -4.3798 -2.0251 0.9762
-1.8367 -5.3713 -2.0300 0.9762
-0.3499 -5.6696 -2.0314 0.9762
0.6626 -5.6408 -2.0311 0.9762
1.1627 -5.5579 -2.0306 0.9762
2.5885 -5.0449 -2.0277 0.9762
3.0259 -4.7907 -2.0263 0.9762
3.4384 -4.4983 -2.0248 0.9762
5.0179 -2.5600 -2.0145 0.9764
5.4961 -1.1364 -2.0070 0.9764
5.5792 0.3573 -1.9992 0.9765
5.4133 1.3391 -1.9942 0.9766
5.2658 1.8143 -1.9917 0.9766
4.8486 2.7144 -1.9871 0.9767
4.5823 3.1326 -1.9850 0.9767
2.9622 4.2022 -1.8386 0.9784
2.1620 4.6471 -1.8329 0.9785
1.7383 4.8192 -1.8321 0.9785
-0.0561 5.1191 -1.8308 0.9785
-0.9648 5.0294 -1.8313 0.9785
-2.6674 4.3834 -1.8349 0.9784
-3.0498 4.1311 -1.8363 0.9784
-3.4089 3.8460 -1.8378 0.9784
-4.0557 3.1934 -1.8460 0.9783
-4.6542 3.0341 -1.9868 0.9767
-5.1309 2.1642 -1.9914 0.9766
-5.3099 1.7002 -1.9938 0.9766
-5.4472 1.2215 -1.9963 0.9766
-5.5919 0.2351 -2.0015 0.9765
-5.5978 -0.2647 -2.0041 0.9765
-5.5591 -0.7638 -2.0066 0.9764
-5.4758 -1.2580 -2.0092 0.9764
-4.7127 -3.1075 -2.0187 0.9763
-4.0939 -3.9029 -2.0227 0.9763
-3.7329 -4.2562 -2.0245 0.9762
-2.0146 -5.3062 -2.0297 0.9762
-1.5341 -5.4668 -2.0305 0.9762
-1.0408 -5.5833 -2.0310 0.9762
-0.0326 -5.6804 -2.0314 0.9762
0.4740 -5.6602 -2.0312 0.9762
1.4710 -5.4831 -2.0301 0.9762
2.4192 -5.1296 -2.0282 0.9762
3.2873 -4.6120 -2.0254 0.9762
3.6824 -4.2969 -2.0237 0.9762
4.0471 -3.9478 -2.0218 0.9763
4.3786 -3.5677 -2.0198 0.9763
4.9318 -2.7272 -2.0153 0.9763
5.3249 -1.8035 -2.0105 0.9764
5.4577 -1.3199 -2.0080 0.9764
5.3259 1.6382 -1.9926 0.9766
4.9386 2.5521 -1.9879 0.9767
4.6862 2.9790 -1.9858 0.9767
4.3974 3.3815 -1.9837 0.9767
3.7200 4.1013 -1.9801 0.9768
3.0959 4.0944 -1.8356 0.9784
2.6884 4.3060 -1.8153 0.9787
1.8985 4.7592 -1.8323 0.9785
1.4660 4.9076 -1.8316 0.9785
1.0223 5.0174 -1.8311 0.9785
0.4654 4.1485 -1.4928 0.9824
0.1148 5.1181 -1.8307 0.9785
-0.6213 3.9470 -1.4288 0.9832
-2.1091 4.6728 -1.8334 0.9785
-2.9094 4.2294 -1.8358 0.9784
-3.2775 3.9563 -1.8372 0.9784
-3.9354 3.3174 -1.8406 0.9784
-5.0535 2.3332 -1.9905 0.9766
-5.2478 1.8756 -1.9929 0.9766
-5.5113 0.9160 -1.9979 0.9765
-5.6008 -0.0777 -2.0031 0.9765
-5.5788 -0.5775 -2.0057 0.9765
-5.5121 -1.0740 -2.0082 0.9764
-5.4012 -1.5632 -2.0108 0.9764
-4.8118 -2.9473 -2.0179 0.9763
-4.5347 -3.3682 -2.0200 0.9763
-4.2205 -3.7628 -2.0220 0.9763
-3.8717 -4.1279 -2.0239 0.9762
-3.0817 -4.7573 -2.0270 0.9762
-2.6469 -5.0163 -2.0283 0.9762
-1.7155 -5.4118 -2.0302 0.9762
-0.7273 -5.6333 -2.0312 0.9762
0.2848 -5.6731 -2.0313 0.9762
1.2874 -5.5299 -2.0304 0.9762
2.2471 -5.2087 -2.0286 0.9762
3.5380 -4.4189 -2.0243 0.9762
3.9145 -4.0822 -2.0225 0.9763
4.2587 -3.7133 -2.0206 0.9763
4.5681 -3.3153 -2.0185 0.9763
5.2642 -1.9812 -2.0114 0.9764
5.5185 -1.0121 -2.0064 0.9764
5.5795 -0.5154 -2.0038 0.9765
5.5679 0.4826 -1.9986 0.9765
5.3801 1.4602 -1.9936 0.9766
4.5095 3.2341 -1.9845 0.9767
4.1990 3.6197 -1.9825 0.9767
3.3046 4.0800 -1.8776 0.9779
2.8610 4.2591 -1.8348 0.9784
2.4683 4.4943 -1.8336 0.9785
0.9943 4.1643 -1.5311 0.9820
0.7403 5.0661 -1.8309 0.9785
0.2856 5.1115 -1.8307 0.9785
-1.5205 4.8925 -1.8321 0.9785
-2.7658 4.3230 -1.8353 0.9784
-3.1427 4.0623 -1.8367 0.9784
-3.8211 3.4457 -1.8400 0.9784
-4.2115 3.1652 -1.8840 0.9779
4.0709 3.2015 -1.9847 0.9781
3.7659 3.5486 -1.9829 0.9781
3.4317 3.8671 -1.9813 0.9781
2.9808 4.0326 -1.9217 0.9787
2.4926 4.0907 -1.8357 0.9797
2.1168 4.2943 -1.8347 0.9797
1.3193 4.5983 -1.8333 0.9797
0.9038 4.6965 -1.8328 0.9797
-0.3714 4.7677 -1.8326 0.9797
-1.2128 4.6281 -1.8335 0.9797
-1.6213 4.5033 -1.8342 0.9797
-3.4180 3.3732 -1.8403 0.9796
-4.7416 2.1270 -1.9915 0.9780
-5.0556 1.2538 -1.9961 0.9779
-5.1534 0.7990 -1.9985 0.9779
-5.2104 0.3367 -2.0009 0.9779
-5.0233 -1.5132 -2.0105 0.9778
-4.4582 -2.7978 -2.0170 0.9777
-3.8978 -3.5519 -2.0209 0.9777
-2.8252 -4.4670 -2.0255 0.9776
-1.5444 -5.0627 -2.0284 0.9776
-0.6209 -5.2588 -2.0293 0.9776
-0.1496 -5.2935 -2.0294 0.9776
0.7929 -5.2348 -2.0289 0.9776
1.2561 -5.1418 -2.0284 0.9776
2.9682 -4.3691 -2.0241 0.9776
3.6911 -3.7664 -2.0209 0.9777
4.2933 -3.0451 -2.0171 0.9777
5.2212 0.0420 -2.0009 0.9779
5.1904 0.5068 -1.9985 0.9779
5.0061 1.4173 -1.9938 0.9780
4.8543 1.8559 -1.9916 0.9780
4.6644 2.2789 -1.9894 0.9780
4.4380 2.6829 -1.9873 0.9780
3.5599 3.7515 -1.9819 0.9781
2.6309 4.0100 -1.8379 0.9797
2.2593 4.2221 -1.8351 0.9797
1.8730 4.4046 -1.8342 0.9797
1.0602 4.6641 -1.8330 0.9797
0.6399 4.7392 -1.8326 0.9797
0.2148 4.7770 -1.8325 0.9797
-0.2120 4.7773 -1.8325 0.9797
-1.8709 4.4069 -1.8347 0.9797
-2.6270 4.0093 -1.8369 0.9797
-3.6652 3.2336 -1.8731 0.9793
-4.4392 2.6872 -1.9886 0.9780
-4.8565 1.8601 -1.9929 0.9780
-5.1624 -0.8857 -2.0072 0.9778
-4.7602 -2.2281 -2.0141 0.9777
-4.5474 -2.6464 -2.0163 0.9777
-3.6952 -3.7662 -2.0220 0.9777
-2.9720 -4.3692 -2.0250 0.9776
-2.5722 -4.6196 -2.0262 0.9776
-1.7123 -5.0077 -2.0281 0.9776
-1.2594 -5.1420 -2.0288 0.9776
-0.7961 -5.2349 -2.0292 0.9776
-0.3262 -5.2855 -2.0294 0.9776
1.0839 -5.1815 -2.0286 0.9776
1.9855 -4.9028 -2.0271 0.9776
2.4134 -4.7037 -2.0260 0.9776
2.8214 -4.4669 -2.0247 0.9776
3.2061 -4.1945 -2.0232 0.9776
3.8936 -3.5523 -2.0198 0.9777
4.1908 -3.1879 -2.0178 0.9777
4.4538 -2.7987 -2.0158 0.9777
4.6806 -2.3879 -2.0136 0.9777
4.8694 -1.9588 -2.0114 0.9778
5.0189 -1.5151 -2.0090 0.9778
5.1279 -1.0603 -2.0067 0.9778
5.1958 -0.5982 -2.0043 0.9778
5.2221 -0.1323 -2.0018 0.9779
5.1502 0.7954 -1.9970 0.9779
4.7397 2.1228 -1.9902 0.9780
4.5268 2.5343 -1.9881 0.9780
4.2785 2.9249 -1.9861 0.9780
3.9969 3.2916 -1.9842 0.9781
2.3995 4.1452 -1.8355 0.9797
1.6236 4.5012 -1.8337 0.9797
0.7978 4.7154 -1.8327 0.9797
0.3742 4.7673 -1.8325 0.9797
-0.0524 4.7816 -1.8325 0.9797
-0.9011 4.6977 -1.8331 0.9797
-1.3168 4.6000 -1.8336 0.9797
-2.1149 4.2969 -1.8353 0.9797
-2.8482 3.8580 -1.8377 0.9797
-3.1833 3.5914 -1.8391 0.9797
-3.4938 3.2961 -1.8407 0.9796
-4.3453 2.8328 -1.9878 0.9780
-4.9564 1.5870 -1.9944 0.9780
-5.1716 0.6830 -1.9991 0.9779
-5.2233 -0.2470 -2.0039 0.9778
-5.1867 -0.7126 -2.0063 0.9778
-5.1086 -1.1736 -2.0087 0.9778
-4.9894 -1.6264 -2.0110 0.9778
-4.3952 -2.8982 -2.0176 0.9777
-2.7243 -4.5302 -2.0258 0.9776
-1.8783 -4.9470 -2.0278 0.9776
-0.9703 -5.2051 -2.0290 0.9776
-0.5024 -5.2716 -2.0293 0.9776
-0.0304 -5.2955 -2.0294 0.9776
0.4419 -5.2767 -2.0292 0.9776
0.9105 -5.2153 -2.0288 0.9776
1.8210 -4.9672 -2.0274 0.9776
2.2556 -4.7826 -2.0264 0.9776
2.6714 -4.5597 -2.0252 0.9776
3.0652 -4.3004 -2.0238 0.9776
3.7741 -3.6816 -2.0205 0.9777
4.3596 -2.9470 -2.0166 0.9777
4.6001 -2.5438 -2.0144 0.9777
4.8033 -2.1212 -2.0122 0.9778
4.9676 -1.6825 -2.0099 0.9778
5.0919 -1.2314 -2.0076 0.9778
5.2171 -0.3067 -2.0027 0.9779
4.9715 1.5292 -1.9933 0.9780
4.6107 2.3827 -1.9889 0.9780
3.0533 4.0381 -1.9400 0.9785
2.5371 4.0637 -1.8359 0.9797
1.7732 4.4452 -1.8340 0.9797
1.3693 4.5839 -1.8333 0.9797
0.9548 4.6865 -1.8329 0.9797
0.5331 4.7523 -1.8326 0.9797
0.1072 4.7806 -1.8325 0.9797
-0.3195 4.7714 -1.8326 0.9797
-1.1624 4.6408 -1.8334 0.9797
-1.5722 4.5204 -1.8341 0.9797
-2.1372 3.7916 -1.6680 0.9815
-3.8078 3.2098 -1.9085 0.9789
-4.2467 2.9751 -1.9871 0.9780
-4.4997 2.5873 -1.9891 0.9780
-5.1437 0.8549 -1.9982 0.9779
-5.2056 0.3933 -2.0006 0.9779
-5.2263 -0.0725 -2.0030 0.9779
-5.2053 -0.5388 -2.0054 0.9778
-5.1426 -1.0020 -2.0078 0.9778
-4.8942 -1.9039 -2.0125 0.9778
-3.9358 -3.5090 -2.0207 0.9777
-3.6103 -3.8492 -2.0224 0.9776
-2.8734 -4.4357 -2.0253 0.9776
-2.4679 -4.6770 -2.0265 0.9776
-2.0420 -4.8808 -2.0275 0.9776
-0.6781 -5.2517 -2.0292 0.9776
0.7359 -5.2432 -2.0290 0.9776
2.0951 -4.8562 -2.0268 0.9776
2.5183 -4.6475 -2.0257 0.9776
2.9207 -4.4015 -2.0243 0.9776
3.2991 -4.1205 -2.0228 0.9776
3.6503 -3.8067 -2.0211 0.9777
3.9716 -3.4630 -2.0193 0.9777
4.2604 -3.0920 -2.0173 0.9777
4.7318 -2.2813 -2.0131 0.9777
5.0502 -1.4013 -2.0085 0.9778
5.1294 0.9109 -1.9964 0.9779
5.0219 1.3630 -1.9941 0.9780
4.8748 1.8033 -1.9918 0.9780
4.2106 3.0197 -1.9856 0.9780
3.9209 3.3800 -1.9838 0.9781
3.2530 4.0162 -1.9806 0.9781
1.9209 4.3842 -1.8343 0.9797
1.5217 4.5362 -1.8336 0.9797
0.6915 4.7320 -1.8327 0.9797
0.2667 4.7744 -1.8325 0.9797
-0.1600 4.7793 -1.8325 0.9797
-1.0067 4.6765 -1.8332 0.9797
-1.8228 4.4268 -1.8346 0.9797
-2.2114 4.2489 -1.8356 0.9797
-3.2640 3.5196 -1.8395 0.9796
-4.4091 2.7350 -1.9883 0.9780
3.8138 2.9994 -1.9858 0.9792
3.5283 3.3247 -1.9841 0.9793
3.2153 3.6233 -1.9826 0.9793
2.8775 3.8929 -1.9813 0.9793
2.4177 3.9678 -1.9016 0.9801
1.6161 4.1831 -1.8354 0.9808
1.2363 4.3091 -1.8348 0.9808
0.4511 4.4586 -1.8341 0.9808
0.0518 4.4809 -1.8340 0.9808
-0.3480 4.4680 -1.8342 0.9808
-1.1366 4.3370 -1.8350 0.9808
-1.5193 4.2199 -1.8356 0.9808
-2.1719 3.7571 -1.7761 0.9814
-2.9054 3.4305 -1.8399 0.9808
-3.7447 3.0876 -1.9864 0.9792
-4.0087 2.7439 -1.9882 0.9792
-4.2416 2.3779 -1.9901 0.9792
-4.6060 1.5900 -1.9943 0.9792
-1.9980 0.3098 -0.8275 0.9913
-1.9492 0.1260 -0.7994 0.9916
-1.9218 -0.0476 -0.7868 0.9917
-1.9557 -0.2240 -0.8056 0.9915
-4.7022 -1.4165 -2.0099 0.9790
-4.5620 -1.8320 -2.0120 0.9790
-4.3850 -2.2338 -2.0141 0.9790
-4.1724 -2.6184 -2.0161 0.9789
-3.6474 -3.3238 -2.0197 0.9789
-3.3392 -3.6386 -2.0212 0.9789
-1.8608 -4.5871 -2.0260 0.9788
-0.1399 -4.9522 -2.0276 0.9788
1.1752 -4.8104 -2.0267 0.9788
2.0093 -4.5216 -2.0251 0.9788
2.7772 -4.0881 -2.0227 0.9789
3.1285 -3.8214 -2.0213 0.9789
3.4540 -3.5245 -2.0197 0.9789
4.6148 -1.6797 -2.0100 0.9790
4.7410 -1.2602 -2.0078 0.9790
4.8291 -0.8315 -2.0055 0.9790
4.5467 1.7384 -1.9922 0.9792
3.9131 2.8713 -1.9864 0.9792
3.0066 3.7956 -1.9818 0.9793
0.5997 4.4412 -1.8342 0.9808
-0.5314 3.9533 -1.6326 0.9829
-2.1154 3.9588 -1.8371 0.9808
-2.4615 3.7567 -1.8382 0.9808
-2.7885 3.5246 -1.8394 0.9808
-3.1286 3.3009 -1.8614 0.9805
-3.6383 3.2098 -1.9857 0.9792
-3.9136 2.8752 -1.9875 0.9792
-4.1583 2.5172 -1.9894 0.9792
-4.3705 2.1385 -1.9914 0.9792
-4.5486 1.7421 -1.9935 0.9792
-1.9578 0.1923 -0.8051 0.9915
-1.9067 0.0165 -0.7804 0.9918
-1.9561 -0.1581 -0.8032 0.9916
-2.1349 -0.3663 -0.8865 0.9907
-4.6188 -1.6781 -2.0113 0.9790
-3.7552 -3.1992 -2.0190 0.9789
-2.7807 -4.0880 -2.0235 0.9789
-2.4065 -4.3221 -2.0247 0.9788
-1.6020 -4.6849 -2.0264 0.9788
-1.1782 -4.8105 -2.0270 0.9788
-0.7447 -4.8974 -2.0274 0.9788
0.1370 -4.9522 -2.0276 0.9788
0.5779 -4.9197 -2.0273 0.9788
1.0141 -4.8475 -2.0269 0.9788
1.8576 -4.5870 -2.0254 0.9788
3.0000 -3.9248 -2.0218 0.9789
3.3355 -3.6389 -2.0203 0.9789
3.6436 -3.3243 -2.0186 0.9789
4.3810 -2.2350 -2.0129 0.9790
4.5580 -1.8336 -2.0108 0.9790
4.8007 -0.9927 -2.0064 0.9790
4.8230 0.7449 -1.9973 0.9791
4.4396 1.9884 -1.9909 0.9792
4.2405 2.3739 -1.9890 0.9792
4.0081 2.7400 -1.9871 0.9792
3.7446 3.0838 -1.9854 0.9793
3.1324 3.6941 -1.9823 0.9793
2.7887 3.9561 -1.9810 0.9793
1.8950 4.0731 -1.8386 0.9808
1.0876 4.1404 -1.7520 0.9817
0.7477 4.4190 -1.8343 0.9808
-0.4485 4.4592 -1.8342 0.9808
-1.2340 4.3107 -1.8351 0.9808
-1.6141 4.1851 -1.8358 0.9808
-1.9817 4.0264 -1.8367 0.9808
-2.2669 3.7253 -1.7848 0.9813
-3.4436 3.2488 -1.9376 0.9797
-4.2951 2.2824 -1.9907 0.9792
-1.9503 0.2576 -0.8051 0.9915
-1.9355 0.0814 -0.7929 0.9917
-1.9480 -0.2676 -0.8048 0.9915
-4.7823 -1.0987 -2.0083 0.9790
-4.5208 -1.9348 -2.0126 0.9790
-4.1134 -2.7123 -2.0165 0.9789
-3.8586 -3.0711 -2.0184 0.9789
-3.5724 -3.4058 -2.0201 0.9789
-3.2570 -3.7136 -2.0216 0.9789
-2.9150 -3.9919 -2.0230 0.9789
-2.1620 -4.4512 -2.0253 0.9788
-1.7572 -4.6282 -2.0262 0.9788
-0.9077 -4.8695 -2.0273 0.9788
-0.4700 -4.9317 -2.0276 0.9788
0.8518 -4.8791 -2.0271 0.9788
1.2831 -4.7824 -2.0265 0.9788
1.7037 -4.6472 -2.0258 0.9788
3.2131 -3.7493 -2.0209 0.9789
3.5317 -3.4451 -2.0193 0.9789
3.8215 -3.1138 -2.0175 0.9789
4.0801 -2.7581 -2.0156 0.9789
4.6502 -1.5750 -2.0094 0.9790
4.8452 -0.7224 -2.0050 0.9790
4.8848 -0.2872 -2.0027 0.9791
4.6562 1.4322 -1.9938 0.9792
4.3189 2.2319 -1.9897 0.9792
4.0988 2.6056 -1.9878 0.9792
3.8466 2.9580 -1.9860 0.9792
3.2548 3.5884 -1.9828 0.9793
2.9199 3.8617 -1.9814 0.9793
2.4803 3.9726 -1.9168 0.9800
0.8948 4.3918 -1.8344 0.9808
0.1005 4.4801 -1.8340 0.9808
-0.2994 4.4714 -1.8341 0.9808
-0.6215 3.9481 -1.6358 0.9829
-1.8459 4.0895 -1.8363 0.9808
-2.1364 3.7903 -1.7807 0.9814
-3.2526 3.2805 -1.8907 0.9802
-3.7105 3.1278 -1.9862 0.9792
-3.9782 2.7870 -1.9880 0.9792
-4.4187 2.0401 -1.9919 0.9792
-4.5879 1.6398 -1.9940 0.9792
-1.9541 0.1477 -0.8021 0.9916
-4.8143 -0.9381 -2.0074 0.9790
-4.7167 -1.3651 -2.0096 0.9790
-4.4084 -2.1857 -2.0139 0.9790
-4.2001 -2.5726 -2.0158 0.9789
-3.9577 -2.9396 -2.0177 0.9789
-2.3089 -4.3758 -2.0249 0.9788
-1.0697 -4.8361 -2.0271 0.9788
-0.6343 -4.9130 -2.0275 0.9788
-0.1938 -4.9504 -2.0276 0.9788
0.6885 -4.9052 -2.0272 0.9788
1.1228 -4.8231 -2.0268 0.9788
2.3562 -4.3483 -2.0241 0.9789
3.0870 -3.8556 -2.0215 0.9789
3.4158 -3.5622 -2.0199 0.9789
3.7167 -3.2407 -2.0182 0.9789
3.9872 -2.8937 -2.0163 0.9789
4.2253 -2.5243 -2.0144 0.9790
4.7277 -1.3118 -2.0080 0.9790
4.8660 0.4218 -1.9990 0.9791
4.8037 0.8530 -1.9968 0.9791
4.5659 1.6890 -1.9925 0.9792
4.3926 2.0873 -1.9904 0.9792
3.0479 3.7630 -1.9819 0.9793
2.6788 3.9878 -1.9662 0.9795
2.1684 3.9484 -1.8436 0.9807
0.9945 4.1653 -1.7527 0.9817
-0.1500 4.4788 -1.8341 0.9808
-1.3308 4.2822 -1.8353 0.9808
-2.0721 3.9813 -1.8369 0.9808
-2.4203 3.7829 -1.8380 0.9808
-3.0702 3.3106 -1.8479 0.9807
-3.5778 3.2263 -1.9718 0.9794
-3.8816 2.9173 -1.9873 0.9792
-4.1302 2.5620 -1.9892 0.9792
3.5833 2.8181 -1.9868 0.9803
3.3152 3.1239 -1.9852 0.9803
3.0213 3.4046 -1.9838 0.9803
2.7040 3.6581 -1.9825 0.9803
1.5188 3.9312 -1.8367 0.9818
1.1619 4.0497 -1.8361 0.9818
-2.1114 3.6525 -1.8387 0.9818
-2.8210 3.3309 -1.9023 0.9811
-3.9847 2.2338 -1.9909 0.9803
-4.1720 1.8715 -1.9928 0.9802
-1.5916 0.5494 -0.7338 0.9927
-1.5296 0.0989 -0.6680 0.9933
-1.5234 -0.1745 -0.6683 0.9933
-1.5122 -0.3117 -0.6729 0.9933
-1.5744 -0.4743 -0.7166 0.9929
-3.4235 -3.1197 -2.0186 0.9800
-3.1340 -3.4150 -2.0201 0.9800
-2.4807 -3.9223 -2.0226 0.9800
-1.7462 -4.3045 -2.0245 0.9799
-0.5451 -4.6165 -2.0259 0.9799
-0.1313 -4.6469 -2.0260 0.9799
0.2836 -4.6399 -2.0259 0.9799
1.1028 -4.5141 -2.0252 0.9799
1.5004 -4.3963 -2.0245 0.9799
2.6065 -3.8367 -2.0214 0.9800
2.9362 -3.5866 -2.0201 0.9800
3.2419 -3.3081 -2.0186 0.9800
3.9915 -2.3261 -2.0134 0.9800
4.4515 -1.1832 -2.0074 0.9801
4.5913 0.0370 -2.0011 0.9802
4.5023 0.8501 -1.9968 0.9802
4.4040 1.2469 -1.9948 0.9802
4.2711 1.6330 -1.9928 0.9802
4.1045 2.0054 -1.9909 0.9803
3.6765 2.6977 -1.9874 0.9803
3.4186 3.0124 -1.9858 0.9803
2.8252 3.5667 -1.9830 0.9803
2.4945 3.8021 -1.9818 0.9804
2.0989 3.9223 -1.9388 0.9808
1.6534 3.8883 -1.8414 0.9817
1.2965 4.0091 -1.8363 0.9818
0.9337 4.1077 -1.8359 0.9818
0.5636 4.1739 -1.8356 0.9818
0.1892 4.2073 -1.8354 0.9818
-0.9314 4.1088 -1.8361 0.9818
-1.6475 3.8808 -1.8374 0.9818
-2.6563 3.3575 -1.8658 0.9815
-3.4184 3.0158 -1.9867 0.9803
-3.6768 2.7013 -1.9884 0.9803
-3.9065 2.3648 -1.9902 0.9803
-4.1057 2.0089 -1.9920 0.9803
-1.4979 0.2837 -0.6644 0.9934
-1.5287 -0.1235 -0.6684 0.9933
-1.5547 -0.4123 -0.7010 0.9930
-4.1826 -1.9577 -2.0126 0.9801
-3.9951 -2.3250 -2.0145 0.9800
-3.2453 -3.3076 -2.0195 0.9800
-2.6097 -3.8365 -2.0222 0.9800
-1.8886 -4.2432 -2.0242 0.9799
-1.1056 -4.5141 -2.0255 0.9799
-0.2863 -4.6399 -2.0260 0.9799
0.1285 -4.6469 -2.0260 0.9799
0.9516 -4.5488 -2.0254 0.9799
1.3530 -4.4445 -2.0248 0.9799
1.7432 -4.3045 -2.0240 0.9799
2.1191 -4.1300 -2.0230 0.9799
2.8156 -3.6835 -2.0206 0.9800
3.4200 -3.1202 -2.0176 0.9800
4.1128 -2.0982 -2.0122 0.9801
4.4112 -1.3317 -2.0082 0.9801
4.5077 -0.9321 -2.0061 0.9801
4.5680 -0.5259 -2.0040 0.9801
4.5299 0.6996 -1.9976 0.9802
4.3248 1.4900 -1.9935 0.9802
3.9838 2.2303 -1.9898 0.9803
3.7657 2.5743 -1.9880 0.9803
3.2434 3.1971 -1.9848 0.9803
2.9434 3.4712 -1.9835 0.9803
2.2774 3.9342 -1.9812 0.9804
1.8141 3.8994 -1.8743 0.9814
1.4298 3.9640 -1.8365 0.9818
1.0704 4.0746 -1.8360 0.9818
-0.4215 4.1908 -1.8356 0.9818
-0.7936 4.1372 -1.8360 0.9818
-1.8623 3.7838 -1.8379 0.9818
-2.1934 3.6045 -1.8389 0.9818
-3.3149 3.1273 -1.9861 0.9803
-4.0349 2.1441 -1.9913 0.9803
-1.5827 0.5068 -0.7243 0.9928
-1.5188 0.2006 -0.6677 0.9933
-1.5293 -0.0723 -0.6672 0.9933
-1.5172 -0.2085 -0.6674 0.9933
-1.5308 -0.3517 -0.6845 0.9932
-4.2441 -1.8164 -2.0119 0.9801
-3.0568 -3.4853 -2.0204 0.9800
-2.3921 -3.9777 -2.0229 0.9800
-0.8518 -4.5694 -2.0257 0.9799
0.3879 -4.6322 -2.0259 0.9799
1.9804 -4.1992 -2.0234 0.9799
2.6917 -3.7764 -2.0211 0.9800
3.3149 -3.2336 -2.0182 0.9800
3.5871 -2.9228 -2.0166 0.9800
4.4758 -1.0824 -2.0069 0.9801
4.5497 -0.6783 -2.0048 0.9801
4.5872 -0.2697 -2.0026 0.9801
4.5525 0.5482 -1.9984 0.9802
4.4808 0.9510 -1.9963 0.9802
4.2322 1.7283 -1.9923 0.9803
3.3493 3.0880 -1.9854 0.9803
3.0584 3.3719 -1.9840 0.9803
2.4079 3.8568 -1.9815 0.9804
1.5615 3.9146 -1.8368 0.9818
1.2059 4.0370 -1.8362 0.9818
0.4695 4.1854 -1.8355 0.9818
0.0944 4.2104 -1.8354 0.9818
-0.6216 3.9487 -1.7421 0.9827
-1.3845 3.9808 -1.8368 0.9818
-2.0715 3.6750 -1.8385 0.9818
-2.3923 3.4777 -1.8396 0.9818
-2.7667 3.3397 -1.8901 0.9813
-3.4862 2.9387 -1.9871 0.9803
-3.7375 2.6184 -1.9888 0.9803
-3.9597 2.2768 -1.9906 0.9803
-4.1509 1.9165 -1.9925 0.9802
-1.5065 0.2504 -0.6656 0.9934
-1.5252 -0.0212 -0.6648 0.9934
-1.5256 -0.1579 -0.6685 0.9933
-1.5685 -0.4539 -0.7116 0.9929
-4.1385 -2.0519 -2.0131 0.9800
-3.7149 -2.7592 -2.0167 0.9800
-3.1706 -3.3805 -2.0199 0.9800
-2.5230 -3.8948 -2.0225 0.9800
-1.7928 -4.2851 -2.0244 0.9799
-1.4041 -4.4294 -2.0251 0.9799
-1.0038 -4.5381 -2.0256 0.9799
-0.1818 -4.6452 -2.0260 0.9799
0.6461 -4.6029 -2.0257 0.9799
1.0537 -4.5259 -2.0252 0.9799
1.8395 -4.2637 -2.0238 0.9799
2.5648 -3.8651 -2.0216 0.9800
2.8973 -3.6186 -2.0203 0.9800
3.7427 -2.7163 -2.0155 0.9800
3.9664 -2.3696 -2.0136 0.9800
4.1579 -2.0046 -2.0117 0.9801
4.3158 -1.6243 -2.0097 0.9801
4.4389 -1.2317 -2.0077 0.9801
4.5775 -0.4228 -2.0034 0.9801
4.5701 0.3961 -1.9992 0.9802
4.5118 0.8012 -1.9971 0.9802
4.4179 1.1991 -1.9950 0.9802
4.2891 1.5866 -1.9931 0.9802
3.7060 2.6579 -1.9876 0.9803
3.4515 2.9753 -1.9860 0.9803
2.1566 3.9268 -1.9525 0.9806
1.7045 3.8903 -1.8510 0.9816
0.9783 4.0974 -1.8359 0.9818
0.2349 4.2050 -1.8355 0.9818
-0.1409 4.2092 -1.8355 0.9818
-0.4932 3.9977 -1.7555 0.9826
-0.8866 4.1186 -1.8361 0.9818
-1.2507 4.0243 -1.8366 0.9818
-1.9472 3.7414 -1.8382 0.9818
-2.2798 3.5633 -1.8436 0.9817
-2.6039 3.3659 -1.8546 0.9816
-3.3851 3.0525 -1.9865 0.9803
-3.6469 2.7408 -1.9882 0.9803
-3.8801 2.4069 -1.9899 0.9803
3.1229 2.9427 -1.9862 0.9813
1.4886 3.8530 -1.9120 0.9820
0.7500 3.8970 -1.8370 0.9827
0.0458 3.9677 -1.8367 0.9827
-0.3081 3.9562 -1.8368 0.9827
-1.0063 3.8400 -1.8375 0.9827
-1.3451 3.7362 -1.8381 0.9826
-1.9922 3.4463 -1.8426 0.9826
-2.7719 3.2729 -1.9853 0.9813
-3.0548 3.0148 -1.9867 0.9813
-3.7529 2.1039 -1.9915 0.9812
-1.3336 0.4604 -0.6531 0.9938
-1.3366 -0.0331 -0.6189 0.9941
-1.3338 -0.1528 -0.6214 0.9941
-1.3287 -0.5336 -0.6628 0.9937
-3.6861 -2.3133 -2.0144 0.9810
-3.4680 -2.6349 -2.0161 0.9810
-3.2217 -2.9358 -2.0176 0.9810
-2.3342 -3.6907 -2.0214 0.9809
-0.5128 -4.3435 -2.0245 0.9809
-0.1235 -4.3721 -2.0246 0.9809
0.2668 -4.3655 -2.0245 0.9809
0.6549 -4.3238 -2.0242 0.9809
1.0376 -4.2472 -2.0238 0.9809
1.4117 -4.1365 -2.0232 0.9809
2.4526 -3.6102 -2.0203 0.9809
2.7630 -3.3751 -2.0190 0.9810
3.0508 -3.1131 -2.0176 0.9810
4.3132 -0.3511 -2.0031 0.9811
4.2984 0.4197 -1.9991 0.9811
4.2396 0.8005 -1.9971 0.9812
4.1474 1.1742 -1.9952 0.9812
3.6788 2.2239 -1.9898 0.9812
3.4630 2.5410 -1.9882 0.9812
3.2202 2.8375 -1.9867 0.9813
2.9523 3.1112 -1.9853 0.9813
2.6615 3.3599 -1.9841 0.9813
2.0203 3.7753 -1.9820 0.9813
1.6439 3.8660 -1.9446 0.9817
1.2391 3.8314 -1.8639 0.9824
0.8797 3.8701 -1.8371 0.9827
0.5310 3.9325 -1.8368 0.9827
0.1783 3.9640 -1.8367 0.9827
-0.1759 3.9642 -1.8368 0.9827
-1.5522 3.6561 -1.8386 0.9826
-1.8728 3.5047 -1.8394 0.9826
-2.6425 3.3401 -1.9714 0.9814
-3.4632 2.5443 -1.9892 0.9812
-3.6793 2.2273 -1.9909 0.9812
-1.3213 0.3749 -0.6357 0.9940
-1.3365 0.1313 -0.6216 0.9941
-1.3381 -0.1081 -0.6214 0.9941
-1.3152 -0.3488 -0.6298 0.9940
-1.3331 -0.4843 -0.6565 0.9938
-1.3112 -0.6137 -0.6702 0.9936
-3.7601 -2.1883 -2.0138 0.9810
-3.3170 -2.8259 -2.0170 0.9810
-3.0540 -3.1126 -2.0185 0.9810
-2.7661 -3.3747 -2.0198 0.9810
-1.7770 -3.9925 -2.0229 0.9809
-1.4144 -4.1365 -2.0236 0.9809
-0.6575 -4.3238 -2.0244 0.9809
0.5102 -4.3435 -2.0244 0.9809
0.8953 -4.2799 -2.0240 0.9809
1.2730 -4.1818 -2.0234 0.9809
2.9460 -3.2140 -2.0182 0.9810
3.2185 -2.9364 -2.0167 0.9810
3.8711 -1.9749 -2.0116 0.9810
4.0280 -1.6204 -2.0097 0.9810
4.2436 -0.8775 -2.0058 0.9811
4.1857 1.0355 -1.9959 0.9812
3.9279 1.7592 -1.9922 0.9812
3.7521 2.1006 -1.9905 0.9812
3.5470 2.4248 -1.9888 0.9812
2.7728 3.2700 -1.9845 0.9813
2.4687 3.5021 -1.9834 0.9813
2.1455 3.7064 -1.9824 0.9813
1.8047 3.8790 -1.9803 0.9813
0.3105 3.9559 -1.8367 0.9827
-0.7477 3.8979 -1.8372 0.9827
-1.7545 3.5647 -1.8391 0.9826
-2.0862 3.4283 -1.8576 0.9825
-2.4847 3.3656 -1.9364 0.9817
-3.1225 2.9458 -1.9870 0.9813
-3.3753 2.6577 -1.9886 0.9812
-3.6018 2.3481 -1.9902 0.9812
-1.3246 0.5587 -0.6655 0.9937
-1.2987 0.2912 -0.6161 0.9942
-1.3302 0.1757 -0.6211 0.9941
-1.3289 -0.1826 -0.6209 0.9941
-1.3313 -0.4339 -0.6481 0.9938
-1.9090 -3.9304 -2.0226 0.9809
-0.8014 -4.2992 -2.0243 0.9809
-0.4149 -4.3540 -2.0245 0.9809
-0.0251 -4.3738 -2.0246 0.9809
0.7520 -4.3077 -2.0241 0.9809
1.1328 -4.2225 -2.0236 0.9809
1.5043 -4.1033 -2.0230 0.9809
1.8634 -3.9512 -2.0221 0.9809
3.1196 -3.0431 -2.0172 0.9810
3.3759 -2.7507 -2.0157 0.9810
3.6047 -2.4367 -2.0140 0.9810
4.2135 -1.0190 -2.0066 0.9811
4.2833 -0.6386 -2.0046 0.9811
4.3189 -0.2539 -2.0026 0.9811
4.3200 0.1321 -2.0006 0.9811
4.1189 1.2670 -1.9947 0.9812
3.8214 1.9748 -1.9911 0.9812
3.6270 2.3057 -1.9894 0.9812
3.1549 2.9088 -1.9864 0.9813
2.5848 3.4185 -1.9838 0.9813
1.5386 3.8572 -1.9222 0.9819
0.7923 3.8887 -1.8370 0.9827
0.0890 3.9670 -1.8367 0.9827
-0.2651 3.9593 -1.8368 0.9827
-1.6342 3.6206 -1.8388 0.9826
-2.3319 3.3899 -1.9046 0.9820
-3.2837 2.7681 -1.9880 0.9812
-3.7294 2.1444 -1.9913 0.9812
-1.3334 0.4766 -0.6554 0.9938
-1.3133 0.3409 -0.6280 0.9940
-1.3383 0.1011 -0.6212 0.9941
-1.3357 -0.1383 -0.6216 0.9941
-1.3106 -0.2554 -0.6181 0.9941
-1.3306 -0.5176 -0.6609 0.9937
-3.8952 -1.9312 -2.0125 0.9810
-3.2531 -2.9004 -2.0174 0.9810
-1.6869 -4.0319 -2.0231 0.9809
0.2193 -4.3682 -2.0245 0.9809
0.6079 -4.3307 -2.0243 0.9809
0.9914 -4.2584 -2.0239 0.9809
2.0806 -3.8397 -2.0215 0.9809
3.0171 -3.1464 -2.0178 0.9810
3.5225 -2.5565 -2.0147 0.9810
3.9137 -1.8868 -2.0111 0.9810
4.1787 -1.1595 -2.0073 0.9811
4.3096 -0.3981 -2.0033 0.9811
4.3032 0.3730 -1.9993 0.9811
4.2486 0.7544 -1.9974 0.9812
4.1604 1.1292 -1.9954 0.9812
4.0393 1.4942 -1.9936 0.9812
3.4908 2.5035 -1.9884 0.9812
3.2512 2.8026 -1.9869 0.9813
2.6981 3.3310 -1.9842 0.9813
1.6957 3.8702 -1.9559 0.9815
1.2867 3.8356 -1.8727 0.9823
0.9217 3.8604 -1.8371 0.9827
-0.1328 3.9658 -1.8367 0.9827
-1.1783 3.7914 -1.8378 0.9827
-1.8345 3.5247 -1.8393 0.9826
-2.1837 3.4132 -1.8756 0.9823
-2.9174 3.1459 -1.9860 0.9813
-3.6545 2.2669 -1.9906 0.9812
3.1864 2.5059 -1.9884 0.9821
2.9482 2.7781 -1.9871 0.9821
2.6871 3.0280 -1.9858 0.9821
2.1043 3.4534 -1.9837 0.9821
1.4563 3.7693 -1.9821 0.9822
1.0901 3.7996 -1.9390 0.9825
0.7247 3.7657 -1.8811 0.9831
0.0433 3.7465 -1.8379 0.9834
-0.2910 3.7356 -1.8380 0.9834
-0.9502 3.6259 -1.8386 0.9834
-1.6169 3.4808 -1.8826 0.9830
-1.9805 3.4260 -1.9411 0.9825
-2.3296 3.3090 -1.9850 0.9821
-3.1284 2.5795 -1.9889 0.9821
-3.5424 1.9859 -1.9921 0.9821
-1.1570 0.3994 -0.6004 0.9946
-1.1599 0.2877 -0.5862 0.9947
-1.1964 -0.0296 -0.5870 0.9947
-1.1912 -0.1364 -0.5881 0.9947
-1.1726 -0.2417 -0.5873 0.9947
-1.1505 -0.4620 -0.6081 0.9945
-3.4772 -2.1822 -2.0137 0.9819
-3.2713 -2.4854 -2.0153 0.9819
-2.7816 -3.0311 -2.0180 0.9818
-2.2015 -3.4808 -2.0203 0.9818
-1.5495 -3.8197 -2.0219 0.9818
0.6176 -4.0776 -2.0230 0.9818
2.0015 -3.5996 -2.0203 0.9818
2.3132 -3.4051 -2.0192 0.9818
2.6061 -3.1834 -2.0180 0.9818
2.8777 -2.9364 -2.0167 0.9818
3.1258 -2.6662 -2.0153 0.9819
3.3485 -2.3751 -2.0137 0.9819
3.7109 -1.7396 -2.0104 0.9819
3.8479 -1.4006 -2.0086 0.9819
3.9538 -1.0509 -2.0068 0.9819
4.0280 -0.6936 -2.0049 0.9820
4.0700 -0.3313 -2.0030 0.9820
4.0795 0.0328 -2.0011 0.9820
4.0565 0.3961 -1.9993 0.9820
4.0013 0.7555 -1.9974 0.9820
3.7967 1.4516 -1.9938 0.9821
3.2691 2.3988 -1.9890 0.9821
2.5128 3.1722 -1.9851 0.9821
2.2187 3.3818 -1.9840 0.9821
1.5815 3.7190 -1.9824 0.9822
1.2329 3.8122 -1.9653 0.9823
0.8588 3.7785 -1.9007 0.9829
0.1683 3.7430 -1.8379 0.9834
-0.1661 3.7431 -1.8379 0.9834
-0.8286 3.6552 -1.8385 0.9834
-1.1515 3.5678 -1.8390 0.9834
-1.4858 3.4999 -1.8651 0.9832
-2.2174 3.3842 -1.9846 0.9821
-2.5118 3.1748 -1.9858 0.9821
-2.7866 2.9401 -1.9870 0.9821
-3.2692 2.4018 -1.9899 0.9821
-1.1321 0.5540 -0.6183 0.9944
-1.1931 0.1172 -0.5881 0.9947
-1.1947 -0.0965 -0.5879 0.9947
-1.1583 -0.3072 -0.5878 0.9947
-1.1374 -0.5324 -0.6160 0.9944
-3.5470 -2.0643 -2.0131 0.9819
-3.1287 -2.6655 -2.0162 0.9819
-2.8806 -2.9359 -2.0175 0.9818
-2.6089 -3.1830 -2.0188 0.9818
-2.0041 -3.5995 -2.0209 0.9818
-1.3339 -3.9010 -2.0223 0.9818
-0.9810 -4.0054 -2.0228 0.9818
-0.6201 -4.0776 -2.0231 0.9818
-0.2541 -4.1169 -2.0233 0.9818
0.8443 -4.0362 -2.0227 0.9818
1.5469 -3.8198 -2.0215 0.9818
2.1987 -3.4811 -2.0196 0.9818
2.4990 -3.2693 -2.0185 0.9818
3.4742 -2.1832 -2.0127 0.9819
4.0581 -0.4672 -2.0037 0.9820
4.0797 -0.1034 -2.0019 0.9820
3.9506 0.9773 -1.9963 0.9820
3.7076 1.6605 -1.9928 0.9821
3.3483 2.2890 -1.9895 0.9821
3.1286 2.5765 -1.9881 0.9821
0.6357 3.7571 -1.8691 0.9832
-0.0411 3.7465 -1.8379 0.9834
-0.3750 3.7282 -1.8380 0.9834
-0.7060 3.6805 -1.8383 0.9834
-1.1963 -0.0566 -0.5875 0.9947
-1.1659 -0.2678 -0.5868 0.9947
-1.1582 -0.3775 -0.5976 0.9946
-1.1459 -0.4904 -0.6114 0.9945
-1.1148 -0.5999 -0.6210 0.9944
-2.9762 -2.8374 -2.0170 0.9818
-2.7131 -3.0934 -2.0183 0.9818
-2.4279 -3.3249 -2.0195 0.9818
-2.1228 -3.5299 -2.0205 0.9818
-0.7558 -4.0544 -2.0230 0.9818
-0.3913 -4.1061 -2.0233 0.9818
-0.0237 -4.1247 -2.0233 0.9818
1.0684 -3.9821 -2.0224 0.9818
1.7574 -3.7264 -2.0210 0.9818
2.3890 -3.3516 -2.0189 0.9818
2.6767 -3.1234 -2.0177 0.9818
2.9425 -2.8704 -2.0164 0.9819
3.1844 -2.5947 -2.0149 0.9819
3.4005 -2.2986 -2.0133 0.9819
3.7483 -1.6553 -2.0100 0.9819
3.8775 -1.3133 -2.0082 0.9819
3.9756 -0.9615 -2.0063 0.9819
4.0417 -0.6026 -2.0044 0.9820
4.0755 -0.2396 -2.0026 0.9820
4.0767 0.1246 -2.0007 0.9820
3.9823 0.8452 -1.9969 0.9820
3.8876 1.1958 -1.9951 0.9820
3.6072 1.8641 -1.9917 0.9821
3.2137 2.4713 -1.9886 0.9821
2.9785 2.7461 -1.9872 0.9821
2.7200 2.9988 -1.9859 0.9821
2.4404 3.2275 -1.9848 0.9821
2.1418 3.4305 -1.9838 0.9821
1.8266 3.6062 -1.9829 0.9822
0.4191 3.7363 -1.8442 0.9834
0.0840 3.7458 -1.8379 0.9834
-0.2503 3.7385 -1.8379 0.9834
-0.5827 3.7018 -1.8382 0.9834
-1.5740 3.4871 -1.8767 0.9831
-3.0999 2.6131 -1.9888 0.9821
-3.3231 2.3281 -1.9903 0.9821
-1.1560 0.4132 -0.6022 0.9945
-1.1581 0.3006 -0.5869 0.9947
-1.1961 -0.0166 -0.5868 0.9947
-1.1925 -0.1234 -0.5881 0.9947
-1.1304 -0.5605 -0.6189 0.9944
-3.2978 -2.4495 -2.0151 0.9819
-2.8142 -3.0004 -2.0179 0.9818
-2.5370 -3.2414 -2.0191 0.9818
-2.2391 -3.4565 -2.0201 0.9818
-1.2459 -3.9303 -2.0225 0.9818
-0.8907 -4.0267 -2.0229 0.9818
-0.5281 -4.0906 -2.0232 0.9818
-0.1613 -4.1216 -2.0233 0.9818
0.2068 -4.1195 -2.0232 0.9818
1.2889 -3.9155 -2.0220 0.9818
1.6323 -3.7836 -2.0213 0.9818
2.8458 -2.9677 -2.0169 0.9818
4.0207 -0.7374 -2.0052 0.9820
4.0666 -0.3756 -2.0033 0.9820
4.0610 0.3520 -1.9995 0.9820
3.6685 1.7432 -1.9923 0.9821
3.4956 2.0617 -1.9907 0.9821
3.2953 2.3633 -1.9892 0.9821
2.5473 3.1449 -1.9852 0.9821
2.2555 3.3577 -1.9841 0.9821
1.9462 3.5438 -1.9832 0.9821
1.2802 3.8163 -1.9745 0.9822
0.5477 3.7484 -1.8582 0.9833
-0.1254 3.7447 -1.8379 0.9834
-1.7976 3.4539 -1.9099 0.9828
-2.1728 3.3960 -1.9776 0.9822
-3.4497 2.1399 -1.9913 0.9821
3.0139 2.3703 -1.9892 0.9829
2.7888 2.6278 -1.9879 0.9829
2.5418 2.8643 -1.9867 0.9829
2.2751 3.0779 -1.9856 0.9829
1.9906 3.2669 -1.9847 0.9829
1.3777 3.5659 -1.9832 0.9829
1.0540 3.6736 -1.9827 0.9829
-0.6071 3.6014 -1.8947 0.9837
-1.2650 3.5137 -1.9374 0.9833
-1.6090 3.4639 -1.9814 0.9829
-2.4755 2.9229 -1.9871 0.9829
-1.0057 0.5638 -0.5982 0.9948
-1.0448 0.4687 -0.5940 0.9949
-1.0955 0.1699 -0.5751 0.9950
-1.1059 0.0715 -0.5749 0.9950
-1.1066 -0.0274 -0.5742 0.9950
-1.0634 -0.3203 -0.5762 0.9950
-1.0264 -0.5229 -0.5976 0.9948
-0.9764 -0.6128 -0.5980 0.9948
-3.0920 -2.3492 -2.0145 0.9827
-2.8722 -2.6173 -2.0159 0.9826
-2.0805 -3.2896 -2.0193 0.9826
-0.4570 -3.8708 -2.0220 0.9826
-0.1101 -3.8963 -2.0221 0.9826
1.5813 -3.5585 -2.0201 0.9826
1.8915 -3.4019 -2.0193 0.9826
2.1862 -3.2181 -2.0183 0.9826
2.4631 -3.0086 -2.0172 0.9826
3.6376 -1.3240 -2.0082 0.9827
3.7380 -0.9936 -2.0065 0.9827
3.8482 -0.3133 -2.0030 0.9828
3.2845 1.9856 -1.9911 0.9829
2.8756 2.5339 -1.9883 0.9829
2.6366 2.7785 -1.9871 0.9829
2.0989 3.1992 -1.9850 0.9829
1.4961 3.5184 -1.9834 0.9829
0.8470 3.7263 -1.9824 0.9829
0.5032 3.7262 -1.9506 0.9832
0.1660 3.6913 -1.9169 0.9835
-0.8105 3.5754 -1.9019 0.9836
-1.4787 3.4830 -1.9630 0.9831
-1.8030 3.3741 -1.9846 0.9829
-2.0976 3.2014 -1.9856 0.9829
-2.6359 2.7811 -1.9878 0.9829
-2.8753 2.5366 -1.9891 0.9829
-3.0922 2.2717 -1.9905 0.9829
-0.9864 0.5971 -0.5982 0.9948
-1.0563 0.4046 -0.5868 0.9949
-1.0638 0.3019 -0.5737 0.9950
-1.0885 0.2062 -0.5747 0.9950
-1.1034 0.1084 -0.5752 0.9950
-1.1061 0.0096 -0.5739 0.9950
-1.1049 -0.0893 -0.5751 0.9950
-1.0588 -0.3847 -0.5844 0.9949
-3.1523 -2.2331 -2.0041 0.9827
-2.1888 -3.2178 -2.0189 0.9826
-1.8940 -3.4016 -2.0198 0.9826
-0.9271 -3.7851 -2.0217 0.9826
-0.5860 -3.8533 -2.0220 0.9826
-0.2401 -3.8904 -2.0221 0.9826
0.4547 -3.8708 -2.0219 0.9826
0.7979 -3.8142 -2.0216 0.9826
1.1345 -3.7270 -2.0211 0.9826
1.4619 -3.6098 -2.0204 0.9826
2.0780 -3.2899 -2.0187 0.9826
2.3618 -3.0899 -2.0176 0.9826
2.8695 -2.6180 -2.0151 0.9826
3.0893 -2.3500 -2.0137 0.9827
3.2840 -2.0636 -2.0121 0.9827
3.8475 0.2464 -2.0001 0.9828
3.8068 0.5879 -1.9983 0.9828
3.7360 0.9242 -1.9966 0.9828
3.6356 1.2526 -1.9949 0.9828
3.5066 1.5705 -1.9932 0.9828
3.3499 1.8754 -1.9917 0.9828
3.1670 2.1650 -1.9902 0.9829
2.9593 2.4371 -1.9888 0.9829
2.7285 2.6895 -1.9875 0.9829
2.4763 2.9204 -1.9864 0.9829
1.2970 3.5958 -1.9830 0.9829
0.9710 3.6962 -1.9826 0.9829
0.2907 3.7045 -1.9277 0.9834
-0.0402 3.6687 -1.9034 0.9836
-0.3652 3.6310 -1.8932 0.9837
-0.6889 3.5910 -1.8969 0.9837
-1.0157 3.5481 -1.9146 0.9835
-1.3504 3.5015 -1.9469 0.9832
-1.6891 3.4318 -1.9843 0.9829
-1.9892 3.2690 -1.9852 0.9829
-2.7883 2.6305 -1.9886 0.9829
-3.2158 2.0964 -1.9915 0.9829
-1.0625 0.3402 -0.5788 0.9950
-1.0796 0.2421 -0.5740 0.9950
-1.0992 0.1452 -0.5752 0.9950
-1.1065 0.0465 -0.5746 0.9950
-1.1065 -0.0523 -0.5746 0.9950
-1.0622 -0.3462 -0.5796 0.9950
-1.0150 -0.5462 -0.5980 0.9948
-3.2055 -2.1137 -1.9919 0.9828
-2.2945 -3.1423 -2.0185 0.9826
-1.7014 -3.5030 -2.0203 0.9826
-1.0528 -3.7517 -2.0215 0.9826
0.3253 -3.8840 -2.0220 0.9826
0.6702 -3.8390 -2.0217 0.9826
1.0096 -3.7631 -2.0213 0.9826
1.3407 -3.6570 -2.0207 0.9826
1.6609 -3.5216 -2.0199 0.9826
1.9674 -3.3580 -2.0190 0.9826
2.2578 -3.1676 -2.0180 0.9826
3.0099 -2.4525 -2.0142 0.9827
3.5434 -1.5648 -2.0095 0.9827
3.6657 -1.2416 -2.0078 0.9827
3.7586 -0.9090 -2.0061 0.9827
3.8213 -0.5697 -2.0043 0.9827
3.8534 -0.2265 -2.0025 0.9828
3.8256 0.4607 -1.9990 0.9828
3.7659 0.7993 -1.9972 0.9828
3.5581 1.4530 -1.9938 0.9828
3.2384 2.0587 -1.9908 0.9829
3.0398 2.3376 -1.9893 0.9829
2.3085 3.0532 -1.9857 0.9829
2.0261 3.2453 -1.9848 0.9829
1.7280 3.4116 -1.9839 0.9829
1.4164 3.5509 -1.9833 0.9829
1.0939 3.6620 -1.9827 0.9829
0.7629 3.7443 -1.9824 0.9829
-0.5677 3.6063 -1.8939 0.9837
-0.8928 3.5645 -1.9063 0.9836
-1.2240 3.5194 -1.9331 0.9833
-1.5663 3.4702 -1.9752 0.9830
-1.8787 3.3330 -1.9849 0.9829
-2.6983 2.7215 -1.9881 0.9829
-3.1431 2.2020 -1.9909 0.9829
-0.9996 0.5748 -0.5982 0.9948
-1.0419 0.4810 -0.5953 0.9948
-1.0594 0.3787 -0.5837 0.9949
-1.1052 0.0835 -0.5750 0.9950
-1.1063 -0.0153 -0.5740 0.9950
-1.1029 -0.1142 -0.5752 0.9950
-1.0872 -0.2118 -0.5746 0.9950
-1.0637 -0.3079 -0.5745 0.9950
-1.0554 -0.4106 -0.5875 0.9949
-0.9832 -0.6022 -0.5981 0.9948
-2.1161 -3.2666 -2.0191 0.9826
-1.1773 -3.7142 -2.0213 0.9826
-0.8417 -3.8052 -2.0218 0.9826
-0.1524 -3.8949 -2.0221 0.9826
0.1954 -3.8928 -2.0221 0.9826
0.8835 -3.7951 -2.0215 0.9826
1.8545 -3.4224 -2.0194 0.9826
2.6897 -2.8050 -2.0161 0.9826
2.9271 -2.5523 -2.0147 0.9827
3.1408 -2.2795 -2.0133 0.9827
3.3290 -1.9888 -2.0117 0.9827
3.6234 -1.3637 -2.0085 0.9827
3.7273 -1.0343 -2.0067 0.9827
3.8450 -0.3552 -2.0032 0.9828
3.8579 -0.0109 -2.0014 0.9828
3.8401 0.3328 -1.9996 0.9828
3.7134 1.0079 -1.9961 0.9828
3.4696 1.6487 -1.9928 0.9828
3.3062 1.9500 -1.9913 0.9829
3.1169 2.2354 -1.9899 0.9829
2.9032 2.5027 -1.9885 0.9829
2.6668 2.7498 -1.9872 0.9829
1.8412 3.3525 -1.9842 0.9829
1.2156 3.6238 -1.9829 0.9829
0.8875 3.7169 -1.9825 0.9829
-0.7708 3.5805 -1.9000 0.9836
-1.0992 3.5367 -1.9213 0.9834
-1.7661 3.3933 -1.9845 0.9829
-2.0626 3.2238 -1.9855 0.9829
-2.3431 3.0287 -1.9865 0.9829
-2.6053 2.8093 -1.9877 0.9829
-0.9797 0.6077 -0.5981 0.9948
2.8557 2.2459 -1.9898 0.9836
2.4085 2.7141 -1.9875 0.9836
2.1558 2.9166 -1.9865 0.9836
1.8864 3.0958 -1.9856 0.9836
1.6022 3.2504 -1.9848 0.9836
1.3056 3.3793 -1.9842 0.9836
0.0418 3.6205 -1.9831 0.9836
-0.2812 3.6100 -1.9832 0.9836
-0.6020 3.5710 -1.9834 0.9836
-1.5269 3.2870 -1.9850 0.9836
-2.0883 2.9661 -1.9868 0.9836
-2.3457 2.7696 -1.9878 0.9836
-2.5848 2.5509 -1.9890 0.9836
-0.8704 0.5957 -0.5777 0.9952
-0.9605 0.4309 -0.5766 0.9952
-0.9773 0.3374 -0.5663 0.9953
-1.0269 0.0664 -0.5636 0.9953
-1.0276 -0.0254 -0.5630 0.9953
-1.0067 -0.2075 -0.5630 0.9953
-0.9807 -0.2954 -0.5609 0.9953
-0.9403 -0.4790 -0.5780 0.9952
-0.8944 -0.5613 -0.5784 0.9952
-2.7195 -2.4782 -2.0151 0.9834
-2.4891 -2.7124 -2.0163 0.9834
-2.2386 -2.9251 -2.0174 0.9833
-1.9698 -3.1145 -2.0183 0.9833
-1.3863 -3.4173 -2.0198 0.9833
-1.0763 -3.5282 -2.0204 0.9833
-0.7576 -3.6109 -2.0207 0.9833
-0.4327 -3.6644 -2.0210 0.9833
0.2251 -3.6830 -2.0210 0.9833
0.5525 -3.6479 -2.0207 0.9833
0.8754 -3.5834 -2.0204 0.9833
1.4971 -3.3689 -2.0192 0.9833
2.0699 -3.0468 -2.0174 0.9833
2.9971 -2.1258 -2.0125 0.9834
3.1724 -1.8487 -2.0110 0.9834
3.3221 -1.5573 -2.0095 0.9834
3.5401 -0.9410 -2.0063 0.9834
3.6069 -0.6211 -2.0046 0.9834
3.6449 -0.2967 -2.0029 0.9835
3.6537 0.0294 -2.0012 0.9835
3.4017 1.3006 -1.9947 0.9835
3.2697 1.5975 -1.9931 0.9835
3.1120 1.8813 -1.9917 0.9836
2.7247 2.4009 -1.9890 0.9836
2.4983 2.6328 -1.9879 0.9836
1.9890 3.0316 -1.9859 0.9836
1.7100 3.1956 -1.9851 0.9836
1.1146 3.4464 -1.9838 0.9836
0.8027 3.5313 -1.9835 0.9836
0.4845 3.5884 -1.9832 0.9836
-0.1605 3.6173 -1.9831 0.9836
-0.4825 3.5889 -1.9833 0.9836
-0.8007 3.5322 -1.9837 0.9836
-1.1127 3.4476 -1.9842 0.9836
-1.4161 3.3357 -1.9848 0.9836
-1.7085 3.1973 -1.9855 0.9836
-2.2514 2.8458 -1.9874 0.9836
-2.4976 2.6352 -1.9886 0.9836
-2.7243 2.4035 -1.9898 0.9836
-0.9036 0.5470 -0.5785 0.9952
-0.9473 0.4635 -0.5776 0.9952
-0.9852 0.2796 -0.5609 0.9953
-1.0105 0.1914 -0.5633 0.9953
-1.0273 0.0089 -0.5627 0.9953
-0.9753 -0.3543 -0.5683 0.9953
-0.9130 -0.5313 -0.5785 0.9952
-2.8000 -2.3855 -2.0147 0.9834
-2.5777 -2.6272 -2.0159 0.9834
-2.0723 -3.0465 -2.0180 0.9833
-1.7931 -3.2205 -2.0189 0.9833
-0.5547 -3.6478 -2.0209 0.9833
0.7554 -3.6109 -2.0205 0.9833
1.3840 -3.4175 -2.0194 0.9833
1.6826 -3.2792 -2.0187 0.9833
2.7170 -2.4788 -2.0144 0.9834
2.9252 -2.2252 -2.0130 0.9834
3.2692 -1.6678 -2.0101 0.9834
3.4022 -1.3686 -2.0085 0.9834
3.5078 -1.0590 -2.0069 0.9834
3.6341 -0.4184 -2.0035 0.9835
3.6538 -0.0926 -2.0019 0.9835
3.6061 0.5569 -1.9985 0.9835
2.8040 2.3092 -1.9895 0.9836
2.0894 2.9640 -1.9862 0.9836
1.8160 3.1372 -1.9854 0.9836
1.2291 3.4076 -1.9840 0.9836
0.9202 3.5028 -1.9836 0.9836
-0.0397 3.6206 -1.9831 0.9836
-0.3624 3.6028 -1.9832 0.9836
-1.3038 3.3807 -1.9845 0.9836
-1.6006 3.2521 -1.9852 0.9836
-1.8850 3.0977 -1.9861 0.9836
-2.6420 2.4925 -1.9893 0.9836
-2.8555 2.2484 -1.9906 0.9836
-0.8843 0.5765 -0.5781 0.9952
-0.9323 0.4954 -0.5783 0.9952
-0.9664 0.4076 -0.5744 0.9952
-0.9795 0.3136 -0.5633 0.9953
-1.0022 0.2247 -0.5626 0.9953
-1.0275 0.0432 -0.5633 0.9953
-1.0199 -0.1401 -0.5639 0.9953
-1.0008 -0.2299 -0.5624 0.9953
-0.9791 -0.3191 -0.5640 0.9953
-0.9298 -0.5004 -0.5783 0.9952
-0.8811 -0.5810 -0.5780 0.9952
-2.4278 -2.7681 -2.0166 0.9833
-1.8994 -3.1584 -2.0185 0.9833
-1.3091 -3.4479 -2.0200 0.9833
-0.9967 -3.5518 -2.0205 0.9833
-0.6761 -3.6271 -2.0208 0.9833
0.3079 -3.6770 -2.0209 0.9833
1.5724 -3.3341 -2.0190 0.9833
2.1377 -2.9991 -2.0172 0.9833
2.3952 -2.7950 -2.0161 0.9834
2.6333 -2.5688 -2.0148 0.9834
2.8500 -2.3222 -2.0135 0.9834
3.0436 -2.0574 -2.0121 0.9834
3.3556 -1.4819 -2.0091 0.9834
3.4716 -1.1758 -2.0075 0.9834
3.6192 -0.5396 -2.0042 0.9834
3.6514 0.1116 -2.0008 0.9835
3.6238 0.4364 -1.9991 0.9835
3.5675 0.7571 -1.9975 0.9835
3.4830 1.0713 -1.9958 0.9835
3.0683 1.9505 -1.9913 0.9836
2.8802 2.2148 -1.9900 0.9836
2.6696 2.4613 -1.9887 0.9836
2.4381 2.6880 -1.9876 0.9836
1.9200 3.0753 -1.9857 0.9836
1.6375 3.2330 -1.9849 0.9836
1.0366 3.4704 -1.9837 0.9836
0.0812 3.6198 -1.9831 0.9836
-0.5631 3.5773 -1.9834 0.9836
-0.8800 3.5135 -1.9838 0.9836
-1.4910 3.3033 -1.9850 0.9836
-2.0558 2.9885 -1.9867 0.9836
-2.3152 2.7947 -1.9877 0.9836
-2.5567 2.5787 -1.9889 0.9836
-0.8634 0.6049 -0.5774 0.9952
-0.9564 0.4416 -0.5770 0.9952
-0.9925 0.2577 -0.5616 0.9953
-1.0263 0.0775 -0.5637 0.9953
-1.0240 -0.1060 -0.5639 0.9953
-1.0093 -0.1967 -0.5632 0.9953
-0.9834 -0.2846 -0.5607 0.9953
-0.9718 -0.3781 -0.5711 0.9953
-0.9451 -0.4686 -0.5777 0.9952
-0.9007 -0.5517 -0.5785 0.9952
-2.9424 -2.1855 -2.0075 0.9834
-2.7461 -2.4483 -2.0150 0.9834
-2.5183 -2.6850 -2.0162 0.9834
-2.0034 -3.0927 -2.0182 0.9833
-1.7204 -3.2603 -2.0191 0.9833
-1.4233 -3.4019 -2.0197 0.9833
-0.7968 -3.6023 -2.0207 0.9833
-0.1443 -3.6872 -2.0210 0.9833
0.1850 -3.6853 -2.0210 0.9833
0.5128 -3.6537 -2.0208 0.9833
1.4604 -3.3852 -2.0193 0.9833
1.7558 -3.2402 -2.0185 0.9833
2.3011 -2.8740 -2.0165 0.9833
2.5467 -2.6558 -2.0153 0.9834
2.9740 -2.1584 -2.0127 0.9834
3.3052 -1.5935 -2.0097 0.9834
3.6003 -0.6603 -2.0048 0.9834
3.6542 -0.0103 -2.0014 0.9835
3.6375 0.3153 -1.9997 0.9835
3.5178 0.9548 -1.9964 0.9835
3.4160 1.2636 -1.9949 0.9835
2.9533 2.1180 -1.9905 0.9836
2.7509 2.3713 -1.9892 0.9836
2.5270 2.6056 -1.9880 0.9836
2.2833 2.8190 -1.9869 0.9836
2.0219 3.0100 -1.9860 0.9836
1.1520 3.4342 -1.9839 0.9836
0.8410 3.5225 -1.9835 0.9836
0.5235 3.5829 -1.9832 0.9836
