ply
format ascii 1.0
element vertex 1570
property float32 x
property float32 y
property float32 z
property float32 I
end_header
4.5947 -16.4846 0.2891 0.9338
2.5732 -15.7021 0.2688 0.9383
-1.7046 -13.4665 0.2293 0.9471
-0.5010 -13.7425 0.2323 0.9465
2.2568 -15.7284 0.2684 0.9384
3.7923 -16.0528 0.2786 0.9361
-4.4531 -18.5739 0.3226 0.9264
-2.0805 -14.1649 0.2418 0.9443
-0.7672 -13.5992 0.2301 0.9470
3.4122 -15.8483 0.2738 0.9372
5.3483 -17.1955 0.3042 0.9305
7.6094 -18.4584 0.3372 0.9232
-4.8167 -19.2562 -0.1118 0.9237
-0.3971 -5.9937 -0.0338 0.9763
1.8651 -16.4649 -0.0933 0.9359
3.2692 -15.9416 -0.0916 0.9370
10.1460 4.5428 -0.0626 0.9565
-3.1097 -17.5319 -0.1002 0.9313
2.9326 -15.9037 -0.0910 0.9374
4.5947 -16.4847 -0.0963 0.9338
-1.4101 -13.2533 -0.0750 0.9481
4.1861 -16.2649 -0.0946 0.9350
-3.9770 -18.1778 -0.1048 0.9283
2.2569 -15.7295 -0.0895 0.9384
3.7924 -16.0530 -0.0929 0.9361
2.0009 -16.2399 -0.0921 0.9366
7.6098 -18.4593 -0.1124 0.9232
-4.8166 -19.2558 -0.5589 0.9236
-2.7791 -17.7127 -0.5048 0.9308
-0.3971 -5.9930 -0.1691 0.9763
3.2692 -15.9414 -0.4582 0.9370
5.1296 -17.0809 -0.5022 0.9311
-1.1554 -13.3905 -0.3785 0.9476
2.9324 -15.9024 -0.4553 0.9373
4.5947 -16.4849 -0.4819 0.9338
-3.4329 -17.3379 -0.4977 0.9317
2.5728 -15.6995 -0.4480 0.9383
-3.9770 -18.1779 -0.5240 0.9282
-1.7046 -13.4662 -0.3822 0.9471
2.2571 -15.7304 -0.4475 0.9384
-2.0804 -14.1645 -0.4031 0.9443
-0.7672 -13.5994 -0.3835 0.9470
3.4123 -15.8485 -0.4565 0.9372
-4.6416 -18.5566 -0.9701 0.9262
1.8653 -16.4669 -0.8404 0.9358
10.1489 4.5441 -0.5639 0.9564
10.3694 4.3971 -0.5712 0.9559
-3.4330 -17.3388 -0.8964 0.9317
4.1862 -16.2651 -0.8518 0.9349
-3.9770 -18.1781 -0.9437 0.9282
-1.7046 -13.4660 -0.6884 0.9471
2.2572 -15.7315 -0.8060 0.9383
3.7924 -16.0532 -0.8365 0.9361
3.4123 -15.8487 -0.8222 0.9371
-2.3769 -15.1489 -1.1243 0.9404
-0.3970 -5.9916 -0.4403 0.9762
1.8548 -16.3743 -1.2083 0.9360
19.5273 1.2334 -1.4346 0.9245
10.1689 4.5531 -0.8169 0.9563
-1.1555 -13.3906 -0.9855 0.9475
0.0488 -14.3395 -1.0514 0.9441
2.9183 -15.8259 -1.1800 0.9375
4.3366 -15.5586 -1.1843 0.9373
10.3202 4.3762 -0.8219 0.9560
8.4150 5.5134 -0.7376 0.9605
-3.4217 -17.2814 -1.2917 0.9318
-1.4101 -13.2536 -0.9773 0.9479
-0.2345 -14.1943 -1.0409 0.9447
2.5607 -15.6260 -1.1610 0.9385
-3.9666 -18.1302 -1.3608 0.9283
-1.7046 -13.4658 -0.9952 0.9470
-0.5010 -13.7428 -1.0083 0.9463
19.8095 -1.7110 -1.4579 0.9234
10.1406 4.9072 -0.8260 0.9558
-4.4527 -18.5725 -1.4004 0.9263
-2.0804 -14.1641 -1.0497 0.9442
-0.7672 -13.5995 -0.9987 0.9468
3.4123 -15.8488 -1.1887 0.9370
5.3229 -17.1139 -1.3141 0.9306
-7.9072 -17.5152 -1.8450 0.9257
-4.6423 -18.5591 -1.8367 0.9260
-0.3969 -5.9909 -0.5764 0.9762
1.8549 -16.3752 -1.5822 0.9359
3.2691 -15.9411 -1.5623 0.9367
4.6712 -15.5544 -1.5592 0.9368
7.1681 -17.8831 -1.8497 0.9255
8.7401 -17.1765 -1.8502 0.9255
19.4021 -0.5123 -1.8633 0.9250
19.3725 1.2236 -1.8636 0.9250
10.1760 4.5563 -1.0704 0.9562
-9.7697 -16.5431 -1.8445 0.9257
-6.6719 -18.0256 -1.8453 0.9257
-3.0995 -17.4744 -1.7038 0.9312
-1.1555 -13.3907 -1.2904 0.9474
2.9181 -15.8246 -1.5449 0.9374
9.9152 -16.5316 -1.8507 0.9255
11.3562 -15.5843 -1.8513 0.9254
13.9572 -13.3220 -1.8524 0.9254
15.0960 -12.0250 -1.8529 0.9254
10.3437 4.3862 -1.0786 0.9559
-7.0293 -17.8882 -1.8452 0.9257
-5.4041 -18.4491 -1.8456 0.9257
-3.4218 -17.2822 -1.6914 0.9317
1.4029 -19.1944 -1.8477 0.9256
6.4492 -18.1519 -1.8494 0.9255
8.0479 -17.5085 -1.8500 0.9255
9.5833 -16.7246 -1.8506 0.9255
11.0428 -15.8063 -1.8511 0.9254
12.4148 -14.7609 -1.8517 0.9254
13.6882 -13.5965 -1.8523 0.9254
18.0690 2.0453 -1.7458 0.9295
15.8728 3.2538 -1.5556 0.9370
-8.9379 -17.0094 -1.8447 0.9257
-3.9654 -18.1251 -1.7813 0.9282
-0.5010 -13.7429 -1.3203 0.9462
1.0202 -19.2172 -1.8475 0.9256
3.7925 -16.0535 -1.5836 0.9359
7.6971 -17.6641 -1.8498 0.9255
9.2476 -16.9110 -1.8504 0.9255
10.7250 -16.0220 -1.8510 0.9254
12.1175 -15.0042 -1.8516 0.9254
14.6033 -12.6151 -1.8527 0.9254
19.4096 0.0644 -1.8634 0.9250
10.2351 4.9529 -1.0916 0.9553
-9.2745 -16.8272 -1.8446 0.9257
-6.1339 -18.2173 -1.8454 0.9257
-2.0803 -14.1639 -1.3744 0.9441
-0.7672 -13.5996 -1.3077 0.9467
0.6372 -19.2325 -1.8474 0.9256
3.4124 -15.8489 -1.5564 0.9369
5.3225 -17.1124 -1.7205 0.9305
8.9083 -17.0906 -1.8503 0.9255
10.4031 -16.2313 -1.8509 0.9255
11.8155 -15.2415 -1.8515 0.9254
-7.7901 14.9394 -2.0014 0.9344
-9.0915 14.1800 -2.0009 0.9344
-10.3197 13.3076 -2.0004 0.9344
-13.4700 10.0870 -1.9990 0.9345
-15.0442 7.5252 -1.9981 0.9345
-16.1377 4.7256 -1.9974 0.9345
-16.7165 1.7771 -1.9969 0.9345
-16.7625 -1.2265 -1.9965 0.9345
-16.2746 -4.1901 -1.9962 0.9345
-15.2686 -7.0198 -1.9962 0.9345
-12.8618 -10.8194 -1.9965 0.9345
-11.8446 -11.9264 -1.9966 0.9345
-10.7327 -12.9385 -1.9969 0.9345
-7.6326 -13.5328 -1.8456 0.9393
-3.7722 -15.0808 -1.8466 0.9393
-0.3969 -5.9902 -0.7131 0.9761
0.3364 -14.4228 -1.7137 0.9435
1.7513 -15.4607 -1.8483 0.9392
4.4776 -14.9096 -1.8492 0.9392
8.2778 -13.1982 -1.8506 0.9392
9.4264 -12.4089 -1.8511 0.9392
11.4901 -10.5379 -1.8520 0.9391
15.6558 -6.3313 -2.0060 0.9342
16.5381 -3.4446 -2.0066 0.9342
16.4734 -0.4350 -1.9575 0.9358
15.4973 2.3827 -1.8625 0.9388
11.3344 2.7981 -1.3868 0.9541
10.2181 4.5751 -1.3299 0.9559
10.2576 5.7438 -1.3965 0.9537
13.9490 9.5416 -2.0075 0.9342
13.0397 10.7491 -2.0074 0.9342
12.0261 11.8703 -2.0072 0.9342
10.9161 12.8960 -2.0070 0.9342
8.4440 14.6290 -2.0064 0.9342
7.1018 15.3225 -2.0061 0.9342
2.7822 16.6474 -2.0049 0.9343
-0.2254 16.8691 -2.0040 0.9343
-6.1144 15.7055 -2.0020 0.9344
-8.8078 14.3591 -2.0010 0.9344
-10.0531 13.5112 -2.0005 0.9344
-11.2175 12.5558 -2.0000 0.9344
-12.2916 11.5005 -1.9995 0.9344
-14.8919 7.8237 -1.9982 0.9345
-16.6782 2.1098 -1.9969 0.9345
-16.7981 0.6110 -1.9967 0.9345
-16.3550 -3.8651 -1.9963 0.9345
-15.9438 -5.3109 -1.9962 0.9345
-15.4053 -6.7143 -1.9962 0.9345
-14.7440 -8.0641 -1.9962 0.9345
-13.0745 -10.5608 -1.9964 0.9345
-12.0796 -11.6879 -1.9966 0.9345
-10.9880 -12.7218 -1.9968 0.9345
-9.8085 -13.6545 -1.9971 0.9345
-7.9196 -13.4104 -1.8500 0.9392
-6.6744 -14.0324 -1.8458 0.9393
-4.0717 -15.0020 -1.8465 0.9393
-2.7154 -15.3090 -1.8469 0.9393
0.0485 -14.2739 -1.6956 0.9441
1.4429 -15.4917 -1.8482 0.9393
5.5040 -14.5652 -1.8496 0.9392
16.0601 -5.2286 -2.0063 0.9342
15.4345 0.6665 -1.8351 0.9397
15.5415 2.0735 -1.8625 0.9388
15.2948 3.4541 -1.8626 0.9388
13.7130 4.4166 -1.7113 0.9436
10.3553 4.3911 -1.3361 0.9557
10.5000 5.6078 -1.4140 0.9532
8.3102 5.4447 -1.1801 0.9608
12.2603 11.6286 -2.0072 0.9342
11.1711 12.6763 -2.0070 0.9342
9.9925 13.6221 -2.0068 0.9342
3.1133 16.5895 -2.0050 0.9343
1.6181 16.7976 -2.0046 0.9343
-1.3970 16.8095 -2.0036 0.9343
-5.8007 15.8251 -2.0021 0.9344
-7.1897 15.2396 -2.0016 0.9344
-13.0589 10.6166 -1.9992 0.9345
-13.9522 9.4051 -1.9987 0.9345
-14.7338 8.1191 -1.9983 0.9345
-15.3974 6.7688 -1.9979 0.9345
-15.9379 5.3649 -1.9976 0.9345
-16.6333 2.4417 -1.9970 0.9345
-16.7830 0.9455 -1.9967 0.9345
-16.7987 -0.5579 -1.9965 0.9345
-16.6803 -2.0566 -1.9964 0.9345
-16.4289 -3.5386 -1.9963 0.9345
-13.2820 -10.2982 -1.9964 0.9345
-12.3097 -11.4447 -1.9966 0.9345
-11.2389 -12.5001 -1.9968 0.9345
-10.0782 -13.4560 -1.9970 0.9345
-8.8184 -14.2750 -1.9931 0.9346
-4.3695 -14.9172 -1.8464 0.9393
-3.0197 -15.2511 -1.8468 0.9393
7.7447 -13.5159 -1.8504 0.9392
12.0003 -9.9561 -1.8522 0.9391
14.7046 -8.2950 -2.0055 0.9343
15.9522 -5.5473 -2.0062 0.9342
16.6899 -2.6200 -2.0068 0.9342
16.8593 -1.1183 -2.0070 0.9342
15.5794 1.7635 -1.8624 0.9388
15.6885 6.2869 -2.0076 0.9342
15.0638 7.6635 -2.0076 0.9342
13.4580 10.2215 -2.0074 0.9342
12.4898 11.3824 -2.0073 0.9342
10.2621 13.4208 -2.0068 0.9342
9.0205 14.2821 -2.0066 0.9342
7.7071 15.0286 -2.0062 0.9342
6.3322 15.6544 -2.0059 0.9342
3.4433 16.5250 -2.0051 0.9343
0.4467 16.8665 -2.0042 0.9343
-1.0620 16.8349 -2.0037 0.9343
-4.0395 16.3689 -2.0027 0.9343
-6.8851 15.3806 -2.0017 0.9344
-8.2298 14.7001 -2.0012 0.9344
-9.5081 13.9024 -2.0007 0.9344
-10.7097 12.9940 -2.0002 0.9344
-11.8250 11.9822 -1.9997 0.9344
-13.7628 9.6816 -1.9988 0.9345
-15.2601 7.0744 -1.9980 0.9345
-16.5819 2.7726 -1.9970 0.9345
-16.7612 1.2796 -1.9968 0.9345
-15.6605 -6.0954 -1.9962 0.9345
-15.0533 -7.4704 -1.9962 0.9345
-14.3260 -8.7859 -1.9963 0.9345
-13.4843 -10.0314 -1.9964 0.9345
-10.3440 -13.2522 -1.9969 0.9345
-4.6655 -14.8266 -1.8463 0.9393
-1.7045 -13.4654 -1.6123 0.9468
-0.5010 -13.7430 -1.6336 0.9461
3.5785 -15.1478 -1.8489 0.9392
4.9190 -14.7712 -1.8493 0.9392
7.4735 -13.6667 -1.8503 0.9392
9.7917 -12.1243 -1.8512 0.9392
10.8385 -11.2035 -1.8517 0.9391
13.7076 -9.8483 -2.0049 0.9343
15.8379 -5.8637 -2.0061 0.9342
16.3012 -4.4257 -2.0064 0.9342
16.6339 -2.9518 -2.0067 0.9342
13.9733 1.3004 -1.6670 0.9450
15.4199 2.8421 -1.8625 0.9388
10.2789 4.9741 -1.3564 0.9550
14.4944 8.6918 -2.0076 0.9342
13.6591 9.9516 -2.0075 0.9342
12.7143 11.1315 -2.0073 0.9342
11.6676 12.2219 -2.0071 0.9342
10.5277 13.2141 -2.0069 0.9342
9.3035 14.1000 -2.0066 0.9342
5.2282 16.0543 -2.0056 0.9342
3.7719 16.4539 -2.0052 0.9343
2.2861 16.7215 -2.0048 0.9343
0.7826 16.8551 -2.0043 0.9343
-0.7265 16.8536 -2.0038 0.9343
-2.2290 16.7172 -2.0033 0.9343
-3.7129 16.4470 -2.0028 0.9343
-9.2298 14.0898 -2.0008 0.9344
-10.4493 13.2055 -2.0003 0.9344
-11.5847 12.2160 -1.9998 0.9344
-13.5679 9.9543 -1.9989 0.9345
-14.4000 8.7003 -1.9985 0.9345
-15.7127 5.9959 -1.9977 0.9345
-16.1830 4.5672 -1.9974 0.9345
-16.5239 3.1024 -1.9971 0.9345
-16.8082 0.1116 -1.9966 0.9345
-16.7495 -1.3906 -1.9965 0.9345
-13.6813 -9.7607 -1.9963 0.9345
-12.7552 -10.9449 -1.9965 0.9345
-11.7273 -12.0420 -1.9967 0.9345
-9.3989 -13.9405 -1.9972 0.9345
-4.9597 -14.7301 -1.8462 0.9393
-0.7672 -13.5997 -1.6180 0.9466
0.5151 -15.5477 -1.8479 0.9393
1.9028 -15.4432 -1.8483 0.9392
3.2759 -15.2152 -1.8488 0.9392
5.9349 -14.3965 -1.8497 0.9392
-5.3870 13.0614 -2.0019 0.9445
-6.5311 12.5251 -2.0015 0.9445
-7.6226 11.8889 -2.0010 0.9445
-9.6131 10.3380 -2.0002 0.9446
-10.4963 9.4358 -1.9998 0.9446
-12.0038 7.4141 -1.9991 0.9446
-12.6162 6.3107 -1.9987 0.9446
-13.5340 3.9631 -1.9982 0.9446
-13.8323 2.7376 -1.9979 0.9446
-14.0200 1.4905 -1.9977 0.9446
-13.9101 -2.2807 -1.9972 0.9446
-12.2293 -7.0087 -1.9972 0.9446
-10.7875 -9.0744 -1.9973 0.9446
-5.3623 -11.8776 -1.8465 0.9487
-4.2800 -12.3112 -1.8468 0.9487
-2.0210 -12.8809 -1.8474 0.9487
0.3041 -13.0399 -1.8481 0.9487
1.4684 -12.9632 -1.8485 0.9487
2.6214 -12.7828 -1.8489 0.9486
3.7539 -12.5001 -1.8493 0.9486
4.8569 -12.1172 -1.8497 0.9486
6.9392 -11.0639 -1.8505 0.9486
8.8013 -9.6561 -1.8512 0.9486
11.2380 -8.5916 -2.0043 0.9445
11.9629 -7.5544 -2.0047 0.9444
12.5922 -6.4563 -2.0050 0.9444
13.1208 -5.3061 -2.0053 0.9444
13.5443 -4.1131 -2.0056 0.9444
13.8595 -2.8867 -2.0059 0.9444
14.0635 -1.6369 -2.0061 0.9444
14.1549 -0.3737 -2.0063 0.9444
13.9944 0.8839 -1.9868 0.9449
12.9864 1.9966 -1.8617 0.9483
12.7565 3.1492 -1.8617 0.9483
10.8120 3.7215 -1.6202 0.9549
9.6929 4.3400 -1.5048 0.9580
10.2575 5.7437 -1.6657 0.9536
11.6889 7.9956 -2.0066 0.9444
8.1447 11.5799 -2.0059 0.9444
7.0765 12.2598 -2.0057 0.9444
4.7799 13.3198 -2.0051 0.9444
2.3319 13.9531 -2.0044 0.9445
1.0755 14.1030 -2.0040 0.9445
-1.4514 14.0636 -2.0032 0.9445
-2.7016 13.8748 -2.0028 0.9445
-5.1260 13.1667 -2.0020 0.9445
-7.3846 12.0389 -2.0011 0.9445
-8.4291 11.3285 -2.0007 0.9446
-10.3067 9.6434 -1.9999 0.9446
-11.8542 7.6520 -1.9992 0.9446
-13.4528 4.2320 -1.9982 0.9446
-13.7754 3.0126 -1.9980 0.9446
-14.0887 0.5125 -1.9975 0.9446
-14.0770 -0.7485 -1.9974 0.9446
-13.3727 -4.4545 -1.9971 0.9446
-12.9211 -5.6316 -1.9971 0.9446
-11.7129 -7.8419 -1.9972 0.9446
-10.1313 -9.8028 -1.9975 0.9446
-5.5974 -11.7682 -1.8464 0.9487
-3.4145 -12.5805 -1.8470 0.9487
-2.2771 -12.8375 -1.8473 0.9487
0.0444 -13.0428 -1.8480 0.9487
1.2099 -12.9893 -1.8484 0.9487
3.5041 -12.5718 -1.8492 0.9486
4.6144 -12.2110 -1.8496 0.9486
9.4526 -9.0224 -1.8515 0.9486
11.0641 -8.8133 -2.0042 0.9445
11.8096 -7.7908 -2.0046 0.9444
13.0120 -5.5662 -2.0053 0.9444
13.4593 -4.3819 -2.0056 0.9444
13.0234 1.7375 -1.8616 0.9483
10.3405 3.3304 -1.5393 0.9571
10.0788 5.3829 -1.6190 0.9549
10.2741 9.7447 -2.0064 0.9444
8.3739 11.4157 -2.0060 0.9444
7.3195 12.1168 -2.0058 0.9444
6.2066 12.7207 -2.0055 0.9444
5.0444 13.2224 -2.0052 0.9444
3.8421 13.6180 -2.0049 0.9444
2.6094 13.9044 -2.0045 0.9444
-1.1710 14.0904 -2.0033 0.9445
-2.4249 13.9265 -2.0029 0.9445
-4.8629 13.2668 -2.0021 0.9445
-8.2021 11.4947 -2.0008 0.9445
-10.9504 8.9024 -1.9996 0.9446
-12.3557 6.8087 -1.9989 0.9446
-12.9126 5.6765 -1.9986 0.9446
-13.3663 4.4993 -1.9983 0.9446
-13.9502 2.0478 -1.9978 0.9446
-14.0893 -0.4679 -1.9974 0.9446
-13.7795 -2.9680 -1.9972 0.9446
-12.4986 -6.5160 -1.9971 0.9446
-11.1400 -8.6374 -1.9973 0.9446
-10.3243 -9.5989 -1.9974 0.9446
-9.4261 -10.4839 -1.9976 0.9446
-8.4525 -11.2854 -1.9978 0.9446
-4.7666 -12.1301 -1.8466 0.9487
-2.5322 -12.7891 -1.8473 0.9487
-1.3795 -12.9666 -1.8476 0.9487
-0.2155 -13.0405 -1.8480 0.9487
0.9509 -13.0102 -1.8483 0.9487
2.1100 -12.8759 -1.8487 0.9487
3.2528 -12.6385 -1.8491 0.9486
5.4528 -11.8627 -1.8499 0.9486
8.4090 -9.9981 -1.8511 0.9486
9.2706 -9.2085 -1.8514 0.9486
12.3241 -6.9522 -2.0049 0.9444
12.8981 -5.8241 -2.0052 0.9444
14.1282 -0.9372 -2.0062 0.9444
13.0553 1.4778 -1.8616 0.9483
12.8717 2.6386 -1.8617 0.9483
12.5848 3.7783 -1.8618 0.9483
10.1709 4.0758 -1.5525 0.9567
8.4293 5.2858 -1.4097 0.9606
11.2774 8.5653 -2.0065 0.9444
10.4663 9.5383 -2.0064 0.9444
8.5998 11.2469 -2.0060 0.9444
4.1127 13.5393 -2.0049 0.9444
1.6365 14.0501 -2.0042 0.9445
-0.8902 14.1115 -2.0034 0.9445
-2.1471 13.9727 -2.0030 0.9445
-3.3863 13.7220 -2.0026 0.9445
-4.5979 13.3617 -2.0022 0.9445
-5.7723 12.8946 -2.0017 0.9445
-8.9797 10.8951 -2.0005 0.9446
-9.9153 10.0471 -2.0001 0.9446
-10.7714 9.1191 -1.9997 0.9446
-13.2744 4.7648 -1.9983 0.9446
-13.6452 3.5591 -1.9981 0.9446
-13.9070 2.3253 -1.9978 0.9446
-14.0576 1.0732 -1.9976 0.9446
-14.0220 -1.4459 -1.9973 0.9446
-13.8360 -2.6929 -1.9972 0.9446
-13.1351 -5.1125 -1.9971 0.9446
-12.0157 -7.3691 -1.9972 0.9446
-9.6329 -10.2939 -1.9975 0.9446
-8.6754 -11.1145 -1.9977 0.9446
-5.0071 -12.0323 -1.8466 0.9487
-1.6375 -12.9360 -1.8475 0.9487
4.1240 -12.3839 -1.8494 0.9486
6.2651 -11.4570 -1.8502 0.9486
7.2653 -10.8536 -1.8506 0.9486
8.2078 -10.1631 -1.8510 0.9486
13.9397 -2.4737 -2.0060 0.9444
13.3565 1.2430 -1.9006 0.9472
9.6136 3.6320 -1.4561 0.9593
9.6786 4.6836 -1.5235 0.9575
12.1459 7.2834 -2.0066 0.9444
7.7967 11.8163 -2.0059 0.9444
6.7088 12.4641 -2.0056 0.9444
4.3817 13.4552 -2.0050 0.9444
3.1614 13.7906 -2.0047 0.9444
1.9161 14.0153 -2.0043 0.9445
-0.6089 14.1271 -2.0035 0.9445
-1.8685 14.0133 -2.0031 0.9445
-4.3311 13.4513 -2.0023 0.9445
-5.5146 13.0077 -2.0018 0.9445
-6.6534 12.4602 -2.0014 0.9445
-7.7385 11.8133 -2.0010 0.9445
-8.7613 11.0723 -2.0006 0.9446
-10.5880 9.3323 -1.9998 0.9446
-11.3774 8.3473 -1.9994 0.9446
-13.8583 2.6019 -1.9979 0.9446
-13.8871 -2.4169 -1.9972 0.9446
-11.4749 -8.1866 -1.9972 0.9446
-10.6981 -9.1798 -1.9974 0.9446
-9.8358 -10.0998 -1.9975 0.9446
-8.8948 -10.9393 -1.9977 0.9446
-7.8826 -11.6916 -1.9979 0.9446
-5.2455 -11.9299 -1.8465 0.9487
-3.0393 -12.6771 -1.8471 0.9487
0.4319 -13.0366 -1.8482 0.9487
3.8764 -12.4630 -1.8493 0.9486
4.9755 -12.0693 -1.8497 0.9486
-4.6332 11.2339 -2.0019 0.9519
-5.6175 10.7729 -2.0015 0.9519
-7.4426 9.5975 -2.0008 0.9520
-8.2690 8.8925 -2.0004 0.9520
-9.7166 7.2763 -1.9998 0.9520
-10.8534 5.4289 -1.9992 0.9520
-11.2935 4.4368 -1.9989 0.9520
-11.6434 3.4095 -1.9987 0.9520
-11.9002 2.3552 -1.9985 0.9520
-12.0619 1.2823 -1.9983 0.9520
-12.0958 -0.8850 -1.9980 0.9520
-11.9678 -1.9622 -1.9979 0.9520
-11.0182 -5.0657 -1.9978 0.9520
-9.9411 -6.9464 -1.9979 0.9520
-9.2811 -7.8072 -1.9980 0.9520
-7.7443 -9.3359 -1.9983 0.9520
-5.5069 -9.7640 -1.8467 0.9556
-3.6820 -10.5910 -1.8472 0.9556
-2.7213 -10.8792 -1.8474 0.9556
0.2616 -11.2167 -1.8483 0.9555
1.2631 -11.1504 -1.8487 0.9555
3.2288 -10.7514 -1.8493 0.9555
9.6639 -7.3882 -2.0040 0.9519
10.8279 -5.5517 -2.0046 0.9519
11.6462 -3.5366 -2.0051 0.9519
12.0922 -1.4075 -2.0055 0.9518
12.1706 -0.3214 -2.0057 0.9518
9.6336 4.3134 -1.7388 0.9581
7.0031 9.9569 -2.0054 0.9518
5.1178 11.0419 -2.0049 0.9519
4.1101 11.4535 -2.0047 0.9519
3.0698 11.7733 -2.0044 0.9519
2.0052 11.9987 -2.0041 0.9519
-1.2482 12.0947 -2.0031 0.9519
-2.3235 11.9327 -2.0027 0.9519
-3.3798 11.6752 -2.0023 0.9519
-4.4087 11.3244 -2.0020 0.9519
-5.4020 10.8831 -2.0016 0.9519
-6.3517 10.3550 -2.0012 0.9519
-7.2503 9.7443 -2.0009 0.9520
-8.8659 8.2953 -2.0002 0.9520
-10.1976 6.5826 -1.9995 0.9520
-11.2033 4.6610 -1.9990 0.9520
-12.0342 1.5223 -1.9983 0.9520
-12.1211 0.4409 -1.9981 0.9520
-11.5054 -3.8325 -1.9978 0.9520
-11.1169 -4.8452 -1.9978 0.9520
-9.4346 -7.6208 -1.9980 0.9520
-8.7164 -8.4338 -1.9981 0.9520
-7.9286 -9.1796 -1.9982 0.9520
-7.0772 -9.8523 -1.9984 0.9520
-5.7002 -9.6521 -1.8467 0.9556
-4.8155 -10.1241 -1.8469 0.9556
-3.8921 -10.5152 -1.8471 0.9556
-1.9588 -11.0433 -1.8477 0.9556
-0.9643 -11.1759 -1.8480 0.9555
0.0381 -11.2193 -1.8483 0.9555
1.0407 -11.1729 -1.8486 0.9555
7.4018 -8.4529 -1.8509 0.9555
9.5145 -7.5790 -2.0039 0.9519
10.1553 -6.6995 -2.0042 0.9519
11.5732 -3.7678 -2.0050 0.9519
11.8649 -2.7189 -2.0053 0.9519
12.0616 -1.6480 -2.0055 0.9518
9.9608 5.3198 -1.8603 0.9553
7.2002 9.8156 -2.0054 0.9518
6.2937 10.4186 -2.0052 0.9519
5.3369 10.9381 -2.0050 0.9519
4.3376 11.3697 -2.0047 0.9519
3.3038 11.7102 -2.0044 0.9519
1.1663 12.1075 -2.0038 0.9519
0.0798 12.1613 -2.0035 0.9519
-1.0071 12.1177 -2.0031 0.9519
-7.0550 9.8871 -2.0009 0.9520
-7.9089 9.2156 -2.0006 0.9520
-8.6992 8.4705 -2.0002 0.9520
-11.4990 3.8707 -1.9988 0.9520
-11.7975 2.8274 -1.9986 0.9520
-12.0018 1.7618 -1.9983 0.9520
-12.1218 -0.4026 -1.9980 0.9520
-12.0366 -1.4840 -1.9979 0.9520
-11.8554 -2.5536 -1.9978 0.9520
-10.7534 -5.6062 -1.9978 0.9520
-10.2097 -6.5448 -1.9978 0.9520
-9.5844 -7.4312 -1.9979 0.9520
-8.8826 -8.2584 -1.9980 0.9520
-8.1097 -9.0197 -1.9982 0.9520
-7.2719 -9.7091 -1.9984 0.9520
-5.8912 -9.5364 -1.8466 0.9556
-5.0160 -10.0259 -1.8468 0.9556
-2.1783 -11.0017 -1.8476 0.9556
-1.1867 -11.1541 -1.8479 0.9555
-0.1853 -11.2174 -1.8482 0.9555
0.8179 -11.1910 -1.8485 0.9555
1.8149 -11.0751 -1.8488 0.9555
3.7587 -10.5791 -1.8495 0.9555
4.6898 -10.2028 -1.8499 0.9555
5.5837 -9.7447 -1.8502 0.9555
6.4333 -9.2084 -1.8505 0.9555
10.5976 -5.9782 -2.0045 0.9519
11.4955 -3.9975 -2.0050 0.9519
11.8081 -2.9546 -2.0052 0.9519
12.0261 -1.8879 -2.0054 0.9518
12.0988 1.3695 -2.0059 0.9518
10.0836 4.0409 -1.7896 0.9569
8.9991 8.2011 -2.0058 0.9518
6.5001 10.2915 -2.0053 0.9519
3.5365 11.6424 -2.0045 0.9519
2.4817 11.9101 -2.0042 0.9519
1.4073 12.0823 -2.0039 0.9519
-1.8465 12.0167 -2.0029 0.9519
-2.9124 11.8015 -2.0025 0.9519
-3.9546 11.4919 -2.0021 0.9519
-5.9347 10.6006 -2.0014 0.9519
-7.7241 9.3716 -2.0007 0.9520
-9.9280 6.9840 -1.9997 0.9520
-10.5108 6.0680 -1.9994 0.9520
-11.7391 3.0619 -1.9986 0.9520
-12.0944 0.9233 -1.9982 0.9520
-11.6490 -3.3712 -1.9978 0.9520
-9.7304 -7.2388 -1.9979 0.9520
-9.0452 -8.0797 -1.9980 0.9520
-8.2876 -8.8563 -1.9982 0.9520
-6.5649 -10.1685 -1.9939 0.9521
-5.2146 -9.9237 -1.8468 0.9556
-4.3075 -10.3512 -1.8470 0.9556
-3.3658 -10.6962 -1.8473 0.9556
-1.4086 -11.1279 -1.8478 0.9555
0.5948 -11.2046 -1.8484 0.9555
1.5939 -11.1086 -1.8488 0.9555
3.5471 -10.6514 -1.8494 0.9555
5.3883 -9.8536 -1.8501 0.9555
7.8128 -8.0760 -1.8511 0.9555
9.8797 -7.0982 -2.0041 0.9519
10.4760 -6.1879 -2.0044 0.9519
10.9886 -5.2278 -2.0047 0.9519
11.4133 -4.2255 -2.0049 0.9519
11.7466 -3.1892 -2.0052 0.9519
11.9858 -2.1270 -2.0054 0.9518
12.1291 -1.0476 -2.0056 0.9518
12.1235 1.1282 -2.0058 0.9518
10.8828 3.0324 -1.8611 0.9552
8.5870 5.1493 -1.6495 0.9602
9.1305 6.6523 -1.8610 0.9552
7.5857 9.5214 -2.0055 0.9518
6.7039 10.1602 -2.0053 0.9519
5.7686 10.7174 -2.0051 0.9519
4.7873 11.1886 -2.0048 0.9519
1.6477 12.0523 -2.0040 0.9519
0.5641 12.1494 -2.0036 0.9519
-1.6069 12.0516 -2.0029 0.9519
-4.7430 11.1877 -2.0018 0.9519
-5.7227 10.7172 -2.0015 0.9519
-8.3556 8.8109 -2.0004 0.9520
-9.1079 8.0277 -2.0001 0.9520
-10.9059 5.3223 -1.9992 0.9520
-11.6761 3.2952 -1.9986 0.9520
-12.0738 1.1641 -1.9983 0.9520
-12.1286 0.0805 -1.9981 0.9520
-12.0865 -1.0035 -1.9980 0.9520
-11.7139 -3.1386 -1.9978 0.9520
-10.4621 -6.1329 -1.9978 0.9520
-9.8726 -7.0435 -1.9979 0.9520
-9.2042 -7.8979 -1.9980 0.9520
-8.4622 -8.6893 -1.9981 0.9520
-7.6525 -9.4114 -1.9983 0.9520
-4.5127 -10.2631 -1.8470 0.9556
-2.6146 -10.9055 -1.8475 0.9556
3.3341 -10.7195 -1.8494 0.9555
6.8830 -8.8788 -1.8507 0.9555
-4.0608 9.8460 -2.0019 0.9576
-5.7467 8.9631 -2.0012 0.9576
-7.2481 7.7946 -2.0006 0.9576
-7.9144 7.1147 -2.0003 0.9576
-8.5173 6.3782 -2.0000 0.9576
-9.9001 3.8894 -1.9993 0.9576
-10.4322 2.0647 -1.9989 0.9576
-10.2958 -2.6508 -1.9983 0.9577
-2.3854 -9.5365 -1.8477 0.9608
-1.5239 -9.7129 -1.8480 0.9608
1.1071 -9.7735 -1.8488 0.9608
1.9763 -9.6370 -1.8491 0.9608
4.4635 -8.7720 -1.8500 0.9607
7.8538 -7.2030 -2.0030 0.9576
8.4689 -6.4746 -2.0037 0.9575
9.4886 -4.8650 -2.0043 0.9575
9.8865 -3.9982 -2.0045 0.9575
10.2054 -3.0991 -2.0047 0.9575
10.5959 -1.2333 -2.0051 0.9575
10.6476 0.6725 -2.0053 0.9575
10.5454 1.6213 -2.0054 0.9575
9.5401 3.2837 -1.8964 0.9598
9.0350 4.0454 -1.8607 0.9605
8.6372 4.8364 -1.8606 0.9605
8.2325 6.7863 -2.0054 0.9575
7.5927 7.4944 -2.0052 0.9575
5.3319 9.2374 -2.0048 0.9575
4.4847 9.6759 -2.0045 0.9575
2.6902 10.3172 -2.0041 0.9575
1.7573 10.5149 -2.0038 0.9575
-2.0363 10.4579 -2.0026 0.9576
-4.7347 9.5388 -2.0016 0.9576
-6.3550 8.5409 -2.0010 0.9576
-7.0916 7.9377 -2.0007 0.9576
-7.7714 7.2712 -2.0004 0.9576
-9.8209 4.0859 -1.9993 0.9576
-10.6261 0.3865 -1.9986 0.9576
-10.6175 -0.5645 -1.9985 0.9576
-10.0866 -3.3599 -1.9983 0.9577
-9.3275 -5.1016 -1.9983 0.9577
-7.6414 -7.3936 -1.9985 0.9576
-6.9506 -8.0474 -1.9987 0.9576
-6.2042 -8.6369 -1.9988 0.9576
-4.9970 -8.4614 -1.8470 0.9608
-4.2213 -8.8749 -1.8472 0.9608
-3.4118 -9.2177 -1.8474 0.9608
-2.5748 -9.4869 -1.8477 0.9608
0.0334 -9.8341 -1.8484 0.9608
1.7839 -9.6741 -1.8490 0.9608
2.6416 -9.4775 -1.8493 0.9607
3.4785 -9.2051 -1.8496 0.9607
5.0631 -8.4416 -1.8502 0.9607
5.7980 -7.9567 -1.8505 0.9607
6.4868 -7.4079 -1.8508 0.9607
8.3380 -6.6418 -2.0037 0.9575
8.8994 -5.8710 -2.0039 0.9575
10.5691 -1.4441 -2.0050 0.9575
9.7781 3.1493 -1.9309 0.9591
8.1570 5.3443 -1.8330 0.9611
7.7406 7.3418 -2.0053 0.9575
7.0531 8.0035 -2.0051 0.9575
4.6767 9.5849 -2.0046 0.9575
3.8010 9.9633 -2.0044 0.9575
2.8952 10.2618 -2.0041 0.9575
1.0221 10.6104 -2.0036 0.9575
-0.8826 10.6198 -2.0030 0.9576
-1.8277 10.4968 -2.0027 0.9576
-2.7579 10.2898 -2.0023 0.9576
-4.5440 9.6315 -2.0017 0.9576
-8.8226 5.9473 -1.9999 0.9576
-9.3175 5.1345 -1.9996 0.9576
-9.7378 4.2808 -1.9994 0.9576
-10.0803 3.3932 -1.9992 0.9576
-10.5213 1.5445 -1.9988 0.9576
-10.5522 -1.3010 -1.9984 0.9576
-9.8286 -4.0527 -1.9983 0.9577
-8.9506 -5.7376 -1.9983 0.9577
-7.7870 -7.2398 -1.9985 0.9576
-7.1094 -7.9072 -1.9986 0.9576
-5.1644 -8.3600 -1.8470 0.9608
-3.5946 -9.1477 -1.8474 0.9608
-2.7632 -9.4334 -1.8476 0.9608
-1.9095 -9.6439 -1.8479 0.9608
-1.0402 -9.7773 -1.8481 0.9608
0.7169 -9.8092 -1.8487 0.9608
2.4522 -9.5280 -1.8492 0.9607
4.8937 -8.5405 -1.8501 0.9607
6.3378 -7.5354 -1.8507 0.9607
8.2038 -6.8063 -2.0036 0.9575
9.7190 -4.3885 -2.0044 0.9575
10.0734 -3.5029 -2.0046 0.9575
10.3471 -2.5891 -2.0048 0.9575
10.5380 -1.6543 -2.0050 0.9575
10.6445 -0.7061 -2.0051 0.9575
10.6657 0.2479 -2.0053 0.9575
10.6014 1.2000 -2.0054 0.9575
10.0248 3.0097 -1.9674 0.9583
9.1889 3.6823 -1.8607 0.9605
8.8231 4.4886 -1.8607 0.9605
8.3459 5.2335 -1.8516 0.9607
7.8854 7.1862 -2.0053 0.9575
7.2113 7.8616 -2.0052 0.9575
6.4795 8.4739 -2.0050 0.9575
4.8668 9.4901 -2.0046 0.9575
2.1748 10.4372 -2.0039 0.9575
1.2333 10.5883 -2.0036 0.9575
0.2822 10.6546 -2.0034 0.9575
-0.6709 10.6356 -2.0030 0.9576
-1.6183 10.5315 -2.0027 0.9576
-3.4659 10.0720 -2.0021 0.9576
-5.2017 9.2913 -2.0015 0.9576
-6.0102 8.7879 -2.0011 0.9576
-7.4761 7.5754 -2.0005 0.9576
-8.7026 6.1220 -1.9999 0.9576
-10.0109 3.5934 -1.9992 0.9576
-10.2909 2.6842 -1.9990 0.9576
-10.6026 0.8094 -1.9987 0.9576
-10.6318 -0.1412 -1.9985 0.9576
-10.5761 -1.0906 -1.9984 0.9576
-10.4359 -2.0312 -1.9984 0.9577
-9.9074 -3.8562 -1.9983 0.9577
-9.0630 -5.5582 -1.9983 0.9577
-8.5304 -6.3460 -1.9984 0.9577
-7.9296 -7.0832 -1.9985 0.9576
-6.5430 -8.3827 -1.9988 0.9576
-5.7503 -8.9067 -1.9927 0.9578
-4.5712 -8.6994 -1.8471 0.9608
-3.7760 -9.0740 -1.8473 0.9608
-2.1011 -9.6036 -1.8478 0.9608
-0.3582 -9.8270 -1.8483 0.9608
1.3971 -9.7368 -1.8489 0.9608
4.7225 -8.6360 -1.8501 0.9607
5.4761 -8.1807 -1.8504 0.9607
6.1862 -7.6599 -1.8507 0.9607
7.0291 -7.2659 -1.9002 0.9597
8.0663 -6.9682 -2.0035 0.9575
9.6294 -4.5811 -2.0043 0.9575
10.0014 -3.7028 -2.0046 0.9575
10.5028 -1.8638 -2.0050 0.9575
10.4927 1.9340 -2.0054 0.9575
10.2782 2.8639 -2.0055 0.9575
8.4896 5.0909 -1.8606 0.9605
8.0131 5.8381 -1.8635 0.9605
8.0271 7.0278 -2.0053 0.9575
5.0549 9.3915 -2.0047 0.9575
4.1951 9.8045 -2.0045 0.9575
3.3018 10.1390 -2.0042 0.9575
2.3823 10.3921 -2.0040 0.9575
-0.4589 10.6472 -2.0031 0.9576
-1.4083 10.5620 -2.0028 0.9576
-3.2647 10.1394 -2.0022 0.9576
-4.1570 9.8056 -2.0018 0.9576
-5.0158 9.3934 -2.0015 0.9576
-7.3240 7.7231 -2.0006 0.9576
-8.5792 6.2943 -2.0000 0.9576
-9.1061 5.5018 -1.9997 0.9576
-9.5601 4.6655 -1.9995 0.9576
-9.9376 3.7921 -1.9993 0.9576
-10.4518 1.9623 -1.9989 0.9576
-9.9823 -3.6581 -1.9983 0.9577
-9.1719 -5.3766 -1.9983 0.9577
-7.4185 -7.6175 -1.9986 0.9576
-6.7086 -8.2505 -1.9987 0.9576
-3.9559 -8.9968 -1.8473 0.9608
-2.2919 -9.5596 -1.8477 0.9608
-1.4287 -9.7275 -1.8480 0.9608
0.3256 -9.8293 -1.8485 0.9608
2.0707 -9.6174 -1.8491 0.9608
2.9222 -9.3954 -1.8494 0.9607
3.7507 -9.0981 -1.8497 0.9607
4.5494 -8.7280 -1.8500 0.9607
6.0322 -7.7813 -1.8506 0.9607
-3.6109 8.7551 -2.0019 0.9620
-4.3782 8.3963 -2.0016 0.9620
-5.1102 7.9703 -2.0013 0.9620
-6.4455 6.9315 -2.0008 0.9620
-7.0382 6.3270 -2.0005 0.9620
-7.5744 5.6721 -2.0002 0.9621
-8.4611 4.2323 -1.9998 0.9621
-8.8045 3.4590 -1.9996 0.9621
-9.4042 0.9998 -1.9991 0.9621
-9.4554 0.1554 -1.9989 0.9621
-9.1569 -2.3576 -1.9987 0.9621
-8.9095 -3.1663 -1.9987 0.9621
-8.5910 -3.9498 -1.9987 0.9621
-8.2038 -4.7017 -1.9987 0.9621
-7.7510 -5.4161 -1.9988 0.9621
-6.6638 -6.7098 -1.9989 0.9621
-6.0380 -7.2789 -1.9991 0.9621
-5.3627 -7.7883 -1.9988 0.9621
-3.5963 -7.9662 -1.8475 0.9649
-2.1214 -8.4810 -1.8479 0.9649
-1.3552 -8.6376 -1.8482 0.9649
0.9845 -8.6912 -1.8489 0.9649
3.2556 -8.1223 -1.8497 0.9649
3.9690 -7.8000 -1.8499 0.9649
6.2175 -6.8213 -1.9510 0.9630
6.9845 -6.4057 -2.0033 0.9620
7.5299 -5.7567 -2.0035 0.9620
8.0151 -5.0614 -2.0038 0.9620
8.4363 -4.3255 -2.0040 0.9620
8.7899 -3.5547 -2.0042 0.9620
9.0733 -2.7553 -2.0044 0.9620
9.4203 -1.0965 -2.0047 0.9620
9.4812 -0.2503 -2.0048 0.9620
9.4662 0.5979 -2.0049 0.9620
9.2092 2.2735 -2.0051 0.9620
8.9694 3.0873 -2.0051 0.9620
8.5409 3.8241 -1.9781 0.9625
6.7503 6.6628 -2.0049 0.9620
6.1275 7.2389 -2.0047 0.9620
4.7404 8.2127 -2.0044 0.9620
3.2023 8.9236 -2.0040 0.9620
2.3918 9.1730 -2.0038 0.9620
1.5624 9.3489 -2.0036 0.9620
-0.1266 9.4753 -2.0031 0.9620
-1.8106 9.2989 -2.0025 0.9620
-3.4359 8.8256 -2.0019 0.9620
-6.9109 6.4662 -2.0006 0.9620
-7.4601 5.8220 -2.0003 0.9621
-7.9496 5.1315 -2.0001 0.9621
-8.3753 4.4001 -1.9998 0.9621
-8.7341 3.6337 -1.9996 0.9621
-9.0230 2.8385 -1.9994 0.9621
-9.2397 2.0207 -1.9993 0.9621
-9.3826 1.1869 -1.9991 0.9621
-9.4505 0.3438 -1.9990 0.9621
-9.4429 -0.5021 -1.9989 0.9621
-9.3599 -1.3438 -1.9988 0.9621
-9.2021 -2.1747 -1.9987 0.9621
-8.2958 -4.5373 -1.9987 0.9621
-7.8573 -5.2606 -1.9988 0.9621
-6.7960 -6.5757 -1.9989 0.9621
-6.1816 -7.1570 -1.9990 0.9621
-4.4440 -7.5251 -1.8473 0.9649
-3.7542 -7.8929 -1.8475 0.9649
2.3490 -8.4277 -1.8494 0.9649
3.8127 -7.8773 -1.8499 0.9649
5.1554 -7.0748 -1.8504 0.9648
7.4135 -5.9054 -2.0035 0.9620
7.9125 -5.2199 -2.0037 0.9620
8.3482 -4.4925 -2.0039 0.9620
9.0164 -2.9354 -2.0044 0.9620
9.2435 -2.1182 -2.0045 0.9620
9.4742 -0.4391 -2.0048 0.9620
9.4020 1.2544 -2.0050 0.9620
9.0290 2.9080 -2.0051 0.9620
8.7277 3.7009 -2.0039 0.9620
8.0280 4.2876 -1.9238 0.9635
6.2706 7.1155 -2.0048 0.9620
5.6093 7.6468 -2.0046 0.9620
3.3795 8.8583 -2.0041 0.9620
2.5741 9.1238 -2.0039 0.9620
1.7483 9.3162 -2.0036 0.9620
0.9088 9.4340 -2.0034 0.9620
-0.7847 9.4426 -2.0029 0.9620
-1.6251 9.3334 -2.0026 0.9620
-3.2596 8.8926 -2.0020 0.9620
-4.0406 8.5645 -2.0017 0.9620
-4.7890 8.1680 -2.0014 0.9620
-6.1647 7.1832 -2.0009 0.9620
-8.2862 4.5662 -1.9999 0.9621
-9.1978 2.2044 -1.9993 0.9621
-8.3844 -4.3712 -1.9987 0.9621
-7.9605 -5.1030 -1.9987 0.9621
-6.9256 -6.4389 -1.9989 0.9621
-4.8664 -7.8776 -1.9573 0.9629
-3.1968 -8.1353 -1.8476 0.9649
-2.4574 -8.3893 -1.8478 0.9649
-0.9251 -8.6948 -1.8483 0.9649
0.6375 -8.7230 -1.8488 0.9649
1.4146 -8.6323 -1.8490 0.9649
2.1806 -8.4725 -1.8493 0.9649
7.8067 -5.3764 -2.0037 0.9620
8.2569 -4.6578 -2.0039 0.9620
8.6410 -3.9018 -2.0041 0.9620
8.9560 -3.1144 -2.0043 0.9620
9.1993 -2.3018 -2.0045 0.9620
9.3689 -1.4708 -2.0047 0.9620
9.4251 1.0669 -2.0050 0.9620
9.0852 2.7276 -2.0051 0.9620
7.7322 4.8487 -1.9292 0.9634
7.0104 6.3888 -2.0049 0.9620
6.4112 6.9893 -2.0048 0.9620
5.0640 8.0177 -2.0045 0.9620
3.5553 8.7894 -2.0041 0.9620
2.7554 9.0709 -2.0039 0.9620
-0.5965 9.4567 -2.0029 0.9620
-3.0819 8.9560 -2.0021 0.9620
-4.6255 8.2621 -2.0015 0.9620
-5.3445 7.8146 -2.0012 0.9620
-6.6483 6.7367 -2.0007 0.9620
-7.7393 5.4443 -2.0002 0.9621
-8.1939 4.7304 -1.9999 0.9621
-8.9031 3.1957 -1.9995 0.9621
-9.3282 1.5597 -1.9992 0.9621
-9.4296 0.7199 -1.9990 0.9621
-9.4556 -0.1256 -1.9989 0.9621
-9.2815 -1.8065 -1.9987 0.9621
-9.0828 -2.6286 -1.9987 0.9621
-8.4698 -4.2033 -1.9987 0.9621
-7.5868 -5.6440 -1.9988 0.9621
-5.1170 -7.9258 -1.9942 0.9622
-1.8685 -8.5406 -1.8480 0.9649
-0.3186 -8.7390 -1.8485 0.9649
4.1992 -7.6790 -1.8500 0.9649
4.8692 -7.2741 -1.8503 0.9648
7.1720 -6.1956 -2.0034 0.9620
7.6979 -5.5306 -2.0036 0.9620
8.5614 -4.0730 -2.0041 0.9620
8.8920 -3.2921 -2.0043 0.9620
9.4847 0.0315 -2.0049 0.9620
9.4444 0.8789 -2.0050 0.9620
9.1376 2.5461 -2.0051 0.9620
8.2955 4.0143 -1.9480 0.9630
7.7934 4.6734 -1.9209 0.9635
7.6664 5.5856 -2.0050 0.9620
7.1364 6.2480 -2.0049 0.9620
4.4942 8.3497 -2.0044 0.9620
2.9356 9.0145 -2.0040 0.9620
2.1181 9.2397 -2.0037 0.9620
-0.4081 9.4670 -2.0030 0.9620
-1.2522 9.3913 -2.0027 0.9620
-2.0861 9.2406 -2.0024 0.9620
-2.9030 9.0159 -2.0021 0.9620
-4.4602 8.3528 -2.0016 0.9620
-5.1880 7.9197 -2.0013 0.9620
-5.8741 7.4235 -2.0010 0.9620
-7.0997 6.2577 -2.0005 0.9620
-8.8379 3.3725 -1.9996 0.9621
-9.2954 1.7452 -1.9992 0.9621
-9.3157 -1.6213 -1.9988 0.9621
-8.8781 -3.2534 -1.9987 0.9621
-8.5519 -4.0337 -1.9987 0.9621
-8.1573 -4.7818 -1.9987 0.9621
-7.1764 -6.1579 -1.9988 0.9621
-5.9664 -7.3377 -1.9991 0.9621
-4.2186 -7.6541 -1.8474 0.9649
-2.7894 -8.2844 -1.8478 0.9649
-1.2706 -8.6506 -1.8482 0.9649
-0.3328 -5.8985 -1.2488 0.9761
0.2896 -8.7409 -1.8487 0.9649
1.0696 -8.6812 -1.8489 0.9649
1.8413 -8.5521 -1.8492 0.9649
3.3351 -8.0901 -1.8497 0.9649
4.0453 -7.7609 -1.8500 0.9649
4.7232 -7.3694 -1.8502 0.9648
5.3636 -6.9188 -1.8505 0.9648
-3.2477 7.8744 -2.0019 0.9656
-3.9378 7.5517 -2.0016 0.9656
-4.5962 7.1687 -2.0014 0.9656
-5.7974 6.2346 -2.0009 0.9656
-6.8130 5.1019 -2.0004 0.9656
-7.2408 4.4722 -2.0002 0.9656
-7.6107 3.8070 -2.0000 0.9656
-7.9197 3.1114 -1.9998 0.9656
-8.5054 0.1398 -1.9992 0.9657
-8.4835 -0.6207 -1.9991 0.9657
-8.3938 -1.3762 -1.9991 0.9657
-8.2371 -2.1207 -1.9990 0.9657
-8.0145 -2.8482 -1.9990 0.9657
-7.7280 -3.5530 -1.9990 0.9657
-6.9724 -4.8720 -1.9991 0.9657
-6.5094 -5.4757 -1.9991 0.9657
-4.8248 -7.0071 -1.9995 0.9656
-3.2349 -7.1657 -1.8478 0.9682
-2.5819 -7.4268 -1.8479 0.9682
-1.9082 -7.6285 -1.8481 0.9682
-1.2190 -7.7693 -1.8483 0.9682
-0.3887 -5.8672 -1.3819 0.9761
0.1834 -7.8641 -1.8487 0.9682
0.8855 -7.8172 -1.8490 0.9682
1.5807 -7.7078 -1.8492 0.9682
2.9281 -7.3052 -1.8497 0.9682
3.5696 -7.0152 -1.8499 0.9682
6.7718 -5.1771 -2.0034 0.9656
7.2081 -4.5518 -2.0036 0.9656
7.5868 -3.8899 -2.0038 0.9656
8.4715 -0.9860 -2.0044 0.9656
8.4308 1.2962 -2.0047 0.9656
8.0657 2.7763 -2.0048 0.9656
7.7854 3.4859 -2.0048 0.9656
6.5817 5.4255 -2.0047 0.9656
6.0703 5.9916 -2.0046 0.9656
3.5857 7.7363 -2.0040 0.9656
1.4051 8.4077 -2.0034 0.9656
0.6481 8.4987 -2.0032 0.9656
-1.6284 8.3632 -2.0025 0.9656
-3.0903 7.9377 -2.0019 0.9656
-5.0829 6.8313 -2.0012 0.9656
-5.6722 6.3490 -2.0009 0.9656
-6.2161 5.8161 -2.0007 0.9656
-6.7102 5.2367 -2.0005 0.9656
-7.5336 3.9579 -2.0000 0.9656
-8.3113 1.8177 -1.9995 0.9656
-8.2777 -1.9562 -1.9990 0.9657
-7.7972 -3.3984 -1.9990 0.9657
-7.4624 -4.0815 -1.9990 0.9657
-6.6171 -5.3449 -1.9991 0.9657
-3.3769 -7.0997 -1.8477 0.9682
-2.7293 -7.3737 -1.8479 0.9682
-2.0597 -7.5888 -1.8481 0.9682
-0.5120 -5.9332 -1.3996 0.9758
0.7296 -7.8331 -1.8489 0.9682
1.4268 -7.7375 -1.8492 0.9682
2.1127 -7.5800 -1.8494 0.9682
4.0490 -6.7509 -1.8501 0.9682
4.6366 -6.3629 -1.8503 0.9682
8.4500 -1.1546 -2.0044 0.9656
8.5199 -0.3949 -2.0045 0.9656
8.3205 1.8790 -2.0048 0.9656
8.1194 2.6151 -2.0048 0.9656
7.8533 3.3301 -2.0048 0.9656
7.5243 4.0185 -2.0048 0.9656
7.1349 4.6747 -2.0047 0.9656
6.6885 5.2934 -2.0047 0.9656
5.6390 6.3988 -2.0045 0.9656
-2.2055 8.2290 -2.0023 0.9656
-6.0992 5.9389 -2.0007 0.9656
-6.6047 5.3695 -2.0005 0.9656
-7.0573 4.7573 -2.0003 0.9656
-7.4534 4.1072 -2.0001 0.9656
-8.0640 2.7144 -1.9997 0.9656
-8.5017 -0.2823 -1.9992 0.9657
-8.3151 -1.7910 -1.9991 0.9657
-7.8633 -3.2424 -1.9990 0.9657
-4.4606 -7.2206 -1.9947 0.9657
-3.5176 -7.0309 -1.8477 0.9682
-2.2104 -7.5461 -1.8480 0.9682
-1.5274 -7.7143 -1.8482 0.9682
-0.1299 -7.8647 -1.8486 0.9682
0.5734 -7.8458 -1.8489 0.9682
1.2724 -7.7642 -1.8491 0.9682
1.9613 -7.6204 -1.8493 0.9682
5.3446 -6.3545 -1.9515 0.9665
6.0467 -6.0062 -2.0030 0.9656
6.5599 -5.4425 -2.0033 0.9656
7.0208 -4.8351 -2.0035 0.9656
7.4255 -4.1888 -2.0037 0.9656
8.0540 -2.8007 -2.0041 0.9656
8.2727 -2.0700 -2.0042 0.9656
8.4252 -1.3226 -2.0044 0.9656
8.5102 -0.5645 -2.0045 0.9656
8.5271 0.1982 -2.0046 0.9656
8.4756 0.9594 -2.0047 0.9656
7.9181 3.1730 -2.0048 0.9656
7.6028 3.8679 -2.0048 0.9656
6.3042 5.7453 -2.0046 0.9656
4.5539 7.2102 -2.0043 0.9656
3.8911 7.5876 -2.0041 0.9656
0.2256 8.5198 -2.0031 0.9656
-0.5365 8.5049 -2.0028 0.9656
-1.2941 8.4219 -2.0026 0.9656
-2.0413 8.2715 -2.0023 0.9656
-2.7718 8.0550 -2.0021 0.9656
-3.4801 7.7741 -2.0018 0.9656
-4.1603 7.4311 -2.0015 0.9656
-5.4152 6.5702 -2.0010 0.9656
-5.9799 6.0593 -2.0008 0.9656
-7.3703 4.2550 -2.0001 0.9656
-8.2326 2.1473 -1.9996 0.9656
-8.3909 1.4030 -1.9994 0.9656
-8.5057 -0.1130 -1.9992 0.9657
-8.4612 -0.8725 -1.9991 0.9657
-8.3491 -1.6250 -1.9991 0.9657
-7.9264 -3.0851 -1.9990 0.9657
-7.6190 -3.7810 -1.9990 0.9657
-7.2508 -4.4468 -1.9990 0.9657
-6.8246 -5.0770 -1.9991 0.9657
-5.8124 -6.2112 -1.9993 0.9656
-5.2345 -6.7062 -1.9994 0.9656
-4.6096 -7.1399 -1.9974 0.9657
-3.6569 -6.9593 -1.8477 0.9682
-3.0207 -7.2588 -1.8478 0.9682
-2.3602 -7.5004 -1.8480 0.9682
-1.6807 -7.6821 -1.8482 0.9682
-0.9877 -7.8024 -1.8484 0.9682
0.4170 -7.8555 -1.8488 0.9682
1.1174 -7.7878 -1.8490 0.9682
2.4864 -7.4664 -1.8495 0.9682
3.1440 -7.2153 -1.8498 0.9682
3.7767 -6.9064 -1.8500 0.9682
4.9958 -6.1859 -1.8687 0.9679
6.4500 -5.5719 -2.0032 0.9656
6.9229 -4.9738 -2.0034 0.9656
7.3404 -4.3358 -2.0036 0.9656
7.6993 -3.6629 -2.0038 0.9656
8.4972 -0.7339 -2.0045 0.9656
8.5292 0.0283 -2.0046 0.9656
8.3886 1.5462 -2.0047 0.9656
8.2171 2.2896 -2.0048 0.9656
7.9797 3.0147 -2.0048 0.9656
7.6784 3.7157 -2.0048 0.9656
6.4175 5.6186 -2.0046 0.9656
5.8895 6.1693 -2.0045 0.9656
5.3144 6.6705 -2.0044 0.9656
4.6967 7.1182 -2.0043 0.9656
1.1546 8.4455 -2.0033 0.9656
0.3953 8.5139 -2.0031 0.9656
-3.3246 7.8421 -2.0019 0.9656
-4.6662 7.1232 -2.0013 0.9656
-5.8581 6.1774 -2.0008 0.9656
-6.3859 5.6286 -2.0006 0.9656
-7.9498 3.0336 -1.9998 0.9656
-8.3614 1.5699 -1.9995 0.9656
-8.5063 0.0565 -1.9992 0.9657
-8.4770 -0.7038 -1.9991 0.9657
-7.6928 -3.6285 -1.9990 0.9657
-7.3379 -4.3015 -1.9990 0.9657
-5.3669 -6.6005 -1.9994 0.9656
-3.8123 -6.9169 -1.8562 0.9681
-2.5091 -7.4518 -1.8480 0.9682
-1.8334 -7.6469 -1.8481 0.9682
-1.1428 -7.7810 -1.8483 0.9682
-0.3314 -5.8748 -1.3829 0.9761
0.2605 -7.8620 -1.8488 0.9682
2.3371 -7.5142 -1.8495 0.9682
2.9996 -7.2763 -1.8497 0.9682
3.6383 -6.9800 -1.8499 0.9682
4.2480 -6.6279 -1.8502 0.9682
-4.7364 6.1078 -2.0012 0.9686
-6.1847 4.6314 -2.0005 0.9686
-6.5731 4.0598 -2.0004 0.9686
-7.1895 2.8245 -2.0000 0.9686
-7.6796 0.8164 -1.9996 0.9686
-7.2759 -2.5857 -1.9993 0.9686
-7.0157 -3.2255 -1.9993 0.9686
-6.6995 -3.8396 -1.9993 0.9686
-6.3297 -4.4229 -1.9993 0.9686
-5.9094 -4.9710 -1.9994 0.9686
-4.9306 -5.9440 -1.9996 0.9686
-3.7839 -6.7089 -1.9943 0.9687
-2.3439 -6.7420 -1.8481 0.9709
-0.3877 -5.8512 -1.5183 0.9761
2.6579 -6.6310 -1.8497 0.9709
3.2402 -6.3678 -1.8499 0.9709
3.7967 -6.0535 -1.8501 0.9709
4.5109 -5.9381 -1.9308 0.9697
5.2108 -5.7168 -2.0028 0.9685
6.1464 -4.6990 -2.0032 0.9685
6.5424 -4.1314 -2.0034 0.9685
6.8860 -3.5306 -2.0036 0.9685
7.1746 -2.9014 -2.0038 0.9685
7.6517 1.1764 -2.0045 0.9685
7.3204 2.5197 -2.0045 0.9685
7.0660 3.1638 -2.0045 0.9685
6.7549 3.7825 -2.0045 0.9685
5.9735 4.9242 -2.0044 0.9685
3.8692 6.7033 -2.0040 0.9685
3.2545 7.0217 -2.0038 0.9685
2.6138 7.2838 -2.0037 0.9685
1.9523 7.4875 -2.0035 0.9685
1.2754 7.6313 -2.0033 0.9685
0.5883 7.7139 -2.0031 0.9685
-3.4373 6.9249 -2.0017 0.9686
-4.6139 6.2010 -2.0012 0.9686
-5.6428 5.2796 -2.0008 0.9686
-6.4911 4.1900 -2.0004 0.9686
-6.8389 3.5929 -2.0002 0.9686
-7.1320 2.9672 -2.0000 0.9686
-7.7113 -0.4100 -1.9994 0.9686
-7.6436 -1.0974 -1.9994 0.9686
-7.5148 -1.7759 -1.9993 0.9686
-6.7746 -3.7053 -1.9993 0.9686
-6.4165 -4.2959 -1.9993 0.9686
-4.5058 -6.2726 -1.9997 0.9686
-3.9212 -6.6398 -1.9966 0.9686
-3.0656 -6.4451 -1.8479 0.9709
-1.8697 -6.8890 -1.8482 0.9709
-0.5106 -5.9176 -1.5379 0.9758
1.9178 -6.8806 -1.8494 0.9709
2.5252 -6.6825 -1.8496 0.9709
3.1126 -6.4309 -1.8498 0.9709
3.6752 -6.1277 -1.8501 0.9709
4.2581 -5.8434 -1.8720 0.9706
5.0916 -5.8146 -2.0011 0.9686
5.5960 -5.3413 -2.0030 0.9685
6.0515 -4.8204 -2.0032 0.9685
6.8142 -3.6670 -2.0036 0.9685
7.3593 -2.3959 -2.0039 0.9685
7.6693 -1.0479 -2.0042 0.9685
7.7327 -0.3584 -2.0043 0.9685
7.6736 1.0238 -2.0044 0.9685
7.1276 3.0224 -2.0045 0.9685
6.8290 3.6472 -2.0045 0.9685
6.4756 4.2427 -2.0045 0.9685
4.5783 6.2413 -2.0041 0.9685
4.0020 6.6250 -2.0040 0.9685
3.3937 6.9556 -2.0039 0.9685
2.7584 7.2304 -2.0037 0.9685
2.1011 7.4473 -2.0035 0.9685
0.0507 7.7355 -2.0029 0.9685
-0.6406 7.7083 -2.0027 0.9685
-2.6611 7.2598 -2.0020 0.9686
-3.2988 6.9922 -2.0018 0.9686
-3.9099 6.6687 -2.0015 0.9686
-4.4896 6.2919 -2.0013 0.9686
-5.0333 5.8649 -2.0011 0.9686
-5.5366 5.3911 -2.0008 0.9686
-5.9956 4.8743 -2.0006 0.9686
-7.6412 1.1217 -1.9996 0.9686
-7.7104 0.4344 -1.9995 0.9686
-7.5487 -1.6259 -1.9993 0.9686
-7.3731 -2.2939 -1.9993 0.9686
-7.1386 -2.9435 -1.9993 0.9686
-4.0575 -6.5682 -1.9989 0.9686
-3.2614 -6.5187 -1.8873 0.9703
-0.6369 -5.9866 -1.5588 0.9754
-0.1180 -7.1393 -1.8487 0.9709
0.5205 -7.1220 -1.8489 0.9709
1.7803 -6.9172 -1.8494 0.9709
3.5524 -6.1995 -1.8500 0.9709
5.4883 -5.4516 -2.0029 0.9685
5.9541 -4.9399 -2.0031 0.9685
6.3724 -4.3885 -2.0033 0.9685
6.7397 -3.8019 -2.0035 0.9685
7.0531 -3.1848 -2.0037 0.9685
7.3100 -2.5420 -2.0039 0.9685
7.5085 -1.8788 -2.0040 0.9685
7.6468 -1.2004 -2.0041 0.9685
7.7392 0.1799 -2.0044 0.9685
7.6924 0.8707 -2.0044 0.9685
7.5840 1.5547 -2.0045 0.9685
7.4149 2.2262 -2.0045 0.9685
7.1864 2.8798 -2.0045 0.9685
6.1650 4.6824 -2.0044 0.9685
5.7217 5.2144 -2.0044 0.9685
5.2327 5.7045 -2.0043 0.9685
4.7017 6.1489 -2.0042 0.9685
4.1332 6.5441 -2.0040 0.9685
3.5317 6.8867 -2.0039 0.9685
2.9019 7.1742 -2.0037 0.9685
2.2491 7.4041 -2.0036 0.9685
0.8951 7.6847 -2.0032 0.9685
0.2048 7.7331 -2.0030 0.9685
-0.4870 7.7197 -2.0027 0.9685
-1.8528 7.5080 -2.0023 0.9686
-2.5160 7.3116 -2.0020 0.9686
-4.3635 6.3802 -2.0013 0.9686
-6.3193 4.4454 -2.0005 0.9686
-6.6906 3.8626 -2.0003 0.9686
-7.0084 3.2490 -2.0001 0.9686
-7.2701 2.6096 -1.9999 0.9686
-7.4736 1.9493 -1.9998 0.9686
-7.6174 1.2737 -1.9997 0.9686
-7.7217 -0.1026 -1.9995 0.9686
-7.5796 -1.4752 -1.9993 0.9686
-6.5825 -4.0369 -1.9993 0.9686
-6.1956 -4.6091 -1.9994 0.9686
-5.7591 -5.1444 -1.9994 0.9686
-3.5073 -6.6747 -1.9523 0.9693
0.3786 -7.1308 -1.8489 0.9709
3.4281 -6.2689 -1.8500 0.9709
4.8445 -5.9985 -1.9964 0.9686
5.3785 -5.5597 -2.0029 0.9685
7.2578 -2.6871 -2.0038 0.9685
7.4694 -2.0279 -2.0040 0.9685
7.7411 0.0257 -2.0043 0.9685
7.7082 0.7173 -2.0044 0.9685
7.2423 2.7361 -2.0045 0.9685
6.6395 3.9815 -2.0045 0.9685
5.8245 5.0994 -2.0044 0.9685
5.3453 5.5992 -2.0043 0.9685
4.8233 6.0541 -2.0042 0.9685
4.2628 6.4605 -2.0041 0.9685
3.6682 6.8151 -2.0039 0.9685
2.3962 7.3580 -2.0036 0.9685
1.7289 7.5420 -2.0034 0.9685
0.3588 7.7277 -2.0030 0.9685
-1.0222 7.6665 -2.0026 0.9685
-3.6414 6.8194 -2.0016 0.9686
-4.7960 6.0610 -2.0012 0.9686
-6.2297 4.5705 -2.0005 0.9686
-7.2168 2.7539 -2.0000 0.9686
-7.4334 2.0979 -1.9998 0.9686
-7.5906 1.4251 -1.9997 0.9686
-7.7223 0.0513 -1.9995 0.9686
-7.4587 -1.9984 -1.9993 0.9686
-7.2502 -2.6569 -1.9993 0.9686
-6.6616 -3.9050 -1.9993 0.9686
-5.8604 -5.0287 -1.9994 0.9686
-5.3879 -5.5324 -1.9995 0.9686
-4.8722 -5.9921 -1.9996 0.9686
-4.3176 -6.4038 -1.9997 0.9686
-3.7159 -6.7420 -1.9932 0.9687
-1.0374 -7.0634 -1.8485 0.9709
0.2364 -7.1368 -1.8489 0.9709
0.8733 -7.0879 -1.8491 0.9709
3.8558 -6.0160 -1.8501 0.9709
4.6502 -5.9986 -1.9652 0.9691
-2.6962 6.5373 -2.0019 0.9710
-3.2692 6.2696 -2.0017 0.9710
-3.8160 5.9517 -2.0015 0.9710
-4.3321 5.5863 -2.0013 0.9710
-5.2562 4.7251 -2.0008 0.9710
-6.0122 3.7134 -2.0005 0.9711
-6.3194 3.1610 -2.0003 0.9711
-6.5761 2.5835 -2.0002 0.9711
-6.9300 1.3715 -1.9999 0.9711
-7.0245 0.7468 -1.9998 0.9711
-6.6553 -2.3652 -1.9995 0.9711
-6.4173 -2.9504 -1.9995 0.9711
-5.4053 -4.5470 -1.9996 0.9711
-4.5100 -5.4369 -1.9998 0.9711
-4.0064 -5.8185 -1.9999 0.9711
-3.4693 -6.1511 -1.9992 0.9711
-1.5844 -6.3341 -1.8484 0.9732
0.7352 -6.4902 -1.8491 0.9732
2.4309 -6.0648 -1.8497 0.9732
2.9634 -5.8239 -1.8499 0.9732
3.4976 -5.5767 -1.8635 0.9730
5.2143 -4.7822 -2.0029 0.9710
5.6212 -4.2975 -2.0031 0.9710
5.9833 -3.7784 -2.0033 0.9710
6.7727 -2.0567 -2.0038 0.9710
6.9298 -1.4434 -2.0039 0.9710
7.0768 -0.1869 -2.0041 0.9710
7.0655 0.4463 -2.0042 0.9710
6.9975 1.0758 -2.0042 0.9710
6.8736 1.6969 -2.0043 0.9710
6.6945 2.3043 -2.0043 0.9710
5.8435 3.9971 -2.0042 0.9710
5.4628 4.5032 -2.0042 0.9710
5.0384 4.9731 -2.0041 0.9710
4.5737 5.4032 -2.0040 0.9710
3.5385 6.1303 -2.0038 0.9710
2.9763 6.4215 -2.0037 0.9710
2.3904 6.6613 -2.0035 0.9710
1.1664 6.9792 -2.0032 0.9710
-0.0945 7.0740 -2.0028 0.9710
-0.7262 7.0365 -2.0026 0.9710
-1.3519 6.9428 -2.0024 0.9710
-3.6967 6.0267 -2.0015 0.9710
-4.7095 5.2713 -2.0011 0.9710
-5.1611 4.8290 -2.0009 0.9710
-5.5715 4.3481 -2.0007 0.9710
-5.9372 3.8325 -2.0005 0.9710
-6.7394 2.1201 -2.0000 0.9711
-6.9014 1.5093 -1.9999 0.9711
-6.9916 -1.0038 -1.9996 0.9711
-6.8738 -1.6245 -1.9995 0.9711
-6.4748 -2.8220 -1.9995 0.9711
-5.4948 -4.4384 -1.9996 0.9711
-5.0764 -4.9118 -1.9997 0.9711
-4.1214 -5.7375 -1.9999 0.9711
-3.0195 -6.3481 -1.9900 0.9712
-1.7102 -6.3012 -1.8483 0.9732
-1.1404 -6.4293 -1.8485 0.9732
-0.5093 -5.9020 -1.6770 0.9757
0.0222 -6.5309 -1.8489 0.9732
1.1846 -6.4240 -1.8492 0.9732
1.7540 -6.2931 -1.8494 0.9732
2.3096 -6.1118 -1.8496 0.9732
3.3613 -5.6043 -1.8500 0.9732
4.1525 -5.6986 -1.9961 0.9711
5.1179 -4.8850 -2.0029 0.9710
5.5344 -4.4085 -2.0031 0.9710
5.9067 -3.8967 -2.0033 0.9710
6.5071 -2.7836 -2.0036 0.9710
7.0729 0.3054 -2.0042 0.9710
7.0175 0.9363 -2.0042 0.9710
6.9060 1.5596 -2.0043 0.9710
6.7391 2.1705 -2.0043 0.9710
5.9220 3.8800 -2.0043 0.9710
5.1365 4.8718 -2.0041 0.9710
4.6804 5.3111 -2.0040 0.9710
4.1869 5.7078 -2.0039 0.9710
3.1037 6.3611 -2.0037 0.9710
1.3052 6.9547 -2.0032 0.9710
-3.5761 6.0993 -2.0016 0.9710
-4.1063 5.7547 -2.0013 0.9710
-4.6036 5.3642 -2.0011 0.9710
-5.0640 4.9309 -2.0009 0.9710
-6.1888 3.4103 -2.0004 0.9711
-6.4682 2.8435 -2.0002 0.9711
-6.6959 2.2539 -2.0001 0.9711
-6.8701 1.6465 -1.9999 0.9711
-6.9893 1.0260 -1.9998 0.9711
-7.0527 0.3973 -1.9997 0.9711
-7.0597 -0.2345 -1.9996 0.9711
-6.9048 -1.4872 -1.9995 0.9711
-6.5297 -2.6925 -1.9995 0.9711
-5.5820 -4.3280 -1.9996 0.9711
-4.7229 -5.2529 -1.9997 0.9711
-3.7129 -6.0103 -2.0000 0.9711
-3.1520 -6.3002 -1.9943 0.9711
-2.3877 -6.0762 -1.8482 0.9732
-0.6310 -5.9310 -1.6885 0.9755
-0.1079 -6.5299 -1.8488 0.9732
0.4761 -6.5141 -1.8490 0.9732
1.0564 -6.4461 -1.8492 0.9732
1.6283 -6.3266 -1.8494 0.9732
2.1874 -6.1565 -1.8496 0.9732
2.7290 -5.9370 -1.8498 0.9732
3.2490 -5.6701 -1.8500 0.9732
4.5534 -5.4138 -2.0026 0.9710
5.0194 -4.9858 -2.0028 0.9710
6.1637 -3.4770 -2.0034 0.9710
6.4503 -2.9126 -2.0035 0.9710
6.6852 -2.3247 -2.0037 0.9710
6.9931 -1.0978 -2.0040 0.9710
7.0636 -0.4686 -2.0041 0.9710
7.0775 0.1645 -2.0041 0.9710
6.7809 2.0358 -2.0043 0.9710
6.5720 2.6336 -2.0043 0.9710
6.3103 3.2103 -2.0043 0.9710
4.2998 5.6233 -2.0040 0.9710
3.7799 5.9847 -2.0039 0.9710
3.2298 6.2981 -2.0037 0.9710
1.4435 6.9275 -2.0032 0.9710
0.8186 7.0281 -2.0031 0.9710
-0.4454 7.0602 -2.0027 0.9710
-1.0743 6.9914 -2.0025 0.9710
-1.6946 6.8667 -2.0022 0.9710
-2.8892 6.4541 -2.0018 0.9710
-3.4539 6.1694 -2.0016 0.9710
-4.4960 5.4550 -2.0012 0.9710
-5.3941 4.5667 -2.0008 0.9710
-5.7800 4.0661 -2.0006 0.9710
-6.1197 3.5330 -2.0004 0.9711
-6.4104 2.9718 -2.0003 0.9711
-6.6498 2.3869 -2.0001 0.9711
-6.9676 1.1650 -1.9999 0.9711
-7.0434 0.5377 -1.9998 0.9711
-7.0630 -0.0938 -1.9997 0.9711
-6.9331 -1.3494 -1.9995 0.9711
-6.7847 -1.9635 -1.9995 0.9711
-6.5820 -2.5619 -1.9995 0.9711
-6.3268 -3.1398 -1.9995 0.9711
-5.2679 -4.7056 -1.9996 0.9711
-3.2800 -6.2421 -1.9962 0.9711
-1.3955 -6.3786 -1.8484 0.9732
-0.2207 -6.0553 -1.7153 0.9751
0.9277 -6.4658 -1.8492 0.9732
2.0642 -6.1987 -1.8495 0.9732
3.1353 -5.7335 -1.8499 0.9732
4.4414 -5.4994 -2.0011 0.9710
5.7466 -4.1287 -2.0032 0.9710
6.6375 -2.4574 -2.0037 0.9710
6.8310 -1.8546 -2.0038 0.9710
7.0793 0.0235 -2.0041 0.9710
6.3730 3.0840 -2.0043 0.9710
4.8883 5.1206 -2.0041 0.9710
4.4110 5.5366 -2.0040 0.9710
2.7841 6.5070 -2.0036 0.9710
0.9584 7.0105 -2.0031 0.9710
-1.5575 6.8993 -2.0023 0.9710
-3.3305 6.2371 -2.0016 0.9710
-3.8741 5.9140 -2.0014 0.9710
-4.3865 5.5436 -2.0012 0.9710
-5.6980 4.1805 -2.0006 0.9710
-6.0482 3.6543 -2.0005 0.9711
-6.3501 3.0989 -2.0003 0.9711
-6.6010 2.5189 -2.0001 0.9711
-6.7992 1.9189 -2.0000 0.9711
-7.0314 0.6779 -1.9998 0.9711
-7.0392 -0.5844 -1.9996 0.9711
-6.0934 -3.5719 -1.9995 0.9711
-5.3605 -4.5997 -1.9996 0.9711
-4.9283 -5.0605 -1.9997 0.9711
-3.4071 -6.1817 -1.9982 0.9711
-1.5223 -6.3494 -1.8484 0.9732
0.2163 -6.5276 -1.8489 0.9732
0.7988 -6.4828 -1.8491 0.9732
1.9403 -6.2384 -1.8495 0.9732
3.0204 -5.7947 -1.8499 0.9732
4.3265 -5.5810 -1.9991 0.9711
-3.5122 5.4780 -2.0015 0.9731
-4.8380 4.3491 -2.0009 0.9731
-5.8167 2.9096 -2.0004 0.9731
-6.2409 1.8275 -2.0002 0.9732
-6.3788 1.2625 -2.0001 0.9732
-6.4844 -0.4744 -1.9998 0.9732
-6.1260 -2.1771 -1.9997 0.9732
-5.9070 -2.7158 -1.9997 0.9732
-5.6408 -3.2328 -1.9997 0.9732
-4.9755 -4.1854 -1.9998 0.9732
-4.1514 -5.0045 -1.9999 0.9732
-3.6877 -5.3557 -2.0000 0.9732
-3.1946 -5.6642 -2.0002 0.9732
-1.4583 -5.8302 -1.8485 0.9752
-0.9316 -5.9377 -1.8486 0.9752
0.1402 -6.0097 -1.8490 0.9752
1.2079 -5.8899 -1.8493 0.9752
1.7295 -5.7590 -1.8495 0.9751
2.2374 -5.5820 -1.8497 0.9751
2.7415 -5.3878 -1.8594 0.9750
3.4468 -5.4957 -1.9953 0.9732
3.9382 -5.1842 -2.0025 0.9731
4.7990 -4.4013 -2.0028 0.9731
5.7958 -2.9717 -2.0033 0.9731
6.0386 -2.4420 -2.0035 0.9731
6.2331 -1.8928 -2.0036 0.9731
6.3777 -1.3284 -2.0037 0.9731
6.4712 -0.7532 -2.0038 0.9731
6.5129 -0.1720 -2.0039 0.9731
6.5024 0.4107 -2.0040 0.9731
6.4399 0.9901 -2.0040 0.9731
6.3258 1.5616 -2.0041 0.9731
6.1610 2.1206 -2.0041 0.9731
5.0275 4.1443 -2.0040 0.9731
4.6369 4.5768 -2.0039 0.9731
4.2092 4.9726 -2.0039 0.9731
3.7478 5.3286 -2.0038 0.9731
1.6433 6.3022 -2.0032 0.9731
-0.0870 6.5106 -2.0027 0.9731
-3.4025 5.5470 -2.0015 0.9731
-3.8842 5.2203 -2.0013 0.9731
-4.3347 4.8519 -2.0012 0.9731
-5.1282 4.0021 -2.0008 0.9731
-5.7577 3.0249 -2.0005 0.9731
-6.2033 1.9515 -2.0002 0.9732
-6.4509 0.8160 -2.0000 0.9732
-6.4356 -0.9239 -1.9998 0.9732
-6.1682 -2.0547 -1.9997 0.9732
-5.7040 -3.1198 -1.9997 0.9732
-5.4025 -3.6170 -1.9997 0.9732
-5.0578 -4.0854 -1.9998 0.9732
