ply
format ascii 1.0
element vertex 1579
property float32 x
property float32 y
property float32 z
property float32 I
end_header
-7.9252 -13.7703 -1.5253 0.9382
-6.4489 -13.9534 -1.4757 0.9401
-4.8470 -18.6448 -1.8495 0.9255
-2.2731 -13.6481 -1.3283 0.9459
-1.0337 -13.6213 -1.3115 0.9466
2.6751 -13.7499 -1.3448 0.9453
3.9074 -13.5144 -1.3506 0.9450
5.3229 -13.6933 -1.4105 0.9427
8.5529 -17.2608 -1.8494 0.9255
8.3420 -13.6262 -1.5339 0.9378
9.9369 -13.3841 -1.6003 0.9352
12.8166 -14.3810 -1.8494 0.9255
14.0480 -13.1807 -1.8494 0.9255
17.7697 -7.4369 -1.8494 0.9255
18.3621 -5.8226 -1.8494 0.9255
18.8082 -4.1619 -1.8494 0.9255
17.7602 7.6625 -1.8570 0.9252
-16.9599 9.3055 -1.8572 0.9252
-14.5027 6.3470 -1.5198 0.9384
-18.3433 6.1447 -1.8572 0.9252
-17.8104 -7.3450 -1.8496 0.9255
-17.0844 -8.9040 -1.8496 0.9255
-6.1165 -4.7377 -0.7428 0.9694
-14.1179 -13.1085 -1.8496 0.9255
-12.4907 -13.8690 -1.7919 0.9277
-8.6688 -13.9956 -1.5805 0.9360
-0.2593 -13.8122 -1.3263 0.9460
1.3575 -19.2162 -1.8494 0.9255
4.8261 -13.7121 -1.3956 0.9433
13.6146 -13.6279 -1.8494 0.9255
14.7756 -12.3594 -1.8494 0.9255
16.7361 -9.5380 -1.8494 0.9255
17.5200 -8.0074 -1.8494 0.9255
18.6638 -4.7677 -1.8494 0.9255
-18.0386 -6.7655 -1.8496 0.9255
-9.8091 -5.8455 -1.0963 0.9552
-14.5343 -12.6453 -1.8496 0.9255
-11.3510 -14.1467 -1.7413 0.9297
-10.6685 -16.0413 -1.8495 0.9255
-7.4745 -13.7605 -1.5034 0.9390
-6.0417 -18.2927 -1.8495 0.9255
-1.9279 -13.6406 -1.3226 0.9461
0.7356 -19.2501 -1.8495 0.9255
2.4493 -19.1077 -1.8494 0.9255
4.2684 -13.5066 -1.3599 0.9447
5.7090 -13.6787 -1.4230 0.9422
8.9754 -17.0449 -1.8494 0.9255
10.6149 -13.5849 -1.6551 0.9331
16.4191 -10.0740 -1.8494 0.9255
17.2520 -8.5696 -1.8494 0.9255
12.1862 -4.7509 -1.2557 0.9488
19.1969 -3.7543 -1.8779 0.9244
15.0763 6.9499 -1.5938 0.9355
11.9055 6.8364 -1.3180 0.9463
8.1707 8.2321 -1.1135 0.9545
1.2166 -15.5220 -1.8495 0.9392
3.5511 -13.5222 -1.6607 0.9452
8.9702 -12.7255 -1.8494 0.9392
10.0692 -11.8748 -1.8494 0.9392
12.0186 -9.8971 -1.8494 0.9392
16.8159 -1.0745 -2.0016 0.9344
16.8447 0.4294 -2.0016 0.9344
16.5006 3.4150 -2.0016 0.9344
16.1303 4.8730 -2.0016 0.9344
10.9485 6.8836 -1.5362 0.9492
8.9942 14.2497 -2.0016 0.9344
7.6876 14.9951 -2.0016 0.9344
4.9015 16.1224 -2.0017 0.9344
0.4590 16.8450 -2.0017 0.9344
-1.1538 7.5653 -0.9090 0.9696
-6.8598 15.3922 -2.0017 0.9344
-9.4852 13.9289 -2.0018 0.9344
-16.6112 2.8390 -2.0018 0.9344
-16.7982 1.3463 -2.0018 0.9344
-16.1470 -4.5945 -1.9942 0.9346
-13.9809 -6.8540 -1.8496 0.9392
-9.6500 -5.8517 -1.3406 0.9556
-11.6678 -10.3102 -1.8495 0.9392
-10.7018 -11.3096 -1.8495 0.9392
-8.5224 -13.0307 -1.8495 0.9392
-7.3263 -13.7388 -1.8495 0.9392
-4.7691 -14.8216 -1.8495 0.9392
-3.1315 -13.8728 -1.6894 0.9443
-1.8206 -13.6383 -1.6344 0.9461
-0.6005 -13.8242 -1.6437 0.9458
0.7142 -15.5533 -1.8495 0.9392
2.0984 -15.4275 -1.8494 0.9392
3.1388 -13.7464 -1.6749 0.9448
4.3821 -13.5042 -1.6865 0.9444
7.3600 -13.7198 -1.8494 0.9392
8.5541 -13.0088 -1.8494 0.9392
11.6923 -10.2804 -1.8494 0.9392
13.9964 -6.8187 -1.8494 0.9392
12.1397 -4.6254 -1.5432 0.9490
14.9851 -4.2238 -1.8494 0.9392
16.5613 -3.1068 -2.0016 0.9344
16.7724 -1.6175 -2.0016 0.9344
16.6023 2.8799 -2.0016 0.9344
16.2794 4.3490 -2.0016 0.9344
11.7690 6.8790 -1.6193 0.9466
9.4500 13.9515 -2.0016 0.9344
5.1088 9.2182 -1.2519 0.9584
6.8213 15.4085 -2.0017 0.9344
5.4201 15.9555 -2.0017 0.9344
1.0033 16.8213 -2.0017 0.9344
-0.5008 16.8439 -2.0017 0.9344
-0.9191 7.6857 -0.9195 0.9693
-3.4852 16.4872 -2.0017 0.9344
-9.0300 14.2282 -2.0018 0.9344
-10.2629 13.3663 -2.0018 0.9344
-11.4140 12.3978 -2.0018 0.9344
-16.1440 4.8335 -2.0018 0.9344
-16.5107 3.3745 -2.0018 0.9344
-16.7459 1.8886 -2.0018 0.9344
-16.6485 -2.6114 -2.0018 0.9344
-14.7092 -5.1071 -1.8496 0.9392
-14.1951 -6.3985 -1.8496 0.9392
-13.5679 -7.6389 -1.8496 0.9392
-11.0618 -10.9577 -1.8495 0.9392
-10.0405 -11.9005 -1.8495 0.9392
-6.4484 -13.9523 -1.8258 0.9400
-5.2457 -14.6597 -1.8495 0.9392
-3.9174 -15.0691 -1.8495 0.9392
-2.2731 -13.6481 -1.6435 0.9458
-1.0337 -13.6213 -1.6227 0.9465
2.6749 -13.7490 -1.6638 0.9451
3.9074 -13.5144 -1.6711 0.9449
6.9126 -13.9506 -1.8494 0.9392
8.1292 -13.2785 -1.8494 0.9392
9.2809 -12.5006 -1.8494 0.9392
12.2587 -9.5980 -1.8494 0.9392
13.0657 -8.4665 -1.8494 0.9392
16.7113 -2.1588 -2.0016 0.9344
16.8373 -0.6599 -2.0016 0.9344
16.8291 0.8442 -2.0016 0.9344
16.6867 2.3417 -2.0016 0.9344
10.2264 6.7867 -1.4579 0.9518
8.4724 6.7844 -1.2893 0.9572
11.0729 12.7018 -2.0016 0.9344
6.7229 9.2654 -1.3598 0.9549
8.6404 14.4670 -2.0016 0.9344
4.5029 16.2383 -2.0017 0.9344
-1.3520 7.6027 -0.9173 0.9694
-4.4182 16.2620 -2.0017 0.9344
-6.4253 8.9532 -1.3090 0.9566
-7.7672 9.0042 -1.4125 0.9532
-14.3232 6.2685 -1.8572 0.9390
-15.9793 5.3528 -2.0018 0.9344
-16.6761 2.4290 -2.0018 0.9344
-16.8262 0.9321 -2.0018 0.9344
-16.8423 -0.5722 -2.0018 0.9344
-16.4728 -3.5551 -2.0018 0.9344
-14.8666 -4.6290 -1.8496 0.9392
-13.8078 -7.1963 -1.8496 0.9392
-9.3256 -5.9741 -1.3156 0.9564
-6.1172 -4.7382 -0.9191 0.9693
-11.4102 -10.5945 -1.8495 0.9392
-9.3466 -12.4529 -1.8495 0.9392
-8.1988 -13.2367 -1.8495 0.9392
-6.9018 -13.7481 -1.8273 0.9399
-5.6498 -14.3127 -1.8278 0.9399
-2.7738 -13.8709 -1.6803 0.9446
-1.4789 -13.6309 -1.6287 0.9463
-0.2593 -13.8113 -1.6409 0.9459
2.3116 -14.3403 -1.7254 0.9432
4.8257 -13.7111 -1.7266 0.9431
6.4581 -14.1668 -1.8494 0.9392
7.6957 -13.5344 -1.8494 0.9392
9.9776 -11.9519 -1.8494 0.9392
11.0036 -11.0144 -1.8494 0.9392
11.9421 -9.9892 -1.8494 0.9392
13.5266 -7.7089 -1.8494 0.9392
14.1601 -6.4718 -1.8494 0.9392
16.7537 1.8011 -2.0016 0.9344
16.5264 3.2880 -2.0016 0.9344
16.1673 4.7487 -2.0016 0.9344
15.6795 6.1716 -2.0016 0.9344
12.5125 9.3722 -1.8570 0.9390
12.5321 11.2644 -2.0016 0.9344
10.3318 13.3117 -2.0016 0.9344
9.1035 14.1801 -2.0016 0.9344
7.8027 14.9355 -2.0016 0.9344
5.0254 16.0842 -2.0017 0.9344
3.5710 16.4684 -2.0017 0.9344
0.5886 16.8410 -2.0017 0.9344
-0.9156 16.8264 -2.0017 0.9344
-1.0984 7.5935 -0.9114 0.9696
-8.0917 14.7819 -2.0017 0.9344
-9.3777 14.0014 -2.0018 0.9344
-10.5890 13.1094 -2.0018 0.9344
-11.7160 12.1129 -2.0018 0.9344
-10.7908 6.3830 -1.4893 0.9508
-14.1131 6.7282 -1.8572 0.9390
-16.5889 2.9667 -2.0018 0.9344
-16.1985 -4.4747 -1.9962 0.9345
-11.7468 -10.2201 -1.8495 0.9392
-10.7885 -11.2269 -1.8495 0.9392
-7.4318 -13.6820 -1.8495 0.9392
-6.0290 -13.9365 -1.8037 0.9407
-4.8830 -14.7845 -1.8495 0.9392
-1.9278 -13.6406 -1.6364 0.9460
-0.7073 -13.8282 -1.6447 0.9458
0.5945 -15.5583 -1.8495 0.9392
1.9796 -15.4432 -1.8494 0.9392
3.0278 -13.7470 -1.6721 0.9449
4.2684 -13.5066 -1.6826 0.9445
5.7086 -13.6777 -1.7605 0.9420
9.5860 -12.2682 -1.8494 0.9392
10.6419 -11.3644 -1.8494 0.9392
11.6129 -10.3701 -1.8494 0.9392
13.2704 -8.1421 -1.8494 0.9392
14.9522 -4.3389 -1.8494 0.9392
16.5369 -3.2341 -2.0016 0.9344
16.7595 -1.7465 -2.0016 0.9344
16.8484 -0.2450 -2.0016 0.9344
16.3124 4.2236 -2.0016 0.9344
15.8707 5.6615 -2.0016 0.9344
14.3708 6.6247 -1.8797 0.9382
12.8897 10.8534 -2.0016 0.9344
10.7566 12.9707 -2.0016 0.9344
9.5571 13.8784 -2.0016 0.9344
8.2814 14.6754 -2.0016 0.9344
2.6276 16.6450 -2.0017 0.9344
-3.3582 16.5135 -2.0017 0.9344
3.3154 -12.6247 -1.8494 0.9486
5.5054 -11.8349 -1.8494 0.9486
8.4417 -9.9553 -1.8494 0.9486
10.0759 -8.2973 -1.8494 0.9486
11.9127 -5.3342 -1.8494 0.9486
12.3410 -4.2506 -1.8494 0.9486
14.1220 0.3600 -2.0016 0.9445
14.0336 1.6180 -2.0016 0.9445
13.1049 5.2750 -2.0016 0.9445
5.1518 6.7442 -1.2025 0.9663
5.8827 9.3202 -1.5616 0.9565
6.4449 12.5712 -2.0017 0.9445
3.7500 9.2693 -1.4168 0.9604
2.8875 13.8290 -2.0017 0.9445
1.6427 14.0314 -2.0017 0.9445
0.2497 9.1616 -1.2986 0.9637
-3.3671 13.7204 -2.0017 0.9445
-3.0952 9.0380 -1.3536 0.9621
-6.8788 12.3399 -2.0017 0.9445
-7.9519 11.6773 -2.0017 0.9445
-8.9616 10.9216 -2.0017 0.9445
-6.2950 6.4088 -1.2728 0.9644
-9.9822 8.4946 -1.8572 0.9484
-11.3325 6.5862 -1.8572 0.9484
-12.7180 5.9434 -1.9891 0.9449
-13.2816 4.8161 -2.0018 0.9445
-14.0592 -1.3910 -2.0018 0.9445
-13.8791 -2.6393 -2.0018 0.9445
-13.5885 -3.8665 -2.0018 0.9445
-11.7208 -5.7461 -1.8495 0.9486
-6.3306 -4.6586 -1.1137 0.9687
-8.9719 -9.4814 -1.8495 0.9486
-8.0905 -10.2437 -1.8495 0.9486
-7.1448 -10.9243 -1.8495 0.9486
-6.1420 -11.5179 -1.8495 0.9486
-5.0904 -12.0197 -1.8495 0.9486
-1.7272 -12.9383 -1.8495 0.9486
5.1200 -12.0067 -1.8494 0.9486
6.1703 -11.5022 -1.8494 0.9486
7.1715 -10.9060 -1.8494 0.9486
8.1155 -10.2230 -1.8494 0.9486
10.5320 -7.7102 -1.8494 0.9486
11.1775 -6.7402 -1.8494 0.9486
11.7341 -5.7165 -1.8494 0.9486
13.5509 -3.8195 -1.9948 0.9447
14.0786 1.1635 -2.0016 0.9445
13.6480 3.6460 -2.0016 0.9445
12.7832 6.0126 -2.0016 0.9445
11.3153 6.6138 -1.8570 0.9484
9.9604 8.5188 -1.8570 0.9484
8.0529 8.2393 -1.6324 0.9545
7.9225 11.6963 -2.0016 0.9445
5.1088 9.2182 -1.4933 0.9583
5.7187 12.9179 -2.0017 0.9445
-0.9151 7.6521 -1.0920 0.9693
-2.9218 13.8220 -2.0017 0.9445
-4.1428 13.5065 -2.0017 0.9445
-5.3308 13.0832 -2.0017 0.9445
-7.5703 11.9282 -2.0017 0.9445
-8.6039 11.2056 -2.0017 0.9445
-9.5689 10.3937 -2.0018 0.9445
-9.7024 8.8129 -1.8572 0.9484
-8.4955 6.4328 -1.5099 0.9579
-14.1242 0.3250 -2.0018 0.9445
-13.7063 -3.4252 -2.0018 0.9445
-13.0374 -4.5266 -1.9554 0.9458
-11.3746 -6.4041 -1.8495 0.9486
-7.5505 -5.1886 -1.2981 0.9637
-10.0560 -8.3228 -1.8495 0.9486
-6.5112 -11.3134 -1.8495 0.9486
-0.9877 -13.0156 -1.8495 0.9486
0.1770 -13.0518 -1.8495 0.9486
1.3402 -12.9839 -1.8495 0.9486
4.7292 -12.1659 -1.8494 0.9486
5.7953 -11.6956 -1.8494 0.9486
6.8152 -11.1322 -1.8494 0.9486
8.6843 -9.7444 -1.8494 0.9486
10.2772 -8.0466 -1.8494 0.9486
12.0405 -5.0391 -1.8494 0.9486
12.4419 -3.9453 -1.8494 0.9486
13.9895 1.9632 -2.0016 0.9445
13.7587 3.2029 -2.0016 0.9445
13.4183 4.4172 -2.0016 0.9445
8.4724 6.7844 -1.5379 0.9571
8.6126 9.8795 -1.8571 0.9484
7.2437 12.1285 -2.0016 0.9445
3.7750 13.6135 -2.0017 0.9445
0.0239 9.1830 -1.3011 0.9636
-6.4253 8.9532 -1.5614 0.9565
-9.5372 6.4013 -1.6275 0.9547
-11.4913 6.3051 -1.8572 0.9484
-13.3963 4.4875 -2.0018 0.9445
-13.7431 3.2750 -2.0018 0.9445
-14.1063 0.7814 -2.0018 0.9445
-14.0207 -1.7369 -2.0018 0.9445
-13.4759 -4.1959 -1.9998 0.9446
-9.3256 -5.9741 -1.5692 0.9562
-9.5658 -8.8819 -1.8495 0.9486
-8.7356 -9.6995 -1.8495 0.9486
-6.8735 -11.0970 -1.8495 0.9486
-4.7927 -12.1415 -1.8495 0.9486
-3.6909 -12.5205 -1.8495 0.9486
-0.2450 -13.0507 -1.8495 0.9486
0.9198 -13.0205 -1.8495 0.9486
3.2182 -12.6499 -1.8494 0.9486
7.4379 -10.7261 -1.8494 0.9486
8.3648 -10.0200 -1.8494 0.9486
10.0118 -8.3746 -1.8494 0.9486
11.8713 -5.4257 -1.8494 0.9486
13.6782 -3.4941 -2.0003 0.9446
13.9443 -2.2618 -2.0016 0.9445
14.0905 -1.0093 -2.0016 0.9445
13.1450 5.1740 -2.0016 0.9445
12.6313 6.3257 -2.0016 0.9445
11.1489 6.8905 -1.8570 0.9484
10.4900 7.8573 -1.8570 0.9484
8.9274 9.5959 -1.8571 0.9484
5.3988 13.0548 -2.0017 0.9445
4.2131 13.4843 -2.0017 0.9445
2.0000 9.2232 -1.3372 0.9626
1.7506 14.0184 -2.0017 0.9445
0.3211 9.1874 -1.3025 0.9635
-1.0929 7.5556 -1.0817 0.9696
-3.2614 13.7459 -2.0017 0.9445
-6.7837 12.3924 -2.0017 0.9445
-7.8618 11.7381 -2.0017 0.9445
-6.2415 6.4530 -1.2720 0.9644
-9.9165 8.5712 -1.8572 0.9484
-10.6414 7.6527 -1.8572 0.9484
-11.2815 6.6732 -1.8572 0.9484
-13.2442 4.9182 -2.0018 0.9445
-13.6300 3.7175 -2.0018 0.9445
-13.9072 2.4872 -2.0018 0.9445
-14.0736 1.2370 -2.0018 0.9445
-14.0695 -1.2828 -2.0018 0.9445
-9.8479 -8.5680 -1.8495 0.9486
-6.2305 -11.4703 -1.8495 0.9486
-4.0937 -12.3946 -1.8495 0.9486
-2.9720 -12.7102 -1.8495 0.9486
-0.6668 -13.0359 -1.8495 0.9486
0.4984 -13.0434 -1.8495 0.9486
2.8076 -12.7473 -1.8494 0.9486
5.0274 -12.0457 -1.8494 0.9486
7.0873 -10.9609 -1.8494 0.9486
8.0366 -10.2852 -1.8494 0.9486
8.9217 -9.5275 -1.8494 0.9486
9.7358 -8.6939 -1.8494 0.9486
10.4723 -7.7910 -1.8494 0.9486
11.6897 -5.8066 -1.8494 0.9486
12.1244 -4.7267 -1.8438 0.9488
13.3676 -3.8791 -1.9722 0.9453
13.8639 -2.7114 -2.0016 0.9445
14.0505 -1.4642 -2.0016 0.9445
14.1251 -0.2054 -2.0016 0.9445
13.9369 2.3072 -2.0016 0.9445
13.6757 3.5409 -2.0016 0.9445
13.3054 4.7464 -2.0016 0.9445
8.0434 8.1039 -1.6178 0.9549
6.9428 12.3033 -2.0016 0.9445
5.8179 12.8735 -2.0017 0.9445
3.2239 9.2560 -1.3887 0.9612
-0.3112 14.1239 -2.0017 0.9445
-0.1244 -11.2260 -1.8495 0.9555
1.8719 -11.0694 -1.8495 0.9555
2.8516 -10.8583 -1.8494 0.9555
4.7351 -10.1790 -1.8494 0.9555
7.9952 -7.8808 -1.8494 0.9555
9.2680 -6.3351 -1.8494 0.9555
9.7960 -5.4834 -1.8494 0.9555
10.2460 -4.5879 -1.8494 0.9555
11.3951 -3.9248 -1.9855 0.9523
11.7949 -2.9165 -2.0016 0.9519
12.0080 -1.8530 -2.0016 0.9519
12.1462 0.3096 -2.0016 0.9519
8.9701 6.8272 -1.8570 0.9553
7.6146 8.3122 -1.8571 0.9553
5.1518 6.7442 -1.3981 0.9662
5.5432 10.8123 -2.0017 0.9519
4.5569 11.2636 -2.0017 0.9519
3.5342 11.6252 -2.0017 0.9519
0.2497 9.1616 -1.5098 0.9635
-0.7535 12.1273 -2.0017 0.9519
-1.1429 7.4938 -1.2488 0.9697
-2.2396 9.1261 -1.5480 0.9626
-5.9163 10.6132 -2.0017 0.9519
-6.2950 6.4088 -1.4799 0.9642
-11.7471 3.1070 -2.0018 0.9519
-11.9774 2.0471 -2.0018 0.9519
-12.1122 0.9708 -2.0018 0.9519
-12.1505 -0.1133 -2.0018 0.9519
-12.0920 -1.1964 -2.0018 0.9519
-11.6871 -3.3255 -2.0017 0.9519
-11.3137 -4.3429 -1.9964 0.9521
-7.7165 -8.1548 -1.8495 0.9555
-0.4872 -11.2161 -1.8495 0.9555
0.5150 -11.2148 -1.8495 0.9555
2.4991 -10.9449 -1.8495 0.9555
5.3070 -9.8929 -1.8494 0.9555
6.1681 -9.3801 -1.8494 0.9555
6.9800 -8.7927 -1.8494 0.9555
9.0584 -6.6314 -1.8494 0.9555
9.6137 -5.7972 -1.8494 0.9555
10.4906 -3.9971 -1.8494 0.9555
11.6944 -3.2963 -2.0016 0.9519
12.0940 -1.1663 -2.0016 0.9519
12.1088 1.0007 -2.0016 0.9519
11.9714 2.0766 -2.0016 0.9519
11.7385 3.1359 -2.0016 0.9519
10.9947 5.1714 -2.0016 0.9519
8.5668 7.3269 -1.8571 0.9553
7.1290 8.7323 -1.8571 0.9553
6.3219 9.3332 -1.8571 0.9553
4.9186 11.1104 -2.0017 0.9519
2.8666 11.8076 -2.0017 0.9519
1.8022 12.0162 -2.0017 0.9519
0.7234 12.1291 -2.0017 0.9519
-0.9078 7.5908 -1.2594 0.9695
-2.5130 11.8881 -2.0017 0.9519
-3.5631 11.6166 -2.0017 0.9519
-4.6932 9.0987 -1.6866 0.9593
-6.0407 9.5182 -1.8571 0.9553
-6.8655 8.9416 -1.8572 0.9553
-7.6356 8.2937 -1.8572 0.9553
-8.3448 7.5797 -1.8572 0.9553
-8.9875 6.8054 -1.8572 0.9553
-10.8362 5.4976 -2.0018 0.9519
-11.2834 4.5093 -2.0018 0.9519
-12.1244 -0.8049 -2.0018 0.9519
-12.0043 -1.8829 -2.0018 0.9519
-11.7885 -2.9460 -2.0018 0.9519
-11.4788 -3.9855 -2.0017 0.9519
-10.2353 -4.6136 -1.8495 0.9555
-9.7831 -5.5080 -1.8495 0.9555
-7.5292 -5.1740 -1.5050 0.9636
-6.4456 -9.1923 -1.8495 0.9555
-4.7100 -10.1910 -1.8495 0.9555
-3.7824 -10.5704 -1.8495 0.9555
-2.8247 -10.8656 -1.8495 0.9555
-1.8444 -11.0742 -1.8495 0.9555
0.1522 -11.2256 -1.8495 0.9555
2.1440 -11.0199 -1.8495 0.9555
3.1182 -10.7848 -1.8494 0.9555
4.9844 -10.0593 -1.8494 0.9555
5.8616 -9.5746 -1.8494 0.9555
6.6921 -9.0137 -1.8494 0.9555
8.8393 -6.9207 -1.8494 0.9555
9.4213 -6.1049 -1.8494 0.9555
9.9281 -5.2404 -1.8494 0.9555
11.5625 -3.6664 -1.9983 0.9520
11.8337 2.7548 -2.0016 0.9519
11.5409 3.7992 -2.0016 0.9519
11.1562 4.8132 -2.0016 0.9519
9.7980 6.5025 -1.9372 0.9534
8.1358 7.8027 -1.8571 0.9553
6.6203 9.1240 -1.8571 0.9553
5.2751 10.9456 -2.0017 0.9519
3.2468 11.7087 -2.0017 0.9519
1.1151 12.0993 -2.0017 0.9519
0.0317 12.1506 -2.0017 0.9519
-1.0520 12.1051 -2.0017 0.9519
-5.2182 10.9733 -2.0017 0.9519
-6.1760 10.4643 -2.0017 0.9519
-4.6304 6.4521 -1.3083 0.9683
-7.3635 8.5362 -1.8572 0.9553
-8.0954 7.8455 -1.8572 0.9553
-7.9060 6.3988 -1.6756 0.9596
-9.3604 6.2826 -1.8572 0.9553
-10.6529 5.8450 -2.0018 0.9519
-11.5218 3.8596 -2.0018 0.9519
-11.8201 2.8167 -2.0018 0.9519
-12.0242 1.7514 -2.0018 0.9519
-12.1325 0.6721 -2.0018 0.9519
-12.1441 -0.4126 -2.0018 0.9519
-12.0589 -1.4939 -2.0018 0.9519
-11.8776 -2.5634 -2.0018 0.9519
-11.6016 -3.6124 -2.0017 0.9519
-10.8587 -4.4781 -1.9350 0.9535
-6.1182 -4.7391 -1.2749 0.9691
-8.2273 -7.6391 -1.8495 0.9555
-7.5133 -8.3424 -1.8495 0.9555
-5.0370 -10.0335 -1.8495 0.9555
-2.2014 -11.0088 -1.8495 0.9555
-0.2108 -11.2247 -1.8495 0.9555
0.7911 -11.1987 -1.8495 0.9555
1.7866 -11.0835 -1.8495 0.9555
2.7679 -10.8800 -1.8494 0.9555
3.7271 -10.5897 -1.8494 0.9555
4.6567 -10.2151 -1.8494 0.9555
5.5491 -9.7591 -1.8494 0.9555
7.1945 -8.6181 -1.8494 0.9555
7.9343 -7.9421 -1.8494 0.9555
8.6110 -7.2029 -1.8494 0.9555
10.2104 -4.6666 -1.8494 0.9555
11.1528 -3.9376 -1.9484 0.9532
11.7721 -3.0072 -2.0016 0.9519
12.1482 0.2162 -2.0016 0.9519
10.3356 6.3878 -2.0016 0.9519
8.3837 7.5357 -1.8571 0.9553
5.1899 6.6868 -1.3944 0.9663
6.0900 9.4861 -1.8571 0.9553
4.6434 11.2282 -2.0017 0.9519
1.1500 9.2090 -1.5289 0.9631
0.4244 12.1432 -2.0017 0.9519
-1.9512 8.2236 -1.3924 0.9663
-5.8345 10.6585 -2.0017 0.9519
-6.2734 9.3665 -1.8571 0.9553
-8.5290 7.3719 -1.8572 0.9553
-9.1525 6.5819 -1.8572 0.9553
-10.9684 5.2290 -2.0018 0.9519
-11.3910 4.2300 -2.0018 0.9519
-11.9613 2.1392 -2.0018 0.9519
-12.1511 -0.0198 -2.0018 0.9519
-11.7124 -3.2354 -2.0017 0.9519
-11.3550 -4.2588 -1.9978 0.9520
-7.7790 -8.0951 -1.8495 0.9555
-5.3587 -9.8654 -1.8495 0.9555
-4.4575 -10.3040 -1.8495 0.9555
-2.5562 -10.9319 -1.8495 0.9555
-1.5711 -11.1162 -1.8495 0.9555
-0.5735 -11.2120 -1.8495 0.9555
0.4287 -11.2184 -1.8495 0.9555
2.4148 -10.9638 -1.8495 0.9555
4.3240 -10.3603 -1.8494 0.9555
6.9121 -8.8461 -1.8494 0.9555
8.3736 -7.4775 -1.8494 0.9555
11.6687 -3.3861 -2.0016 0.9519
11.9242 -2.3320 -2.0016 0.9519
12.1162 0.9075 -2.0016 0.9519
11.4438 4.0823 -2.0016 0.9519
11.0342 5.0866 -2.0016 0.9519
10.5366 6.0504 -2.0016 0.9519
8.6229 7.2607 -1.8571 0.9553
5.5401 9.8175 -1.8571 0.9553
5.0039 11.0722 -2.0017 0.9519
3.9966 11.4744 -2.0017 0.9519
1.8946 12.0020 -2.0017 0.9519
0.8167 12.1232 -2.0017 0.9519
-0.2677 12.1477 -2.0017 0.9519
-2.4214 11.9070 -2.0017 0.9519
-3.4737 11.6437 -2.0017 0.9519
-0.1090 -9.8390 -1.8495 0.9607
1.6406 -9.7019 -1.8495 0.9607
4.9292 -8.5158 -1.8494 0.9607
5.6690 -8.0422 -1.8494 0.9607
7.0075 -6.9072 -1.8494 0.9607
8.1230 -5.5525 -1.8494 0.9607
10.0686 -3.4679 -2.0016 0.9576
10.3377 -2.5562 -2.0016 0.9576
10.5245 -1.6241 -2.0016 0.9576
10.6274 -0.6791 -2.0016 0.9576
10.6456 0.2714 -2.0016 0.9576
10.4281 2.1583 -2.0016 0.9576
9.8788 3.9765 -2.0016 0.9576
9.4849 4.8416 -2.0016 0.9576
5.1518 6.7442 -1.5952 0.9660
4.5074 8.7921 -1.8571 0.9606
3.7054 9.1590 -1.8571 0.9606
2.0171 6.6348 -1.3034 0.9722
-0.6604 10.6290 -2.0017 0.9576
-1.9143 7.8006 -1.5097 0.9678
-5.5613 8.1667 -1.8571 0.9606
-6.2675 7.6383 -1.8571 0.9606
-6.2950 6.4088 -1.6885 0.9641
-10.0119 3.6305 -2.0017 0.9576
-10.5981 -1.0486 -2.0017 0.9576
-10.4623 -1.9895 -2.0017 0.9576
-10.2432 -2.9146 -2.0017 0.9576
-9.9424 -3.8165 -2.0017 0.9576
-6.3313 -4.6591 -1.4775 0.9685
-7.3736 -6.5157 -1.8495 0.9607
-6.7632 -7.1473 -1.8495 0.9607
-6.0988 -7.7219 -1.8495 0.9607
-5.3859 -8.2350 -1.8495 0.9607
-3.8372 -9.0607 -1.8495 0.9607
-2.1666 -9.5982 -1.8495 0.9607
2.1903 -9.5927 -1.8495 0.9607
3.0371 -9.3591 -1.8494 0.9607
3.8596 -9.0510 -1.8494 0.9607
6.1177 -7.7064 -1.8494 0.9607
6.7805 -7.1301 -1.8494 0.9607
7.9393 -5.8121 -1.8494 0.9607
8.4260 -5.0810 -1.8494 0.9607
8.8455 -4.3093 -1.8494 0.9607
9.9282 -3.7828 -1.9970 0.9577
10.2497 -2.8890 -2.0016 0.9576
9.6364 4.5325 -2.0016 0.9576
8.6780 6.1723 -2.0016 0.9576
6.9059 7.0657 -1.8571 0.9606
6.2483 7.6534 -1.8571 0.9606
4.5638 6.7378 -1.5296 0.9674
1.5796 10.5316 -2.0017 0.9576
0.6341 10.6306 -2.0017 0.9576
-1.3779 6.5184 -1.2523 0.9732
-2.8974 9.4460 -1.8571 0.9606
-6.6922 7.2690 -1.8571 0.9606
-7.3138 6.6433 -1.8572 0.9606
-9.4974 4.8184 -2.0017 0.9576
-9.8893 3.9522 -2.0017 0.9576
-10.2024 3.0545 -2.0017 0.9576
-10.4341 2.1325 -2.0017 0.9576
-10.5827 1.1935 -2.0017 0.9576
-10.5212 -1.6503 -2.0017 0.9576
-10.3320 -2.5820 -2.0017 0.9576
-10.0606 -3.4931 -2.0017 0.9576
-8.5744 -4.8275 -1.8495 0.9607
-7.5804 -6.2739 -1.8495 0.9607
-6.9907 -6.9249 -1.8495 0.9607
-6.3452 -7.5207 -1.8495 0.9607
-5.6492 -8.0566 -1.8495 0.9607
-4.9082 -8.5283 -1.8495 0.9607
-3.3151 -9.2645 -1.8495 0.9607
-2.4757 -9.5232 -1.8495 0.9607
-1.6166 -9.7060 -1.8495 0.9607
0.1334 -9.8387 -1.8495 0.9607
1.0103 -9.7876 -1.8495 0.9607
2.7329 -9.4524 -1.8495 0.9607
3.5650 -9.1710 -1.8494 0.9607
4.3686 -8.8165 -1.8494 0.9607
5.8654 -7.9002 -1.8494 0.9607
7.1755 -6.7325 -1.8494 0.9607
7.7473 -6.0658 -1.8494 0.9607
8.2573 -5.3507 -1.8494 0.9607
8.7016 -4.5930 -1.8494 0.9607
9.5091 -3.9797 -1.9376 0.9589
10.5458 1.4799 -2.0016 0.9576
10.3718 2.4145 -2.0016 0.9576
10.1151 3.3298 -2.0016 0.9576
9.7779 4.2186 -2.0016 0.9576
9.3627 5.0738 -2.0016 0.9576
8.8730 5.8886 -2.0016 0.9576
8.0664 6.4593 -1.9424 0.9588
7.1307 6.8388 -1.8571 0.9606
6.4924 7.4475 -1.8571 0.9606
4.0127 6.7187 -1.4709 0.9687
3.4424 9.1510 -1.8377 0.9610
1.7806 9.7185 -1.8571 0.9606
0.9774 10.6045 -2.0017 0.9576
-0.9221 10.6095 -2.0017 0.9576
-1.3352 7.5082 -1.4334 0.9694
-2.5905 9.5347 -1.8571 0.9606
-4.2431 8.9229 -1.8571 0.9606
-5.0220 8.5090 -1.8571 0.9606
-7.0952 6.8762 -1.8572 0.9606
-7.6802 6.2161 -1.8572 0.9606
-9.7564 4.2698 -2.0017 0.9576
-10.3597 2.4687 -2.0017 0.9576
-10.5386 1.5350 -2.0017 0.9576
-10.6335 0.5891 -2.0017 0.9576
-10.6437 -0.3616 -2.0017 0.9576
-10.4101 -2.2467 -2.0017 0.9576
-10.1683 -3.1661 -2.0017 0.9576
-8.7260 -4.5478 -1.8495 0.9607
-7.2109 -6.6953 -1.8495 0.9607
-6.5850 -7.3117 -1.8495 0.9607
-4.4147 -8.7939 -1.8495 0.9607
-3.6129 -9.1525 -1.8495 0.9607
-1.9295 -9.6487 -1.8495 0.9607
-0.1847 -9.8379 -1.8495 0.9607
0.6934 -9.8152 -1.8495 0.9607
1.5659 -9.7142 -1.8495 0.9607
3.2667 -9.2815 -1.8494 0.9607
4.0814 -8.9531 -1.8494 0.9607
5.6069 -8.0856 -1.8494 0.9607
6.3056 -7.5534 -1.8494 0.9607
8.0801 -5.6148 -1.8494 0.9607
8.5486 -4.8719 -1.8494 0.9607
8.9490 -4.0901 -1.8494 0.9607
10.3178 -2.6357 -2.0016 0.9576
10.6219 -0.7608 -2.0016 0.9576
10.6474 0.1895 -2.0016 0.9576
10.4444 2.0779 -2.0016 0.9576
8.5233 6.3842 -2.0016 0.9576
7.3582 6.6139 -1.8596 0.9605
6.7297 7.2337 -1.8571 0.9606
3.7758 9.1302 -1.8571 0.9606
1.3196 10.5674 -2.0017 0.9576
0.2298 6.5752 -1.2366 0.9736
-3.0363 9.0937 -1.8020 0.9617
-3.9525 9.0554 -1.8571 0.9606
-4.7443 8.6669 -1.8571 0.9606
-5.4983 8.2093 -1.8571 0.9606
-6.2085 7.6863 -1.8571 0.9606
-6.2415 6.4530 -1.6874 0.9641
-7.4752 6.4611 -1.8572 0.9606
-8.4206 6.0556 -1.9495 0.9587
-9.1662 5.4220 -2.0017 0.9576
-10.2745 2.8023 -2.0017 0.9576
-10.4835 1.8749 -2.0017 0.9576
-10.6498 -0.0173 -2.0017 0.9576
-10.4773 -1.9090 -2.0017 0.9576
-9.9715 -3.7399 -2.0017 0.9576
-9.2361 -4.4401 -1.9262 0.9591
-6.8179 -7.0950 -1.8495 0.9607
-6.1580 -7.6747 -1.8495 0.9607
-5.4491 -8.1933 -1.8495 0.9607
-3.0859 -9.3434 -1.8495 0.9607
-1.3770 -9.7429 -1.8495 0.9607
1.2511 -9.7597 -1.8495 0.9607
3.7898 -9.0804 -1.8494 0.9607
8.3867 -5.1456 -1.8494 0.9607
9.8926 -3.8567 -1.9957 0.9577
10.4511 -2.0439 -2.0016 0.9576
10.5917 -1.1038 -2.0016 0.9576
10.6480 -0.1548 -2.0016 0.9576
10.6193 0.7954 -2.0016 0.9576
10.3092 2.6692 -2.0016 0.9576
10.0300 3.5780 -2.0016 0.9576
9.2349 5.3029 -2.0016 0.9576
8.7252 6.1054 -2.0016 0.9576
6.7764 6.8274 -1.8081 0.9616
6.3069 7.6051 -1.8571 0.9606
4.6406 6.7389 -1.5379 0.9672
3.2498 9.3304 -1.8571 0.9606
2.4048 9.5831 -1.8571 0.9606
-1.3274 6.5271 -1.2520 0.9733
-2.8246 9.4680 -1.8571 0.9606
-0.0969 -8.7490 -1.8495 0.9649
0.6837 -8.7227 -1.8495 0.9649
2.2224 -8.4625 -1.8495 0.9649
2.9682 -8.2306 -1.8495 0.9649
3.6903 -7.9331 -1.8494 0.9649
5.0409 -7.1513 -1.8494 0.9649
7.6346 -4.2735 -1.8494 0.9649
8.9531 -3.0837 -2.0016 0.9620
9.1924 -2.2730 -2.0016 0.9620
9.3585 -1.4442 -2.0016 0.9620
9.4500 -0.6038 -2.0016 0.9620
9.4070 1.0846 -2.0016 0.9620
9.2728 1.9191 -2.0016 0.9620
8.7844 3.5359 -2.0016 0.9620
8.0165 5.0402 -2.0016 0.9620
6.9937 6.3842 -2.0016 0.9620
5.9345 6.4781 -1.8571 0.9647
5.1518 6.7442 -1.7939 0.9659
4.6893 7.4294 -1.8571 0.9647
4.0081 7.8180 -1.8571 0.9647
1.7957 8.6001 -1.8571 0.9647
1.0216 8.7260 -1.8571 0.9647
0.2393 8.7824 -1.8571 0.9647
-0.4429 7.1284 -1.5097 0.9712
-1.7202 7.0096 -1.5257 0.9709
-2.8465 8.3118 -1.8571 0.9647
-4.2778 7.6740 -1.8571 0.9647
-4.9452 7.2619 -1.8571 0.9647
-5.5731 6.7920 -1.8571 0.9647
-6.1566 6.2679 -1.8571 0.9647
-7.1453 6.0805 -1.9832 0.9624
-7.7305 5.4696 -2.0017 0.9620
-8.1875 4.7584 -2.0017 0.9620
-8.9026 3.2282 -2.0017 0.9620
-9.1551 2.4215 -2.0017 0.9620
-9.4396 0.7566 -2.0017 0.9620
-9.4694 -0.0883 -2.0017 0.9620
-9.1083 -2.5917 -2.0017 0.9620
-8.8409 -3.3936 -2.0017 0.9620
-8.4884 -4.1614 -1.9983 0.9621
-7.4817 -4.5369 -1.8495 0.9649
-6.3317 -4.6594 -1.6617 0.9684
-6.5567 -5.7938 -1.8495 0.9649
-4.7891 -7.3226 -1.8495 0.9649
-4.1170 -7.7205 -1.8495 0.9649
-2.6800 -8.3290 -1.8495 0.9649
-1.9265 -8.5348 -1.8495 0.9649
-1.1577 -8.6726 -1.8495 0.9649
0.4014 -8.7403 -1.8495 0.9649
1.9477 -8.5299 -1.8495 0.9649
3.4320 -8.0482 -1.8494 0.9649
4.8071 -7.3105 -1.8494 0.9649
5.4399 -6.8526 -1.8494 0.9649
7.0597 -5.1682 -1.8494 0.9649
8.2335 -4.0111 -1.9359 0.9632
8.8487 -3.3715 -2.0016 0.9620
9.3069 -1.7459 -2.0016 0.9620
9.4256 -0.9090 -2.0016 0.9620
9.3300 1.6184 -2.0016 0.9620
9.1485 2.4440 -2.0016 0.9620
8.8941 3.2501 -2.0016 0.9620
8.1753 4.7784 -2.0016 0.9620
7.7166 5.4885 -2.0016 0.9620
4.9270 7.2739 -1.8571 0.9647
2.8258 8.3187 -1.8571 0.9647
2.0727 8.5376 -1.8571 0.9647
1.3031 8.6884 -1.8571 0.9647
0.5231 8.7700 -1.8571 0.9647
-0.8480 7.0912 -1.5096 0.9712
-3.3151 8.1363 -1.8571 0.9647
-4.0275 7.8082 -1.8571 0.9647
-4.7078 7.4180 -1.8571 0.9647
-5.3506 6.9686 -1.8571 0.9647
-5.9508 6.4637 -1.8571 0.9647
-6.7189 6.1029 -1.9187 0.9636
-7.5497 5.7166 -2.0017 0.9620
-8.0294 5.0206 -2.0017 0.9620
-8.4452 4.2845 -2.0017 0.9620
-8.7936 3.5143 -2.0017 0.9620
-9.0720 2.7161 -2.0017 0.9620
-9.2781 1.8963 -2.0017 0.9620
-9.4102 1.0613 -2.0017 0.9620
-9.4674 0.2179 -2.0017 0.9620
-9.4491 -0.6273 -2.0017 0.9620
-9.3555 -1.4675 -2.0017 0.9620
-9.1873 -2.2959 -2.0017 0.9620
-8.9460 -3.1061 -2.0017 0.9620
-8.6333 -3.8915 -2.0017 0.9620
-7.2112 -4.9555 -1.8495 0.9649
-5.0234 -7.1640 -1.8495 0.9649
-3.6708 -7.9424 -1.8495 0.9649
-2.2014 -8.4681 -1.8495 0.9649
-1.4375 -8.6307 -1.8495 0.9649
0.1186 -8.7487 -1.8495 0.9649
0.8983 -8.7032 -1.8495 0.9649
2.4302 -8.4052 -1.8495 0.9649
3.8846 -7.8397 -1.8494 0.9649
4.5683 -7.4620 -1.8494 0.9649
5.8212 -6.5318 -1.8494 0.9649
6.3805 -5.9866 -1.8494 0.9649
7.3425 -4.7579 -1.8494 0.9649
7.7376 -4.0841 -1.8494 0.9649
9.0264 -2.8622 -2.0016 0.9620
9.2456 -2.0459 -2.0016 0.9620
9.3912 -1.2132 -2.0016 0.9620
9.4574 0.4744 -2.0016 0.9620
9.3774 1.3160 -2.0016 0.9620
9.2227 2.1470 -2.0016 0.9620
8.9945 2.9609 -2.0016 0.9620
8.6946 3.7512 -2.0016 0.9620
7.8900 5.2362 -2.0016 0.9620
7.3916 5.9189 -2.0016 0.9620
5.1595 7.1108 -1.8571 0.9647
4.5048 7.5426 -1.8571 0.9647
2.5166 6.6901 -1.5109 0.9712
-0.6181 7.1127 -1.5091 0.9712
-1.2521 7.0410 -1.5117 0.9712
-3.0504 8.2392 -1.8571 0.9647
-5.7387 6.6526 -1.8571 0.9647
-6.3216 6.1265 -1.8608 0.9646
-7.3610 5.9577 -2.0017 0.9620
-8.9795 3.0080 -2.0017 0.9620
-9.2119 2.1952 -2.0017 0.9620
-9.3710 1.3649 -2.0017 0.9620
-9.3980 -1.1643 -2.0017 0.9620
-9.2567 -1.9977 -2.0017 0.9620
-7.3676 -4.7198 -1.8495 0.9649
-5.2523 -6.9979 -1.8495 0.9649
-4.6073 -7.4384 -1.8495 0.9649
-3.2126 -8.1385 -1.8495 0.9649
-2.4740 -8.3925 -1.8495 0.9649
-1.7157 -8.5797 -1.8495 0.9649
1.3924 -8.6380 -1.8495 0.9649
2.9048 -8.2532 -1.8495 0.9649
3.6292 -7.9612 -1.8494 0.9649
4.3247 -7.6058 -1.8494 0.9649
4.9857 -7.1898 -1.8494 0.9649
6.1837 -6.1897 -1.8494 0.9649
6.7110 -5.6136 -1.8494 0.9649
7.1849 -4.9928 -1.8494 0.9649
7.6015 -4.3321 -1.8494 0.9649
9.1747 -2.3437 -2.0016 0.9620
9.3471 -1.5161 -2.0016 0.9620
9.4451 -0.6765 -2.0016 0.9620
9.4150 1.0121 -2.0016 0.9620
8.0551 4.9784 -2.0016 0.9620
7.5790 5.6769 -2.0016 0.9620
7.0426 6.3302 -2.0016 0.9620
5.1899 6.6868 -1.7892 0.9660
4.7463 7.3931 -1.8571 0.9647
3.5008 6.7011 -1.5981 0.9696
2.7752 6.7107 -1.5350 0.9707
0.2298 6.5752 -1.3907 0.9735
-1.0226 7.0686 -1.5097 0.9712
-2.7825 8.3335 -1.8571 0.9647
-4.2187 7.7067 -1.8571 0.9647
-4.8892 7.2997 -1.8571 0.9647
-6.1082 6.3151 -1.8571 0.9647
-7.6882 5.5289 -2.0017 0.9620
-8.1507 4.8213 -2.0017 0.9620
-9.1362 2.4918 -2.0017 0.9620
-9.4698 -0.0154 -2.0017 0.9620
-9.3165 -1.6975 -2.0017 0.9620
-6.4430 -4.6653 -1.6815 0.9680
-6.6011 -5.7431 -1.8495 0.9649
-5.4758 -6.8244 -1.8495 0.9649
-4.8454 -7.2855 -1.8495 0.9649
-1.9922 -8.5198 -1.8495 0.9649
0.3341 -8.7431 -1.8495 0.9649
1.8820 -8.5447 -1.8495 0.9649
4.7507 -7.3472 -1.8494 0.9649
5.3870 -6.8943 -1.8494 0.9649
6.5261 -5.8276 -1.8494 0.9649
7.4575 -4.5756 -1.8494 0.9649
8.0918 -4.0194 -1.9098 0.9637
8.8225 -3.4395 -2.0016 0.9620
9.4683 -0.1377 -2.0016 0.9620
9.4428 0.7073 -2.0016 0.9620
9.3422 1.5466 -2.0016 0.9620
8.5996 3.9643 -2.0016 0.9620
8.2118 4.7154 -2.0016 0.9620
7.2435 6.0992 -2.0016 0.9620
4.3177 7.6513 -1.8571 0.9647
2.8898 8.2967 -1.8571 0.9647
0.5906 8.7658 -1.8571 0.9647
-0.1935 8.7835 -1.8571 0.9647
-0.7933 7.0963 -1.5094 0.9712
-2.5116 8.4191 -1.8571 0.9647
-0.0872 -7.8688 -1.8495 0.9682
0.6149 -7.8452 -1.8495 0.9682
1.9988 -7.6112 -1.8495 0.9682
2.6696 -7.4026 -1.8495 0.9682
3.3191 -7.1350 -1.8494 0.9682
4.5338 -6.4319 -1.8494 0.9682
6.0746 -5.0023 -1.8494 0.9682
7.2087 -4.0351 -1.9416 0.9666
8.2677 -2.0443 -2.0016 0.9656
8.4171 -1.2989 -2.0016 0.9656
8.4994 -0.5431 -2.0016 0.9656
8.5139 0.2170 -2.0016 0.9656
8.4607 0.9755 -2.0016 0.9656
8.1528 2.4630 -2.0016 0.9656
7.9007 3.1802 -2.0016 0.9656
6.2901 5.7420 -2.0016 0.9656
5.7530 6.2800 -2.0016 0.9656
4.2175 6.6820 -1.8571 0.9681
2.9634 7.3250 -1.8571 0.9681
2.0171 6.6348 -1.6298 0.9719
1.6150 7.7350 -1.8571 0.9681
0.2153 7.8989 -1.8571 0.9681
-0.4430 7.1290 -1.6787 0.9711
-1.0783 7.0696 -1.6807 0.9710
-1.7202 7.0096 -1.6963 0.9708
-2.9257 6.5647 -1.6891 0.9709
-3.8475 6.9020 -1.8571 0.9681
-5.9683 6.0762 -2.0017 0.9656
-6.4864 5.5198 -2.0017 0.9656
-6.9528 4.9194 -2.0017 0.9656
-8.0070 2.9035 -2.0017 0.9656
-8.2340 2.1778 -2.0017 0.9656
-8.3954 1.4349 -2.0017 0.9656
-8.4758 -0.8386 -2.0017 0.9656
-8.1920 -2.3310 -2.0017 0.9656
-7.9515 -3.0522 -2.0017 0.9656
-4.8775 -6.1756 -1.8495 0.9682
-4.3074 -6.5860 -1.8495 0.9682
-3.7029 -6.9438 -1.8495 0.9682
-1.7327 -7.6762 -1.8495 0.9682
1.0606 -7.7975 -1.8495 0.9682
2.4289 -7.4850 -1.8495 0.9682
4.3235 -6.5751 -1.8494 0.9682
4.8927 -6.1633 -1.8494 0.9682
5.4228 -5.7024 -1.8494 0.9682
5.9097 -5.1961 -1.8494 0.9682
6.3495 -4.6483 -1.8494 0.9682
7.6461 -3.7250 -1.9989 0.9657
8.4774 -0.8175 -2.0016 0.9656
8.5165 -0.0583 -2.0016 0.9656
8.4878 0.7014 -2.0016 0.9656
7.9994 2.9232 -2.0016 0.9656
7.7068 3.6249 -2.0016 0.9656
7.3529 4.2978 -2.0016 0.9656
6.4724 5.5356 -2.0016 0.9656
5.9530 6.0908 -2.0016 0.9656
4.4313 6.5422 -1.8571 0.9681
3.8303 6.9113 -1.8571 0.9681
3.1987 7.2254 -1.8571 0.9681
2.5416 7.4818 -1.8571 0.9681
0.4705 7.8878 -1.8571 0.9681
-1.3779 6.5184 -1.5658 0.9730
-5.6366 6.1224 -1.9558 0.9664
-6.3046 5.7266 -2.0017 0.9656
-7.2217 4.5155 -2.0017 0.9656
-8.4635 0.9545 -2.0017 0.9656
-8.0460 -2.7936 -2.0017 0.9656
-6.0624 -5.0176 -1.8495 0.9682
-4.5180 -6.4433 -1.8495 0.9682
-3.3015 -7.1434 -1.8495 0.9682
-1.2929 -7.7624 -1.8495 0.9682
-0.5955 -7.8468 -1.8495 0.9682
0.1067 -7.8686 -1.8495 0.9682
1.5028 -7.7244 -1.8495 0.9682
4.1087 -6.7114 -1.8494 0.9682
5.7387 -5.3844 -1.8494 0.9682
6.1960 -4.8511 -1.8494 0.9682
6.6039 -4.2793 -1.8494 0.9682
7.5068 -3.9623 -1.9950 0.9657
7.8564 -3.2880 -2.0016 0.9656
8.1183 -2.5743 -2.0016 0.9656
8.5102 -0.3335 -2.0016 0.9656
8.4341 1.1836 -2.0016 0.9656
6.6480 5.3235 -2.0016 0.9656
5.5698 6.3891 -1.9921 0.9658
3.4305 7.1182 -1.8571 0.9681
1.8479 6.6640 -1.6253 0.9720
0.0206 7.9018 -1.8571 0.9681
-0.5754 6.6206 -1.5619 0.9731
-1.2543 7.0532 -1.6837 0.9710
-2.0718 7.6254 -1.8571 0.9681
-3.3935 7.1361 -1.8571 0.9681
-4.0163 6.8051 -1.8571 0.9681
-5.2965 6.1400 -1.9057 0.9672
-6.1162 5.9274 -2.0017 0.9656
-7.0719 4.7466 -2.0017 0.9656
-7.8027 3.4148 -2.0017 0.9656
-8.2852 1.9744 -2.0017 0.9656
-8.4282 1.2276 -2.0017 0.9656
-8.5041 0.4711 -2.0017 0.9656
-8.5123 -0.2892 -2.0017 0.9656
-8.4526 -1.0471 -2.0017 0.9656
-8.3255 -1.7968 -2.0017 0.9656
-7.8739 -3.2472 -2.0017 0.9656
-4.1438 -6.6901 -1.8495 0.9682
-3.5307 -7.0329 -1.8495 0.9682
-2.8894 -7.3197 -1.8495 0.9682
-2.2251 -7.5482 -1.8495 0.9682
-1.5431 -7.7166 -1.8495 0.9682
-0.8488 -7.8234 -1.8495 0.9682
-0.1477 -7.8679 -1.8495 0.9682
1.9402 -7.6263 -1.8495 0.9682
2.6125 -7.4229 -1.8495 0.9682
3.8897 -6.8407 -1.8494 0.9682
4.4842 -6.4666 -1.8494 0.9682
5.0430 -6.0409 -1.8494 0.9682
6.4621 -4.4905 -1.8494 0.9682
7.0928 -4.0422 -1.9187 0.9670
8.0309 -2.8354 -2.0016 0.9656
8.4068 -1.3636 -2.0016 0.9656
8.4949 -0.6085 -2.0016 0.9656
8.4679 0.9103 -2.0016 0.9656
8.1715 2.4002 -2.0016 0.9656
6.8166 5.1058 -2.0016 0.9656
4.2688 6.6493 -1.8571 0.9681
3.0197 7.3020 -1.8571 0.9681
2.3565 7.5422 -1.8571 0.9681
1.6745 7.7223 -1.8571 0.9681
0.9792 7.8409 -1.8571 0.9681
-0.3882 7.1342 -1.6792 0.9711
-1.0234 7.0748 -1.6800 0.9711
-3.1610 7.2421 -1.8571 0.9681
-4.9752 6.1593 -1.8608 0.9680
-6.4438 5.5695 -2.0017 0.9656
-7.9844 2.9650 -2.0017 0.9656
-8.4845 0.7458 -2.0017 0.9656
-8.5172 -0.0139 -2.0017 0.9656
-7.9747 -2.9910 -2.0017 0.9656
-5.4527 -5.6743 -1.8495 0.9682
-4.9249 -6.1379 -1.8495 0.9682
-3.1245 -7.2225 -1.8495 0.9682
-2.4680 -7.4724 -1.8495 0.9682
-0.4020 -7.8591 -1.8495 0.9682
0.3005 -7.8636 -1.8495 0.9682
1.0005 -7.8054 -1.8495 0.9682
1.6926 -7.6851 -1.8495 0.9682
4.2728 -6.6081 -1.8494 0.9682
6.7073 -4.1153 -1.8494 0.9682
7.6136 -3.7819 -1.9980 0.9657
7.9350 -3.0935 -2.0016 0.9656
8.1793 -2.3735 -2.0016 0.9656
8.4708 -0.8827 -2.0016 0.9656
8.5158 -0.1238 -2.0016 0.9656
8.4929 0.6361 -2.0016 0.9656
7.3857 4.2411 -2.0016 0.9656
6.9781 4.8828 -2.0016 0.9656
5.2994 6.3901 -1.9511 0.9665
4.4815 6.5079 -1.8571 0.9681
3.8833 6.8816 -1.8571 0.9681
1.9233 7.6641 -1.8571 0.9681
1.2321 7.8051 -1.8571 0.9681
-1.3274 6.5271 -1.5654 0.9730
-2.2590 7.5721 -1.8571 0.9681
-0.0791 -7.1426 -1.8495 0.9709
1.1910 -7.0431 -1.8495 0.9709
1.8143 -6.9088 -1.8495 0.9709
2.4232 -6.7194 -1.8495 0.9709
3.5784 -6.1820 -1.8494 0.9709
4.1154 -5.8383 -1.8494 0.9709
5.0871 -5.0143 -1.8494 0.9709
5.5140 -4.5407 -1.8494 0.9709
5.9666 -4.0784 -1.8713 0.9706
6.7354 -3.7702 -1.9985 0.9686
7.0557 -3.1594 -2.0016 0.9686
7.5047 -1.8557 -2.0016 0.9686
7.7150 -0.4930 -2.0016 0.9686
7.6799 0.8854 -2.0016 0.9686
6.8856 3.5148 -2.0016 0.9686
6.1517 4.6821 -2.0016 0.9686
5.7096 5.2121 -2.0016 0.9686
5.2221 5.7005 -2.0017 0.9686
4.6929 6.1435 -2.0017 0.9686
4.0140 6.3595 -1.9472 0.9694
3.2722 6.3826 -1.8571 0.9708
2.6899 6.6490 -1.8571 0.9708
-0.4391 7.0675 -1.8334 0.9712
-1.7054 6.9491 -1.8526 0.9709
-2.9073 6.5236 -1.8492 0.9709
-3.4924 6.2650 -1.8571 0.9708
-4.1963 6.1623 -1.9303 0.9697
-4.9040 5.9766 -2.0017 0.9686
-5.8878 5.0104 -2.0017 0.9686
-6.3112 4.4654 -2.0017 0.9686
-6.6842 3.8847 -2.0017 0.9686
-7.6206 1.3024 -2.0017 0.9686
-7.7064 0.6176 -2.0017 0.9686
-7.6936 -0.7612 -2.0017 0.9686
-7.4360 -2.1158 -2.0017 0.9686
-5.9280 -4.3624 -1.9057 0.9700
-4.9097 -5.1885 -1.8495 0.9709
-3.9098 -5.9781 -1.8495 0.9709
-2.1879 -6.7998 -1.8495 0.9709
-1.5728 -6.9678 -1.8495 0.9709
-0.9452 -7.0803 -1.8495 0.9709
0.3277 -7.1356 -1.8495 0.9709
0.9627 -7.0779 -1.8495 0.9709
5.7636 -4.2194 -1.8494 0.9709
6.5985 -3.9790 -1.9951 0.9687
7.6950 -0.7421 -2.0016 0.9686
7.7045 0.6367 -2.0016 0.9686
7.6170 1.3213 -2.0016 0.9686
7.4688 1.9953 -2.0016 0.9686
7.2612 2.6534 -2.0016 0.9686
6.2998 4.4808 -2.0016 0.9686
5.8751 5.0248 -2.0016 0.9686
5.4036 5.5287 -2.0016 0.9686
4.8891 5.9886 -2.0017 0.9686
4.3073 6.3590 -1.9886 0.9688
3.5245 6.3595 -1.8826 0.9704
0.4271 7.1598 -1.8571 0.9708
-3.2881 6.3746 -1.8571 0.9708
-4.7083 6.1320 -2.0017 0.9686
-5.2364 5.6877 -2.0017 0.9686
-6.1635 4.6670 -2.0017 0.9686
-6.5552 4.0988 -2.0017 0.9686
-6.8946 3.4979 -2.0017 0.9686
-7.1791 2.8691 -2.0017 0.9686
-7.4063 2.2174 -2.0017 0.9686
-7.5746 1.5481 -2.0017 0.9686
-7.6824 0.8664 -2.0017 0.9686
-7.7291 0.1779 -2.0017 0.9686
-7.6377 -1.1980 -2.0017 0.9686
-7.0482 -3.1770 -2.0017 0.9686
-6.7368 -3.7929 -2.0017 0.9686
-5.5029 -4.5545 -1.8495 0.9709
-1.1735 -7.0460 -1.8495 0.9709
-0.5405 -7.1226 -1.8495 0.9709
0.7334 -7.1053 -1.8495 0.9709
2.5880 -6.6577 -1.8495 0.9709
4.2580 -5.7351 -1.8494 0.9709
4.7525 -5.3326 -1.8494 0.9709
5.6242 -4.4035 -1.8494 0.9709
6.2651 -4.0597 -1.9329 0.9696
6.8355 -3.6080 -2.0012 0.9686
7.1314 -2.9846 -2.0016 0.9686
7.3691 -2.3367 -2.0016 0.9686
7.5482 -1.6703 -2.0016 0.9686
7.6670 -0.9905 -2.0016 0.9686
7.7248 -0.3028 -2.0016 0.9686
7.7210 0.3873 -2.0016 0.9686
6.7969 3.6833 -2.0016 0.9686
6.0345 4.8322 -2.0016 0.9686
5.0801 5.8274 -2.0017 0.9686
3.7983 6.3596 -1.9180 0.9699
1.8479 6.6640 -1.7905 0.9718
0.6583 7.1423 -1.8571 0.9708
-0.6128 7.0513 -1.8326 0.9712
-1.8806 6.9217 -1.8571 0.9708
-3.0803 6.4776 -1.8571 0.9708
-6.7779 3.7189 -2.0017 0.9686
-7.0826 3.0996 -2.0017 0.9686
-7.6504 1.1143 -2.0017 0.9686
-7.5571 -1.6309 -2.0017 0.9686
-6.4960 -4.1614 -1.9975 0.9686
-5.6473 -4.3742 -1.8495 0.9709
-5.2347 -4.8604 -1.8495 0.9709
-4.7804 -5.3079 -1.8495 0.9709
-4.2880 -5.7130 -1.8495 0.9709
-3.7614 -6.0726 -1.8495 0.9709
-2.0198 -6.8516 -1.8495 0.9709
-1.4007 -7.0044 -1.8495 0.9709
-0.7705 -7.1014 -1.8495 0.9709
1.1368 -7.0520 -1.8495 0.9709
1.7611 -6.9225 -1.8495 0.9709
2.3714 -6.7379 -1.8495 0.9709
4.0704 -5.8698 -1.8494 0.9709
4.5776 -5.4834 -1.8494 0.9709
5.0484 -5.0533 -1.8494 0.9709
5.8803 -4.0862 -1.8540 0.9708
7.0312 -3.2136 -2.0016 0.9686
7.7110 -0.5523 -2.0016 0.9686
7.6865 0.8263 -2.0016 0.9686
7.4174 2.1787 -2.0016 0.9686
6.9124 3.4617 -2.0016 0.9686
6.5762 4.0644 -2.0016 0.9686
5.2658 5.6601 -2.0017 0.9686
4.0827 6.3594 -1.9567 0.9693
3.3246 6.3637 -1.8590 0.9708
1.5200 7.0096 -1.8571 0.9708
0.2298 6.5752 -1.7035 0.9732
-0.3848 7.0726 -1.8339 0.9712
-1.0146 7.0137 -1.8349 0.9711
-2.2716 6.8034 -1.8571 0.9708
-2.8693 6.5737 -1.8571 0.9708
-4.1295 6.1656 -1.9214 0.9698
-5.3749 5.5570 -2.0017 0.9686
-6.2766 4.5138 -2.0017 0.9686
-6.6542 3.9361 -2.0017 0.9686
-6.9787 3.3270 -2.0017 0.9686
-7.6992 -0.7020 -2.0017 0.9686
-7.6059 -1.3858 -2.0017 0.9686
-7.4520 -2.0586 -2.0017 0.9686
-7.2387 -2.7149 -2.0017 0.9686
-6.9678 -3.3497 -2.0017 0.9686
-6.0228 -4.3610 -1.9253 0.9697
-2.8361 -6.5560 -1.8495 0.9709
-2.2402 -6.7828 -1.8495 0.9709
0.2728 -7.1379 -1.8495 0.9709
2.1524 -6.8110 -1.8495 0.9709
3.3281 -6.3203 -1.8495 0.9709
3.8785 -5.9983 -1.8494 0.9709
5.7309 -4.2636 -1.8494 0.9709
6.9236 -3.4392 -2.0016 0.9686
7.2027 -2.8080 -2.0016 0.9686
7.5870 -1.4838 -2.0016 0.9686
7.6891 -0.8013 -2.0016 0.9686
7.7092 0.5774 -2.0016 0.9686
7.4840 1.9378 -2.0016 0.9686
7.0207 3.2364 -2.0016 0.9686
6.7041 3.8497 -2.0016 0.9686
6.3341 4.4322 -2.0016 0.9686
5.4460 5.4870 -2.0016 0.9686
4.9350 5.9508 -2.0017 0.9686
4.3789 6.3588 -1.9990 0.9686
2.3592 6.7734 -1.8571 0.9708
1.7458 6.9568 -1.8571 0.9708
-0.1580 7.1708 -1.8571 0.9708
-0.7864 7.0350 -1.8328 0.9712
-1.3274 6.5271 -1.7246 0.9729
2.2163 -6.1456 -1.8495 0.9732
3.2728 -5.6541 -1.8495 0.9732
4.6527 -4.5861 -1.8494 0.9732
5.0431 -4.1529 -1.8494 0.9732
5.8190 -3.9776 -1.9954 0.9711
6.1698 -3.4536 -2.0016 0.9710
6.8639 -1.6972 -2.0016 0.9710
6.9879 -1.0783 -2.0016 0.9710
7.0241 0.8098 -2.0016 0.9710
6.5592 2.6402 -2.0016 0.9710
5.9858 3.7635 -2.0016 0.9710
5.6264 4.2823 -2.0016 0.9710
4.2922 5.6189 -2.0017 0.9710
3.7740 5.9793 -2.0017 0.9710
1.9222 6.3226 -1.8708 0.9729
1.3408 6.4215 -1.8571 0.9731
0.7628 6.5155 -1.8571 0.9731
0.1787 6.5576 -1.8571 0.9731
-0.9891 6.4851 -1.8571 0.9731
-2.7627 6.1989 -1.9213 0.9722
-3.4384 6.1680 -1.9991 0.9711
-3.9799 5.8444 -2.0017 0.9710
-4.9549 5.0445 -2.0017 0.9710
-5.3850 4.5825 -2.0017 0.9710
-6.1134 3.5530 -2.0017 0.9710
-6.8358 1.8080 -2.0017 0.9710
-7.0483 0.5649 -2.0017 0.9710
-7.0706 -0.0659 -2.0017 0.9710
-6.9464 -1.3209 -2.0017 0.9710
-6.6013 -2.5339 -2.0017 0.9710
-5.6810 -4.1806 -1.9968 0.9711
-4.0493 -5.1270 -1.8495 0.9732
-3.5759 -5.4676 -1.8495 0.9732
-3.0741 -5.7647 -1.8495 0.9732
-2.5477 -6.0159 -1.8495 0.9732
-0.8645 -6.4757 -1.8495 0.9732
0.2997 -6.5262 -1.8495 0.9732
1.4543 -6.3691 -1.8495 0.9732
3.5894 -5.4586 -1.8494 0.9732
4.0619 -5.1168 -1.8494 0.9732
4.9062 -4.3138 -1.8494 0.9732
6.3564 -3.0967 -2.0016 0.9710
6.8054 -1.9182 -2.0016 0.9710
6.9494 -1.3037 -2.0016 0.9710
7.0379 -0.6787 -2.0016 0.9710
6.9666 1.2084 -2.0016 0.9710
6.8310 1.8249 -2.0016 0.9710
6.3982 3.0094 -2.0016 0.9710
6.1044 3.5680 -2.0016 0.9710
5.7618 4.0982 -2.0016 0.9710
5.3734 4.5957 -2.0016 0.9710
4.9422 5.0566 -2.0017 0.9710
3.9653 5.8541 -2.0017 0.9710
2.1484 6.3244 -1.8909 0.9726
1.5477 6.3748 -1.8571 0.9731
0.9730 6.4875 -1.8571 0.9731
-1.9237 6.2717 -1.8571 0.9731
-2.5298 6.2089 -1.8980 0.9725
-3.1876 6.1798 -1.9685 0.9715
-4.3062 5.6084 -2.0017 0.9710
-4.7892 5.2020 -2.0017 0.9710
-5.9954 3.7488 -2.0017 0.9710
-6.3058 3.1992 -2.0017 0.9710
-6.7738 2.0281 -2.0017 0.9710
-6.9277 1.4159 -2.0017 0.9710
-7.0264 0.7924 -2.0017 0.9710
-7.0690 0.1627 -2.0017 0.9710
-7.0554 -0.4684 -2.0017 0.9710
-6.9855 -1.0957 -2.0017 0.9710
-6.8599 -1.7143 -2.0017 0.9710
-6.6797 -2.3192 -2.0017 0.9710
-6.4463 -2.9057 -2.0017 0.9710
-6.1614 -3.4690 -2.0017 0.9710
-5.8222 -4.0010 -1.9999 0.9711
-3.7508 -5.3492 -1.8495 0.9732
-3.2588 -5.6624 -1.8495 0.9732
-2.2011 -6.1512 -1.8495 0.9732
-1.6438 -6.3230 -1.8495 0.9732
0.6708 -6.4985 -1.8495 0.9732
1.2476 -6.4128 -1.8495 0.9732
2.3670 -6.0892 -1.8495 0.9732
2.9006 -5.8538 -1.8495 0.9732
3.8944 -5.2454 -1.8494 0.9732
4.3466 -4.8772 -1.8494 0.9732
4.7642 -4.4701 -1.8494 0.9732
5.2299 -4.0947 -1.8804 0.9728
5.9222 -3.8375 -1.9977 0.9711
6.2530 -3.3005 -2.0016 0.9710
6.7398 -2.1372 -2.0016 0.9710
7.0123 -0.9059 -2.0016 0.9710
7.0652 -0.2769 -2.0016 0.9710
7.0617 0.3543 -2.0016 0.9710
7.0020 0.9826 -2.0016 0.9710
6.7161 2.2109 -2.0016 0.9710
6.4921 2.8010 -2.0016 0.9710
6.2165 3.3688 -2.0016 0.9710
5.8913 3.9098 -2.0016 0.9710
5.5192 4.4196 -2.0016 0.9710
4.6463 5.3298 -2.0017 0.9710
1.1841 6.4628 -1.8600 0.9731
0.6021 6.5324 -1.8571 0.9731
0.0171 6.5600 -1.8571 0.9731
-1.1485 6.4588 -1.8571 0.9731
-2.3022 6.2183 -1.8771 0.9728
-2.9440 6.1909 -1.9407 0.9719
-3.5939 6.0894 -2.0017 0.9710
-5.0776 4.9209 -2.0017 0.9710
-5.8711 3.9406 -2.0017 0.9710
-6.1991 3.4013 -2.0017 0.9710
-6.4777 2.8349 -2.0017 0.9710
-6.7047 2.2460 -2.0017 0.9710
-6.8783 1.6391 -2.0017 0.9710
-6.9971 1.0192 -2.0017 0.9710
-7.0668 -0.2401 -2.0017 0.9710
-7.0173 -0.8693 -2.0017 0.9710
-6.2704 -3.2680 -2.0017 0.9710
-5.9539 -3.8142 -2.0017 0.9710
-4.3721 -4.8546 -1.8495 0.9732
-3.9218 -5.2251 -1.8495 0.9732
-3.4402 -5.5541 -1.8495 0.9732
-1.8473 -6.2665 -1.8495 0.9732
-0.7047 -6.4950 -1.8495 0.9732
-0.1226 -6.5319 -1.8495 0.9732
1.0397 -6.4498 -1.8495 0.9732
1.6107 -6.3314 -1.8495 0.9732
2.7099 -5.9445 -1.8495 0.9732
4.1867 -5.0151 -1.8494 0.9732
4.6173 -4.6218 -1.8494 0.9732
5.0110 -4.1916 -1.8494 0.9732
5.7862 -4.0208 -1.9947 0.9711
6.1430 -3.5009 -2.0016 0.9710
6.4308 -2.9391 -2.0016 0.9710
6.6672 -2.3539 -2.0016 0.9710
6.9794 -1.1321 -2.0016 0.9710
7.0695 0.1258 -2.0016 0.9710
7.0301 0.7558 -2.0016 0.9710
6.3221 3.1661 -2.0016 0.9710
5.6591 4.2389 -2.0016 0.9710
5.2586 4.7267 -2.0017 0.9710
4.3353 5.5857 -2.0017 0.9710
1.9756 6.3231 -1.8754 0.9728
1.3902 6.4110 -1.8571 0.9731
0.8129 6.5095 -1.8571 0.9731
-0.3564 6.5504 -1.8571 0.9731
-1.5144 6.3829 -1.8571 0.9731
-2.0805 6.2311 -1.8597 0.9731
-2.7067 6.2014 -1.9155 0.9723
-3.3780 6.1709 -1.9915 0.9712
-3.9348 5.8749 -2.0017 0.9710
-4.4431 5.5006 -2.0017 0.9710
-5.3496 4.6238 -2.0017 0.9710
-6.6286 2.4615 -2.0017 0.9710
-6.8217 1.8606 -2.0017 0.9710
-7.0438 0.6191 -2.0017 0.9710
-7.0709 -0.0115 -2.0017 0.9710
-7.0417 -0.6420 -2.0017 0.9710
-6.6206 -2.4831 -2.0017 0.9710
-6.3727 -3.0636 -2.0017 0.9710
-6.0741 -3.6197 -2.0017 0.9710
-4.9945 -4.3454 -1.8742 0.9729
-4.0886 -5.0956 -1.8495 0.9732
-3.6179 -5.4400 -1.8495 0.9732
-2.5940 -5.9961 -1.8495 0.9732
-2.0489 -6.2035 -1.8495 0.9732
-0.9142 -6.4688 -1.8495 0.9732
-0.3337 -6.5246 -1.8495 0.9732
0.2495 -6.5283 -1.8495 0.9732
1.4052 -6.3801 -1.8495 0.9732
2.5163 -6.0290 -1.8495 0.9732
3.5473 -5.4861 -1.8494 0.9732
4.0224 -5.1479 -1.8494 0.9732
4.4654 -4.7686 -1.8494 0.9732
4.8729 -4.3514 -1.8494 0.9732
5.4823 -4.0786 -1.9344 0.9720
6.0220 -3.6948 -2.0001 0.9711
6.3324 -3.1455 -2.0016 0.9710
7.0325 -0.7329 -2.0016 0.9710
6.9756 1.1548 -2.0016 0.9710
6.8449 1.7723 -2.0016 0.9710
6.6596 2.3756 -2.0016 0.9710
6.4212 2.9601 -2.0016 0.9710
4.9809 5.0184 -2.0017 0.9710
4.5136 5.4426 -2.0017 0.9710
3.4749 6.1579 -2.0017 0.9710
2.2029 6.3248 -1.8960 0.9725
1.5967 6.3627 -1.8571 0.9731
1.0229 6.4798 -1.8571 0.9731
0.4410 6.5452 -1.8571 0.9731
-0.7288 6.5195 -1.8571 0.9731
1.0026 -5.9288 -1.8495 0.9751
1.5273 -5.8158 -1.8495 0.9752
2.5362 -5.4519 -1.8495 0.9752
3.4643 -4.9147 -1.8495 0.9752
3.8888 -4.5861 -1.8494 0.9752
4.2823 -4.2210 -1.8494 0.9752
4.9590 -4.0837 -1.9759 0.9735
5.3703 -3.6708 -2.0008 0.9731
6.3175 -1.5621 -2.0016 0.9731
6.4316 -0.9925 -2.0016 0.9731
6.4649 0.7454 -2.0016 0.9731
6.2297 1.8820 -2.0016 0.9731
5.7963 2.9587 -2.0016 0.9731
5.5093 3.4639 -2.0016 0.9731
5.1785 3.9414 -2.0016 0.9731
4.8064 4.3875 -2.0017 0.9731
4.3959 4.7986 -2.0017 0.9731
3.9505 5.1716 -2.0017 0.9731
3.4736 5.5033 -2.0017 0.9731
1.3130 6.2883 -1.9758 0.9735
0.1708 6.2691 -1.9290 0.9741
-0.9516 6.2394 -1.9413 0.9739
-1.5264 6.2201 -1.9699 0.9736
-2.6492 5.9443 -2.0017 0.9731
-3.6631 5.3792 -2.0017 0.9731
-5.3127 3.7589 -2.0017 0.9731
-5.8959 2.7553 -2.0017 0.9731
-6.1182 2.2185 -2.0017 0.9731
-6.2916 1.6641 -2.0017 0.9731
-6.5077 -0.0607 -2.0017 0.9731
-6.2595 -1.7811 -2.0017 0.9731
-5.8435 -2.8648 -2.0017 0.9731
-5.5648 -3.3745 -2.0017 0.9731
-5.2417 -3.8573 -2.0017 0.9731
-4.1329 -4.3676 -1.8495 0.9751
-2.8294 -5.3058 -1.8495 0.9751
-2.3449 -5.5370 -1.8495 0.9751
-1.8418 -5.7240 -1.8495 0.9751
-1.3240 -5.8655 -1.8495 0.9751
-0.7956 -5.9602 -1.8495 0.9751
1.3385 -5.8621 -1.8495 0.9752
2.3586 -5.5311 -1.8495 0.9752
2.8425 -5.2987 -1.8495 0.9752
3.3037 -5.0241 -1.8495 0.9752
3.7385 -4.7094 -1.8494 0.9752
4.1436 -4.3573 -1.8494 0.9752
5.2415 -3.8372 -1.9980 0.9732
5.8504 -2.8502 -2.0016 0.9731
6.0813 -2.3171 -2.0016 0.9731
6.2637 -1.7655 -2.0016 0.9731
6.3962 -1.1999 -2.0016 0.9731
6.4777 -0.6247 -2.0016 0.9731
6.5076 -0.0445 -2.0016 0.9731
6.4120 1.1122 -2.0016 0.9731
6.1124 2.2336 -2.0016 0.9731
5.8889 2.7698 -2.0016 0.9731
5.6184 3.2840 -2.0016 0.9731
5.3032 3.7719 -2.0016 0.9731
3.6496 5.3881 -2.0017 0.9731
3.1546 5.6921 -2.0017 0.9731
2.0932 6.1620 -2.0017 0.9731
0.9424 6.2832 -1.9542 0.9738
0.3742 6.2733 -1.9330 0.9740
-0.1861 6.2608 -1.9265 0.9741
-1.3164 6.2275 -1.9578 0.9737
-1.9035 6.2059 -1.9966 0.9732
-3.4873 5.4948 -2.0017 0.9731
-3.9634 5.1619 -2.0017 0.9731
-4.4079 4.7879 -2.0017 0.9731
-4.8174 4.3757 -2.0017 0.9731
-5.5181 3.4503 -2.0017 0.9731
-5.8038 2.9445 -2.0017 0.9731
-6.0433 2.4152 -2.0017 0.9731
-6.2346 1.8666 -2.0017 0.9731
-6.4670 0.7294 -2.0017 0.9731
-6.5063 0.1497 -2.0017 0.9731
-6.4937 -0.4311 -2.0017 0.9731
-6.4294 -1.0085 -2.0017 0.9731
-6.3138 -1.5778 -2.0017 0.9731
-6.1480 -2.1346 -2.0017 0.9731
-5.9331 -2.6744 -2.0017 0.9731
-5.3636 -3.6858 -2.0017 0.9731
-5.0022 -4.1401 -1.9972 0.9732
-3.8775 -4.5959 -1.8495 0.9751
-3.4522 -4.9233 -1.8495 0.9751
-1.5129 -5.8196 -1.8495 0.9751
-0.4550 -5.9958 -1.8495 0.9751
0.0815 -6.0125 -1.8495 0.9751
2.1786 -5.6044 -1.8495 0.9752
2.6697 -5.3878 -1.8495 0.9752
3.1395 -5.1282 -1.8495 0.9752
3.5844 -4.8278 -1.8495 0.9752
5.4614 -3.5389 -2.0016 0.9731
5.7552 -3.0378 -2.0016 0.9731
6.2033 -1.9671 -2.0016 0.9731
6.3540 -1.4060 -2.0016 0.9731
6.4541 -0.8338 -2.0016 0.9731
5.7216 3.1006 -2.0016 0.9731
5.4223 3.5985 -2.0016 0.9731
4.6968 4.5046 -2.0017 0.9731
4.2764 4.9055 -2.0017 0.9731
3.3369 5.5872 -2.0017 0.9731
2.2913 6.0911 -2.0017 0.9731
1.1517 6.2862 -1.9657 0.9736
0.5785 6.2772 -1.9389 0.9740
0.0163 6.2657 -1.9272 0.9741
-1.6883 6.2142 -1.9806 0.9734
-3.7945 5.2873 -2.0017 0.9731
-4.2509 4.9279 -2.0017 0.9731
-5.4037 3.6269 -2.0017 0.9731
-5.7056 3.1305 -2.0017 0.9731
-6.1710 2.0672 -2.0017 0.9731
-6.3307 1.5086 -2.0017 0.9731
-6.4400 0.9380 -2.0017 0.9731
-6.5043 -0.2210 -2.0017 0.9731
-6.4586 -0.8001 -2.0017 0.9731
-6.2137 -1.9347 -2.0017 0.9731
-5.7712 -3.0078 -2.0017 0.9731
-4.0241 -4.4681 -1.8495 0.9751
-3.1663 -5.1119 -1.8495 0.9751
-2.6978 -5.3739 -1.8495 0.9751
-1.7002 -5.7677 -1.8495 0.9751
-0.6486 -5.9779 -1.8495 0.9751
-0.1129 -6.0120 -1.8495 0.9751
0.4237 -5.9981 -1.8495 0.9751
0.9569 -5.9364 -1.8495 0.9751
2.4941 -5.4713 -1.8495 0.9752
2.9721 -5.2270 -1.8495 0.9752
3.8534 -4.6159 -1.8494 0.9752
5.6540 -3.2222 -2.0016 0.9731
6.1365 -2.1665 -2.0016 0.9731
6.3053 -1.6107 -2.0016 0.9731
6.4238 -1.0420 -2.0016 0.9731
