ply
format ascii 1.0
element vertex 1586
property float32 x
property float32 y
property float32 z
property float32 I
end_header
16.2428 4.6002 -2.0053 0.9343
15.7666 6.0312 -2.0052 0.9343
14.0692 6.8783 -1.8603 0.9389
11.6073 12.2467 -2.0043 0.9343
9.2428 14.1116 -2.0038 0.9343
6.5849 15.5256 -2.0032 0.9343
3.7186 16.4439 -2.0026 0.9343
2.2358 16.7075 -2.0023 0.9344
-2.2689 16.6948 -2.0013 0.9344
-7.9621 14.8364 -2.0001 0.9344
-9.2532 14.0645 -1.9998 0.9344
-8.2438 8.6623 -1.4205 0.9530
-12.6437 11.1067 -1.9991 0.9345
-8.3623 6.1151 -1.2306 0.9591
-16.1953 4.5509 -1.9983 0.9345
-16.7453 1.5990 -1.9982 0.9345
-16.8210 0.0982 -1.9981 0.9345
-16.7627 -1.4035 -1.9981 0.9345
-7.1008 -2.6052 -0.8985 0.9700
-7.0137 -3.3105 -0.9213 0.9692
-13.4103 -7.8640 -1.8466 0.9393
-10.8512 -11.1388 -1.8472 0.9393
-9.8149 -12.0642 -1.8474 0.9393
-7.5157 -13.6206 -1.8479 0.9393
-2.2761 -15.3988 -1.8490 0.9392
-0.8928 -15.5429 -1.8493 0.9392
0.4517 -14.1164 -1.6777 0.9447
5.7439 -13.9949 -1.7970 0.9409
7.1410 -13.7558 -1.8410 0.9395
8.3868 -13.1366 -1.8513 0.9391
11.5715 -10.4496 -1.8520 0.9391
12.4592 -9.3761 -1.8522 0.9391
7.7545 -4.8160 -1.0843 0.9639
13.9301 -7.0129 -1.8526 0.9391
14.5014 -5.7421 -1.8527 0.9391
14.9568 -4.4252 -1.8528 0.9391
16.5512 -3.3256 -2.0053 0.9343
16.7824 -1.8352 -2.0054 0.9343
16.8794 -0.3301 -2.0054 0.9343
16.8415 1.1777 -2.0054 0.9343
16.6689 2.6760 -2.0054 0.9343
16.3630 4.1529 -2.0053 0.9343
12.5393 7.1239 -1.7131 0.9436
12.3320 8.5463 -1.7823 0.9414
12.9573 10.8121 -2.0046 0.9343
10.8262 12.9405 -2.0042 0.9343
8.3509 14.6552 -2.0036 0.9343
4.1685 16.3365 -2.0027 0.9343
2.6934 16.6407 -2.0024 0.9344
1.1973 16.8120 -2.0021 0.9344
-1.8101 16.7516 -2.0014 0.9344
-3.2974 16.5205 -2.0011 0.9344
-4.7579 16.1577 -2.0008 0.9344
-6.1801 15.6662 -2.0005 0.9344
-11.2648 12.5064 -1.9994 0.9344
-12.3346 11.4498 -1.9991 0.9345
-13.3058 10.3022 -1.9989 0.9345
-16.0646 4.9936 -1.9983 0.9345
8.8514 11.0290 -2.0037 0.9445
7.8309 11.7737 -2.0035 0.9445
5.6116 12.9753 -2.0030 0.9445
1.9731 13.9928 -2.0022 0.9445
0.7163 14.1111 -2.0020 0.9445
-1.8034 14.0099 -2.0014 0.9445
-4.2642 13.4625 -2.0009 0.9445
-3.6383 8.6993 -1.3361 0.9626
-5.6484 8.7188 -1.4719 0.9589
-6.8042 6.0628 -1.2913 0.9639
-10.5127 7.8022 -1.8549 0.9485
-13.5540 3.9122 -1.9989 0.9446
-13.8486 2.6868 -1.9988 0.9446
-14.0328 1.4401 -1.9987 0.9446
-14.0652 -1.0777 -1.9987 0.9446
-6.7223 -3.1151 -1.0498 0.9705
-8.3011 -10.0576 -1.8477 0.9487
-7.3711 -10.7595 -1.8479 0.9487
-6.3822 -11.3757 -1.8482 0.9487
-3.1419 -12.6647 -1.8489 0.9486
-1.9993 -12.8963 -1.8491 0.9486
-0.8405 -13.0251 -1.8493 0.9486
1.4890 -12.9705 -1.8499 0.9486
2.6410 -12.7876 -1.8501 0.9486
5.9364 -11.6356 -1.8508 0.9486
6.9520 -11.0607 -1.8510 0.9486
8.8097 -9.6506 -1.8514 0.9486
9.6368 -8.8268 -1.8516 0.9486
6.6298 -5.0629 -1.1820 0.9669
7.7566 -4.8935 -1.2995 0.9636
11.6335 -5.9600 -1.8521 0.9486
12.1197 -4.8982 -1.8522 0.9486
13.5012 -4.0984 -1.9992 0.9446
13.8517 -2.8851 -2.0048 0.9444
14.0543 -1.6374 -2.0048 0.9444
13.9859 2.1441 -2.0048 0.9444
13.7384 3.3837 -2.0048 0.9444
12.9168 5.7718 -2.0046 0.9444
11.4575 6.4027 -1.8597 0.9484
9.6413 6.5813 -1.6540 0.9539
10.1351 8.3365 -1.8594 0.9484
6.5488 6.4487 -1.3023 0.9636
9.1509 10.7824 -2.0038 0.9445
3.5910 13.6699 -2.0026 0.9445
2.3564 13.9340 -2.0023 0.9445
-0.1584 14.1271 -2.0018 0.9445
-1.4184 14.0547 -2.0015 0.9445
-2.6667 13.8701 -2.0012 0.9445
-3.3902 8.7751 -1.3329 0.9627
-6.2433 12.6632 -2.0005 0.9446
-9.3716 10.5534 -1.9998 0.9446
-9.5329 8.9752 -1.8552 0.9485
-13.9881 1.8245 -1.9988 0.9446
-14.0949 0.5688 -1.9987 0.9446
-13.9716 -1.9462 -1.9987 0.9446
-13.7425 -3.1854 -1.9988 0.9446
-7.4613 -2.4490 -1.1127 0.9688
-6.7599 -2.9101 -1.0428 0.9707
-9.4154 -9.0205 -1.8475 0.9487
-7.6633 -10.5528 -1.8479 0.9487
-6.6916 -11.1959 -1.8481 0.9487
-5.6663 -11.7499 -1.8483 0.9487
-2.3523 -12.8361 -1.8490 0.9486
-0.0327 -13.0533 -1.8495 0.9486
3.4277 -12.6008 -1.8503 0.9486
4.5392 -12.2462 -1.8505 0.9486
7.6239 -10.6101 -1.8512 0.9486
5.0489 -5.8452 -1.0944 0.9693
9.3907 -9.0875 -1.8516 0.9486
10.1652 -8.2139 -1.8517 0.9486
11.4654 -6.2768 -1.8520 0.9486
11.9806 -5.2288 -1.8521 0.9486
12.7574 -4.2582 -1.9056 0.9471
14.1288 -0.7644 -2.0048 0.9444
13.0705 5.4154 -2.0046 0.9444
11.0387 7.0993 -1.8596 0.9484
10.3603 8.0555 -1.8595 0.9484
8.4654 11.3273 -2.0036 0.9445
5.1605 13.1605 -2.0029 0.9445
3.9648 13.5668 -2.0027 0.9445
1.4893 14.0518 -2.0021 0.9445
0.2292 14.1267 -2.0019 0.9445
-1.0324 14.0889 -2.0016 0.9445
-3.5198 13.6772 -2.0011 0.9445
-5.8938 12.8302 -2.0005 0.9446
-8.0790 11.5753 -2.0001 0.9446
-10.7752 7.4348 -1.8549 0.9485
-12.3898 5.6110 -1.9271 0.9465
-13.3194 4.6498 -1.9989 0.9446
-13.6807 3.4423 -1.9988 0.9446
-13.9329 2.2076 -1.9988 0.9446
-14.0741 0.9552 -1.9987 0.9446
-13.8246 -2.8072 -1.9988 0.9446
-8.0616 -2.4031 -1.1919 0.9666
-11.0606 -6.9007 -1.8472 0.9487
-9.6591 -8.7586 -1.8475 0.9487
-8.8396 -9.5865 -1.8476 0.9487
-7.9496 -10.3383 -1.8478 0.9487
-2.7034 -12.7662 -1.8489 0.9486
-1.5534 -12.9583 -1.8492 0.9486
-0.3908 -13.0470 -1.8494 0.9486
1.9356 -12.9121 -1.8499 0.9486
5.2889 -11.9428 -1.8507 0.9486
6.3345 -11.4245 -1.8509 0.9486
9.9358 -8.4894 -1.8517 0.9486
7.9851 -4.6606 -1.3100 0.9633
13.6723 -3.6404 -2.0047 0.9444
13.9431 -2.4057 -2.0048 0.9444
14.1024 -1.1517 -2.0048 0.9444
14.1491 0.1115 -2.0048 0.9444
13.6133 3.8555 -2.0047 0.9444
8.8533 6.5021 -1.5564 0.9566
8.7732 11.0912 -2.0037 0.9445
6.6601 12.4714 -2.0033 0.9445
2.5130 7.7977 -1.1608 0.9674
3.1173 13.7849 -2.0025 0.9445
-0.6455 14.1125 -2.0017 0.9445
-1.9022 13.9966 -2.0014 0.9445
-1.9959 8.7430 -1.2707 0.9644
-5.5398 12.9876 -2.0006 0.9446
-7.2663 7.6352 -1.4934 0.9583
-8.3623 6.1152 -1.4679 0.9590
-10.0247 6.0370 -1.6581 0.9538
-11.7713 5.7250 -1.8547 0.9485
-13.5812 3.8164 -1.9988 0.9446
-14.0572 -1.1770 -1.9987 0.9446
-9.0024 -2.4167 -1.3207 0.9630
-6.7162 -3.9385 -1.1032 0.9690
-10.6128 -7.5724 -1.8473 0.9487
-9.8954 -8.4901 -1.8474 0.9487
-8.2300 -10.1160 -1.8478 0.9487
-7.2950 -10.8113 -1.8480 0.9487
-6.3018 -11.4206 -1.8482 0.9487
-1.9083 -12.9103 -1.8491 0.9486
-0.7485 -13.0308 -1.8494 0.9486
0.4175 -13.0474 -1.8496 0.9486
1.5805 -12.9598 -1.8499 0.9486
2.7313 -12.7688 -1.8501 0.9486
6.0185 -11.5935 -1.8508 0.9486
8.8776 -9.5883 -1.8515 0.9486
9.6989 -8.7585 -1.8516 0.9486
7.7546 -4.8160 -1.2934 0.9638
11.6753 -5.8778 -1.8521 0.9486
13.5403 -4.0061 -2.0007 0.9446
13.8718 -2.7872 -2.0048 0.9444
14.0655 -1.5381 -2.0048 0.9444
14.1468 -0.2767 -2.0048 0.9444
13.9704 2.2428 -2.0048 0.9444
12.8757 5.8628 -2.0046 0.9444
9.0745 10.8467 -2.0038 0.9445
7.0000 12.2844 -2.0033 0.9445
5.8749 12.8586 -2.0031 0.9445
2.7178 7.7028 -1.1573 0.9675
1.4297 8.8333 -1.2679 0.9645
-0.2581 14.1255 -2.0018 0.9445
-2.7646 13.8508 -2.0012 0.9445
-3.9892 13.5470 -2.0010 0.9445
-5.1816 13.1352 -2.0007 0.9446
-8.4730 11.2893 -2.0000 0.9446
-10.3517 8.0149 -1.8550 0.9485
-11.0249 7.0585 -1.8548 0.9485
-13.0447 5.3734 -1.9990 0.9446
7.0621 8.7995 -1.8587 0.9553
2.5045 7.5875 -1.3163 0.9681
2.7646 11.8364 -2.0024 0.9519
-0.3393 8.7755 -1.4467 0.9650
-1.5511 12.0499 -2.0015 0.9519
-3.6678 11.5796 -2.0010 0.9520
-3.6383 8.6993 -1.5534 0.9625
-5.6668 10.7407 -2.0006 0.9520
-6.6021 10.1910 -2.0004 0.9520
-6.7778 8.6574 -1.8113 0.9564
-6.9042 7.3580 -1.6622 0.9599
-9.6056 5.8774 -1.8551 0.9554
-11.9134 2.3113 -1.9992 0.9520
-12.0998 -0.9271 -1.9992 0.9520
-11.9689 -2.0033 -1.9992 0.9520
-9.4650 -2.4694 -1.6114 0.9611
-9.1752 -6.4494 -1.8476 0.9556
-8.5636 -7.2430 -1.8477 0.9555
-7.8836 -7.9790 -1.8478 0.9555
-5.4898 -9.7851 -1.8484 0.9555
-3.6635 -10.6074 -1.8487 0.9555
-1.7196 -11.0923 -1.8492 0.9555
0.2799 -11.2239 -1.8496 0.9555
2.2714 -10.9979 -1.8500 0.9555
4.1914 -10.4213 -1.8504 0.9555
5.9787 -9.5121 -1.8508 0.9555
8.2871 -7.5906 -1.8513 0.9555
6.6031 -5.0425 -1.3687 0.9669
10.0039 -5.1251 -1.8517 0.9555
10.6667 -4.3110 -1.8953 0.9544
11.6418 -3.5339 -2.0043 0.9519
12.0852 -1.4080 -2.0044 0.9519
12.1628 -0.3238 -2.0044 0.9519
12.1432 0.7630 -2.0044 0.9519
10.6195 5.9345 -2.0041 0.9519
9.3213 6.3628 -1.8592 0.9553
7.3010 8.6028 -1.8588 0.9553
6.2894 8.9156 -1.7974 0.9567
2.7390 7.5917 -1.3296 0.9678
2.0266 11.9839 -2.0022 0.9519
0.9488 12.1155 -2.0020 0.9519
-4.3771 11.3295 -2.0009 0.9520
-5.3702 10.8924 -2.0006 0.9520
-5.2770 8.6570 -1.6702 0.9597
-6.7045 9.0655 -1.8575 0.9553
-10.6514 5.6427 -1.9857 0.9523
-11.1889 4.7016 -1.9994 0.9520
-12.0335 1.5695 -1.9992 0.9520
-12.1206 -0.5948 -1.9991 0.9520
-7.2130 -2.3674 -1.2506 0.9697
-5.9283 -3.9286 -1.1716 0.9716
-8.7588 -7.0052 -1.8477 0.9556
-6.5919 -9.0775 -1.8481 0.9555
-3.9529 -10.5026 -1.8487 0.9555
-3.0001 -10.8147 -1.8489 0.9555
-2.0232 -11.0406 -1.8491 0.9555
-1.0299 -11.1784 -1.8493 0.9555
-0.0281 -11.2270 -1.8495 0.9555
0.9741 -11.1860 -1.8497 0.9555
1.9688 -11.0557 -1.8500 0.9555
3.9038 -10.5320 -1.8504 0.9555
4.8288 -10.1426 -1.8506 0.9555
6.5564 -9.1244 -1.8510 0.9555
5.0489 -5.8452 -1.2724 0.9692
8.0756 -7.8148 -1.8513 0.9555
11.8385 -2.8067 -2.0043 0.9519
12.1595 0.4296 -2.0044 0.9519
12.0726 1.5131 -2.0044 0.9519
11.6107 3.6352 -2.0043 0.9519
11.2395 4.6568 -2.0042 0.9519
6.3809 10.3510 -2.0032 0.9519
3.1474 6.3040 -1.1608 0.9718
4.4381 11.3182 -2.0028 0.9519
-0.6477 8.8392 -1.4601 0.9647
-5.0696 11.0360 -2.0007 0.9520
-6.9494 9.9569 -2.0003 0.9520
-11.4581 4.0000 -1.9993 0.9520
-11.9859 1.8991 -1.9992 0.9520
-12.1074 0.8218 -1.9992 0.9520
-12.1324 -0.2621 -1.9991 0.9520
-6.4319 -2.5621 -1.1406 0.9723
-6.0071 -3.7478 -1.1664 0.9717
-8.9475 -6.7622 -1.8476 0.9556
-8.3089 -7.5343 -1.8478 0.9555
-6.8382 -8.8930 -1.8481 0.9555
-5.1493 -9.9690 -1.8484 0.9555
-4.2394 -10.3899 -1.8486 0.9555
-2.3253 -10.9805 -1.8490 0.9555
-0.3361 -11.2216 -1.8495 0.9555
1.6647 -11.1052 -1.8499 0.9555
2.6495 -10.9135 -1.8501 0.9555
5.4476 -9.8250 -1.8507 0.9555
4.7645 -5.8319 -1.2406 0.9699
7.8579 -8.0332 -1.8512 0.9555
8.5442 -7.3005 -1.8514 0.9555
9.1624 -6.5092 -1.8515 0.9555
7.9856 -4.6610 -1.5232 0.9632
11.9897 -2.0687 -2.0044 0.9519
12.1096 1.1814 -2.0044 0.9519
11.7062 3.3154 -2.0043 0.9519
11.3632 4.3467 -2.0042 0.9519
10.9294 5.3433 -2.0042 0.9519
10.1764 6.1568 -1.9594 0.9529
6.9998 8.8491 -1.8587 0.9553
4.7471 11.1925 -2.0028 0.9519
2.4622 7.6401 -1.3224 0.9680
2.6810 11.8556 -2.0024 0.9519
1.6120 12.0461 -2.0022 0.9519
-0.5552 12.1380 -2.0017 0.9519
-1.6361 12.0386 -2.0015 0.9519
-1.9959 8.7429 -1.4774 0.9643
-3.7494 11.5533 -2.0010 0.9520
-4.7651 11.1713 -2.0008 0.9520
-6.6739 10.1441 -2.0004 0.9520
-6.9043 7.2548 -1.6499 0.9602
-7.8498 6.8956 -1.7213 0.9585
-9.6468 5.8094 -1.8551 0.9554
-10.9145 5.3083 -1.9994 0.9520
-11.3442 4.3129 -1.9993 0.9520
-12.0804 1.1536 -1.9992 0.9520
-12.1350 0.0708 -1.9991 0.9520
-12.0930 -1.0125 -1.9992 0.9520
-11.9545 -2.0878 -1.9992 0.9520
-9.1005 -2.4430 -1.5523 0.9625
-6.4933 -2.3823 -1.1394 0.9724
-6.0789 -3.5648 -1.1609 0.9718
-9.1295 -6.5140 -1.8476 0.9556
-8.5123 -7.3033 -1.8477 0.9555
-7.8271 -8.0345 -1.8479 0.9555
-7.0794 -8.7018 -1.8480 0.9555
-6.2751 -9.2998 -1.8482 0.9555
-5.4206 -9.8237 -1.8484 0.9555
-3.5885 -10.6331 -1.8488 0.9555
-2.6255 -10.9122 -1.8490 0.9555
-1.6413 -11.1043 -1.8492 0.9555
-0.6438 -11.2077 -1.8494 0.9555
1.3594 -11.1462 -1.8498 0.9555
5.1759 -9.9704 -1.8507 0.9555
6.0457 -9.4697 -1.8508 0.9555
4.5703 -5.9185 -1.2319 0.9701
7.6344 -8.2455 -1.8512 0.9555
8.3405 -7.5319 -1.8514 0.9555
6.7164 -5.0544 -1.3848 0.9665
10.8617 -4.3009 -1.9245 0.9537
11.6665 -3.4517 -2.0043 0.9519
11.9284 -2.3968 -2.0043 0.9519
12.0949 -1.3226 -2.0044 0.9519
12.1648 -0.2379 -2.0044 0.9519
12.1375 0.8488 -2.0044 0.9519
12.0131 1.9286 -2.0044 0.9519
11.4783 4.0334 -2.0043 0.9519
10.5773 6.0093 -2.0041 0.9519
6.3821 6.3739 -1.4859 0.9641
7.2401 8.6540 -1.8588 0.9553
5.0525 11.0585 -2.0029 0.9519
2.6833 7.6049 -1.3285 0.9678
1.4297 8.8334 -1.4741 0.9644
-0.2220 12.1491 -2.0018 0.9519
-2.3779 11.9133 -2.0013 0.9519
-4.4570 11.2982 -2.0008 0.9520
-5.4469 10.8542 -2.0006 0.9520
-6.7620 9.0095 -1.8558 0.9554
-6.9039 7.6648 -1.6994 0.9590
-7.4281 6.8952 -1.6696 0.9597
-10.7650 5.6059 -1.9995 0.9520
-11.5890 3.6024 -1.9993 0.9520
7.4625 6.4894 -1.8588 0.9605
6.8531 7.1290 -1.8587 0.9606
4.7186 8.6876 -1.8582 0.9606
3.9240 9.0732 -1.8581 0.9606
2.4980 7.5679 -1.4980 0.9681
-0.2408 6.2268 -1.1713 0.9750
-1.9273 8.7256 -1.6796 0.9643
-3.2148 10.1494 -2.0011 0.9576
-3.6383 8.6993 -1.7724 0.9623
-6.7558 7.1998 -1.8558 0.9606
-6.8042 6.0628 -1.7130 0.9636
-9.0755 5.5530 -1.9998 0.9576
-10.4432 2.0261 -1.9995 0.9576
-10.5822 1.0860 -1.9995 0.9576
-10.6368 0.1372 -1.9995 0.9576
-10.4919 -1.7561 -1.9995 0.9576
-9.5063 -2.4802 -1.8466 0.9608
-4.8119 -8.5769 -1.8485 0.9608
-3.2110 -9.2975 -1.8488 0.9608
-2.3687 -9.5479 -1.8490 0.9608
0.2453 -9.8373 -1.8496 0.9607
1.1224 -9.7771 -1.8498 0.9607
1.9907 -9.6389 -1.8500 0.9607
2.8433 -9.4237 -1.8502 0.9607
3.6734 -9.1332 -1.8503 0.9607
4.4743 -8.7698 -1.8505 0.9607
7.2624 -6.6520 -1.8511 0.9607
6.5780 -5.0234 -1.5557 0.9669
10.6584 -0.2837 -2.0041 0.9575
10.5390 1.6157 -2.0041 0.9575
10.0834 3.4635 -2.0040 0.9575
9.7337 4.3494 -2.0039 0.9575
8.8045 6.0101 -2.0037 0.9575
7.6378 6.2824 -1.8589 0.9605
5.6995 8.0794 -1.8584 0.9606
4.9552 8.5551 -1.8583 0.9606
2.9609 6.3613 -1.3188 0.9718
2.7355 7.5818 -1.5150 0.9677
2.7067 10.3036 -2.0024 0.9576
1.7762 10.5030 -2.0022 0.9576
-0.1194 10.6493 -2.0018 0.9576
-1.0693 10.5951 -2.0016 0.9576
-2.0104 10.4563 -2.0014 0.9576
-3.5595 9.2131 -1.8565 0.9606
-6.5559 7.3826 -1.8558 0.9606
-7.7629 6.0986 -1.8555 0.9606
-8.7556 5.6932 -1.9630 0.9584
-9.4015 4.9805 -1.9998 0.9576
-10.1363 3.2295 -1.9996 0.9576
-10.6291 0.4289 -1.9995 0.9576
-10.3632 -2.4021 -1.9995 0.9576
-7.1472 -2.3459 -1.4139 0.9698
-5.9726 -2.5711 -1.2222 0.9739
-5.9145 -3.1995 -1.2639 0.9730
-5.8946 -3.9063 -1.3292 0.9716
-5.0453 -8.4414 -1.8485 0.9608
-2.6296 -9.4790 -1.8490 0.9608
-1.7733 -9.6768 -1.8492 0.9608
-0.9027 -9.7975 -1.8493 0.9607
1.7255 -9.6896 -1.8499 0.9607
3.4214 -9.2303 -1.8503 0.9607
4.2319 -8.8889 -1.8505 0.9607
5.0088 -8.4766 -1.8506 0.9607
5.0489 -5.8452 -1.4518 0.9691
7.0770 -6.8486 -1.8511 0.9607
8.1830 -5.4820 -1.8513 0.9607
9.7392 -4.2506 -1.9973 0.9577
10.3743 -2.4596 -2.0040 0.9575
10.6466 -0.5760 -2.0041 0.9575
10.6556 0.3765 -2.0041 0.9575
10.5794 1.3260 -2.0041 0.9575
10.4186 2.2649 -2.0040 0.9575
10.1747 3.1856 -2.0040 0.9575
8.9662 5.7664 -2.0037 0.9575
7.2340 6.7427 -1.8588 0.9605
6.6029 7.3609 -1.8586 0.9606
4.7338 6.3342 -1.4863 0.9683
3.1432 6.2955 -1.3226 0.9718
2.9885 10.2258 -2.0025 0.9576
2.0637 10.4507 -2.0023 0.9576
1.1226 10.5921 -2.0020 0.9576
-0.7782 10.6208 -2.0016 0.9576
-3.5628 10.0321 -2.0010 0.9576
-4.1226 8.9745 -1.8563 0.9606
-3.5147 6.1388 -1.3296 0.9716
-7.5928 6.3094 -1.8556 0.9606
-8.2867 5.7178 -1.8924 0.9599
-9.2614 5.2366 -1.9998 0.9576
-10.0440 3.5064 -1.9996 0.9576
-10.5068 1.6647 -1.9995 0.9576
-10.6133 0.7203 -1.9995 0.9576
-8.2678 -2.4646 -1.6216 0.9655
-5.9322 -3.7011 -1.3142 0.9719
-7.8431 -5.9275 -1.8479 0.9608
-7.2833 -6.6043 -1.8480 0.9608
-5.9940 -7.7951 -1.8483 0.9608
-5.2748 -8.2996 -1.8484 0.9608
-4.5134 -8.7380 -1.8486 0.9608
-3.7159 -9.1068 -1.8487 0.9608
-2.0381 -9.6243 -1.8491 0.9608
0.5844 -9.8233 -1.8497 0.9607
1.4590 -9.7330 -1.8499 0.9607
3.1668 -9.3204 -1.8502 0.9607
3.9863 -9.0014 -1.8504 0.9607
4.7742 -8.6105 -1.8506 0.9607
5.5242 -8.1508 -1.8507 0.9607
4.7800 -5.8510 -1.4201 0.9697
6.8864 -7.0400 -1.8510 0.9607
7.4877 -6.3977 -1.8512 0.9607
8.0294 -5.7043 -1.8513 0.9607
7.9862 -4.6613 -1.7381 0.9631
10.3028 -2.7432 -2.0040 0.9575
10.6268 -0.8678 -2.0041 0.9575
10.4769 1.9782 -2.0040 0.9575
9.9578 3.8091 -2.0039 0.9575
9.1211 5.5183 -2.0038 0.9575
7.4164 6.5419 -1.8588 0.9605
6.8025 7.1772 -1.8587 0.9606
5.4173 8.2709 -1.8584 0.9606
3.8598 9.1006 -1.8581 0.9606
1.4163 6.2631 -1.2069 0.9742
1.4128 10.5576 -2.0021 0.9576
0.4649 10.6405 -2.0019 0.9576
-1.9959 8.7429 -1.6856 0.9642
-3.8750 9.0845 -1.8564 0.9606
-5.4273 8.2494 -1.8560 0.9606
-6.8064 7.1519 -1.8557 0.9606
-7.4170 6.5154 -1.8556 0.9606
-7.9684 5.8271 -1.8555 0.9606
-9.1144 5.4888 -1.9998 0.9576
-9.9442 3.7806 -1.9996 0.9576
-10.4573 1.9523 -1.9995 0.9576
-10.5896 1.0112 -1.9995 0.9576
-10.6375 0.0621 -1.9995 0.9576
-9.2151 -2.4738 -1.7934 0.9619
-5.9643 -2.8152 -1.2397 0.9735
-8.0026 -5.7100 -1.8478 0.9608
-7.4615 -6.4019 -1.8479 0.9608
-6.2054 -7.6275 -1.8482 0.9608
-5.5004 -8.1516 -1.8484 0.9608
-4.7513 -8.6107 -1.8485 0.9608
-3.9642 -9.0012 -1.8487 0.9608
-3.1453 -9.3200 -1.8489 0.9608
-1.4386 -9.7326 -1.8492 0.9607
1.1914 -9.7690 -1.8498 0.9607
2.9098 -9.4035 -1.8502 0.9607
3.7378 -9.1071 -1.8504 0.9607
4.5703 -5.9184 -1.4055 0.9700
6.6905 -7.2260 -1.8510 0.9607
8.7982 -4.4293 -1.8515 0.9607
9.9073 -3.9229 -2.0029 0.9576
10.2236 -3.0248 -2.0040 0.9575
10.6602 -0.2085 -2.0041 0.9575
10.6362 0.7438 -2.0041 0.9575
10.0586 3.5346 -2.0040 0.9575
9.7027 4.4180 -2.0039 0.9575
6.3449 7.5841 -1.8586 0.9606
4.1081 8.9916 -1.8581 0.9606
2.6777 7.5891 -1.5127 0.9678
1.4297 8.8334 -1.6819 0.9642
0.7566 10.6241 -2.0020 0.9576
-0.1143 6.2549 -1.1759 0.9749
-2.0841 10.4418 -2.0014 0.9576
-1.8196 6.1793 -1.2108 0.9741
-5.1991 8.3954 -1.8561 0.9606
-5.9272 7.8972 -1.8559 0.9606
-6.6078 7.3361 -1.8558 0.9606
-7.2356 6.7166 -1.8556 0.9606
-9.4363 4.9140 -1.9997 0.9576
-9.8368 4.0520 -1.9997 0.9576
5.5028 6.8567 -1.8584 0.9647
4.8686 7.3199 -1.8583 0.9647
3.4891 8.0676 -1.8580 0.9647
1.2270 8.7013 -1.8575 0.9647
-0.2408 6.2268 -1.3172 0.9748
-4.0980 7.7672 -1.8563 0.9647
-4.7745 7.3699 -1.8562 0.9647
-5.4128 6.9138 -1.8560 0.9647
-6.0078 6.4027 -1.8559 0.9647
-7.5983 5.6392 -2.0001 0.9621
-8.0709 4.9383 -2.0000 0.9621
-8.8195 3.4245 -1.9999 0.9621
-9.4110 0.9658 -1.9997 0.9621
-6.4906 -2.3294 -1.4577 0.9722
-5.8747 -3.3895 -1.4337 0.9727
-6.1454 -6.2198 -1.8482 0.9649
-5.5661 -6.7438 -1.8483 0.9649
-4.9423 -7.2142 -1.8485 0.9649
-3.5816 -7.9792 -1.8488 0.9649
-2.8554 -8.2677 -1.8489 0.9649
-1.3403 -8.6452 -1.8493 0.9649
-0.5634 -8.7311 -1.8494 0.9649
2.5282 -8.3793 -1.8501 0.9648
3.2663 -8.1210 -1.8503 0.9648
3.9783 -7.7977 -1.8504 0.9648
4.6588 -7.4121 -1.8506 0.9648
5.9032 -6.4667 -1.8508 0.9648
6.4572 -5.9145 -1.8509 0.9648
7.4067 -4.6728 -1.8512 0.9648
8.7883 -3.5519 -2.0037 0.9620
9.0706 -2.7534 -2.0037 0.9620
9.2803 -1.9330 -2.0038 0.9620
9.4159 -1.0970 -2.0038 0.9620
9.4610 0.5945 -2.0038 0.9620
7.8282 5.3436 -2.0035 0.9620
7.3196 6.0206 -2.0034 0.9620
6.2650 6.1692 -1.8586 0.9647
3.7092 7.9690 -1.8580 0.9647
2.2329 8.5000 -1.8577 0.9647
0.6860 8.7600 -1.8574 0.9647
-0.8821 8.7409 -1.8570 0.9647
-1.6586 8.6265 -1.8569 0.9647
-3.1653 8.1927 -1.8565 0.9647
-4.5706 7.4982 -1.8562 0.9647
-5.8300 6.5652 -1.8560 0.9647
-6.3923 6.0183 -1.8558 0.9647
-7.9325 5.1580 -2.0001 0.9621
-8.7224 3.6652 -1.9999 0.9621
-9.4527 0.3814 -1.9997 0.9621
-9.4490 -0.4637 -1.9997 0.9621
-9.3699 -1.3052 -1.9997 0.9621
-7.4039 -2.4301 -1.6472 0.9686
-5.9370 -2.5558 -1.3663 0.9739
-5.9045 -3.1941 -1.4190 0.9729
-3.7990 -7.8778 -1.8487 0.9649
-1.5769 -8.6049 -1.8492 0.9649
-0.8027 -8.7121 -1.8494 0.9649
-0.0219 -8.7498 -1.8495 0.9649
0.7591 -8.7176 -1.8497 0.9649
3.0422 -8.2073 -1.8502 0.9648
3.7628 -7.9037 -1.8504 0.9648
5.1089 -7.1099 -1.8507 0.9648
5.0489 -5.8452 -1.6327 0.9689
6.2924 -6.0893 -1.8509 0.9648
6.5262 -5.2734 -1.7736 0.9663
7.2756 -4.8741 -1.8511 0.9648
7.9843 -4.3711 -1.9241 0.9635
8.6875 -3.7916 -2.0036 0.9620
8.9915 -3.0012 -2.0037 0.9620
9.2237 -2.1868 -2.0038 0.9620
9.3823 -1.3549 -2.0038 0.9620
9.4738 0.3347 -2.0038 0.9620
9.4061 1.1789 -2.0038 0.9620
8.7571 3.6283 -2.0037 0.9620
7.9719 5.1269 -2.0035 0.9620
6.5243 6.0812 -1.8853 0.9642
4.7338 6.3342 -1.6715 0.9682
3.1432 6.2956 -1.4874 0.9716
1.2491 6.3254 -1.3629 0.9740
-0.6420 8.7620 -1.8571 0.9647
-1.6112 6.2609 -1.3666 0.9739
-5.1267 6.1025 -1.6847 0.9679
-6.2249 6.1915 -1.8559 0.9647
-8.2362 4.6570 -2.0000 0.9621
-8.6186 3.9031 -1.9999 0.9621
-9.4581 -0.2043 -1.9997 0.9621
-9.2713 -1.8826 -1.9998 0.9621
-8.2100 -2.4473 -1.8109 0.9656
-5.9413 -2.3667 -1.3518 0.9742
-5.9313 -3.0013 -1.4051 0.9732
-5.8633 -3.6581 -1.4608 0.9721
-5.9273 -6.4282 -1.8483 0.9649
-4.0136 -7.7704 -1.8487 0.9649
0.5197 -8.7349 -1.8497 0.9649
2.0647 -8.5049 -1.8500 0.9649
2.8158 -8.2874 -1.8502 0.9648
3.5445 -8.0037 -1.8503 0.9648
4.9118 -7.2472 -1.8506 0.9648
4.7800 -5.8510 -1.5970 0.9696
7.1390 -5.0718 -1.8511 0.9648
8.5706 -4.0240 -2.0014 0.9620
9.3415 -1.6117 -2.0038 0.9620
9.4794 0.0747 -2.0038 0.9620
9.4349 0.9204 -2.0038 0.9620
9.3150 1.7588 -2.0038 0.9620
8.8535 3.3867 -2.0037 0.9620
7.6391 5.6103 -2.0034 0.9620
6.8923 6.0796 -1.9427 0.9631
6.0483 6.3815 -1.8585 0.9647
5.4543 6.8953 -1.8584 0.9647
4.8167 7.3540 -1.8583 0.9647
0.3835 8.7782 -1.8573 0.9647
-0.4014 8.7766 -1.8571 0.9647
-1.1830 8.7049 -1.8570 0.9647
-1.9550 8.5638 -1.8568 0.9647
-6.0528 6.3601 -1.8559 0.9647
-7.6379 5.5854 -2.0001 0.9621
-8.1055 4.8812 -2.0000 0.9621
-8.5084 4.1381 -1.9999 0.9621
-8.8435 3.3621 -1.9999 0.9621
-9.1080 2.5594 -1.9998 0.9621
-9.2998 1.7362 -1.9998 0.9621
-9.4176 0.8993 -1.9997 0.9621
-9.4602 0.0552 -1.9997 0.9621
-9.4274 -0.7893 -1.9997 0.9621
-9.3194 -1.6276 -1.9998 0.9621
-6.3630 -2.3345 -1.4327 0.9727
-5.8720 -3.4434 -1.4389 0.9726
-6.6355 -5.6931 -1.8481 0.9649
-4.8913 -7.2490 -1.8485 0.9649
-3.5252 -8.0044 -1.8488 0.9649
-2.0463 -8.5050 -1.8491 0.9649
-1.2792 -8.6545 -1.8493 0.9649
-0.5017 -8.7349 -1.8494 0.9649
1.0594 -8.6866 -1.8498 0.9649
4.0333 -7.7695 -1.8504 0.9648
4.7110 -7.3791 -1.8506 0.9648
4.5702 -5.9184 -1.5806 0.9699
5.9487 -6.4249 -1.8508 0.9648
6.4988 -5.8687 -1.8510 0.9648
6.6670 -5.0172 -1.7637 0.9665
7.4395 -4.6204 -1.8512 0.9648
8.4410 -4.2495 -1.9976 0.9621
9.0898 -2.6893 -2.0037 0.9620
9.2937 -1.8674 -2.0038 0.9620
9.4566 0.6613 -2.0038 0.9620
8.9431 3.1426 -2.0037 0.9620
8.6267 3.9281 -2.0036 0.9620
8.2414 4.6821 -2.0036 0.9620
6.2212 6.2132 -1.8586 0.9647
3.6528 7.9950 -1.8580 0.9647
2.6722 7.5734 -1.6976 0.9677
2.1729 8.5155 -1.8577 0.9647
0.6242 8.7646 -1.8574 0.9647
-3.9390 7.8492 -1.8564 0.9647
-4.6234 7.4657 -1.8562 0.9647
-5.2709 7.0228 -1.8561 0.9647
-7.3929 5.7241 -1.9764 0.9625
-8.3918 4.3701 -2.0000 0.9621
-8.7480 3.6035 -1.9999 0.9621
6.4316 5.5930 -2.0032 0.9656
5.8137 6.0478 -1.9716 0.9661
4.9489 6.1665 -1.8583 0.9680
4.3785 6.5831 -1.8582 0.9680
2.4777 7.5062 -1.8578 0.9680
0.4006 7.8925 -1.8573 0.9680
-0.2408 6.2268 -1.4645 0.9747
-1.0087 7.8367 -1.8570 0.9681
-3.0479 7.2878 -1.8566 0.9681
-3.6859 6.9861 -1.8564 0.9681
-4.2944 6.6288 -1.8563 0.9681
-5.4350 5.7922 -1.8668 0.9679
-6.3549 5.6624 -2.0004 0.9656
-6.8345 5.0723 -2.0003 0.9656
-7.2596 4.4419 -2.0002 0.9656
-7.9331 3.0803 -2.0001 0.9656
-8.1761 2.3599 -2.0000 0.9656
-8.3539 1.6208 -2.0000 0.9656
-8.4651 0.8687 -1.9999 0.9656
-8.4847 -0.6501 -1.9999 0.9656
-8.3928 -1.4048 -2.0000 0.9656
-6.6059 -2.3708 -1.6495 0.9716
-6.0018 -2.7813 -1.5547 0.9732
-6.0029 -3.4635 -1.6288 0.9719
-6.0044 -5.0785 -1.8483 0.9682
-5.5275 -5.5945 -1.8484 0.9682
-4.4454 -6.4889 -1.8486 0.9682
-3.8488 -6.8602 -1.8487 0.9682
-3.2214 -7.1768 -1.8489 0.9682
-1.8945 -7.6364 -1.8491 0.9682
-1.2055 -7.7756 -1.8493 0.9682
0.1962 -7.8674 -1.8496 0.9682
2.9376 -7.3037 -1.8502 0.9682
3.5780 -7.0129 -1.8503 0.9682
5.3090 -5.8158 -1.8507 0.9682
6.9645 -4.3938 -1.9353 0.9667
7.5866 -3.8867 -2.0034 0.9656
7.9035 -3.1942 -2.0035 0.9656
8.5084 0.5346 -2.0036 0.9656
7.7829 3.4777 -2.0035 0.9656
7.4412 4.1583 -2.0034 0.9656
6.5827 5.4145 -2.0032 0.9656
4.5576 6.4607 -1.8582 0.9680
3.3359 7.1670 -1.8579 0.9680
2.0082 7.6447 -1.8577 0.9680
0.6170 7.8787 -1.8573 0.9680
-0.6340 6.2826 -1.4841 0.9744
-1.4917 7.7588 -1.8569 0.9681
-2.8469 7.3688 -1.8566 0.9681
-4.6962 6.3500 -1.8562 0.9681
-5.2439 5.9052 -1.8561 0.9681
-6.1136 5.7559 -1.9734 0.9661
-6.6929 5.2580 -2.0003 0.9656
-7.5204 3.9840 -2.0002 0.9656
-7.8456 3.2968 -2.0001 0.9656
-8.1083 2.5833 -2.0000 0.9656
-8.4381 1.1006 -2.0000 0.9656
-8.5026 0.3431 -1.9999 0.9656
-8.4282 -1.1740 -1.9999 0.9656
-8.2899 -1.9216 -2.0000 0.9656
-5.9998 -3.2456 -1.6032 0.9724
-6.0831 -4.0312 -1.7151 0.9705
-6.1414 -4.9118 -1.8482 0.9682
-5.1709 -5.9261 -1.8484 0.9682
-4.0355 -6.7519 -1.8487 0.9682
-2.1032 -7.5814 -1.8491 0.9682
-0.0197 -7.8696 -1.8495 0.9682
1.3799 -7.7490 -1.8498 0.9682
4.0054 -6.7784 -1.8504 0.9682
5.0493 -5.8456 -1.8154 0.9688
5.6590 -5.4763 -1.8508 0.9682
6.5918 -4.4160 -1.8647 0.9679
7.8128 -3.4098 -2.0034 0.9656
8.2950 -1.9666 -2.0036 0.9656
8.4376 -1.2185 -2.0036 0.9656
8.5127 -0.4605 -2.0036 0.9656
7.8754 3.2630 -2.0035 0.9656
7.1693 4.6108 -2.0033 0.9656
6.7289 5.2320 -2.0032 0.9656
4.7158 6.3101 -1.8514 0.9681
3.1432 6.2956 -1.6538 0.9715
2.2173 7.5870 -1.8577 0.9680
1.5312 7.7540 -1.8575 0.9680
-0.5775 7.8806 -1.8571 0.9681
-2.6438 7.4443 -1.8566 0.9681
-4.5204 6.4766 -1.8562 0.9681
-5.0800 6.0469 -1.8561 0.9681
-7.0052 4.8335 -2.0003 0.9656
-7.4084 4.1888 -2.0002 0.9656
-8.0345 2.8048 -2.0000 0.9656
-8.2525 2.0765 -2.0000 0.9656
-8.4900 0.5762 -1.9999 0.9656
-8.5075 -0.1838 -1.9999 0.9656
-8.4572 -0.9424 -1.9999 0.9656
-8.3394 -1.6934 -2.0000 0.9656
-5.9603 -2.3742 -1.5079 0.9740
-6.0199 -3.0461 -1.5856 0.9727
-6.2737 -4.7414 -1.8482 0.9682
-5.3314 -5.7819 -1.8484 0.9682
-4.7944 -6.2350 -1.8485 0.9682
-3.6100 -6.9890 -1.8488 0.9682
-2.3103 -7.5207 -1.8490 0.9682
-0.9366 -7.8128 -1.8493 0.9682
0.4674 -7.8562 -1.8496 0.9682
1.1668 -7.7837 -1.8498 0.9682
4.4174 -6.5178 -1.8505 0.9682
6.4203 -4.5612 -1.8509 0.9682
7.3394 -4.2838 -1.9972 0.9657
7.7162 -3.6228 -2.0034 0.9656
8.0090 -2.9198 -2.0035 0.9656
8.4969 -0.6939 -2.0036 0.9656
8.4849 0.8278 -2.0036 0.9656
7.9621 3.0457 -2.0035 0.9656
7.2932 4.4124 -2.0034 0.9656
6.3920 5.6382 -2.0032 0.9656
5.7325 6.0483 -1.9585 0.9663
4.9077 6.2044 -1.8592 0.9680
1.4163 6.2631 -1.5091 0.9740
0.2755 6.3050 -1.4832 0.9744
-1.7584 7.7025 -1.8568 0.9681
-2.4386 7.5142 -1.8567 0.9681
-4.3411 6.5983 -1.8563 0.9681
-4.9123 6.1841 -1.8561 0.9681
-6.3946 5.6173 -2.0004 0.9656
-7.2907 4.3906 -2.0002 0.9656
-7.6532 3.7222 -2.0001 0.9656
-7.9546 3.0242 -2.0001 0.9656
-8.3651 1.5617 -2.0000 0.9656
-8.5094 0.0497 -1.9999 0.9656
-8.2188 -2.2063 -2.0000 0.9656
-6.0053 -2.8346 -1.5607 0.9731
-6.0086 -3.5236 -1.6371 0.9718
-5.9685 -5.1208 -1.8483 0.9682
-4.3995 -6.5201 -1.8486 0.9682
-3.1707 -7.1994 -1.8489 0.9682
-2.5157 -7.4543 -1.8490 0.9682
-1.8405 -7.6496 -1.8491 0.9682
-1.1505 -7.7840 -1.8493 0.9682
0.9528 -7.8126 -1.8498 0.9682
2.9891 -7.2829 -1.8502 0.9682
3.6274 -6.9875 -1.8503 0.9682
4.8126 -6.2322 -1.8506 0.9682
5.3499 -5.7782 -1.8507 0.9682
7.0650 -4.3878 -1.9546 0.9664
8.3580 -1.6794 -2.0036 0.9656
8.4746 -0.9267 -2.0036 0.9656
8.5235 -0.1667 -2.0036 0.9656
8.5044 0.5947 -2.0036 0.9656
8.2630 2.0971 -2.0036 0.9656
8.0427 2.8262 -2.0035 0.9656
7.7581 3.5326 -2.0035 0.9656
7.4116 4.2107 -2.0034 0.9656
7.0059 4.8552 -2.0033 0.9656
6.5443 5.4608 -2.0032 0.9656
6.0305 6.0228 -2.0031 0.9656
4.5118 6.4927 -1.8582 0.9680
3.9141 6.8690 -1.8581 0.9680
2.6301 7.4543 -1.8578 0.9680
1.9542 7.6587 -1.8576 0.9680
0.5614 7.8828 -1.8573 0.9680
-0.6793 6.2864 -1.4860 0.9744
-1.5465 7.7480 -1.8569 0.9681
-4.7409 6.3167 -1.8562 0.9681
-6.1958 5.7514 -1.9868 0.9659
-6.7298 5.2106 -2.0003 0.9656
-7.1677 4.5890 -2.0002 0.9656
-7.8687 3.2413 -2.0001 0.9656
-8.1264 2.5260 -2.0000 0.9656
5.8377 5.0765 -2.0030 0.9685
5.3611 5.5769 -2.0029 0.9685
4.8305 6.0189 -1.9982 0.9686
3.4249 6.3058 -1.8580 0.9708
2.8483 6.5858 -1.8578 0.9708
2.2490 6.8133 -1.8577 0.9708
1.4605 6.2528 -1.6625 0.9738
1.0017 7.1035 -1.8574 0.9708
0.3637 7.1641 -1.8573 0.9708
-0.9157 7.1135 -1.8570 0.9708
-1.5468 7.0029 -1.8569 0.9708
-2.7667 6.6154 -1.8566 0.9708
-3.8983 6.0173 -1.8564 0.9708
-4.5456 5.8061 -1.9092 0.9700
-5.7687 5.1401 -2.0005 0.9686
-6.9234 3.4279 -2.0003 0.9686
-7.2015 2.7962 -2.0002 0.9686
-7.4221 2.1423 -2.0002 0.9686
-7.5836 1.4713 -2.0001 0.9686
-7.6845 0.7886 -2.0001 0.9686
-7.7023 -0.5902 -2.0001 0.9686
-7.0094 -3.2482 -2.0002 0.9686
-6.6917 -3.8609 -2.0003 0.9686
-6.3111 -4.4362 -1.9974 0.9686
-5.0177 -5.0785 -1.8485 0.9709
-4.0354 -5.8903 -1.8487 0.9709
-3.4938 -6.2274 -1.8488 0.9709
-2.9242 -6.5147 -1.8489 0.9709
-1.7197 -6.9318 -1.8492 0.9709
-1.0942 -7.0581 -1.8493 0.9709
0.1781 -7.1413 -1.8496 0.9709
0.8148 -7.0974 -1.8497 0.9709
1.4451 -6.9969 -1.8499 0.9709
2.6664 -6.6295 -1.8501 0.9709
3.8030 -6.0506 -1.8504 0.9709
4.3281 -5.6874 -1.8505 0.9709
5.2709 -4.8279 -1.8507 0.9709
6.5335 -4.1219 -2.0001 0.9686
6.8859 -3.5278 -2.0032 0.9685
7.1735 -2.8992 -2.0033 0.9685
7.5750 -1.5778 -2.0034 0.9685
7.6857 -0.8954 -2.0034 0.9685
7.7225 0.4853 -2.0034 0.9685
7.6483 1.1726 -2.0034 0.9685
7.5131 1.8504 -2.0034 0.9685
7.0641 3.1565 -2.0033 0.9685
6.7539 3.7743 -2.0032 0.9685
6.3899 4.3618 -2.0032 0.9685
5.5121 5.4279 -2.0030 0.9685
4.2477 6.0214 -1.9079 0.9700
2.4351 6.7492 -1.8577 0.9708
1.1962 7.0736 -1.8575 0.9708
-0.0804 7.1725 -1.8572 0.9708
-3.1707 6.4312 -1.8565 0.9708
-3.7318 6.1221 -1.8564 0.9708
-4.3032 5.8186 -1.8738 0.9705
-6.0756 4.7731 -2.0005 0.9686
-6.4771 4.2116 -2.0004 0.9686
-6.8269 3.6166 -2.0003 0.9686
-7.1222 2.9928 -2.0002 0.9686
-7.5404 1.6788 -2.0001 0.9686
-7.6600 0.9991 -2.0001 0.9686
-7.3399 -2.4091 -2.0002 0.9686
-6.1133 -2.6317 -1.7233 0.9729
-6.7950 -3.6758 -2.0003 0.9686
-6.4397 -4.2675 -2.0002 0.9686
-5.8818 -4.7042 -1.9501 0.9694
-5.1551 -4.9388 -1.8484 0.9709
-4.6940 -5.3795 -1.8485 0.9709
-3.6632 -6.1290 -1.8488 0.9709
-3.1018 -6.4319 -1.8489 0.9709
-2.5155 -6.6836 -1.8490 0.9709
-1.9091 -6.8819 -1.8491 0.9709
-1.2874 -7.0253 -1.8493 0.9709
-0.0179 -7.1433 -1.8495 0.9709
1.2526 -7.0338 -1.8498 0.9709
1.8755 -6.8944 -1.8500 0.9709
2.4835 -6.7000 -1.8501 0.9709
3.0717 -6.4521 -1.8502 0.9709
3.6356 -6.1526 -1.8503 0.9709
4.1704 -5.8039 -1.8505 0.9709
5.1364 -4.9706 -1.8507 0.9709
5.5598 -4.4926 -1.8508 0.9709
6.4087 -4.2933 -1.9973 0.9686
6.7865 -3.7153 -2.0032 0.9685
7.3394 -2.4497 -2.0034 0.9685
7.7329 0.2732 -2.0034 0.9685
7.5610 1.6437 -2.0034 0.9685
7.1481 2.9616 -2.0033 0.9685
6.5072 4.1850 -2.0032 0.9685
4.4993 6.0204 -1.9460 0.9694
3.7657 6.1087 -1.8580 0.9708
3.1265 6.2621 -1.8122 0.9715
2.0126 6.8866 -1.8576 0.9708
0.7561 7.1337 -1.8574 0.9708
0.1164 7.1721 -1.8572 0.9708
-1.1604 7.0775 -1.8570 0.9708
-2.3999 6.7575 -1.8567 0.9708
-2.9932 6.5159 -1.8566 0.9708
-3.4981 6.1098 -1.8229 0.9713
-4.8636 5.7894 -1.9577 0.9692
-5.4783 5.4490 -2.0006 0.9686
-6.7251 3.8025 -2.0003 0.9686
-7.2936 2.5462 -2.0002 0.9686
-7.7071 0.5231 -2.0001 0.9686
-7.5705 -1.5373 -2.0001 0.9686
-6.8933 -3.4880 -2.0003 0.9686
-6.5547 -4.0895 -2.0003 0.9686
-6.1434 -4.6430 -1.9938 0.9687
-5.2885 -4.7955 -1.8484 0.9709
-4.3522 -5.6599 -1.8486 0.9709
-3.8299 -6.0261 -1.8487 0.9709
-2.6979 -6.6119 -1.8490 0.9709
-2.0972 -6.8268 -1.8491 0.9709
-0.8502 -7.0919 -1.8494 0.9709
0.4243 -7.1311 -1.8496 0.9709
4.5218 -5.5349 -1.8505 0.9709
4.9981 -5.1095 -1.8506 0.9709
5.4344 -4.6433 -1.8507 0.9709
6.2019 -4.4060 -1.9698 0.9691
7.2693 -2.6501 -2.0033 0.9685
7.7375 0.0610 -2.0034 0.9685
7.6033 1.4356 -2.0034 0.9685
5.8017 5.1175 -2.0030 0.9685
5.3215 5.6146 -2.0029 0.9685
4.7613 6.0192 -1.9871 0.9688
1.4163 6.2630 -1.6626 0.9738
0.9515 7.1104 -1.8574 0.9708
-1.5961 6.9918 -1.8569 0.9708
-2.2136 6.8209 -1.8567 0.9708
-2.8134 6.5957 -1.8566 0.9708
-3.9406 5.9896 -1.8564 0.9708
-5.3269 5.5973 -2.0006 0.9686
-7.2210 2.7453 -2.0002 0.9686
-7.6899 0.7343 -2.0001 0.9686
-7.7247 0.0451 -2.0001 0.9686
-7.6979 -0.6445 -2.0001 0.9686
-6.6067 -2.4239 -1.8221 0.9713
-6.9863 -3.2976 -2.0003 0.9686
-5.4884 -4.7090 -1.8724 0.9706
-4.9818 -5.1138 -1.8485 0.9709
-4.5057 -5.5383 -1.8486 0.9709
-3.9937 -5.9187 -1.8487 0.9709
2.7131 -6.6105 -1.8501 0.9709
3.2925 -6.3424 -1.8503 0.9709
3.8457 -6.0237 -1.8504 0.9709
4.3682 -5.6568 -1.8505 0.9709
4.8559 -5.2446 -1.8506 0.9709
5.8811 -4.4258 -1.9057 0.9700
6.5649 -4.0772 -2.0009 0.9686
6.9107 -3.4791 -2.0033 0.9685
7.4195 -2.1952 -2.0034 0.9685
7.5860 -1.5242 -2.0034 0.9685
7.6399 1.2265 -2.0034 0.9685
7.2998 2.5651 -2.0034 0.9685
7.0416 3.2063 -2.0033 0.9685
6.3589 4.4068 -2.0032 0.9685
5.4736 5.4666 -2.0030 0.9685
4.1844 6.0215 -1.8986 0.9702
3.5527 6.2348 -1.8580 0.9708
1.1462 7.0818 -1.8575 0.9708
-0.1143 6.2550 -1.6198 0.9745
-1.4038 7.0331 -1.8569 0.9708
-1.8196 6.1794 -1.6679 0.9737
-3.2160 6.4086 -1.8565 0.9708
-3.7749 6.0956 -1.8564 0.9708
-5.6629 5.2567 -2.0006 0.9686
-6.5066 4.1658 -2.0004 0.9686
-6.8522 3.5683 -2.0003 0.9686
4.9030 5.1004 -2.0028 0.9710
4.4280 5.5174 -2.0027 0.9710
3.9177 5.8903 -2.0026 0.9710
2.0569 6.2313 -1.8577 0.9731
0.3326 6.5522 -1.8573 0.9731
-0.2408 6.2268 -1.7641 0.9744
-1.4147 6.4050 -1.8569 0.9731
-1.9806 6.2527 -1.8568 0.9731
-4.3569 5.5652 -2.0008 0.9710
-5.2764 4.7014 -2.0006 0.9710
-5.6747 4.2116 -2.0006 0.9710
-6.3326 3.1354 -2.0004 0.9711
-6.7888 1.9595 -2.0003 0.9711
-7.0450 -0.5398 -2.0002 0.9711
-6.9688 -1.1664 -2.0003 0.9711
-6.8370 -1.7838 -2.0003 0.9711
-6.6506 -2.3869 -2.0003 0.9711
-6.4112 -2.9710 -2.0004 0.9711
-6.1207 -3.5314 -2.0004 0.9711
-4.6332 -4.6893 -1.8662 0.9730
-4.1568 -5.0363 -1.8487 0.9732
-3.1955 -5.6958 -1.8489 0.9732
-2.6746 -5.9586 -1.8490 0.9732
-1.5728 -6.3400 -1.8492 0.9732
-1.0008 -6.4555 -1.8493 0.9732
0.1629 -6.5315 -1.8496 0.9732
2.4386 -6.0632 -1.8501 0.9732
5.6081 -4.2827 -1.9976 0.9711
6.7711 -2.0554 -2.0032 0.9710
7.0289 -0.8189 -2.0033 0.9710
7.0740 -0.1883 -2.0033 0.9710
7.0625 0.4438 -2.0033 0.9710
6.9947 1.0723 -2.0033 0.9710
6.6924 2.2987 -2.0032 0.9710
5.8439 3.9891 -2.0030 0.9710
5.4643 4.4946 -2.0030 0.9710
5.0411 4.9641 -2.0029 0.9710
4.5778 5.3939 -2.0028 0.9710
4.0779 5.7807 -2.0027 0.9710
2.7892 5.9925 -1.8712 0.9729
2.2271 6.1727 -1.8577 0.9731
1.6672 6.3464 -1.8576 0.9731
1.0940 6.4694 -1.8574 0.9731
0.5122 6.5408 -1.8573 0.9731
-0.0736 6.5600 -1.8572 0.9731
-0.6587 6.5268 -1.8571 0.9731
-1.2385 6.4415 -1.8569 0.9731
-1.7701 6.1716 -1.8176 0.9737
-2.9000 5.8822 -1.8566 0.9731
-4.2027 5.6827 -2.0009 0.9710
-4.6928 5.2846 -2.0008 0.9710
-5.1455 4.8445 -2.0007 0.9710
-6.2443 3.3079 -2.0004 0.9711
-6.7325 2.1450 -2.0003 0.9711
-7.0572 -0.3463 -2.0002 0.9711
-6.4902 -2.7940 -2.0004 0.9711
-6.2152 -3.3622 -2.0004 0.9711
-5.8905 -3.9036 -2.0005 0.9711
-5.5109 -4.4075 -1.9977 0.9711
-4.8912 -4.6860 -1.9176 0.9722
-4.2933 -4.9203 -1.8486 0.9732
-1.7461 -6.2943 -1.8492 0.9732
-1.1775 -6.4255 -1.8493 0.9732
-0.5994 -6.5054 -1.8494 0.9732
-0.0164 -6.5333 -1.8495 0.9732
1.7153 -6.3055 -1.8499 0.9732
3.3250 -5.6270 -1.8503 0.9732
4.2729 -4.9467 -1.8505 0.9732
4.6976 -4.5459 -1.8506 0.9732
5.8783 -3.9380 -2.0030 0.9710
7.0661 -0.3823 -2.0033 0.9710
7.0721 0.2499 -2.0033 0.9710
7.0215 0.8801 -2.0033 0.9710
6.7530 2.1143 -2.0032 0.9710
6.5372 2.7085 -2.0032 0.9710
6.2692 3.2810 -2.0031 0.9710
5.5856 4.3430 -2.0030 0.9710
4.7241 5.2664 -2.0028 0.9710
4.2350 5.6667 -2.0027 0.9710
3.6939 5.9921 -1.9927 0.9712
2.9920 5.9928 -1.8962 0.9725
1.8407 6.2984 -1.8576 0.9731
1.2711 6.4371 -1.8575 0.9731
0.6915 6.5244 -1.8574 0.9731
0.1064 6.5597 -1.8572 0.9731
-0.4794 6.5425 -1.8571 0.9731
-1.0613 6.4732 -1.8570 0.9731
-1.6347 6.3522 -1.8569 0.9731
-2.1950 6.1806 -1.8567 0.9731
-4.0453 5.7959 -2.0009 0.9710
-4.5462 5.4115 -2.0008 0.9710
-5.0108 4.9839 -2.0007 0.9710
-5.8165 4.0133 -2.0005 0.9710
-6.1512 3.4780 -2.0005 0.9711
-6.4369 2.9151 -2.0004 0.9711
-6.6712 2.3289 -2.0003 0.9711
-6.8523 1.7242 -2.0003 0.9711
-7.0495 0.4785 -2.0002 0.9711
-6.7714 -2.0185 -2.0003 0.9711
-6.5644 -2.6148 -2.0003 0.9711
-6.3050 -3.1904 -2.0004 0.9711
-5.6368 -4.2601 -2.0002 0.9711
-5.1638 -4.6824 -1.9733 0.9714
-4.4266 -4.8006 -1.8486 0.9732
-3.5030 -5.5117 -1.8488 0.9732
-2.9973 -5.8027 -1.8489 0.9732
-1.9181 -6.2439 -1.8491 0.9732
-1.3533 -6.3906 -1.8493 0.9732
-0.1956 -6.5303 -1.8495 0.9732
0.3880 -6.5221 -1.8496 0.9732
0.9687 -6.4619 -1.8498 0.9732
1.5416 -6.3501 -1.8499 0.9732
2.1023 -6.1876 -1.8500 0.9732
2.6463 -5.9756 -1.8501 0.9732
3.1693 -5.7160 -1.8502 0.9732
4.5710 -4.6730 -1.8505 0.9732
5.1941 -4.4380 -1.9341 0.9720
5.7616 -4.0932 -2.0008 0.9710
6.8380 -1.8207 -2.0032 0.9710
7.0530 -0.5760 -2.0033 0.9710
7.0763 0.0558 -2.0033 0.9710
6.9535 1.3129 -2.0033 0.9710
6.0540 3.6627 -2.0031 0.9710
5.7027 4.1882 -2.0030 0.9710
5.3060 4.6803 -2.0029 0.9710
4.8668 5.1349 -2.0028 0.9710
4.3889 5.5485 -2.0027 0.9710
-0.2909 6.3589 -1.8020 0.9739
-2.5732 6.0326 -1.8567 0.9731
-3.8241 5.8126 -1.9697 0.9715
-4.3961 5.5342 -2.0008 0.9710
-6.0536 3.6455 -2.0005 0.9711
-6.3545 3.0906 -2.0004 0.9711
-6.9458 1.2967 -2.0003 0.9711
-7.0337 0.6717 -2.0003 0.9711
-7.0656 0.0412 -2.0002 0.9711
-7.0410 -0.5895 -2.0002 0.9711
-6.8242 -1.8320 -2.0003 0.9711
-6.3901 -3.0162 -2.0004 0.9711
-6.0956 -3.5746 -2.0004 0.9711
-5.7524 -4.1045 -2.0005 0.9710
-4.5705 -4.6916 -1.8542 0.9731
-4.1211 -5.0656 -1.8487 0.9732
-3.6528 -5.4135 -1.8488 0.9732
-3.1553 -5.7182 -1.8489 0.9732
0.7910 -6.4859 -1.8497 0.9732
1.3668 -6.3899 -1.8498 0.9732
1.9318 -6.2428 -1.8500 0.9732
2.4814 -6.0459 -1.8501 0.9732
3.5171 -5.5091 -1.8503 0.9732
4.4410 -4.7965 -1.8505 0.9732
4.9326 -4.4544 -1.8815 0.9727
5.6400 -4.2444 -1.9982 0.9711
6.5791 -2.6051 -2.0032 0.9710
6.7855 -2.0076 -2.0032 0.9710
6.9377 -1.3940 -2.0033 0.9710
7.0345 -0.7693 -2.0033 0.9710
7.0751 -0.1384 -2.0033 0.9710
7.0592 0.4936 -2.0033 0.9710
5.4324 4.5330 -2.0030 0.9710
4.5395 5.4261 -2.0028 0.9710
4.0369 5.8093 -2.0027 0.9710
3.4148 5.9927 -1.9526 0.9717
2.7379 5.9926 -1.8651 0.9730
1.0483 6.4769 -1.8574 0.9731
-0.1143 6.2550 -1.7710 0.9743
-1.2839 6.4326 -1.8569 0.9731
-1.8114 6.1513 -1.8153 0.9737
-2.4068 6.1010 -1.8567 0.9731
-2.9415 5.8615 -1.8566 0.9731
-3.6064 5.8235 -1.9391 0.9719
-4.2427 5.6529 -2.0009 0.9710
-4.7300 5.2514 -2.0008 0.9710
-6.2674 3.2638 -2.0004 0.9711
-6.5335 2.6913 -2.0004 0.9711
4.9136 4.2729 -2.0028 0.9731
4.5125 4.6942 -2.0028 0.9731
4.0753 5.0780 -2.0027 0.9731
2.5792 5.9638 -1.9985 0.9732
1.3912 5.9564 -1.8814 0.9747
0.8432 5.9796 -1.8574 0.9750
0.3061 6.0306 -1.8573 0.9750
-0.7708 5.9882 -1.8570 0.9750
-1.3031 5.8998 -1.8584 0.9750
-1.8607 5.8743 -1.8953 0.9745
-2.4465 5.8498 -1.9503 0.9738
-3.0360 5.7543 -2.0011 0.9731
-3.5373 5.4601 -2.0010 0.9731
-4.0102 5.1223 -2.0009 0.9731
-4.4512 4.7438 -2.0008 0.9731
-4.8566 4.3274 -2.0007 0.9731
-5.2232 3.8765 -2.0007 0.9731
-6.3846 1.2387 -2.0004 0.9731
-6.4696 0.6639 -2.0004 0.9731
-6.5031 0.0839 -2.0004 0.9731
-6.4144 -1.0736 -2.0004 0.9731
-6.2931 -1.6418 -2.0004 0.9731
-6.1215 -2.1970 -2.0004 0.9731
-5.6337 -3.2505 -2.0005 0.9731
-4.5565 -4.6117 -1.9940 0.9732
-0.9211 -5.9416 -1.8494 0.9752
-0.3872 -6.0005 -1.8495 0.9751
0.1499 -6.0115 -1.8496 0.9751
0.6859 -5.9745 -1.8497 0.9751
2.2444 -5.5804 -1.8500 0.9751
2.7337 -5.3581 -1.8501 0.9751
4.0886 -4.4789 -1.8653 0.9749
4.7856 -4.3833 -1.9961 0.9732
5.5075 -3.4746 -2.0030 0.9731
5.7959 -2.9693 -2.0030 0.9731
6.4690 -0.7537 -2.0032 0.9731
6.3236 1.5575 -2.0031 0.9731
6.1593 2.1156 -2.0031 0.9731
5.9458 2.6568 -2.0031 0.9731
5.6848 3.1768 -2.0030 0.9731
5.3784 3.6714 -2.0029 0.9731
5.0291 4.1366 -2.0029 0.9731
4.6396 4.5687 -2.0028 0.9731
4.2132 4.9643 -2.0027 0.9731
3.7531 5.3203 -2.0026 0.9731
3.2631 5.6337 -2.0025 0.9731
2.1512 5.9624 -1.9496 0.9738
1.5652 5.9582 -1.8948 0.9745
1.0074 5.9569 -1.8582 0.9750
-0.6063 6.0072 -1.8571 0.9750
-1.1399 5.9288 -1.8570 0.9751
-1.6868 5.8811 -1.8818 0.9747
-2.2632 5.8578 -1.9315 0.9741
-3.8683 5.2305 -2.0010 0.9731
-4.7361 4.4590 -2.0008 0.9731
-5.1149 4.0184 -2.0007 0.9731
-5.9961 2.5196 -2.0005 0.9731
-6.1969 1.9744 -2.0004 0.9731
-6.3483 1.4134 -2.0004 0.9731
-6.4490 0.8412 -2.0004 0.9731
-6.4983 0.2622 -2.0004 0.9731
-6.1795 -2.0282 -2.0004 0.9731
-5.9739 -2.5717 -2.0005 0.9731
-5.7207 -3.0947 -2.0005 0.9731
-5.0797 -4.0627 -2.0007 0.9731
-3.5319 -4.8637 -1.8488 0.9752
-0.5516 -5.9875 -1.8494 0.9752
0.5217 -5.9910 -1.8497 0.9751
1.0544 -5.9209 -1.8498 0.9751
1.5787 -5.8035 -1.8499 0.9751
2.0905 -5.6398 -1.8500 0.9751
3.5104 -4.8853 -1.8503 0.9751
3.9351 -4.5557 -1.8516 0.9751
4.5947 -4.4463 -1.9666 0.9736
5.0602 -4.0888 -2.0010 0.9731
5.4101 -3.6244 -2.0029 0.9731
5.9686 -2.6049 -2.0031 0.9731
6.3369 -1.5024 -2.0031 0.9731
6.4458 -0.9308 -2.0032 0.9731
6.2151 1.9459 -2.0031 0.9731
6.0165 2.4927 -2.0031 0.9731
5.4771 3.5225 -2.0030 0.9731
4.7633 4.4398 -2.0028 0.9731
3.8977 5.2154 -2.0026 0.9731
3.4165 5.5422 -2.0025 0.9731
2.9081 5.8247 -2.0024 0.9731
2.3383 5.9631 -1.9701 0.9736
1.7417 5.9597 -1.9098 0.9744
0.0980 6.0374 -1.8572 0.9750
-0.4412 6.0217 -1.8571 0.9750
-0.9768 5.9579 -1.8570 0.9751
-1.5151 5.8875 -1.8699 0.9749
-4.1844 4.9809 -2.0009 0.9731
-4.6121 4.5873 -2.0008 0.9731
-5.6618 3.2013 -2.0006 0.9731
-5.9248 2.6832 -2.0005 0.9731
-6.3071 1.5870 -2.0004 0.9731
-6.4636 -0.7202 -2.0004 0.9731
-6.3736 -1.2942 -2.0004 0.9731
-5.8034 -2.9365 -2.0005 0.9731
-2.7587 -5.3409 -1.8490 0.9752
-1.7654 -5.7470 -1.8492 0.9752
-1.2456 -5.8820 -1.8493 0.9752
-0.7157 -5.9700 -1.8494 0.9752
0.8915 -5.9474 -1.8497 0.9751
1.9349 -5.6949 -1.8500 0.9751
2.9169 -5.2608 -1.8502 0.9751
3.8061 -4.6589 -1.8504 0.9751
4.9406 -4.2214 -1.9988 0.9732
5.3086 -3.7714 -2.0029 0.9731
5.8949 -2.7677 -2.0030 0.9731
6.1185 -2.2306 -2.0031 0.9731
6.2933 -1.6756 -2.0031 0.9731
6.4178 -1.1073 -2.0032 0.9731
6.4911 -0.5301 -2.0032 0.9731
6.5125 0.0513 -2.0032 0.9731
5.8505 2.8603 -2.0030 0.9731
5.5718 3.3709 -2.0030 0.9731
5.2485 3.8546 -2.0029 0.9731
4.4792 4.7259 -2.0028 0.9731
4.0394 5.1066 -2.0027 0.9731
3.5673 5.4465 -2.0026 0.9731
3.0668 5.7428 -2.0025 0.9731
1.9211 5.9611 -1.9264 0.9741
1.3469 5.9559 -1.8782 0.9748
0.8010 5.9854 -1.8574 0.9750
0.2636 6.0326 -1.8573 0.9750
-0.2759 6.0317 -1.8572 0.9750
-0.8131 5.9826 -1.8570 0.9750
-1.3462 5.8968 -1.8604 0.9750
-1.9059 5.8725 -1.8990 0.9745
-2.4943 5.8477 -1.9554 0.9737
-4.0463 5.0939 -2.0009 0.9731
-4.4845 4.7122 -2.0008 0.9731
-5.2504 3.8395 -2.0006 0.9731
-5.5719 3.3555 -2.0006 0.9731
-6.2613 1.7594 -2.0004 0.9731
-6.3932 1.1936 -2.0004 0.9731
-6.4809 -0.5426 -2.0004 0.9731
-6.4067 -1.1189 -2.0004 0.9731
-6.2813 -1.6862 -2.0004 0.9731
-5.2948 -3.7779 -2.0006 0.9731
-4.5226 -4.6425 -1.9935 0.9732
-3.3621 -4.9827 -1.8488 0.9752
-2.9042 -5.2632 -1.8489 0.9752
-1.9224 -5.6963 -1.8491 0.9752
-0.3448 -6.0031 -1.8495 0.9751
0.1923 -6.0103 -1.8496 0.9751
0.7280 -5.9696 -1.8497 0.9751
1.7780 -5.7457 -1.8499 0.9751
2.2838 -5.5644 -1.8500 0.9751
2.7715 -5.3387 -1.8502 0.9751
3.2371 -5.0703 -1.8503 0.9751
4.1438 -4.4755 -1.8760 0.9748
4.8177 -4.3506 -1.9966 0.9732
5.2031 -3.9155 -2.0029 0.9731
5.5320 -3.4357 -2.0030 0.9731
5.8167 -2.9283 -2.0030 0.9731
6.3850 -1.2829 -2.0031 0.9731
6.4741 -0.7080 -2.0032 0.9731
6.4969 0.4543 -2.0032 0.9731
6.3125 1.6021 -2.0031 0.9731
5.9269 2.6987 -2.0031 0.9731
5.3523 3.7092 -2.0029 0.9731
4.9997 4.1720 -2.0029 0.9731
4.1780 4.9939 -2.0027 0.9731
3.7154 5.3466 -2.0026 0.9731
3.2233 5.6566 -2.0025 0.9731
2.7054 5.9214 -2.0024 0.9731
1.5202 5.9578 -1.8912 0.9746
0.9649 5.9613 -1.8574 0.9750
0.4289 6.0232 -1.8573 0.9750
-0.1103 6.0371 -1.8572 0.9750
-0.6486 6.0028 -1.8571 0.9750
-1.1817 5.9206 -1.8570 0.9751
-2.3100 5.8558 -1.9362 0.9740
-2.9182 5.8150 -2.0012 0.9731
-4.3537 4.8335 -2.0008 0.9731
-4.7674 4.4255 -2.0008 0.9731
-5.1432 3.9821 -2.0007 0.9731
-5.4779 3.5071 -2.0006 0.9731
-5.7350 2.9865 -1.9888 0.9733
3.7708 4.6985 -2.0026 0.9749
1.3699 5.8652 -2.0021 0.9749
0.3002 5.9137 -1.9683 0.9753
-0.7578 5.8869 -1.9730 0.9753
-1.2963 5.8691 -1.9980 0.9750
-4.8333 3.5871 -2.0007 0.9749
-5.1340 3.1413 -2.0007 0.9749
-5.6104 2.1784 -2.0006 0.9750
-5.7823 1.6690 -2.0005 0.9750
-5.9356 -0.9935 -2.0005 0.9750
-5.8233 -1.5193 -2.0005 0.9750
-5.6646 -2.0330 -2.0005 0.9750
-5.4607 -2.5305 -2.0006 0.9749
-5.2132 -3.0078 -2.0006 0.9749
-4.5957 -3.8870 -2.0008 0.9749
-4.2280 -4.2792 -1.9996 0.9750
-3.1873 -4.6525 -1.8746 0.9765
-2.7216 -4.8511 -1.8490 0.9768
-1.8160 -5.2582 -1.8492 0.9768
-0.3583 -5.5524 -1.8495 0.9768
1.1256 -5.4499 -1.8498 0.9768
1.6076 -5.3280 -1.8499 0.9768
3.4190 -4.4928 -1.8767 0.9765
4.7885 -3.6568 -2.0028 0.9749
5.5867 -2.2579 -2.0030 0.9749
5.7660 -1.7503 -2.0030 0.9749
5.8993 -1.2287 -2.0030 0.9749
5.9855 -0.6973 -2.0031 0.9749
6.0141 0.3779 -2.0031 0.9749
5.8510 1.4411 -2.0030 0.9749
5.5014 2.4583 -2.0030 0.9749
4.2929 4.2273 -2.0027 0.9749
3.8984 4.5934 -2.0026 0.9749
2.0443 5.6660 -2.0022 0.9749
-0.5946 5.8918 -1.9684 0.9753
-1.1295 5.8749 -1.9886 0.9751
-3.5795 4.8400 -2.0010 0.9749
-4.3825 4.1261 -2.0008 0.9749
-4.7331 3.7184 -2.0008 0.9749
-5.5485 2.3315 -2.0006 0.9749
-5.7344 1.8270 -2.0005 0.9750
-5.9677 0.7784 -2.0005 0.9750
-6.0133 0.2427 -2.0005 0.9750
-6.0109 -0.2950 -2.0005 0.9750
-5.7182 -1.8768 -2.0005 0.9750
-5.2937 -2.8637 -2.0006 0.9749
-4.7005 -3.7594 -2.0007 0.9749
-4.3464 -4.1641 -2.0008 0.9749
-3.3771 -4.6505 -1.9104 0.9761
-2.8536 -4.7745 -1.8489 0.9768
-1.4871 -5.3607 -1.8492 0.9768
-1.0028 -5.4724 -1.8493 0.9768
-0.5104 -5.5404 -1.8494 0.9768
-0.0139 -5.5641 -1.8496 0.9768
4.3227 -4.1832 -1.9995 0.9750
4.6864 -3.7868 -2.0028 0.9749
5.2853 -2.8935 -2.0029 0.9749
5.5226 -2.4103 -2.0030 0.9749
5.7158 -1.9078 -2.0030 0.9749
5.9641 -0.8613 -2.0031 0.9749
6.0222 0.2128 -2.0031 0.9749
5.9792 0.7494 -2.0031 0.9749
5.8884 1.2800 -2.0030 0.9749
5.5668 2.3065 -2.0030 0.9749
5.3386 2.7940 -2.0029 0.9749
5.0678 3.2592 -2.0029 0.9749
4.7566 3.6984 -2.0028 0.9749
4.4073 4.1080 -2.0027 0.9749
4.0229 4.4848 -2.0027 0.9749
3.6065 4.8257 -2.0026 0.9749
1.6896 5.7814 -2.0022 0.9749
1.1668 5.9088 -2.0020 0.9749
0.6274 5.9197 -1.9788 0.9752
0.0959 5.9093 -1.9646 0.9754
-0.9641 5.8804 -1.9808 0.9752
-2.5131 5.4709 -2.0012 0.9749
-2.9912 5.2245 -2.0011 0.9749
-3.8720 4.6090 -2.0009 0.9749
-4.2677 4.2449 -2.0009 0.9749
-4.6294 3.8469 -2.0008 0.9749
-4.9541 3.4182 -2.0007 0.9749
-5.2392 2.9624 -2.0006 0.9749
-5.6821 1.9836 -2.0005 0.9750
-5.8364 1.4685 -2.0005 0.9750
-6.0044 0.4075 -2.0005 0.9750
-6.0168 -0.1300 -2.0005 0.9750
-5.9812 -0.6665 -2.0005 0.9750
-5.7675 -1.7193 -2.0005 0.9750
-5.5912 -2.2272 -2.0006 0.9750
-5.3702 -2.7173 -2.0006 0.9749
-5.1064 -3.1859 -2.0007 0.9749
-4.8018 -3.6290 -2.0007 0.9749
-4.4589 -4.0432 -2.0008 0.9749
-3.5741 -4.6481 -1.9490 0.9756
-2.9835 -4.6944 -1.8489 0.9768
-0.6622 -5.5242 -1.8494 0.9768
-0.1666 -5.5615 -1.8495 0.9768
0.3305 -5.5545 -1.8496 0.9768
0.8249 -5.5032 -1.8497 0.9768
1.7904 -5.2695 -1.8499 0.9768
2.2537 -5.0889 -1.8500 0.9768
2.6990 -4.8677 -1.8501 0.9768
4.5807 -3.9139 -2.0027 0.9749
4.9119 -3.4895 -2.0028 0.9749
5.2039 -3.0373 -2.0029 0.9749
5.8230 -1.5504 -2.0030 0.9749
5.9382 -1.0246 -2.0031 0.9749
6.0258 0.0475 -2.0031 0.9749
5.9975 0.5851 -2.0031 0.9749
5.9213 1.1180 -2.0031 0.9749
5.7978 1.6420 -2.0030 0.9749
5.4133 2.6465 -2.0030 0.9749
4.8563 3.5666 -2.0028 0.9749
4.5184 3.9856 -2.0028 0.9749
3.7375 4.7250 -2.0026 0.9749
3.3008 5.0395 -2.0025 0.9749
2.8377 5.3137 -2.0024 0.9749
2.3520 5.5455 -2.0023 0.9749
1.8476 5.7330 -2.0022 0.9749
0.7925 5.9224 -1.9862 0.9751
0.2583 5.9128 -1.9673 0.9754
-0.7999 5.8856 -1.9744 0.9753
-1.3395 5.8676 -2.0006 0.9749
-2.3621 5.5379 -2.0013 0.9749
-3.7442 4.7136 -2.0010 0.9749
-4.1497 4.3604 -2.0009 0.9749
-4.8585 3.5529 -2.0007 0.9749
-5.1560 3.1050 -2.0007 0.9749
-5.6256 2.1388 -2.0006 0.9750
-5.7939 1.6281 -2.0005 0.9750
-5.9160 1.1045 -2.0005 0.9750
-5.9909 0.5721 -2.0005 0.9750
-6.0181 0.0351 -2.0005 0.9750
-5.9972 -0.5021 -2.0005 0.9750
-5.4427 -2.5690 -2.0006 0.9749
-5.1918 -3.0446 -2.0006 0.9749
-4.8995 -3.4959 -2.0007 0.9749
-4.5681 -3.9194 -2.0008 0.9749
-3.7793 -4.6454 -1.9906 0.9751
-3.1396 -4.6529 -1.8658 0.9766
-2.6873 -4.8702 -1.8490 0.9768
-2.2421 -5.0908 -1.8491 0.9768
-1.7788 -5.2709 -1.8492 0.9768
-0.8135 -5.5038 -1.8494 0.9768
0.1780 -5.5614 -1.8496 0.9768
0.6736 -5.5237 -1.8497 0.9768
1.1640 -5.4418 -1.8498 0.9768
2.5644 -4.9399 -1.8501 0.9768
5.7782 -1.7096 -2.0030 0.9749
5.9078 -1.1871 -2.0030 0.9749
5.9903 -0.6551 -2.0031 0.9749
6.0248 -0.1178 -2.0031 0.9749
5.8407 1.4824 -2.0030 0.9749
5.6850 1.9977 -2.0030 0.9749
5.2390 2.9764 -2.0029 0.9749
3.8658 4.6208 -2.0026 0.9749
2.9824 5.2340 -2.0024 0.9749
2.5033 5.4790 -2.0023 0.9749
1.4892 5.8361 -2.0021 0.9749
0.4213 5.9160 -1.9715 0.9753
-2.2094 5.6007 -2.0013 0.9749
-2.7003 5.3808 -2.0012 0.9749
-4.7592 3.6849 -2.0008 0.9749
-5.0689 3.2453 -2.0007 0.9749
-5.3382 2.7799 -2.0006 0.9749
-5.5648 2.2923 -2.0006 0.9750
4.2259 3.6749 -2.0027 0.9765
3.8809 4.0372 -2.0026 0.9765
3.1011 4.6625 -2.0025 0.9765
2.6725 4.9204 -2.0024 0.9765
2.2225 5.1391 -2.0023 0.9765
1.7549 5.3166 -2.0022 0.9765
0.7817 5.5434 -2.0020 0.9765
0.2838 5.5907 -2.0019 0.9765
-1.2071 5.4653 -2.0015 0.9765
-1.6900 5.3355 -2.0014 0.9765
