ply
format ascii 1.0
element vertex 1568
property float32 x
property float32 y
property float32 z
property float32 I
end_header
1.2938 -13.9003 -0.0786 0.9457
5.2063 -13.8098 -0.0831 0.9427
10.2968 -14.1749 -0.0986 0.9323
11.6879 -13.3943 -0.1001 0.9314
10.4134 8.1440 -0.0744 0.9485
-10.7194 -13.8788 -0.0988 0.9323
-4.3481 -14.0209 -0.0826 0.9430
-0.4599 -13.9332 -0.0785 0.9458
0.7674 -13.6304 -0.0769 0.9469
5.9271 -13.5189 -0.0831 0.9427
13.2223 -13.6320 -0.1069 0.9268
18.3117 -4.9740 -0.1068 0.9269
1.0947 7.7394 -0.0440 0.9692
-6.3876 -14.0569 -0.0869 0.9401
-3.5424 -13.9874 -0.0812 0.9439
0.2684 -13.6412 -0.0768 0.9469
1.5189 -13.8909 -0.0787 0.9456
5.4617 -13.8094 -0.0836 0.9423
10.2834 -13.6874 -0.0964 0.9338
18.2837 -5.6919 -0.1078 0.9263
-10.3612 -13.8710 -0.0975 0.9331
-9.1841 -14.9021 -0.0986 0.9324
-4.0988 -14.0106 -0.0822 0.9433
-0.2354 -13.9328 -0.0785 0.9458
0.9875 -13.6257 -0.0769 0.9468
6.1859 -13.5133 -0.0837 0.9423
7.8413 -13.7419 -0.0891 0.9387
10.2937 -14.7983 -0.1015 0.9304
13.6377 -13.6147 -0.1085 0.9258
-3.4641 -14.9581 -0.4324 0.9404
-0.6846 -13.9326 -0.3928 0.9457
0.5476 -13.6352 -0.3842 0.9469
1.8056 -13.8780 -0.3941 0.9455
4.5995 -14.4657 -0.4274 0.9411
5.6717 -13.5244 -0.4130 0.9430
7.2769 -13.7643 -0.4384 0.9396
18.3190 -5.2941 -0.5369 0.9265
1.2264 7.7666 -0.2214 0.9690
-6.6624 -14.0563 -0.4380 0.9397
-3.7855 -13.9965 -0.4083 0.9436
0.0488 -13.6460 -0.3842 0.9469
5.2059 -13.8088 -0.4155 0.9427
10.2979 -14.1763 -0.4934 0.9323
11.6879 -13.3944 -0.5006 0.9313
10.4127 8.1435 -0.3722 0.9485
0.8092 7.7567 -0.2196 0.9693
-9.1861 -14.3816 -0.4805 0.9340
-0.4599 -13.9322 -0.3925 0.9457
4.6371 -13.8098 -0.4102 0.9434
5.9271 -13.5189 -0.4156 0.9426
11.0869 -13.6849 -0.4959 0.9319
13.2211 -13.6308 -0.5347 0.9268
-9.7716 -14.1313 -0.4838 0.9336
-6.3871 -14.0559 -0.4347 0.9401
-4.8222 -13.7513 -0.4103 0.9434
1.5188 -13.8900 -0.3934 0.9456
5.4613 -13.8084 -0.4181 0.9423
6.7875 -13.5003 -0.4255 0.9413
10.2826 -13.6863 -0.4820 0.9338
-4.0985 -14.0096 -0.4110 0.9433
-0.2354 -13.9319 -0.3923 0.9458
0.9875 -13.6257 -0.3847 0.9468
4.8857 -13.8094 -0.4125 0.9431
11.2583 -13.4479 -0.4938 0.9322
13.6365 -13.6135 -0.5426 0.9258
-3.4644 -14.9594 -0.7787 0.9404
0.5476 -13.6352 -0.6921 0.9468
1.8055 -13.8771 -0.7097 0.9455
4.6003 -14.4680 -0.7699 0.9410
7.2764 -13.7633 -0.7895 0.9396
12.5618 -13.3755 -0.9306 0.9291
18.3193 -5.2942 -0.9671 0.9265
-19.1363 -2.8251 -0.9810 0.9255
-3.7852 -13.9956 -0.7353 0.9436
0.0487 -13.6460 -0.6920 0.9468
5.2055 -13.8078 -0.7484 0.9426
6.5202 -13.5061 -0.7606 0.9417
10.2990 -14.1778 -0.8887 0.9322
11.1773 -12.8092 -0.8622 0.9342
0.8066 7.7317 -0.3942 0.9693
-10.7194 -13.8788 -0.8894 0.9322
-5.6591 -13.7694 -0.7550 0.9421
-4.3474 -14.0189 -0.7444 0.9429
0.7674 -13.6304 -0.6924 0.9468
4.6368 -13.8088 -0.7387 0.9433
7.5560 -13.7516 -0.7957 0.9391
11.0859 -13.6837 -0.8931 0.9319
18.3123 -4.9742 -0.9623 0.9268
1.0843 7.6660 -0.3926 0.9695
-19.1189 -3.1378 -0.9826 0.9253
-10.9414 -13.1434 -0.8673 0.9338
-9.7707 -14.1301 -0.8712 0.9335
-6.3866 -14.0548 -0.7829 0.9400
-4.8222 -13.7513 -0.7390 0.9433
-3.5419 -13.9854 -0.7317 0.9439
-0.9707 -13.9321 -0.7083 0.9456
5.4609 -13.8074 -0.7530 0.9423
6.7875 -13.5003 -0.7663 0.9413
11.6336 -12.9065 -0.8812 0.9328
18.2843 -5.6921 -0.9712 0.9262
-19.7066 -2.4983 -1.0074 0.9235
-10.3612 -13.8710 -0.8781 0.9330
-9.1849 -14.9033 -0.8878 0.9323
4.8854 -13.8084 -0.7428 0.9430
6.1859 -13.5133 -0.7537 0.9422
7.8401 -13.7398 -0.8023 0.9386
10.2957 -14.8011 -0.9144 0.9303
11.2586 -13.4482 -0.8894 0.9322
13.6352 -13.6122 -0.9771 0.9257
18.3055 -4.6572 -0.9579 0.9271
-3.4458 -14.8792 -1.1198 0.9406
1.8053 -13.8761 -1.0260 0.9454
4.6010 -14.4704 -1.1133 0.9409
7.2458 -13.7056 -1.1367 0.9397
10.6807 -13.6264 -1.2695 0.9329
12.5618 -13.3755 -1.3454 0.9290
-18.1100 -2.6736 -1.3423 0.9292
-12.1443 -14.1197 -1.3655 0.9280
-10.0771 -14.0829 -1.2697 0.9329
-6.6348 -13.9980 -1.1358 0.9398
-5.0743 -13.7567 -1.0751 0.9429
-3.7850 -13.9945 -1.0630 0.9435
5.2051 -13.8068 -1.0819 0.9425
6.5202 -13.5061 -1.0996 0.9416
10.2358 -14.0909 -1.2770 0.9325
10.4113 8.1424 -0.9691 0.9484
-18.0976 -3.6543 -1.3537 0.9286
-10.7194 -13.8788 -1.2858 0.9321
-5.6591 -13.7694 -1.0915 0.9420
-4.3471 -14.0179 -1.0761 0.9428
-0.4598 -13.9303 -1.0220 0.9456
0.7674 -13.6305 -1.0010 0.9467
2.0317 -13.8667 -1.0276 0.9453
4.6364 -13.8078 -1.0680 0.9433
5.9271 -13.5189 -1.0823 0.9425
11.0379 -13.6244 -1.2857 0.9321
13.1654 -13.5734 -1.3865 0.9270
1.0800 7.6351 -0.5654 0.9695
-17.3796 8.6538 -1.4235 0.9251
-18.1137 -2.9729 -1.3459 0.9290
-10.9309 -13.1308 -1.2527 0.9338
-3.5416 -13.9844 -1.0577 0.9438
0.2684 -13.6412 -1.0004 0.9467
1.5186 -13.8881 -1.0244 0.9455
6.7875 -13.5003 -1.1079 0.9412
10.2394 -13.6288 -1.2499 0.9339
11.4472 -12.6998 -1.2536 0.9337
-18.6184 6.1716 -1.4382 0.9243
-18.4018 -2.3329 -1.3601 0.9283
-18.0796 -3.9546 -1.3570 0.9285
-4.0979 -14.0076 -1.0701 0.9431
-0.2353 -13.9300 -1.0215 0.9457
6.1859 -13.5133 -1.0897 0.9421
10.2419 -14.7238 -1.3151 0.9306
-2.6597 -19.1036 -1.8517 0.9254
-0.6817 -13.8727 -1.3335 0.9457
0.5476 -13.6352 -1.3101 0.9466
4.1723 -18.7800 -1.8469 0.9256
4.5308 -14.2495 -1.4355 0.9417
5.6717 -13.5244 -1.4080 0.9428
7.2453 -13.7045 -1.4883 0.9396
12.5618 -13.3755 -1.7616 0.9289
14.3121 -12.7444 -1.8398 0.9259
16.3347 -9.9934 -1.8384 0.9259
18.3820 -5.3124 -1.8370 0.9260
17.4502 8.0573 -1.8453 0.9257
-12.1857 6.3145 -1.3176 0.9463
-18.6738 5.7686 -1.8764 0.9245
-18.3869 -6.1963 -1.8628 0.9250
-17.7573 -7.8084 -1.8623 0.9250
-16.9858 -9.3572 -1.8618 0.9250
-7.4265 -6.0301 -0.9184 0.9623
-13.8892 -13.5012 -1.8596 0.9251
-10.0762 -14.0817 -1.6624 0.9328
-3.3572 -18.9986 -1.8522 0.9254
1.2880 -13.8378 -1.3342 0.9457
3.4838 -18.9249 -1.8474 0.9256
5.1533 -18.5274 -1.8462 0.9256
5.1830 -13.7482 -1.4106 0.9427
6.5202 -13.5061 -1.4398 0.9415
11.1780 -12.8099 -1.6322 0.9340
14.9595 -11.9703 -1.8394 0.9259
15.9606 -10.5854 -1.8387 0.9259
16.8349 -9.1179 -1.8381 0.9260
14.3898 -4.7351 -1.4544 0.9409
18.6344 -4.3369 -1.8368 0.9260
17.0047 8.9663 -1.8456 0.9257
10.3009 8.0560 -1.2555 0.9488
0.8016 7.6837 -0.7417 0.9694
-13.9309 6.3120 -1.4683 0.9404
-18.3918 6.4270 -1.8704 0.9247
-18.6026 -5.5204 -1.8629 0.9250
-17.3187 -8.7310 -1.8620 0.9250
-15.4828 -11.6588 -1.8607 0.9251
-10.7194 -13.8788 -1.6836 0.9320
-5.6591 -13.7694 -1.4292 0.9419
-0.4579 -13.8715 -1.3325 0.9458
2.0234 -13.8100 -1.3400 0.9455
4.4736 -18.7083 -1.8467 0.9256
4.6175 -13.7513 -1.3926 0.9434
5.9271 -13.5189 -1.4171 0.9424
7.5243 -13.6939 -1.5001 0.9391
11.0369 -13.6232 -1.6832 0.9320
13.1642 -13.5722 -1.8152 0.9268
17.2886 -8.2175 -1.8377 0.9260
17.9476 -6.6424 -1.8373 0.9260
17.9886 6.7593 -1.8449 0.9257
16.5122 9.8510 -1.8459 0.9256
13.0103 9.4292 -1.5426 0.9375
8.9193 9.2875 -1.2362 0.9496
1.0759 7.6059 -0.7375 0.9696
-18.1428 7.0945 -1.8702 0.9247
-18.2840 -6.4913 -1.8627 0.9250
-17.6284 -8.0929 -1.8622 0.9250
-15.9013 -11.0867 -1.8610 0.9251
-13.6689 -13.7220 -1.8595 0.9251
-10.9336 -13.1341 -1.6407 0.9336
-9.7282 -14.0686 -1.6421 0.9336
-6.3596 -13.9955 -1.4759 0.9401
-3.5272 -13.9274 -1.3793 0.9439
-0.9667 -13.8742 -1.3352 0.9456
3.7876 -18.8642 -1.8472 0.9256
5.4369 -13.7468 -1.4192 0.9423
6.7875 -13.5003 -1.4507 0.9411
10.1160 -16.3124 -1.8428 0.9258
10.2385 -13.6277 -1.6364 0.9338
16.1280 -10.3264 -1.8386 0.9259
16.9786 -8.8452 -1.8380 0.9260
17.6945 -7.2949 -1.8375 0.9260
18.2702 -5.6877 -1.8371 0.9260
15.7042 6.8648 -1.6454 0.9334
12.3922 6.7914 -1.3567 0.9448
10.2882 8.3165 -1.2701 0.9482
0.6875 7.8062 -0.7523 0.9690
-9.1888 8.8438 -1.2244 0.9500
-9.5058 7.6404 -1.1709 0.9522
-17.8695 7.7522 -1.8700 0.9247
-18.7840 -2.3814 -1.8178 0.9267
-18.7396 -4.0990 -1.8416 0.9258
-18.5107 -5.8190 -1.8629 0.9250
-17.9144 -7.4438 -1.8624 0.9250
-17.1749 -9.0082 -1.8619 0.9250
-14.1641 -13.2155 -1.8598 0.9251
-10.3612 -13.8711 -1.6622 0.9328
-9.1330 -14.8190 -1.6712 0.9324
-8.6355 -17.2955 -1.8559 0.9253
-5.3994 -13.7638 -1.4194 0.9423
-3.7459 -18.9287 -1.8525 0.9254
0.9875 -13.6257 -1.3116 0.9466
2.2497 -13.8014 -1.3425 0.9454
11.2591 -13.4489 -1.6839 0.9319
13.5662 -13.5433 -1.8403 0.9259
18.0515 -6.3523 -1.8372 0.9260
18.5424 -4.7175 -1.8369 0.9260
-4.5062 -13.7445 -1.7182 0.9434
-2.1492 -15.4369 -1.8514 0.9391
-0.6816 -13.8717 -1.6498 0.9456
0.5476 -13.6352 -1.6210 0.9465
3.3731 -15.1830 -1.8475 0.9393
4.5318 -14.2527 -1.7765 0.9415
7.2447 -13.7035 -1.8413 0.9395
8.4494 -13.0222 -1.8439 0.9394
11.5794 -10.3110 -1.8417 0.9395
13.8822 -6.8746 -1.8401 0.9395
14.4366 -5.6089 -1.8397 0.9395
14.8766 -4.2993 -1.8394 0.9395
16.5297 2.7500 -1.9905 0.9347
15.7832 5.6423 -1.9910 0.9347
13.4874 7.7547 -1.8480 0.9393
12.7462 8.9283 -1.8486 0.9392
9.5240 13.8377 -1.9954 0.9346
6.9224 15.3226 -1.9972 0.9345
4.0963 16.3244 -1.9992 0.9345
1.1344 16.8097 -2.0013 0.9344
-0.3684 16.8528 -2.0024 0.9344
-4.8208 16.1802 -2.0055 0.9343
-6.2467 15.6940 -2.0065 0.9342
-8.9420 14.3493 -2.0084 0.9342
-10.1896 13.5012 -2.0092 0.9341
-11.3569 12.5445 -2.0101 0.9341
-12.4344 11.4867 -2.0108 0.9341
-14.5495 5.9612 -1.8677 0.9386
-16.1951 5.0029 -2.0134 0.9340
-16.8297 2.0488 -2.0139 0.9340
-16.9460 0.5408 -2.0140 0.9340
-16.9266 -0.9715 -2.0140 0.9340
-16.4827 -3.9604 -2.0136 0.9340
-13.7113 -7.5533 -1.8595 0.9389
-7.2009 -5.8469 -1.1018 0.9633
-4.0169 -4.6703 -0.7317 0.9755
-9.0936 -12.7084 -1.8562 0.9390
-7.9213 -13.4623 -1.8554 0.9390
-3.7690 -13.9355 -1.7148 0.9435
-2.7127 -15.3513 -1.8518 0.9391
-1.1915 -13.8745 -1.6542 0.9455
1.2879 -13.8369 -1.6507 0.9456
2.8164 -15.2994 -1.8479 0.9393
5.1827 -13.7472 -1.7452 0.9425
6.5202 -13.5061 -1.7815 0.9414
9.1209 -12.5561 -1.8435 0.9394
10.1994 -11.6885 -1.8427 0.9394
11.1963 -10.7290 -1.8420 0.9394
12.9147 -8.5653 -1.8408 0.9395
13.6230 -7.3783 -1.8403 0.9395
16.5939 -2.3287 -1.9904 0.9347
16.7429 0.6541 -1.9903 0.9347
15.9778 5.0611 -1.9909 0.9347
13.0625 8.4554 -1.8483 0.9392
12.2456 11.4756 -1.9935 0.9346
11.1784 12.5260 -1.9943 0.9346
10.0217 13.4778 -1.9951 0.9346
5.6384 9.1937 -1.2811 0.9575
4.6894 16.1603 -1.9988 0.9345
3.2322 16.5224 -1.9998 0.9344
0.7970 7.6395 -0.9124 0.9695
0.2479 16.8514 -2.0019 0.9344
-1.2555 16.8153 -2.0030 0.9343
-2.7505 16.6452 -2.0040 0.9343
-4.2251 16.3423 -2.0051 0.9343
-7.4716 8.8852 -1.3790 0.9543
-9.3465 7.7634 -1.4433 0.9522
-13.6821 7.7371 -1.8671 0.9386
-16.0002 5.5913 -2.0133 0.9340
-16.9147 1.1600 -2.0139 0.9340
-16.8515 -1.8612 -2.0139 0.9340
-16.6173 -3.3553 -2.0137 0.9340
-15.6691 -4.6499 -1.9415 0.9363
-13.2925 -8.2633 -1.8592 0.9389
-12.4994 -9.4123 -1.8586 0.9389
-4.3748 -4.7254 -0.7649 0.9744
-8.4097 -13.1661 -1.8558 0.9390
-5.6591 -13.7694 -1.7684 0.9418
-4.3281 -13.9566 -1.7357 0.9428
2.0232 -13.8091 -1.6578 0.9453
4.6171 -13.7503 -1.7230 0.9432
9.7669 -12.0556 -1.8430 0.9394
10.7982 -11.1328 -1.8423 0.9394
13.3455 -7.8722 -1.8405 0.9395
13.9906 -6.6499 -1.8401 0.9395
14.5246 -5.3756 -1.8397 0.9395
16.4982 -2.9339 -1.9905 0.9347
16.6929 -1.4519 -1.9904 0.9347
16.4836 3.0158 -1.9905 0.9347
14.0152 6.7471 -1.8477 0.9393
9.3697 6.7907 -1.3746 0.9545
10.6909 9.3084 -1.6838 0.9445
8.9194 9.2876 -1.5296 0.9495
9.3006 13.9903 -1.9956 0.9346
8.0204 14.7701 -1.9965 0.9345
3.8333 16.3897 -1.9994 0.9344
0.8637 16.8274 -2.0015 0.9344
-0.6397 16.8463 -2.0025 0.9343
-3.6241 16.4823 -2.0046 0.9343
-5.0811 16.1020 -2.0057 0.9342
-6.4991 15.5928 -2.0067 0.9342
-10.4065 13.3364 -2.0094 0.9341
-11.5583 12.3608 -2.0102 0.9341
-12.6185 11.2858 -2.0109 0.9341
-13.5786 10.1197 -2.0116 0.9341
-14.0725 7.0071 -1.8674 0.9386
-16.8606 1.7776 -2.0139 0.9340
-16.9087 -1.2439 -2.0139 0.9340
-16.7295 -2.7457 -2.0138 0.9340
-16.4139 -4.2246 -2.0133 0.9340
-14.7578 -5.2394 -1.8602 0.9389
-14.2294 -6.5325 -1.8599 0.9389
-12.8368 -8.9501 -1.8589 0.9389
-11.0365 -11.0793 -1.8576 0.9390
-3.9204 -4.7093 -0.7279 0.9756
-6.3592 -13.9945 -1.8259 0.9400
-3.5269 -13.9264 -1.7065 0.9438
-0.9666 -13.8733 -1.6519 0.9455
0.2684 -13.6413 -1.6207 0.9465
3.0621 -15.2506 -1.8477 0.9393
4.4068 -14.9094 -1.8468 0.9393
6.7875 -13.5003 -1.7949 0.9409
9.3212 -12.4067 -1.8433 0.9394
10.3856 -11.5220 -1.8426 0.9394
11.3668 -10.5466 -1.8419 0.9395
12.2574 -9.4884 -1.8413 0.9395
13.0502 -8.3558 -1.8407 0.9395
13.7394 -7.1577 -1.8402 0.9395
14.3194 -5.9034 -1.8398 0.9395
16.3633 -3.5315 -1.9885 0.9348
16.3030 3.8796 -1.9906 0.9347
15.8947 5.3179 -1.9909 0.9347
15.0342 6.5719 -1.9490 0.9360
12.9254 8.6650 -1.8484 0.9392
10.2630 8.2961 -1.5676 0.9482
10.9761 12.7052 -1.9944 0.9346
9.8042 13.6385 -1.9952 0.9346
0.6849 7.7768 -0.9273 0.9690
-0.0234 16.8548 -2.0021 0.9344
-1.5262 16.7945 -2.0032 0.9343
-3.0184 16.6003 -2.0042 0.9343
-4.4881 16.2736 -2.0052 0.9343
-5.9235 15.8168 -2.0063 0.9342
-9.9103 13.7055 -2.0090 0.9341
-9.1889 8.8439 -1.5149 0.9499
-13.0772 8.7142 -1.8667 0.9387
-11.6018 6.3164 -1.5691 0.9482
-16.0887 5.3331 -2.0134 0.9340
-16.7839 2.3928 -2.0139 0.9340
-11.4359 -10.6701 -1.8579 0.9389
-4.1757 -4.6586 -0.7431 0.9751
-9.3526 -12.5209 -1.8564 0.9390
-4.0802 -13.9472 -1.7262 0.9431
-1.6507 -15.4951 -1.8510 0.9392
-0.2343 -13.8693 -1.6477 0.9457
0.9875 -13.6257 -1.6228 0.9465
2.2495 -13.8005 -1.6609 0.9452
3.8595 -15.0637 -1.8472 0.9393
4.8644 -13.7490 -1.7324 0.9429
8.8629 -12.7414 -1.8436 0.9394
9.9590 -11.8959 -1.8429 0.9394
11.9039 -9.9315 -1.8415 0.9395
12.7376 -8.8284 -1.8409 0.9395
14.6088 -5.1408 -1.8396 0.9395
15.3325 -3.9008 -1.8793 0.9383
16.7527 0.3113 -1.9903 0.9347
16.6589 1.8031 -1.9904 0.9347
-2.9489 -12.7334 -1.8519 0.9486
5.0395 -12.0169 -1.8463 0.9487
8.0297 -10.2442 -1.8442 0.9488
9.7145 -8.6504 -1.8431 0.9488
11.0901 -6.7848 -1.8421 0.9488
12.1137 -4.7064 -1.8414 0.9489
13.4630 -3.8908 -1.9856 0.9450
13.8031 -2.6846 -1.9924 0.9448
14.0205 1.0622 -1.9922 0.9448
13.8708 2.3076 -1.9924 0.9448
13.6112 3.5349 -1.9925 0.9448
11.3165 6.5065 -1.8496 0.9486
10.6942 7.4910 -1.8500 0.9486
9.9867 8.4165 -1.8505 0.9486
7.9888 11.6071 -1.9965 0.9447
6.9251 12.2775 -1.9972 0.9446
5.8057 12.8508 -1.9980 0.9446
2.3008 9.1691 -1.3394 0.9625
-1.5674 14.0508 -2.0032 0.9445
-5.7638 6.3665 -1.2168 0.9659
-11.1023 7.0745 -1.8653 0.9482
-11.6912 6.0582 -1.8657 0.9482
-13.5648 4.1904 -2.0116 0.9443
-13.8858 2.9652 -2.0118 0.9443
-14.0958 1.7160 -2.0120 0.9442
-14.1931 0.4530 -2.0120 0.9442
-14.0474 -2.0738 -2.0119 0.9442
-12.0058 -5.2793 -1.8583 0.9484
-11.4853 -6.3270 -1.8579 0.9484
-10.8732 -7.3237 -1.8575 0.9484
-7.2009 -5.8469 -1.3143 0.9632
-9.3951 -9.1326 -1.8565 0.9484
-4.2702 -4.9648 -0.9279 0.9739
-6.6377 -11.2807 -1.8545 0.9485
-5.6037 -11.8228 -1.8538 0.9485
-4.5260 -12.2701 -1.8530 0.9485
-3.4130 -12.6193 -1.8523 0.9486
-2.2738 -12.8677 -1.8515 0.9486
-1.1175 -13.0134 -1.8506 0.9486
1.2094 -12.9936 -1.8490 0.9486
2.3615 -12.8286 -1.8482 0.9487
4.5976 -12.1952 -1.8466 0.9487
5.6638 -11.7322 -1.8459 0.9487
6.6842 -11.1764 -1.8452 0.9487
7.6509 -10.5324 -1.8445 0.9488
11.4304 -6.1908 -1.8419 0.9488
12.3436 -4.0618 -1.8412 0.9489
13.6962 -3.1876 -1.9925 0.9448
14.0429 -0.7054 -1.9922 0.9448
13.4072 4.2469 -1.9927 0.9448
12.3300 6.5014 -1.9750 0.9452
10.6735 6.9089 -1.8015 0.9499
10.2432 8.0109 -1.8425 0.9488
7.1929 6.7406 -1.3967 0.9610
8.4065 11.3056 -1.9962 0.9447
5.1224 13.1418 -1.9985 0.9446
2.7102 13.8542 -2.0002 0.9446
0.7938 7.6088 -1.0839 0.9696
-4.1377 8.9870 -1.4018 0.9608
-7.4715 8.8852 -1.6449 0.9542
-9.3308 9.2745 -1.8641 0.9482
-7.7049 6.3999 -1.4192 0.9603
-13.4017 4.6832 -2.0115 0.9443
-14.1669 0.9716 -2.0120 0.9442
-14.1973 -0.2948 -2.0120 0.9442
-13.6108 -4.0391 -2.0116 0.9443
-11.1348 -6.9220 -1.8577 0.9484
-9.7239 -8.7841 -1.8567 0.9484
-4.3829 -4.7341 -0.9141 0.9743
-6.0332 -11.6119 -1.8541 0.9485
-4.9724 -12.0985 -1.8534 0.9485
-0.4308 -13.0508 -1.8502 0.9486
1.8913 -12.9086 -1.8485 0.9487
3.0329 -12.6832 -1.8477 0.9487
10.5668 -7.5786 -1.8425 0.9488
11.1975 -6.6051 -1.8420 0.9488
11.7391 -5.5798 -1.8416 0.9488
13.5476 -3.6799 -1.9891 0.9449
14.0078 -1.2183 -1.9923 0.9448
14.0604 0.0349 -1.9922 0.9448
13.8320 2.5307 -1.9924 0.9448
13.5528 3.7537 -1.9926 0.9448
13.1661 4.9472 -1.9928 0.9448
12.6751 6.1019 -1.9932 0.9448
11.2108 6.6882 -1.8496 0.9486
4.4245 13.3966 -1.9990 0.9446
0.7241 14.1080 -2.0016 0.9445
-3.0376 13.8152 -2.0042 0.9445
-8.5659 6.3839 -1.5137 0.9578
-11.2152 6.8951 -1.8654 0.9482
-11.9088 5.9297 -1.8850 0.9477
-13.2207 5.1697 -2.0114 0.9443
-13.9319 2.7413 -2.0119 0.9443
-14.1986 0.2244 -2.0120 0.9442
-13.7500 -3.5389 -2.0117 0.9443
-12.9068 -4.5823 -1.9406 0.9462
-10.7534 -7.4975 -1.8574 0.9484
-7.1004 -5.9575 -1.3133 0.9632
-5.4122 -11.9106 -1.8537 0.9485
-2.0662 -12.9016 -1.8513 0.9486
4.7930 -12.1187 -1.8465 0.9487
7.8190 -10.4072 -1.8444 0.9488
8.7124 -9.6656 -1.8438 0.9488
9.5361 -8.8480 -1.8432 0.9488
10.2838 -7.9607 -1.8427 0.9488
11.5282 -6.0057 -1.8418 0.9488
12.0153 -4.9535 -1.8414 0.9488
13.7455 -2.9666 -1.9924 0.9448
13.9542 -1.7297 -1.9923 0.9448
14.0523 -0.4792 -1.9922 0.9448
14.0392 0.7751 -1.9922 0.9448
13.6803 3.2555 -1.9925 0.9448
13.3374 4.4623 -1.9927 0.9448
11.8621 6.5009 -1.9166 0.9468
8.2239 11.4403 -1.9963 0.9447
4.4000 9.2309 -1.4489 0.9595
1.3954 7.7975 -1.1224 0.9685
-0.0196 14.1303 -2.0021 0.9445
-0.8255 9.0835 -1.2923 0.9638
-4.9644 13.2556 -2.0056 0.9444
-6.1284 12.7657 -2.0064 0.9444
-5.3686 9.0212 -1.4874 0.9585
-8.3036 11.4836 -2.0079 0.9444
-9.2972 10.7017 -2.0086 0.9443
-9.1859 8.8410 -1.8064 0.9498
-11.5642 6.2959 -1.8656 0.9482
-13.0220 5.6492 -2.0112 0.9443
-14.0575 2.0041 -2.0119 0.9442
-13.8708 -3.0340 -2.0118 0.9443
-13.5302 -4.2534 -2.0096 0.9443
-12.1118 -5.0327 -1.8584 0.9484
-11.0214 -7.1001 -1.8576 0.9484
-7.5187 -5.8538 -1.3501 0.9622
-5.8450 -11.7067 -1.8540 0.9485
-4.7766 -12.1761 -1.8532 0.9485
-3.6709 -12.5480 -1.8524 0.9486
-2.5370 -12.8197 -1.8516 0.9486
-1.3837 -12.9891 -1.8508 0.9486
-0.2206 -13.0550 -1.8500 0.9486
0.9434 -13.0170 -1.8492 0.9486
2.0987 -12.8755 -1.8484 0.9487
3.2364 -12.6318 -1.8476 0.9487
7.4343 -10.6876 -1.8447 0.9488
9.2074 -9.1919 -1.8434 0.9488
10.6870 -7.4071 -1.8424 0.9488
12.2583 -4.3137 -1.8413 0.9489
13.6284 -3.4673 -1.9925 0.9448
14.0256 -0.9926 -1.9922 0.9448
14.0581 0.2613 -1.9922 0.9448
13.7897 2.7531 -1.9924 0.9448
-2.5359 -10.9501 -1.8516 0.9555
-1.5493 -11.1283 -1.8510 0.9555
0.4505 -11.2181 -1.8496 0.9555
3.3982 -10.6874 -1.8475 0.9556
5.2378 -9.9074 -1.8462 0.9556
6.0980 -9.3981 -1.8456 0.9556
8.3596 -7.4439 -1.8440 0.9556
8.9876 -6.6677 -1.8436 0.9556
10.4255 -4.0505 -1.8426 0.9557
11.6277 -3.3604 -1.9939 0.9521
11.8798 -2.3106 -1.9937 0.9521
12.0378 -1.2426 -1.9936 0.9521
12.0671 0.9142 -1.9936 0.9521
11.9381 1.9861 -1.9937 0.9521
10.4970 6.0354 -1.9947 0.9521
8.5939 7.2427 -1.8515 0.9555
7.9163 7.9818 -1.8520 0.9554
6.3773 9.2658 -1.8530 0.9554
5.9582 10.5632 -1.9979 0.9520
1.1890 7.5292 -1.2557 0.9696
-0.2656 12.1513 -2.0023 0.9519
-1.3480 12.0839 -2.0030 0.9519
-3.4744 11.6613 -2.0045 0.9519
-4.0181 6.4478 -1.2516 0.9697
-5.7638 6.3664 -1.4148 0.9658
-8.3083 7.6751 -1.8633 0.9552
-8.9614 6.9058 -1.8638 0.9552
-9.5433 6.0811 -1.8642 0.9552
-11.2902 4.6258 -2.0100 0.9517
-11.9348 2.5485 -2.0105 0.9517
-12.1152 1.4749 -2.0106 0.9517
-12.1988 0.3893 -2.0106 0.9517
-12.0736 -1.7824 -2.0105 0.9517
-11.8658 -2.8511 -2.0104 0.9517
-11.5633 -3.8968 -2.0102 0.9517
-9.8723 -5.4385 -1.8568 0.9553
-9.3465 -6.2954 -1.8564 0.9553
-7.2009 -5.8469 -1.5281 0.9631
-5.3332 -5.1842 -1.2253 0.9703
-6.5507 -9.1547 -1.8545 0.9554
-5.7069 -9.6989 -1.8539 0.9554
-2.9349 -10.8517 -1.8519 0.9555
3.9553 -10.4914 -1.8471 0.9556
5.7510 -9.6161 -1.8458 0.9556
6.5830 -9.0624 -1.8453 0.9556
7.3623 -8.4372 -1.8447 0.9556
8.7386 -6.9925 -1.8437 0.9556
9.3250 -6.1845 -1.8433 0.9557
9.8371 -5.3278 -1.8430 0.9557
10.2711 -4.4292 -1.8427 0.9557
11.4733 -3.7754 -1.9898 0.9522
11.7878 -2.7434 -1.9938 0.9521
12.0863 -0.6071 -1.9936 0.9521
12.0923 0.4724 -1.9936 0.9521
11.8175 2.6119 -1.9938 0.9521
11.5389 3.6551 -1.9940 0.9521
10.7098 5.6471 -1.9946 0.9521
7.4864 8.3888 -1.8523 0.9554
4.0791 6.6511 -1.2853 0.9689
3.3829 11.6578 -1.9997 0.9520
2.3313 11.9173 -2.0005 0.9520
0.1788 12.1510 -2.0020 0.9519
-0.9052 12.1232 -2.0027 0.9519
-3.0453 11.7788 -2.0042 0.9519
-4.0844 11.4647 -2.0050 0.9519
-4.1376 8.9868 -1.6299 0.9607
-6.0590 10.5648 -2.0063 0.9518
-8.0213 7.9729 -1.8631 0.9552
-10.5117 5.9443 -1.9894 0.9522
-11.1129 5.0352 -2.0099 0.9517
-11.5190 4.0253 -2.0102 0.9517
-11.8332 2.9831 -2.0104 0.9517
-12.0529 1.9168 -2.0105 0.9517
-11.9625 -2.4155 -2.0105 0.9517
-11.6986 -3.4716 -2.0103 0.9517
-11.3026 -4.4845 -2.0032 0.9519
-9.5712 -5.9500 -1.8566 0.9553
-4.3878 -4.7394 -1.0640 0.9742
-5.1874 -9.9840 -1.8535 0.9554
-4.2755 -10.4029 -1.8529 0.9554
-3.3302 -10.7387 -1.8522 0.9554
-2.3591 -10.9887 -1.8515 0.9555
-0.3705 -11.2245 -1.8501 0.9555
0.6311 -11.2086 -1.8494 0.9555
4.5012 -10.2665 -1.8467 0.9556
7.0498 -8.7017 -1.8449 0.9556
8.4780 -7.3080 -1.8439 0.9556
11.6801 -3.1727 -1.9939 0.9521
11.9153 -2.1189 -1.9937 0.9521
12.0562 -1.0486 -1.9936 0.9521
12.1015 0.0300 -1.9936 0.9521
12.0509 1.1084 -1.9936 0.9521
9.1101 6.6025 -1.8535 0.9554
8.4766 7.3804 -1.8516 0.9555
6.4609 6.7276 -1.5366 0.9629
-0.3466 9.1259 -1.5045 0.9637
-1.5425 12.0614 -2.0032 0.9519
-3.6620 11.6046 -2.0047 0.9519
-6.9547 8.9127 -1.8624 0.9552
-7.7236 8.2599 -1.8629 0.9552
-8.4312 7.5407 -1.8634 0.9552
-9.0718 6.7609 -1.8639 0.9552
-11.3635 4.4435 -2.0101 0.9517
-11.7158 3.4135 -2.0103 0.9517
-11.9744 2.3561 -2.0105 0.9517
-12.1374 1.2796 -2.0106 0.9517
-12.2035 0.1929 -2.0106 0.9517
-11.4988 -4.0824 -2.0101 0.9517
-9.2435 -6.4448 -1.8564 0.9553
-7.9487 -7.9795 -1.8554 0.9554
-3.9213 -4.7105 -1.0097 0.9755
-6.4021 -9.2585 -1.8544 0.9554
-5.5497 -9.7890 -1.8538 0.9554
-2.7597 -10.8968 -1.8518 0.9555
-0.7807 -11.2052 -1.8504 0.9555
0.2209 -11.2259 -1.8497 0.9555
2.2086 -11.0001 -1.8483 0.9555
3.1790 -10.7556 -1.8476 0.9556
4.1234 -10.4257 -1.8470 0.9556
5.0344 -10.0133 -1.8463 0.9556
9.9213 -5.1686 -1.8429 0.9557
11.8303 -2.5532 -1.9938 0.9521
12.0100 -1.4887 -1.9937 0.9521
11.7741 2.8019 -1.9938 0.9521
11.0923 4.8488 -1.9943 0.9521
9.6185 6.4481 -1.9077 0.9541
8.7399 7.0649 -1.8514 0.9555
5.7269 9.6845 -1.8535 0.9554
5.2196 10.9505 -1.9984 0.9520
2.4480 6.5923 -1.1585 0.9719
0.6820 7.7434 -1.2806 0.9690
-0.8255 9.0832 -1.5025 0.9637
-2.4887 9.0238 -1.5421 0.9628
-2.4737 6.6051 -1.1619 0.9718
-5.2694 10.9762 -2.0058 0.9518
-6.2287 10.4665 -2.0065 0.9518
-8.8177 7.0874 -1.8637 0.9552
-11.8799 2.7922 -2.0104 0.9517
-12.0823 1.7225 -2.0106 0.9517
-11.9219 -2.6077 -2.0104 0.9517
-9.9819 -5.2355 -1.8569 0.9553
-4.1765 -4.6595 -1.0308 0.9750
-6.7371 -9.0193 -1.8546 0.9554
-5.0257 -10.0656 -1.8534 0.9554
-1.1900 -11.1709 -1.8507 0.9555
0.8114 -11.1962 -1.8493 0.9555
2.7841 -10.8662 -1.8479 0.9555
3.7400 -10.5710 -1.8472 0.9556
4.6656 -10.1921 -1.8466 0.9556
6.3967 -9.1959 -1.8454 0.9556
7.1886 -8.5866 -1.8448 0.9556
7.9230 -7.9096 -1.8443 0.9556
8.5942 -7.1702 -1.8438 0.9556
11.9478 -1.9268 -1.9937 0.9521
12.0994 0.2249 -1.9936 0.9521
11.8683 2.3695 -1.9938 0.9521
-3.0696 -9.3629 -1.8520 0.9607
-1.3578 -9.7528 -1.8508 0.9607
0.3949 -9.8324 -1.8496 0.9607
2.1327 -9.5998 -1.8484 0.9608
2.9788 -9.3685 -1.8478 0.9608
3.8007 -9.0629 -1.8472 0.9608
4.5919 -8.6855 -1.8466 0.9608
5.3461 -8.2394 -1.8461 0.9608
7.8805 -5.8464 -1.8443 0.9609
8.3687 -5.1199 -1.8440 0.9609
10.4686 1.7416 -1.9947 0.9577
10.2725 2.6678 -1.9949 0.9577
9.6379 4.4501 -1.9953 0.9577
7.6016 6.4064 -1.8685 0.9603
6.2911 7.5908 -1.8531 0.9607
4.8462 8.5918 -1.8541 0.9606
3.2459 9.3213 -1.8552 0.9606
2.3010 9.1696 -1.7770 0.9623
0.7170 10.6248 -2.0016 0.9576
-0.2328 10.6500 -2.0023 0.9576
-0.7261 6.5094 -1.2311 0.9737
-2.8248 9.4811 -1.8595 0.9605
-2.5927 6.5139 -1.3178 0.9719
-5.9667 7.9058 -1.8617 0.9605
-5.7638 6.3664 -1.6142 0.9657
-7.2790 6.7243 -1.8626 0.9605
-7.8510 6.0501 -1.8630 0.9605
-9.0113 5.7421 -2.0084 0.9574
-9.8906 4.0523 -2.0090 0.9574
-10.2135 3.1551 -2.0092 0.9574
-10.6860 0.3410 -2.0096 0.9574
-10.6738 -0.6126 -2.0096 0.9574
-10.5764 -1.5614 -2.0095 0.9574
-10.3945 -2.4976 -2.0094 0.9574
-9.7633 -4.2932 -2.0047 0.9575
-8.1882 -5.5152 -1.8556 0.9606
-5.3159 -5.1674 -1.3934 0.9703
-5.0005 -8.4984 -1.8534 0.9607
-4.2220 -8.9076 -1.8528 0.9607
-1.7137 -9.6979 -1.8511 0.9607
0.9118 -9.7960 -1.8492 0.9607
3.4673 -9.1970 -1.8474 0.9608
5.7715 -7.9452 -1.8458 0.9608
6.4550 -7.3974 -1.8453 0.9608
7.6622 -6.1311 -1.8445 0.9608
8.6257 -4.6718 -1.8438 0.9609
10.0821 -3.3176 -1.9950 0.9577
10.6039 0.4143 -1.9946 0.9577
10.3628 2.2904 -1.9948 0.9577
8.9139 5.7699 -1.9958 0.9577
7.1914 6.7392 -1.8525 0.9607
5.8837 7.9127 -1.8534 0.9607
4.0792 6.6512 -1.4666 0.9687
2.5606 6.5695 -1.3253 0.9717
1.8959 9.6916 -1.8562 0.9606
0.7878 7.5516 -1.4271 0.9696
0.1567 10.6499 -2.0020 0.9576
-0.7933 10.6250 -2.0026 0.9576
-1.7376 10.5155 -2.0033 0.9575
-2.4760 9.5768 -1.8592 0.9605
-3.3207 9.3210 -1.8598 0.9605
-4.9256 8.5886 -1.8610 0.9605
-4.5246 6.4744 -1.4847 0.9684
-6.3756 7.5819 -1.8620 0.9605
-7.6239 6.3326 -1.8629 0.9605
-8.6827 5.9899 -1.9827 0.9580
-10.3660 2.6132 -2.0094 0.9574
-10.6663 0.7315 -2.0096 0.9574
-10.4792 -2.1159 -2.0094 0.9574
-9.9352 -3.9419 -2.0090 0.9574
-6.7032 -7.2403 -1.8546 0.9606
-5.3085 -8.3109 -1.8536 0.9607
-4.5454 -8.7484 -1.8531 0.9607
-3.7465 -9.1159 -1.8525 0.9607
-1.2005 -9.7728 -1.8507 0.9607
1.4260 -9.7326 -1.8489 0.9608
3.1291 -9.3188 -1.8477 0.9608
3.9459 -9.0001 -1.8471 0.9608
6.8345 -7.0463 -1.8451 0.9608
7.4335 -6.4077 -1.8447 0.9608
8.8788 -4.2202 -1.8478 0.9608
9.9446 -3.6805 -1.9931 0.9578
10.2422 -2.7821 -1.9949 0.9577
10.4486 -1.8581 -1.9947 0.9577
10.5722 -0.9195 -1.9947 0.9577
10.4394 1.9100 -1.9948 0.9577
9.9362 3.7336 -1.9951 0.9577
9.5652 4.6048 -1.9954 0.9577
6.1684 7.6915 -1.8532 0.9607
5.4598 8.2128 -1.8537 0.9607
4.7075 8.6692 -1.8542 0.9606
3.9174 9.0569 -1.8548 0.9606
3.0956 9.3729 -1.8553 0.9606
1.8372 7.8550 -1.5163 0.9677
0.9261 6.5469 -1.2428 0.9734
0.5459 10.6356 -2.0017 0.9576
-2.9773 9.4349 -1.8596 0.9605
-3.8075 9.1349 -1.8602 0.9605
-6.7669 7.2368 -1.8623 0.9605
-7.3866 6.6065 -1.8627 0.9605
-8.0791 6.0211 -1.8939 0.9598
-9.9547 3.8926 -2.0091 0.9574
-10.2631 2.9903 -2.0093 0.9574
-10.4896 2.0639 -2.0094 0.9574
-10.6625 -0.7844 -2.0096 0.9574
-10.5498 -1.7315 -2.0095 0.9574
-10.0731 -3.5763 -2.0091 0.9574
-9.6801 -4.4440 -2.0021 0.9576
-8.0980 -5.6461 -1.8556 0.9606
-7.5611 -6.3440 -1.8552 0.9606
-6.9640 -6.9911 -1.8548 0.9606
-3.9217 -4.7110 -1.1521 0.9754
-0.6843 -9.8205 -1.8503 0.9607
0.1936 -9.8392 -1.8497 0.9607
1.9360 -9.6421 -1.8485 0.9608
3.6147 -9.1394 -1.8473 0.9608
5.1767 -8.3476 -1.8462 0.9608
5.8984 -7.8509 -1.8457 0.9608
7.1950 -6.6758 -1.8448 0.9608
8.2625 -5.2903 -1.8441 0.9609
10.1340 -3.1548 -1.9950 0.9577
10.6058 -0.3617 -1.9946 0.9577
10.5959 0.5850 -1.9946 0.9577
10.5020 1.5270 -1.9947 0.9577
10.3247 2.4570 -1.9948 0.9577
10.0656 3.3676 -1.9950 0.9577
9.3104 5.1024 -1.9956 0.9577
8.8201 5.9129 -1.9959 0.9577
7.9242 6.4056 -1.9152 0.9594
7.0822 6.8544 -1.8525 0.9607
5.7558 8.0068 -1.8535 0.9607
4.2453 8.9065 -1.8545 0.9606
2.5984 9.5247 -1.8557 0.9606
1.3550 7.5714 -1.4457 0.9692
0.6791 7.7102 -1.4548 0.9690
-0.0148 10.6517 -2.0021 0.9576
-0.8254 9.0828 -1.7143 0.9636
-1.9068 10.4868 -2.0034 0.9575
-2.4887 9.0237 -1.7594 0.9626
-2.4147 6.4478 -1.2941 0.9724
-4.2839 8.9234 -1.8605 0.9605
-5.8033 8.0257 -1.8616 0.9605
-7.1395 6.8715 -1.8625 0.9605
-7.7252 6.2092 -1.8629 0.9605
-9.3858 5.1099 -2.0087 0.9574
-9.8053 4.2537 -2.0090 0.9574
-10.1465 3.3634 -2.0092 0.9574
-10.4068 2.4460 -2.0094 0.9574
-10.5841 1.5089 -2.0095 0.9574
-10.6768 0.5597 -2.0096 0.9574
-10.6063 -1.3446 -2.0095 0.9574
-10.4436 -2.2844 -2.0094 0.9574
-10.1976 -3.2057 -2.0092 0.9574
-8.7498 -4.5893 -1.8571 0.9606
-8.2997 -5.3467 -1.8557 0.9606
-5.4158 -5.0531 -1.3923 0.9703
-4.4037 -8.8200 -1.8530 0.9607
-3.5991 -9.1745 -1.8524 0.9607
-2.7663 -9.4558 -1.8518 0.9607
-1.9120 -9.6616 -1.8512 0.9607
-1.0430 -9.7903 -1.8506 0.9607
-0.1663 -9.8410 -1.8500 0.9607
1.5824 -9.7078 -1.8488 0.9608
3.2785 -9.2667 -1.8476 0.9608
5.6081 -8.0622 -1.8459 0.9608
6.3026 -7.5283 -1.8455 0.9608
7.5355 -6.2869 -1.8446 0.9608
8.0641 -5.5892 -1.8442 0.9609
10.0124 -3.5233 -1.9951 0.9577
10.2855 -2.6168 -1.9949 0.9577
10.6102 0.1972 -1.9946 0.9577
10.5506 1.1420 -1.9947 0.9577
-2.7292 -8.3245 -1.8518 0.9648
-1.2073 -8.6718 -1.8507 0.9648
-0.4296 -8.7423 -1.8502 0.9648
0.3511 -8.7432 -1.8496 0.9649
2.6491 -8.3316 -1.8480 0.9649
3.3801 -8.0601 -1.8475 0.9649
4.0839 -7.7247 -1.8470 0.9649
4.7549 -7.3282 -1.8465 0.9649
5.3877 -6.8736 -1.8461 0.9649
5.9775 -6.3647 -1.8457 0.9649
7.0098 -5.2004 -1.8450 0.9649
7.4441 -4.5542 -1.8447 0.9650
8.2087 -4.0650 -1.9363 0.9632
9.2671 -1.8024 -1.9956 0.9621
9.3904 -0.9693 -1.9955 0.9621
9.4133 0.7132 -1.9955 0.9621
9.1380 2.3732 -1.9957 0.9621
8.8909 3.1784 -1.9958 0.9621
7.7366 5.4193 -1.9967 0.9621
7.2242 6.0883 -1.9970 0.9621
4.3102 7.6415 -1.8545 0.9648
2.8867 8.2897 -1.8555 0.9647
1.7891 7.1296 -1.5538 0.9704
0.4728 7.0066 -1.4844 0.9717
-0.1921 8.7861 -1.8576 0.9647
-0.7261 6.5092 -1.3845 0.9736
-1.7498 8.6175 -1.8587 0.9647
-2.5116 8.4297 -1.8593 0.9647
-4.0179 6.4476 -1.6059 0.9694
-5.3043 7.0281 -1.8612 0.9646
-6.5590 6.0591 -1.8875 0.9642
-8.4344 4.3706 -2.0080 0.9619
-8.7914 3.6020 -2.0083 0.9619
-9.2928 1.9844 -2.0086 0.9619
-9.4331 1.1484 -2.0087 0.9619
-9.4982 0.3031 -2.0087 0.9619
-9.4873 -0.5445 -2.0087 0.9619
-9.0038 -3.0343 -2.0084 0.9619
-7.2785 -4.9025 -1.8550 0.9648
-4.0179 -4.6714 -1.3024 0.9751
-5.1025 -7.1308 -1.8535 0.9648
-4.4456 -7.5553 -1.8530 0.9648
-1.5237 -8.6229 -1.8509 0.9648
0.0313 -8.7512 -1.8498 0.9649
0.8108 -8.7111 -1.8493 0.9649
1.5834 -8.6016 -1.8488 0.9649
3.7992 -7.8697 -1.8472 0.9649
5.7414 -6.5796 -1.8458 0.9649
6.3035 -6.0404 -1.8455 0.9649
7.2731 -4.8237 -1.8448 0.9649
8.6605 -3.7347 -1.9936 0.9622
9.1952 -2.1400 -1.9956 0.9621
9.4283 -0.4736 -1.9955 0.9621
9.3628 1.2078 -1.9955 0.9621
9.0009 2.8511 -1.9958 0.9621
8.7118 3.6423 -1.9960 0.9621
8.3536 4.4047 -1.9962 0.9621
7.9290 5.1325 -1.9965 0.9621
7.4414 5.8197 -1.9969 0.9621
6.7956 6.3683 -1.9686 0.9626
2.4467 8.4316 -1.8558 0.9647
0.1293 8.7862 -1.8574 0.9647
-0.6545 8.7653 -1.8580 0.9647
-2.2014 8.5149 -1.8591 0.9647
-4.3790 7.6355 -1.8606 0.9647
-5.0433 7.2167 -1.8610 0.9646
-5.6677 6.7401 -1.8615 0.9646
-6.2472 6.2095 -1.8619 0.9646
-7.2511 6.0229 -1.9925 0.9622
-8.2684 4.6757 -2.0079 0.9619
-8.9694 3.1343 -2.0084 0.9619
-9.2138 2.3227 -2.0085 0.9619
-9.4807 0.6502 -2.0087 0.9619
-9.1091 -2.7032 -2.0085 0.9619
-8.4643 -4.2672 -2.0037 0.9620
-5.9588 -6.4363 -1.8541 0.9648
-4.0411 -7.7777 -1.8527 0.9648
-3.3309 -8.1047 -1.8522 0.9648
0.4918 -8.7359 -1.8495 0.9649
2.7828 -8.2874 -1.8479 0.9649
3.5093 -8.0043 -1.8474 0.9649
4.2076 -7.6576 -1.8469 0.9649
6.0790 -6.2674 -1.8456 0.9649
7.0924 -5.0867 -1.8449 0.9649
8.4970 -4.0387 -1.9887 0.9623
8.8551 -3.2773 -1.9959 0.9621
9.1111 -2.4748 -1.9957 0.9621
9.2948 -1.6529 -1.9956 0.9621
9.4048 -0.8180 -1.9955 0.9621
9.4006 0.8646 -1.9955 0.9621
9.0988 2.5201 -1.9957 0.9621
8.8388 3.3212 -1.9959 0.9621
8.5086 4.0962 -1.9961 0.9621
7.6486 5.5433 -1.9967 0.9621
7.1255 6.2040 -1.9971 0.9621
5.4864 6.8411 -1.8537 0.9648
4.8560 7.3046 -1.8541 0.9648
4.1868 7.7102 -1.8546 0.9648
2.7530 8.3356 -1.8556 0.9647
0.3661 7.1334 -1.5098 0.9712
-1.8884 8.5886 -1.8588 0.9647
-3.3851 8.1215 -1.8599 0.9647
-4.1427 6.4153 -1.6142 0.9693
-5.4170 6.9421 -1.8613 0.9646
-6.7628 6.0486 -1.9179 0.9636
-8.5038 4.2343 -2.0080 0.9619
-8.8484 3.4600 -2.0083 0.9619
-9.3237 1.8345 -2.0086 0.9619
-9.5018 0.1502 -2.0087 0.9619
-9.4773 -0.6972 -2.0087 0.9619
-9.3771 -1.5390 -2.0087 0.9619
-8.6338 -3.9636 -2.0081 0.9619
-7.1984 -5.0189 -1.8549 0.9648
-6.7213 -5.6394 -1.8546 0.9648
-3.9221 -4.7114 -1.2958 0.9752
-4.9868 -7.2117 -1.8534 0.9648
-3.6254 -7.9784 -1.8524 0.9648
-1.3846 -8.6458 -1.8508 0.9648
-0.6084 -8.7323 -1.8503 0.9648
1.7216 -8.5746 -1.8487 0.9649
2.4782 -8.3846 -1.8481 0.9649
5.8463 -6.4860 -1.8458 0.9649
7.8439 -4.0863 -1.8695 0.9645
9.2284 -1.9917 -1.9956 0.9621
9.4347 -0.3217 -1.9955 0.9621
9.4258 0.5204 -1.9955 0.9621
9.3422 1.3584 -1.9955 0.9621
9.1845 2.1856 -1.9956 0.9621
8.6523 3.7822 -1.9960 0.9621
7.8456 5.2596 -1.9966 0.9621
7.3469 5.9389 -1.9969 0.9621
6.5809 6.3691 -1.9359 0.9632
5.1193 7.1214 -1.8539 0.9648
4.4654 7.5512 -1.8544 0.9648
2.4453 6.5849 -1.4848 0.9717
2.3107 8.4703 -1.8559 0.9647
0.5805 6.5907 -1.3985 0.9733
-0.0122 8.7876 -1.8575 0.9647
-1.5730 8.6509 -1.8586 0.9647
-2.3384 8.4788 -1.8591 0.9647
-2.4147 6.4477 -1.4554 0.9722
-4.5016 7.5643 -1.8607 0.9647
-5.1591 7.1348 -1.8611 0.9646
-7.4016 5.9491 -2.0073 0.9619
-7.9037 5.2668 -2.0076 0.9619
-8.3429 4.5421 -2.0079 0.9619
-9.2501 2.1741 -2.0086 0.9619
-9.4076 1.3412 -2.0087 0.9619
-9.4899 0.4974 -2.0087 0.9619
-9.4965 -0.3503 -2.0087 0.9619
-9.2828 -2.0305 -2.0086 0.9619
-8.7733 -3.6455 -2.0082 0.9619
-8.3849 -4.3979 -2.0014 0.9620
-7.3776 -4.7527 -1.8550 0.9648
-5.3948 -5.0335 -1.5596 0.9703
-4.1770 -4.6600 -1.3228 0.9747
-4.5995 -7.4632 -1.8531 0.9648
-0.9274 -8.7052 -1.8505 0.9648
-0.1478 -8.7506 -1.8500 0.9649
2.1703 -8.4706 -1.8483 0.9649
3.6376 -7.9463 -1.8473 0.9649
5.6058 -6.6960 -1.8459 0.9649
6.1789 -6.1685 -1.8455 0.9649
6.7027 -5.5922 -1.8452 0.9649
8.5703 -3.9057 -1.9908 0.9622
9.1496 -2.3278 -1.9957 0.9621
9.3201 -1.5030 -1.9955 0.9621
9.4167 -0.6664 -1.9955 0.9621
9.4385 0.1754 -1.9955 0.9621
9.3855 1.0159 -1.9955 0.9621
9.2581 1.8484 -1.9956 0.9621
-1.0858 -7.7990 -1.8506 0.9682
-0.3863 -7.8627 -1.8501 0.9682
1.0151 -7.8022 -1.8492 0.9682
3.6736 -6.9487 -1.8473 0.9682
4.2773 -6.5922 -1.8469 0.9682
7.6042 -3.7656 -1.9943 0.9657
8.1603 -2.3583 -1.9964 0.9657
8.3375 -1.6216 -1.9962 0.9657
8.4925 -0.1157 -1.9961 0.9657
8.4691 0.6416 -1.9961 0.9657
8.3785 1.3939 -1.9962 0.9657
8.2214 2.1351 -1.9963 0.9657
6.9602 4.8754 -1.9972 0.9657
4.4734 6.4995 -1.8544 0.9681
3.2500 7.1937 -1.8552 0.9681
1.7891 7.1296 -1.7276 0.9702
-1.5737 7.7501 -1.8586 0.9680
-3.5704 7.0630 -1.8600 0.9680
-4.7697 6.3198 -1.8609 0.9680
-5.5022 6.0775 -1.9268 0.9669
-6.2711 5.7932 -2.0065 0.9655
-7.9045 3.2386 -2.0076 0.9655
-8.1624 2.5215 -2.0078 0.9655
-8.3552 1.7842 -2.0079 0.9655
-8.4814 1.0325 -2.0080 0.9655
-8.5398 0.2726 -2.0081 0.9655
-8.4523 -1.2478 -2.0080 0.9655
-8.0955 -2.7282 -2.0078 0.9655
-7.4728 -4.1166 -2.0051 0.9656
-6.5936 -4.4412 -1.8684 0.9679
-6.1246 -4.9730 -1.8542 0.9681
-4.0181 -4.6717 -1.4482 0.9750
-3.3755 -7.1216 -1.8522 0.9681
-2.7267 -7.3923 -1.8518 0.9681
-2.0566 -7.6040 -1.8513 0.9682
-0.6736 -7.8442 -1.8503 0.9682
0.0281 -7.8709 -1.8499 0.9682
0.7293 -7.8350 -1.8494 0.9682
3.4175 -7.0791 -1.8475 0.9682
5.1649 -5.9190 -1.8463 0.9682
7.4452 -4.0323 -1.9899 0.9658
8.0689 -2.6552 -1.9964 0.9657
8.2729 -1.9254 -1.9963 0.9657
8.4111 -1.1804 -1.9962 0.9657
8.4868 0.3316 -1.9961 0.9657
8.2937 1.8331 -1.9963 0.9657
7.8378 3.2769 -1.9966 0.9657
7.5155 3.9628 -1.9968 0.9657
7.1334 4.6174 -1.9971 0.9657
6.6945 5.2356 -1.9974 0.9657
5.6540 6.3355 -1.9957 0.9657
3.5104 7.0694 -1.8550 0.9681
2.2008 7.5841 -1.8560 0.9681
0.7335 7.0309 -1.6614 0.9714
0.0968 6.5785 -1.5463 0.9733
-1.2892 7.8016 -1.8584 0.9680
-1.9798 7.6576 -1.8589 0.9680
-2.6550 7.4526 -1.8594 0.9680
-3.3095 7.1881 -1.8598 0.9680
-3.9378 6.8662 -1.8603 0.9680
-6.0546 6.0181 -2.0063 0.9655
-7.0292 4.8493 -2.0070 0.9655
-7.7805 3.5253 -2.0075 0.9655
-8.2842 2.0884 -2.0079 0.9655
-8.4378 1.3419 -2.0080 0.9655
-8.5241 0.5846 -2.0081 0.9655
-8.5423 -0.1774 -2.0081 0.9655
-8.4923 -0.9380 -2.0080 0.9655
-7.9402 -3.1504 -2.0076 0.9655
-7.6270 -3.8451 -2.0074 0.9655
-5.5469 -5.0108 -1.7568 0.9698
-4.8201 -6.2407 -1.8533 0.9681
-1.6531 -7.7005 -1.8510 0.9682
-0.9600 -7.8151 -1.8505 0.9682
-0.2597 -7.8675 -1.8501 0.9682
1.1405 -7.7845 -1.8491 0.9682
1.8293 -7.6499 -1.8486 0.9682
2.5031 -7.4545 -1.8481 0.9682
3.1567 -7.2000 -1.8477 0.9682
6.9555 -4.1029 -1.8979 0.9674
7.6713 -3.6463 -1.9962 0.9657
7.9667 -2.9485 -1.9965 0.9657
8.3625 -1.4871 -1.9962 0.9657
8.4615 -0.7359 -1.9961 0.9657
8.4577 0.7779 -1.9961 0.9657
8.1861 2.2673 -1.9963 0.9657
7.9521 2.9880 -1.9965 0.9657
7.6550 3.6852 -1.9967 0.9657
6.4103 5.5813 -1.9976 0.9657
5.8884 6.1315 -1.9980 0.9657
4.3683 6.5709 -1.8544 0.9681
3.7662 6.9357 -1.8549 0.9681
1.6648 7.1180 -1.7180 0.9704
0.9260 6.5467 -1.5539 0.9732
0.3675 7.1603 -1.6851 0.9710
-0.3000 7.8987 -1.8577 0.9680
-1.6983 7.7241 -1.8587 0.9680
-2.3806 7.5439 -1.8592 0.9680
-4.8711 6.2425 -1.8609 0.9680
-6.8468 5.1027 -2.0069 0.9655
-7.2754 4.4729 -2.0072 0.9655
-7.6461 3.8072 -2.0074 0.9655
-7.9558 3.1110 -2.0077 0.9655
-8.2021 2.3898 -2.0078 0.9655
-8.4969 0.8958 -2.0080 0.9655
-8.5431 0.1350 -2.0081 0.9655
-8.5211 -0.6269 -2.0081 0.9655
-8.4310 -1.3837 -2.0080 0.9655
-8.2737 -2.1295 -2.0079 0.9655
-7.7628 -3.5638 -2.0075 0.9655
-7.3980 -4.2321 -2.0031 0.9656
-6.4725 -4.5127 -1.8544 0.9681
-5.2596 -5.2800 -1.7515 0.9698
-3.8876 -6.8573 -1.8526 0.9681
-3.2602 -7.1748 -1.8522 0.9681
-2.6072 -7.4349 -1.8517 0.9681
-1.9338 -7.6357 -1.8512 0.9682
0.8553 -7.8218 -1.8493 0.9682
1.5485 -7.7125 -1.8488 0.9682
2.2291 -7.5418 -1.8483 0.9682
4.1417 -6.6787 -1.8470 0.9682
4.7194 -6.2816 -1.8466 0.9682
5.2594 -5.8348 -1.8462 0.9682
5.7573 -5.3419 -1.8458 0.9682
6.2094 -4.8067 -1.8455 0.9682
7.5163 -3.9157 -1.9918 0.9658
7.8539 -3.2379 -1.9966 0.9657
8.1105 -2.5249 -1.9964 0.9657
8.3027 -1.7919 -1.9963 0.9657
8.4290 -1.0448 -1.9962 0.9657
8.4804 0.4682 -1.9961 0.9657
8.2632 1.9664 -1.9963 0.9657
7.4509 4.0834 -1.9969 0.9657
7.0583 4.7318 -1.9971 0.9657
6.6095 5.3428 -1.9974 0.9657
6.1082 5.9117 -1.9978 0.9657
5.4740 6.3363 -1.9679 0.9662
4.6052 6.4063 -1.8543 0.9681
2.4453 6.5850 -1.6509 0.9715
1.2672 7.0808 -1.6906 0.9709
0.6183 7.0202 -1.6563 0.9715
-1.4147 7.7802 -1.8585 0.9680
-2.1030 7.6251 -1.8590 0.9680
-2.4147 6.4477 -1.6181 0.9721
-3.4249 7.1342 -1.8599 0.9680
-5.2895 6.0885 -1.8955 0.9674
-6.1510 5.9200 -2.0064 0.9655
-7.1066 4.7356 -2.0071 0.9655
-8.4584 1.2058 -2.0080 0.9655
-8.5324 0.4473 -2.0081 0.9655
-8.5383 -0.3149 -2.0081 0.9655
-7.8883 -3.2778 -2.0076 0.9655
-7.5639 -3.9673 -2.0074 0.9655
-6.8892 -4.4381 -1.9260 0.9669
-6.2253 -4.8468 -1.8542 0.9681
-5.3640 -5.0048 -1.7241 0.9703
-4.7188 -6.3173 -1.8532 0.9681
-4.1361 -6.7112 -1.8528 0.9681
-2.8776 -7.3354 -1.8519 0.9681
-2.2119 -7.5607 -1.8514 0.9681
-1.5289 -7.7258 -1.8509 0.9682
-0.8340 -7.8292 -1.8505 0.9682
0.5688 -7.8487 -1.8495 0.9682
1.2657 -7.7648 -1.8490 0.9682
1.9521 -7.6191 -1.8485 0.9682
3.2721 -7.1479 -1.8476 0.9682
4.4870 -6.4505 -1.8467 0.9682
6.0300 -5.0309 -1.8456 0.9682
6.4533 -4.4727 -1.8453 0.9683
7.7306 -3.5230 -1.9967 0.9657
8.0131 -2.8198 -1.9965 0.9657
8.3853 -1.3523 -1.9962 0.9657
8.4918 0.1578 -1.9961 0.9657
8.4441 0.9140 -1.9962 0.9657
-2.2277 -6.7948 -1.8514 0.9709
-0.9856 -7.0790 -1.8506 0.9709
0.9215 -7.0824 -1.8492 0.9709
2.7602 -6.5818 -1.8479 0.9709
4.8821 -5.1983 -1.8464 0.9710
5.3250 -4.7417 -1.8461 0.9710
5.7255 -4.2477 -1.8459 0.9710
6.5603 -4.0135 -1.9912 0.9687
6.9126 -3.4232 -1.9972 0.9686
7.4092 -2.1412 -1.9969 0.9686
7.5701 -1.4723 -1.9968 0.9686
7.6709 -0.7918 -1.9967 0.9686
7.7109 -0.1050 -1.9967 0.9686
7.6896 0.5826 -1.9967 0.9686
7.4646 1.9386 -1.9968 0.9686
7.2627 2.5963 -1.9970 0.9686
7.0031 3.2335 -1.9972 0.9686
6.6878 3.8452 -1.9974 0.9686
5.9005 4.9728 -1.9979 0.9686
5.4348 5.4797 -1.9983 0.9686
4.9257 5.9433 -1.9986 0.9686
-0.1568 7.1728 -1.8576 0.9708
-2.6557 6.6722 -1.8594 0.9708
-4.5966 6.0904 -1.9756 0.9690
-5.1991 5.7427 -2.0057 0.9685
-6.1380 4.7301 -2.0064 0.9685
-6.5361 4.1648 -2.0067 0.9685
-6.8820 3.5662 -2.0069 0.9685
-7.4072 2.2882 -2.0073 0.9685
-7.6965 0.9370 -2.0075 0.9685
-7.3464 -2.4757 -2.0072 0.9685
-6.7889 -3.7399 -2.0068 0.9685
-6.4085 -4.3165 -2.0006 0.9686
-5.5582 -4.5131 -1.8538 0.9709
-5.1330 -4.9896 -1.8535 0.9709
-4.0183 -4.6719 -1.5955 0.9749
-4.1642 -5.8195 -1.8528 0.9709
-1.8666 -6.9017 -1.8512 0.9709
-1.2438 -7.0390 -1.8507 0.9709
0.6620 -7.1121 -1.8494 0.9709
1.9132 -6.8783 -1.8485 0.9709
2.5180 -6.6789 -1.8481 0.9709
4.1923 -5.7713 -1.8469 0.9710
4.6891 -5.3737 -1.8466 0.9710
6.2056 -4.1157 -1.9280 0.9697
6.7813 -3.6728 -1.9968 0.9686
7.0828 -3.0543 -1.9971 0.9686
7.5114 -1.7482 -1.9968 0.9686
7.6370 -1.0717 -1.9967 0.9686
7.7019 -0.3869 -1.9967 0.9686
7.6484 0.9866 -1.9967 0.9686
7.5304 1.6644 -1.9968 0.9686
7.3525 2.3290 -1.9969 0.9686
7.1163 2.9752 -1.9971 0.9686
6.8236 3.5980 -1.9973 0.9686
6.4765 4.1923 -1.9975 0.9686
5.6311 5.2770 -1.9981 0.9686
5.1393 5.7588 -1.9985 0.9686
4.6065 6.1951 -1.9989 0.9686
3.8681 6.3070 -1.9156 0.9699
3.1869 6.4178 -1.8553 0.9708
2.5456 6.5311 -1.8149 0.9715
1.3751 7.0290 -1.8544 0.9708
-1.7970 6.9504 -1.8588 0.9708
-2.3383 6.5635 -1.8040 0.9716
-3.0037 6.5240 -1.8596 0.9708
-3.5739 6.2317 -1.8600 0.9708
-6.3791 4.4007 -2.0066 0.9685
-7.0607 3.1991 -2.0070 0.9685
-7.5177 1.8952 -2.0074 0.9685
-7.7518 -0.1610 -2.0075 0.9685
-7.7065 -0.8512 -2.0075 0.9685
-7.5997 -1.5345 -2.0074 0.9685
-7.4323 -2.2056 -2.0073 0.9685
-7.2056 -2.8589 -2.0071 0.9685
-6.9214 -3.4893 -2.0069 0.9685
-6.5754 -4.0876 -2.0046 0.9685
-5.8656 -4.4168 -1.9011 0.9701
-5.3124 -4.7990 -1.8536 0.9709
-4.3745 -5.6638 -1.8529 0.9709
-3.8516 -6.0299 -1.8526 0.9709
-2.7187 -6.6151 -1.8518 0.9709
-2.1179 -6.8295 -1.8514 0.9709
-1.5005 -6.9894 -1.8509 0.9709
-0.8714 -7.0937 -1.8505 0.9709
3.4361 -6.2535 -1.8475 0.9709
3.9789 -5.9212 -1.8471 0.9710
4.4899 -5.5420 -1.8467 0.9710
5.4005 -4.6552 -1.8461 0.9710
6.9667 -3.3114 -1.9972 0.9686
7.6827 -0.6682 -1.9967 0.9686
7.6793 0.7063 -1.9967 0.9686
7.4326 2.0586 -1.9969 0.9686
7.2201 2.7130 -1.9970 0.9686
6.9502 3.3459 -1.9972 0.9686
6.6251 3.9525 -1.9974 0.9686
5.8199 5.0673 -1.9980 0.9686
5.3460 5.5667 -1.9983 0.9686
2.8450 6.5775 -1.8555 0.9708
2.2480 6.8064 -1.8559 0.9708
0.9260 6.5465 -1.7119 0.9731
0.3559 6.9337 -1.7976 0.9717
-0.8298 6.4883 -1.6936 0.9733
-3.9536 6.1225 -1.8870 0.9703
-4.7464 6.0827 -1.9977 0.9686
-5.2911 5.6585 -2.0058 0.9685
-5.7753 5.1653 -2.0061 0.9685
-6.2136 4.6308 -2.0064 0.9685
-7.2197 2.8231 -2.0071 0.9685
-7.4432 2.1687 -2.0073 0.9685
-7.6072 1.4968 -2.0074 0.9685
-7.7106 0.8129 -2.0075 0.9685
-7.7325 -0.5689 -2.0075 0.9685
-7.5081 -1.9324 -2.0073 0.9685
-7.3055 -2.5937 -2.0072 0.9685
-7.0447 -3.2341 -2.0070 0.9685
-6.3258 -4.4105 -1.9967 0.9686
-5.0519 -5.0715 -1.8534 0.9709
-3.9228 -4.7123 -1.5875 0.9750
-4.0698 -5.8856 -1.8527 0.9709
-3.5284 -6.2236 -1.8523 0.9709
-2.9590 -6.5119 -1.8519 0.9709
-1.7552 -6.9306 -1.8511 0.9709
0.1405 -7.1429 -1.8498 0.9709
2.0236 -6.8464 -1.8485 0.9709
4.7749 -5.2973 -1.8465 0.9710
5.2271 -4.8499 -1.8462 0.9710
6.4080 -4.1029 -1.9701 0.9690
6.8412 -3.5640 -1.9973 0.9686
7.1309 -2.9399 -1.9971 0.9686
7.7071 -0.2628 -1.9967 0.9686
7.3142 2.4471 -1.9970 0.9686
6.4084 4.2961 -1.9976 0.9686
6.0009 4.8508 -1.9979 0.9686
5.5456 5.3672 -1.9982 0.9686
4.5063 6.2687 -1.9989 0.9686
3.7297 6.3071 -1.8972 0.9702
1.8868 6.9163 -1.8562 0.9708
0.6128 6.9577 -1.8085 0.9716
-0.0100 7.1741 -1.8575 0.9708
-0.6494 7.1464 -1.8580 0.9708
-2.4147 6.4476 -1.7826 0.9720
-4.4107 6.0999 -1.9490 0.9694
-5.5822 5.3726 -2.0060 0.9685
-6.0397 4.8545 -2.0063 0.9685
-6.4493 4.2976 -2.0066 0.9685
-6.8075 3.7062 -2.0069 0.9685
-7.5473 1.7739 -2.0074 0.9685
-7.6757 1.0943 -2.0075 0.9685
-7.7428 0.4059 -2.0075 0.9685
-5.2343 -4.8837 -1.8535 0.9709
-4.1775 -4.6606 -1.6205 0.9745
-4.2826 -5.7333 -1.8529 0.9709
-3.1954 -6.3999 -1.8521 0.9709
-2.0076 -6.8624 -1.8513 0.9709
-0.1207 -7.1439 -1.8500 0.9709
0.5163 -7.1245 -1.8495 0.9709
1.1489 -7.0485 -1.8491 0.9709
2.3809 -6.7294 -1.8482 0.9709
2.9704 -6.4890 -1.8478 0.9709
4.0735 -5.8561 -1.8470 0.9710
5.0466 -5.0381 -1.8463 0.9710
5.4746 -4.5675 -1.8460 0.9710
5.9603 -4.1311 -1.8777 0.9705
6.6974 -3.8066 -1.9946 0.9687
7.4741 -1.9015 -1.9968 0.9686
7.6135 -1.2278 -1.9967 0.9686
7.6669 0.8299 -1.9967 0.9686
-2.0373 -6.2141 -1.8513 0.9732
-0.3207 -6.5274 -1.8501 0.9732
0.2622 -6.5286 -1.8497 0.9732
0.8428 -6.4778 -1.8493 0.9732
2.5247 -6.0203 -1.8481 0.9732
3.0506 -5.7702 -1.8477 0.9732
4.0250 -5.1351 -1.8471 0.9732
6.3236 -3.1315 -1.9976 0.9711
6.7780 -1.9588 -1.9973 0.9711
7.0175 -0.7244 -1.9972 0.9711
6.9593 1.1578 -1.9972 0.9711
6.6439 2.3751 -1.9974 0.9711
6.4064 2.9580 -1.9976 0.9711
4.0040 5.8175 -1.9993 0.9711
2.8352 6.2757 -1.9495 0.9718
2.1843 6.2727 -1.8803 0.9728
1.5960 6.3603 -1.8564 0.9731
1.0231 6.4787 -1.8568 0.9731
-0.1434 6.5603 -1.8576 0.9731
-1.3063 6.4334 -1.8584 0.9731
-3.1000 6.1324 -1.9452 0.9718
-3.7452 6.0100 -2.0047 0.9710
-4.2667 5.6534 -2.0051 0.9710
-4.7544 5.2515 -2.0054 0.9710
-5.2043 4.8077 -2.0057 0.9710
-5.6128 4.3254 -2.0060 0.9710
-5.9767 3.8084 -2.0063 0.9710
-6.2930 3.2610 -2.0065 0.9710
-6.7731 2.0923 -2.0068 0.9710
-6.9330 1.4805 -2.0069 0.9710
-7.0781 -0.4062 -2.0070 0.9710
-6.8930 -1.6562 -2.0069 0.9710
-5.8773 -3.9587 -2.0060 0.9710
-4.6939 -4.5628 -1.8532 0.9732
-4.0185 -4.6721 -1.7446 0.9747
-2.2633 -6.1360 -1.8515 0.9732
-0.5592 -6.5119 -1.8503 0.9732
0.6055 -6.5049 -1.8494 0.9732
1.1825 -6.4236 -1.8490 0.9732
1.7499 -6.2913 -1.8486 0.9732
2.3031 -6.1091 -1.8483 0.9732
2.8378 -5.8783 -1.8479 0.9732
3.3497 -5.6010 -1.8475 0.9732
3.8349 -5.2792 -1.8472 0.9732
4.2893 -4.9156 -1.8469 0.9732
4.7096 -4.5130 -1.8466 0.9732
5.8701 -3.8932 -1.9941 0.9711
6.2051 -3.3607 -1.9977 0.9711
6.7020 -2.2054 -1.9974 0.9711
6.8715 -1.5992 -1.9973 0.9711
7.0458 -0.3539 -1.9971 0.9711
5.5600 4.3483 -1.9982 0.9711
4.7011 5.2679 -1.9988 0.9711
4.2137 5.6668 -1.9991 0.9711
3.6926 6.0209 -1.9995 0.9711
2.4455 6.2742 -1.9063 0.9724
1.8273 6.2972 -1.8562 0.9731
0.6807 6.5244 -1.8570 0.9731
0.0965 6.5605 -1.8574 0.9731
-3.5060 6.1133 -1.9951 0.9711
-4.0569 5.8051 -2.0049 0.9710
-4.5589 5.4215 -2.0053 0.9710
-5.0247 4.9944 -2.0056 0.9710
-5.8332 4.0242 -2.0062 0.9710
-6.4564 2.9253 -2.0066 0.9710
-6.6919 2.3385 -2.0068 0.9710
-6.8741 1.7329 -2.0069 0.9710
-7.0015 1.1135 -2.0070 0.9710
-7.0882 -0.1472 -2.0071 0.9710
-7.0468 -0.7783 -2.0070 0.9710
-6.5888 -2.6142 -2.0067 0.9710
-6.0188 -3.7416 -2.0063 0.9710
-4.4468 -4.8031 -1.8530 0.9732
-3.5222 -5.5143 -1.8523 0.9732
-2.4864 -6.0497 -1.8516 0.9732
-1.3723 -6.3923 -1.8508 0.9732
-0.7970 -6.4877 -1.8504 0.9732
1.5188 -6.3517 -1.8488 0.9732
4.5417 -4.6825 -1.8467 0.9732
6.9460 -1.2352 -1.9972 0.9711
7.0282 -0.6113 -1.9971 0.9711
7.0547 0.0175 -1.9971 0.9711
6.9398 1.2697 -1.9972 0.9711
6.7993 1.8832 -1.9973 0.9711
5.7149 4.1419 -1.9981 0.9711
4.8903 5.0921 -1.9987 0.9711
3.9099 5.8814 -1.9993 0.9711
2.7143 6.2753 -1.9356 0.9720
2.0714 6.2719 -1.8699 0.9729
1.4935 6.3854 -1.8565 0.9731
-0.2490 6.5574 -1.8577 0.9731
-1.9760 6.2620 -1.8589 0.9731
-3.2220 6.1268 -1.9597 0.9716
-5.2812 4.7234 -2.0058 0.9710
-6.6017 2.5815 -2.0067 0.9710
-6.9560 1.3687 -2.0070 0.9710
-7.0888 0.1120 -2.0071 0.9710
-6.9959 -1.1482 -2.0070 0.9710
-6.8654 -1.7670 -2.0069 0.9710
-6.6802 -2.3717 -2.0068 0.9710
-5.8081 -4.0495 -2.0044 0.9710
-5.2382 -4.3950 -1.9357 0.9720
-4.6197 -4.6376 -1.8531 0.9732
-3.9230 -4.7125 -1.7358 0.9748
-3.7218 -5.3823 -1.8525 0.9732
-2.1642 -6.1714 -1.8514 0.9732
-1.6052 -6.3384 -1.8510 0.9732
-1.0337 -6.4548 -1.8506 0.9732
1.2857 -6.4035 -1.8490 0.9732
1.8509 -6.2621 -1.8486 0.9732
2.4011 -6.0710 -1.8482 0.9732
2.9320 -5.8317 -1.8478 0.9732
3.4394 -5.5461 -1.8475 0.9732
5.9365 -3.8010 -1.9955 0.9711
6.2583 -3.2603 -1.9977 0.9711
6.5234 -2.6894 -1.9975 0.9711
6.7366 -2.0971 -1.9974 0.9711
6.8963 -1.4884 -1.9972 0.9711
7.0440 0.3889 -1.9971 0.9711
6.9815 1.0151 -1.9972 0.9711
6.4654 2.8262 -1.9975 0.9711
5.8622 3.9300 -1.9980 0.9711
5.4894 4.4374 -1.9982 0.9711
5.0728 4.9096 -1.9985 0.9711
4.6159 5.3430 -1.9988 0.9711
4.1220 5.7341 -1.9992 0.9711
3.5953 6.0798 -1.9996 0.9711
2.9915 6.2760 -1.9682 0.9715
1.1554 6.4560 -1.8567 0.9731
-1.1743 6.4585 -1.8583 0.9731
-1.7478 6.3375 -1.8611 0.9730
-2.9473 6.1393 -1.9279 0.9721
-4.1500 5.7393 -2.0050 0.9710
-5.1046 4.9130 -2.0057 0.9710
-5.5230 4.4392 -2.0060 0.9710
-6.5027 2.8210 -2.0066 0.9710
-6.9012 1.6220 -2.0069 0.9710
-7.0800 0.3711 -2.0070 0.9710
-7.0849 -0.2613 -2.0070 0.9710
-6.7626 -2.1259 -2.0068 0.9710
-6.5458 -2.7199 -2.0067 0.9710
-6.2767 -3.2921 -2.0065 0.9710
-5.9577 -3.8380 -2.0063 0.9710
-5.5725 -4.3385 -1.9993 0.9711
-3.4329 -5.5701 -1.8523 0.9732
-2.3885 -6.0887 -1.8515 0.9732
-1.8360 -6.2760 -1.8512 0.9732
-0.1104 -6.5338 -1.8500 0.9732
0.4722 -6.5162 -1.8495 0.9732
1.0508 -6.4468 -1.8491 0.9732
1.6209 -6.3261 -1.8487 0.9732
2.7170 -5.9354 -1.8480 0.9732
3.2346 -5.6686 -1.8476 0.9732
3.7262 -5.3568 -1.8473 0.9732
4.1880 -5.0025 -1.8469 0.9732
4.6164 -4.6086 -1.8466 0.9732
