ply
format ascii 1.0
element vertex 1565
property float32 x
property float32 y
property float32 z
property float32 I
end_header
-4.4663 -14.3787 1.6168 0.9412
-3.1334 -14.5760 1.6009 0.9418
0.8153 -14.4101 1.5499 0.9436
2.0682 -14.0711 1.5272 0.9444
3.4238 -14.2775 1.5766 0.9426
11.6240 -14.3021 1.9791 0.9285
13.1846 -13.5457 2.0298 0.9268
-9.8631 -14.6321 1.8949 0.9315
-4.9439 -14.6804 1.6634 0.9396
0.4737 -14.4194 1.5492 0.9436
1.7310 -14.0870 1.5241 0.9445
5.8979 -14.3268 1.6637 0.9396
-9.7485 -14.6280 1.4881 0.9319
-8.0661 -14.8206 1.4284 0.9345
-2.1326 -15.0537 1.2871 0.9408
0.5498 -14.4174 1.2214 0.9437
1.8061 -14.0845 1.2021 0.9446
3.1512 -14.2959 1.2392 0.9429
5.9159 -14.1578 1.2989 0.9403
7.2898 -13.8257 1.3231 0.9392
9.0736 -14.0124 1.4132 0.9352
11.6442 -14.8781 1.5993 0.9270
14.0082 8.0954 1.3696 0.9371
-8.5454 -14.8527 1.4506 0.9335
-5.2496 -14.6887 1.3205 0.9393
-1.4613 -5.6330 0.4926 0.9769
1.4698 -14.1004 1.2001 0.9447
5.9416 -15.2227 1.3833 0.9365
6.8861 -13.8448 1.3090 0.9398
8.6281 -14.0423 1.3952 0.9360
3.5033 7.3552 0.6897 0.9678
-14.9811 6.4350 1.3802 0.9366
-8.8581 -14.5862 1.4446 0.9338
-4.0910 -14.3622 1.2642 0.9418
-2.7749 -14.5795 1.2564 0.9422
6.6196 -14.1387 1.3216 0.9393
11.8400 -13.8831 1.5446 0.9294
-9.3526 -14.6094 1.4684 0.9327
-3.1335 -14.5762 1.2621 0.9419
0.8153 -14.4102 1.2218 0.9437
2.0684 -14.0722 1.2040 0.9445
3.4238 -14.2776 1.2429 0.9428
7.6099 -13.8106 1.3348 0.9387
11.6246 -14.3028 1.5602 0.9287
-9.8639 -14.6335 1.4939 0.9316
-8.1715 -14.8277 1.4332 0.9343
-4.9440 -14.6804 1.3113 0.9397
-3.4377 -14.3314 1.2476 0.9426
-2.1376 -14.5368 1.2438 0.9427
7.1992 -13.8300 1.3199 0.9393
-2.1332 -15.0579 0.9431 0.9409
0.5498 -14.4175 0.8947 0.9438
1.8062 -14.0855 0.8806 0.9447
3.1512 -14.2959 0.9078 0.9430
9.0736 -14.0124 1.0352 0.9353
-1.4612 -5.6325 0.3608 0.9769
0.2083 -14.4267 0.8947 0.9438
2.8027 -14.3193 0.9048 0.9432
6.8867 -13.8459 0.9589 0.9399
12.4058 -13.8678 1.1538 0.9281
3.5054 7.3597 0.5055 0.9679
-8.8588 -14.5875 1.0583 0.9339
-4.0913 -14.3633 0.9261 0.9419
2.4074 -14.0572 0.8844 0.9444
8.0309 -13.7919 0.9897 0.9380
11.8401 -13.8832 1.1315 0.9295
13.7972 -13.5195 1.1978 0.9255
-4.4670 -14.3809 0.9338 0.9414
-3.1335 -14.5764 0.9245 0.9420
0.8153 -14.4102 0.8950 0.9438
3.4238 -14.2776 0.9105 0.9429
6.2207 -14.1496 0.9585 0.9399
7.6105 -13.8117 0.9779 0.9388
11.6253 -14.3036 1.1430 0.9288
13.1872 -13.5484 1.1724 0.9270
-8.1716 -14.8277 1.0499 0.9344
-3.4379 -14.3325 0.9140 0.9426
-2.1376 -14.5368 0.9111 0.9428
1.7312 -14.0891 0.8802 0.9447
3.0734 -14.3011 0.9071 0.9431
-9.7503 -14.6306 0.6933 0.9320
-8.0661 -14.8207 0.6653 0.9347
-4.8572 -14.6782 0.6096 0.9400
-3.3575 -14.3298 0.5803 0.9428
0.5498 -14.4175 0.5689 0.9439
1.8063 -14.0865 0.5600 0.9447
5.9159 -14.1579 0.6050 0.9404
7.2910 -13.8279 0.6164 0.9393
9.0736 -14.0125 0.6582 0.9354
14.0051 8.0936 0.6378 0.9373
-8.5454 -14.8529 0.6757 0.9337
-1.4611 -5.6321 0.2294 0.9770
5.9429 -15.2260 0.6445 0.9367
8.6282 -14.0424 0.6499 0.9362
12.4059 -13.8678 0.7337 0.9282
3.5074 7.3639 0.3216 0.9679
-11.0310 -14.9657 0.7331 0.9283
-8.8596 -14.5887 0.6730 0.9340
-4.0916 -14.3644 0.5889 0.9420
-2.7749 -14.5796 0.5852 0.9423
1.1573 -14.4010 0.5697 0.9438
6.6196 -14.1388 0.6156 0.9394
8.0316 -13.7930 0.6293 0.9381
13.7985 -13.5209 0.7618 0.9256
-9.3542 -14.6120 0.6841 0.9329
-7.8356 -15.0502 0.6691 0.9343
-4.4674 -14.3820 0.5938 0.9415
-3.1336 -14.5766 0.5879 0.9421
2.0687 -14.0742 0.5609 0.9446
3.4238 -14.2776 0.5789 0.9429
6.2207 -14.1497 0.6095 0.9400
7.6111 -13.8128 0.6219 0.9388
11.6259 -14.3044 0.7268 0.9289
13.1884 -13.5496 0.7456 0.9271
-8.1716 -14.8278 0.6676 0.9345
-2.1376 -14.5369 0.5794 0.9429
3.0734 -14.3012 0.5768 0.9431
5.8999 -14.3317 0.6111 0.9398
7.2003 -13.8322 0.6149 0.9395
-9.7511 -14.6320 0.2970 0.9321
-4.8572 -14.6782 0.2612 0.9400
-3.3578 -14.3309 0.2486 0.9428
0.5498 -14.4176 0.2437 0.9439
1.8065 -14.0876 0.2399 0.9448
5.9159 -14.1580 0.2592 0.9405
7.2916 -13.8290 0.2641 0.9394
9.0737 -14.0125 0.2820 0.9354
12.7328 -13.5725 0.3144 0.9283
-10.2768 -14.6567 0.3024 0.9309
-8.5455 -14.8529 0.2895 0.9337
-1.4610 -5.6316 0.0983 0.9770
0.2084 -14.4268 0.2437 0.9439
5.9435 -15.2277 0.2761 0.9367
6.8877 -13.8481 0.2613 0.9400
8.6282 -14.0424 0.2784 0.9362
12.4059 -13.8679 0.3143 0.9283
3.5094 7.3681 0.1379 0.9679
-8.8604 -14.5900 0.2884 0.9340
-7.7945 -15.8780 0.2988 0.9317
-2.7749 -14.5797 0.2507 0.9424
1.1573 -14.4010 0.2440 0.9438
2.4077 -14.0592 0.2409 0.9445
11.8402 -13.8833 0.3082 0.9296
13.7999 -13.5222 0.3264 0.9256
3.6770 7.2715 0.1376 0.9679
-5.9192 7.1093 0.1563 0.9637
-7.8363 -15.0516 0.2866 0.9344
-4.4677 -14.3831 0.2544 0.9415
-3.1336 -14.5768 0.2519 0.9421
0.8153 -14.4104 0.2438 0.9439
3.4239 -14.2777 0.2480 0.9430
7.6117 -13.8139 0.2664 0.9389
11.6265 -14.3051 0.3114 0.9289
-9.8666 -14.6374 0.2982 0.9318
-8.1716 -14.8278 0.2860 0.9345
-4.9440 -14.6806 0.2617 0.9399
-3.4385 -14.3347 0.2490 0.9427
-2.1376 -14.5369 0.2482 0.9429
3.0734 -14.3012 0.2471 0.9432
5.9006 -14.3333 0.2618 0.9399
7.2009 -13.8333 0.2634 0.9395
-9.7520 -14.6333 -0.0990 0.9321
-8.0662 -14.8208 -0.0950 0.9347
-4.8573 -14.6783 -0.0870 0.9400
-3.3580 -14.3319 -0.0829 0.9428
0.5498 -14.4176 -0.0812 0.9439
1.8066 -14.0886 -0.0800 0.9448
5.9160 -14.1580 -0.0864 0.9405
7.2921 -13.8301 -0.0880 0.9394
12.7339 -13.5738 -0.1048 0.9283
14.0019 8.0918 -0.0911 0.9374
-10.2778 -14.6580 -0.1008 0.9309
-1.4608 -5.6312 -0.0328 0.9770
-2.4148 -14.5556 -0.0831 0.9427
0.2083 -14.4269 -0.0812 0.9439
1.4702 -14.1044 -0.0798 0.9449
2.8027 -14.3194 -0.0821 0.9433
6.8883 -13.8492 -0.0871 0.9400
12.4060 -13.8680 -0.1048 0.9283
3.5167 7.3834 -0.0460 0.9678
-14.8739 6.3890 -0.0911 0.9373
-11.0311 -14.9659 -0.1047 0.9283
-7.7952 -15.8795 -0.0996 0.9317
-2.7749 -14.5797 -0.0836 0.9424
1.1573 -14.4011 -0.0813 0.9438
11.8402 -13.8833 -0.1027 0.9296
13.8012 -13.5235 -0.1088 0.9256
3.6811 7.2796 -0.0459 0.9679
-14.8665 6.8070 -0.0921 0.9367
-9.3558 -14.6146 -0.0977 0.9329
-7.8370 -15.0529 -0.0955 0.9344
-3.1337 -14.5771 -0.0839 0.9421
2.0690 -14.0762 -0.0801 0.9447
3.4239 -14.2777 -0.0827 0.9430
6.2208 -14.1498 -0.0870 0.9400
11.6272 -14.3060 -0.1038 0.9289
13.1909 -13.5522 -0.1065 0.9271
-8.1716 -14.8279 -0.0953 0.9345
1.7316 -14.0921 -0.0799 0.9448
5.9013 -14.3349 -0.0873 0.9399
7.2015 -13.8344 -0.0878 0.9395
-9.7529 -14.6346 -0.4952 0.9320
-8.0662 -14.8209 -0.4751 0.9347
-3.3583 -14.3330 -0.4145 0.9428
-2.1355 -15.0744 -0.4287 0.9409
0.5498 -14.4177 -0.4063 0.9439
1.8067 -14.0896 -0.4000 0.9447
3.1512 -14.2961 -0.4122 0.9431
5.9160 -14.1581 -0.4321 0.9404
9.0737 -14.0126 -0.4701 0.9354
11.6479 -14.8828 -0.5322 0.9272
14.0005 8.0909 -0.4553 0.9373
-10.2787 -14.6594 -0.5041 0.9309
-8.5456 -14.8531 -0.4825 0.9337
-5.2497 -14.6890 -0.4392 0.9395
-1.4607 -5.6307 -0.1638 0.9770
-2.4148 -14.5556 -0.4155 0.9427
0.2084 -14.4269 -0.4063 0.9439
1.4703 -14.1054 -0.3993 0.9448
12.4061 -13.8680 -0.5239 0.9282
3.5224 7.3955 -0.2307 0.9678
-14.8223 6.3668 -0.4542 0.9375
-11.0312 -14.9659 -0.5235 0.9283
-8.8619 -14.5925 -0.4807 0.9340
-7.7959 -15.8809 -0.4982 0.9317
2.4081 -14.0613 -0.4017 0.9445
6.6197 -14.1390 -0.4396 0.9394
8.0335 -13.7963 -0.4495 0.9381
13.8026 -13.5248 -0.5441 0.9256
3.6945 7.3060 -0.2305 0.9678
-5.9165 7.1060 -0.2604 0.9637
-9.3567 -14.6159 -0.4887 0.9329
-4.4684 -14.3853 -0.4242 0.9415
-3.1337 -14.5773 -0.4198 0.9421
0.8153 -14.4104 -0.4064 0.9439
6.2208 -14.1498 -0.4352 0.9400
11.6279 -14.3068 -0.5191 0.9289
-9.8684 -14.6400 -0.4971 0.9318
-8.1717 -14.8279 -0.4767 0.9345
-3.4390 -14.3368 -0.4151 0.9427
-2.1376 -14.5370 -0.4137 0.9429
5.9020 -14.3366 -0.4365 0.9398
-8.0662 -14.8209 -0.8557 0.9347
-4.8573 -14.6784 -0.7841 0.9400
0.5498 -14.4177 -0.7317 0.9439
3.1512 -14.2961 -0.7424 0.9431
7.2933 -13.8323 -0.7930 0.9393
9.0738 -14.0127 -0.8466 0.9353
13.9992 8.0902 -0.8200 0.9373
-9.7174 -13.8589 -0.8584 0.9345
-8.5456 -14.8531 -0.8690 0.9337
-5.2498 -14.6890 -0.7911 0.9394
-2.4148 -14.5556 -0.7483 0.9426
1.4704 -14.1064 -0.7193 0.9448
5.9455 -15.2327 -0.8293 0.9366
19.5133 -4.2619 -1.0129 0.9231
3.5293 7.4099 -0.4162 0.9677
-14.7731 6.3457 -0.8154 0.9376
1.1573 -14.4012 -0.7327 0.9438
2.4082 -14.0623 -0.7235 0.9445
8.0342 -13.7975 -0.8097 0.9381
11.8403 -13.8834 -0.9254 0.9295
3.6959 7.3088 -0.4154 0.9677
-5.9151 7.1044 -0.4688 0.9637
-9.3575 -14.6171 -0.8802 0.9328
-3.1338 -14.5775 -0.7562 0.9420
2.0692 -14.0782 -0.7216 0.9446
3.4239 -14.2778 -0.7446 0.9429
6.2208 -14.1499 -0.7839 0.9400
7.6135 -13.8172 -0.8001 0.9388
3.9948 7.4562 -0.4290 0.9667
-9.3173 -13.8225 -0.8454 0.9354
-8.1717 -14.8280 -0.8586 0.9344
-4.9441 -14.6807 -0.7856 0.9398
-3.4392 -14.3379 -0.7478 0.9427
-2.1376 -14.5370 -0.7452 0.9428
0.4738 -14.4198 -0.7317 0.9439
1.7319 -14.0941 -0.7201 0.9447
3.0734 -14.3013 -0.7418 0.9431
5.9027 -14.3382 -0.7864 0.9398
-9.2732 -13.9147 -1.2261 0.9351
-4.8380 -14.6200 -1.1291 0.9401
-3.3588 -14.3351 -1.0796 0.9427
-2.0795 -14.6786 -1.0870 0.9423
1.8070 -14.0916 -1.0417 0.9446
9.0389 -13.9588 -1.2193 0.9355
13.9735 8.0753 -1.1833 0.9373
-15.2397 7.7693 -1.2542 0.9337
-9.6677 -13.7880 -1.2347 0.9347
-8.5109 -14.7929 -1.2514 0.9338
-2.4053 -14.4986 -1.0776 0.9428
5.8890 -15.0879 -1.1876 0.9371
6.8899 -13.8524 -1.1344 0.9398
3.5352 7.4223 -0.6028 0.9676
-10.9881 -14.9075 -1.3579 0.9284
-2.7638 -14.5213 -1.0839 0.9424
8.0348 -13.7986 -1.1708 0.9380
13.1295 -12.8653 -1.3478 0.9289
3.6922 7.3016 -0.5999 0.9677
-5.9137 7.1028 -0.6777 0.9636
-14.6079 6.6886 -1.1780 0.9376
-15.1283 5.3508 -1.1766 0.9377
-11.5561 -14.9251 -1.3840 0.9271
-9.3583 -14.6184 -1.2727 0.9328
-4.4691 -14.3875 -1.1046 0.9414
0.8153 -14.4105 -1.0583 0.9438
2.0694 -14.0792 -1.0434 0.9445
3.4107 -14.2228 -1.0724 0.9430
18.1763 6.9159 -1.4259 0.9250
3.9251 7.3262 -0.6094 0.9672
-8.1394 -14.7694 -1.2365 0.9346
-4.9245 -14.6227 -1.1313 0.9400
1.7320 -14.0951 -1.0413 0.9446
3.0613 -14.2449 -1.0683 0.9432
-16.2865 -9.6710 -1.8185 0.9267
-14.2395 -12.3560 -1.8100 0.9270
-13.0520 -13.5500 -1.8062 0.9272
-11.7675 -14.6337 -1.8028 0.9273
-8.0346 -14.7628 -1.6136 0.9347
-4.8380 -14.6201 -1.4785 0.9400
-2.0800 -14.6826 -1.4237 0.9422
0.5476 -14.3612 -1.3797 0.9439
1.8071 -14.0926 -1.3640 0.9445
3.1389 -14.2400 -1.3999 0.9431
5.6333 -17.8077 -1.7931 0.9277
5.8932 -14.1035 -1.4675 0.9404
9.0389 -13.9589 -1.5965 0.9354
11.5740 -14.7884 -1.8029 0.9273
14.0761 -12.5435 -1.8101 0.9270
15.1743 -11.2618 -1.8142 0.9269
17.7523 -6.8896 -1.8282 0.9263
11.2514 6.5022 -1.2476 0.9491
-14.1660 7.2219 -1.5265 0.9381
-17.3302 -7.7966 -1.8244 0.9265
-16.5218 -9.2889 -1.8197 0.9267
-13.3762 -13.2443 -1.8072 0.9271
-12.1165 -14.3579 -1.8037 0.9273
-9.6694 -13.7904 -1.6169 0.9346
-8.5110 -14.7930 -1.6385 0.9337
-7.8414 -16.9781 -1.7954 0.9276
-1.4604 -5.6294 -0.5583 0.9769
-2.4053 -14.4987 -1.4110 0.9427
2.7915 -14.2620 -1.3952 0.9433
5.2090 -17.9320 -1.7927 0.9277
6.8904 -13.8535 -1.4854 0.9397
12.3554 -13.8114 -1.7791 0.9282
13.7674 -12.8658 -1.8090 0.9271
14.8943 -11.6107 -1.8131 0.9269
15.9096 -10.2586 -1.8174 0.9268
18.2036 -5.7200 -1.8319 0.9262
18.6948 -4.0831 -1.8371 0.9260
17.9771 7.8331 -1.8826 0.9242
-11.9781 7.9259 -1.3789 0.9439
-16.7484 -8.9013 -1.8209 0.9266
-15.8469 -10.3355 -1.8164 0.9268
-14.8258 -11.6819 -1.8121 0.9270
-12.4591 -14.0741 -1.8046 0.9273
-10.9882 -14.9076 -1.7780 0.9283
-7.7500 -15.7874 -1.6884 0.9318
-6.7036 -17.4426 -1.7940 0.9277
-2.7638 -14.5214 -1.4192 0.9423
-0.1722 -18.6473 -1.7903 0.9278
1.1526 -14.3425 -1.3814 0.9438
6.3802 -17.5628 -1.7939 0.9277
10.8510 -15.3054 -1.8012 0.9274
11.7937 -13.8288 -1.7449 0.9296
13.1303 -12.8661 -1.7649 0.9288
16.3468 -5.5650 -1.6578 0.9330
18.1443 7.3999 -1.8812 0.9243
3.6944 7.3060 -0.7860 0.9676
-11.7866 5.3968 -1.2445 0.9492
-15.0528 5.3241 -1.5329 0.9379
-12.7953 -13.7822 -1.8055 0.9272
-9.3591 -14.6197 -1.6665 0.9326
-7.7831 -14.9494 -1.6181 0.9345
-4.4694 -14.3886 -1.4465 0.9413
-3.1266 -14.5444 -1.4282 0.9420
-2.2760 -18.5127 -1.7907 0.9278
-0.6135 -18.6383 -1.7903 0.9278
2.0696 -14.0803 -1.3663 0.9444
3.4107 -14.2228 -1.4042 0.9429
5.9611 -17.7043 -1.7935 0.9277
7.6147 -13.8195 -1.5148 0.9386
10.4811 -15.5512 -1.8004 0.9274
11.5644 -14.2287 -1.7603 0.9290
13.1285 -13.4881 -1.8071 0.9272
14.3110 -12.2879 -1.8109 0.9270
16.3461 -9.5916 -1.8195 0.9267
18.2760 -4.9084 -1.8168 0.9268
3.9116 7.3010 -0.7952 0.9673
-13.2009 7.9576 -1.4798 0.9399
-14.1541 6.8907 -1.5113 0.9387
-16.3396 -9.5864 -1.8187 0.9267
-14.3063 -12.2823 -1.8102 0.9270
-13.1248 -13.4826 -1.8064 0.9272
-8.1394 -14.7694 -1.6190 0.9345
-7.5259 -17.1155 -1.7950 0.9276
-3.4397 -14.3400 -1.4158 0.9425
-2.1294 -14.4812 -1.4052 0.9429
0.4719 -14.3635 -1.3797 0.9439
3.0613 -14.2450 -1.3988 0.9431
-16.5040 -2.9719 -1.9920 0.9347
-16.1352 -4.4237 -1.9874 0.9348
-15.3294 -5.7177 -1.9435 0.9362
-11.5562 -10.0275 -1.8175 0.9402
-8.4460 -12.6735 -1.8091 0.9405
-7.2718 -13.3612 -1.8070 0.9406
-6.0434 -13.9431 -1.8051 0.9406
-2.0806 -14.6869 -1.7620 0.9420
1.8073 -14.0936 -1.6878 0.9444
4.5797 -14.4773 -1.8037 0.9407
7.0951 -13.4564 -1.8070 0.9406
8.2783 -12.7843 -1.8092 0.9405
9.3998 -12.0104 -1.8117 0.9404
14.8684 -4.2880 -1.8381 0.9396
16.4643 -3.1896 -1.9921 0.9347
16.7229 -1.7106 -1.9968 0.9345
16.8490 -0.2109 -2.0016 0.9344
16.8408 1.2977 -2.0064 0.9342
16.6973 2.8031 -2.0112 0.9341
16.4188 4.2931 -2.0159 0.9339
12.0660 12.2332 -2.0410 0.9331
10.9431 13.2834 -2.0444 0.9330
6.0719 8.8814 -1.2780 0.9576
8.4285 15.0592 -2.0499 0.9328
7.0576 15.7688 -2.0522 0.9328
5.6262 16.3505 -2.0540 0.9327
1.0927 17.2809 -2.0568 0.9326
-1.9986 17.1968 -2.0565 0.9326
-6.4731 16.0219 -2.0526 0.9328
-7.8699 15.3639 -2.0505 0.9328
-9.1991 14.5818 -2.0480 0.9329
-10.4498 13.6827 -2.0451 0.9330
-8.9385 8.1572 -1.4374 0.9524
-13.4008 5.3841 -1.7155 0.9435
-16.7911 1.9187 -2.0075 0.9342
-16.8550 0.4105 -2.0027 0.9343
-16.5800 -2.5820 -1.9932 0.9346
-15.7701 -5.4605 -1.9824 0.9350
-14.0433 -6.3178 -1.8292 0.9399
-13.3948 -7.5308 -1.8253 0.9400
-11.7959 -9.7558 -1.8183 0.9402
-10.8587 -10.7516 -1.8152 0.9403
-7.5883 -13.1892 -1.8075 0.9405
-2.4053 -14.4987 -1.7458 0.9425
-1.1361 -15.1233 -1.8015 0.9407
2.7915 -14.2621 -1.7263 0.9431
4.2350 -14.5790 -1.8034 0.9407
5.5242 -14.1534 -1.8047 0.9406
10.1800 -11.3796 -1.8137 0.9403
12.0837 -9.4197 -1.8200 0.9401
13.6207 -7.1483 -1.8272 0.9399
14.7396 -4.6316 -1.8353 0.9397
16.3741 -3.5763 -1.9909 0.9347
16.6672 -2.1046 -1.9956 0.9346
16.7485 2.4056 -2.0099 0.9341
16.5056 3.9009 -2.0146 0.9340
16.1286 5.3717 -2.0193 0.9338
13.8998 7.5996 -1.8818 0.9382
9.3677 9.0583 -1.5479 0.9489
7.7276 8.9403 -1.4037 0.9535
3.5613 7.4772 -0.9838 0.9672
3.0348 17.0413 -2.0561 0.9327
1.5014 17.2494 -2.0567 0.9326
-0.0451 17.3161 -2.0569 0.9326
-1.5911 17.2405 -2.0566 0.9326
-6.0935 16.1746 -2.0531 0.9327
-7.5062 15.5505 -2.0511 0.9328
-11.3132 12.9517 -2.0428 0.9331
-8.5876 8.2178 -1.4119 0.9532
-13.3892 10.6946 -2.0355 0.9333
-14.0629 6.0406 -1.8181 0.9402
-16.5168 3.8128 -2.0136 0.9340
-16.8512 0.8099 -2.0040 0.9343
-16.3464 -3.6595 -1.9898 0.9348
-14.1971 -5.9871 -1.8302 0.9398
-13.5768 -7.2156 -1.8263 0.9399
-12.8521 -8.3822 -1.8227 0.9401
-9.0427 -12.2682 -1.8104 0.9405
-5.4494 -14.1792 -1.8044 0.9406
-1.4938 -15.0929 -1.8016 0.9407
-0.1400 -15.1644 -1.8014 0.9407
1.1526 -14.3425 -1.7092 0.9437
5.1865 -14.2770 -1.8043 0.9406
7.6590 -13.1531 -1.8080 0.9405
8.8143 -12.4325 -1.8103 0.9405
10.9188 -10.6991 -1.8159 0.9403
11.8515 -9.6983 -1.8191 0.9402
16.6023 -2.4970 -1.9943 0.9346
16.8619 0.4986 -2.0038 0.9343
16.7901 2.0072 -2.0086 0.9342
11.5498 12.7399 -2.0426 0.9331
6.3910 16.0588 -2.0531 0.9327
3.4370 16.9627 -2.0559 0.9327
1.9091 17.2081 -2.0566 0.9326
0.3648 17.3123 -2.0569 0.9326
-2.7197 17.0947 -2.0561 0.9326
-5.7102 16.3180 -2.0536 0.9327
-7.1380 15.7282 -2.0517 0.9328
-9.7981 14.1728 -2.0467 0.9329
-5.9110 7.0995 -1.0974 0.9635
-13.1389 11.0140 -2.0365 0.9333
-14.0426 9.7777 -2.0326 0.9334
-13.7580 7.8556 -1.8819 0.9382
-11.7860 5.3965 -1.5398 0.9491
-14.8703 5.2596 -1.8736 0.9384
-16.4321 4.2053 -2.0148 0.9340
-16.7025 2.7146 -2.0101 0.9341
-16.8380 1.2093 -2.0053 0.9343
-16.0436 -4.7176 -1.9864 0.9349
-13.7514 -6.8961 -1.8274 0.9399
-13.0538 -8.0799 -1.8236 0.9400
-10.3889 -11.1903 -1.8138 0.9403
-5.7848 -14.0494 -1.8048 0.9406
-4.4697 -14.3897 -1.7899 0.9411
-3.1266 -14.5444 -1.7671 0.9418
-0.4989 -15.1570 -1.8014 0.9407
3.4107 -14.2229 -1.7374 0.9428
7.3432 -13.3266 -1.8074 0.9405
8.5145 -12.6332 -1.8097 0.9405
9.6222 -11.8390 -1.8122 0.9404
11.6130 -9.9713 -1.8182 0.9402
13.2526 -7.7764 -1.8252 0.9400
13.9233 -6.5756 -1.8291 0.9399
16.7597 -1.4033 -1.9978 0.9345
16.8583 0.0992 -2.0026 0.9343
16.8223 1.6082 -2.0074 0.9342
16.6510 3.1114 -2.0121 0.9340
12.6410 9.2524 -1.8608 0.9388
12.8856 11.3303 -2.0382 0.9332
9.4664 14.4088 -2.0479 0.9329
3.8946 7.2692 -0.9796 0.9673
6.7676 15.8992 -2.0526 0.9328
3.8370 16.8744 -2.0556 0.9327
2.3157 17.1568 -2.0565 0.9326
-0.7734 17.2982 -2.0568 0.9326
-2.3145 17.1559 -2.0563 0.9326
-5.3235 16.4521 -2.0540 0.9327
-8.1493 15.2129 -2.0500 0.9328
-9.4633 14.4061 -2.0474 0.9329
-10.6965 13.4838 -2.0445 0.9330
-11.8387 12.4546 -2.0412 0.9331
-13.8145 10.1127 -2.0337 0.9334
-13.5758 8.1836 -1.8829 0.9381
-14.0924 6.8606 -1.8618 0.9388
-14.7505 5.6135 -1.8747 0.9384
-16.3380 4.5959 -2.0160 0.9339
-15.6199 -5.7325 -1.9764 0.9352
-13.9186 -6.5723 -1.8284 0.9399
-12.4768 -8.9073 -1.8210 0.9401
-11.6100 -9.9675 -1.8176 0.9402
-10.6554 -10.9459 -1.8146 0.9403
-8.5133 -12.6298 -1.8092 0.9405
-6.1172 -13.9118 -1.8052 0.9406
-4.8464 -14.3906 -1.8037 0.9407
-3.4400 -14.3411 -1.7518 0.9423
-2.1294 -14.4813 -1.7387 0.9427
-0.8576 -15.1412 -1.8014 0.9407
3.0613 -14.2450 -1.7307 0.9430
4.5032 -14.5006 -1.8036 0.9407
7.0236 -13.4927 -1.8069 0.9406
-14.0971 1.2736 -2.0055 0.9444
-14.0424 -1.2494 -1.9975 0.9446
-13.8472 -2.4935 -1.9936 0.9447
-13.5429 -3.7129 -1.9897 0.9448
-11.6599 -5.5811 -1.8316 0.9491
-8.9111 -9.2511 -1.8200 0.9494
-8.0390 -9.9970 -1.8176 0.9495
-7.1059 -10.6627 -1.8155 0.9496
-6.1192 -11.2434 -1.8137 0.9496
-4.0153 -12.1339 -1.8109 0.9497
-2.9142 -12.4376 -1.8100 0.9497
-1.7912 -12.6437 -1.8094 0.9497
0.4865 -12.7585 -1.8091 0.9497
2.7498 -12.4751 -1.8100 0.9497
3.8549 -12.1860 -1.8110 0.9497
3.9495 -2.9312 -0.6969 0.9803
13.4749 -3.8861 -1.9871 0.9449
13.7492 3.5951 -2.0136 0.9442
12.9393 6.0063 -2.0213 0.9440
11.2165 6.4820 -1.8356 0.9490
10.1500 8.5989 -1.8849 0.9477
6.2324 6.3187 -1.2575 0.9648
9.1428 11.0981 -2.0374 0.9436
6.0718 8.8814 -1.5244 0.9575
4.6970 13.6501 -2.0454 0.9433
2.1959 14.2815 -2.0473 0.9433
0.9120 14.4235 -2.0477 0.9433
-0.3797 14.4476 -2.0478 0.9433
-1.6681 14.3537 -2.0475 0.9433
-2.9423 14.1425 -2.0467 0.9433
-4.1913 13.8160 -2.0457 0.9433
-5.4046 13.3772 -2.0443 0.9434
-7.6835 12.1793 -2.0404 0.9435
-8.7301 11.4310 -2.0380 0.9435
-10.5749 8.0441 -1.8826 0.9477
-14.0704 1.6078 -2.0066 0.9444
-13.9096 -2.1662 -1.9946 0.9447
-12.1575 -5.4694 -1.8889 0.9476
-11.2535 -6.3270 -1.8292 0.9492
-10.6257 -7.2944 -1.8262 0.9493
-9.1309 -9.0409 -1.8206 0.9494
-8.2761 -9.8071 -1.8182 0.9495
-7.3585 -10.4945 -1.8161 0.9495
-6.3852 -11.0981 -1.8142 0.9496
-1.4601 -5.6284 -0.8239 0.9768
0.1844 -12.7663 -1.8090 0.9497
1.3238 -12.7005 -1.8093 0.9497
3.5648 -12.2720 -1.8107 0.9497
3.6079 -3.3716 -0.6997 0.9802
3.8713 -3.0178 -0.6955 0.9804
4.2209 -2.7217 -0.7116 0.9799
11.9535 -4.9678 -1.8341 0.9490
13.3124 -4.1831 -1.9772 0.9452
13.7395 -3.0008 -1.9926 0.9448
14.1101 -0.5109 -2.0006 0.9446
14.0320 2.0154 -2.0086 0.9443
9.5967 6.4222 -1.6361 0.9544
7.8959 6.3744 -1.4378 0.9598
9.3400 9.0314 -1.8409 0.9489
7.7273 8.9400 -1.6743 0.9534
7.3325 12.4027 -2.0415 0.9435
1.2531 14.3973 -2.0477 0.9433
-0.0376 14.4527 -2.0478 0.9433
-3.8637 13.9135 -2.0460 0.9433
-5.0874 13.5041 -2.0447 0.9434
-6.2679 12.9851 -2.0430 0.9434
-8.4599 11.6383 -2.0386 0.9435
-9.4532 10.8223 -2.0360 0.9436
-10.2144 8.1587 -1.8523 0.9486
-8.4556 5.5950 -1.4366 0.9599
-12.1496 5.2188 -1.8736 0.9480
-13.8338 3.1935 -2.0117 0.9443
-14.1248 0.6789 -2.0036 0.9445
-14.1007 -0.5840 -1.9996 0.9446
-13.3627 -4.2755 -1.9879 0.9449
-12.8614 -5.4238 -1.9777 0.9452
-11.4054 -6.0616 -1.8301 0.9492
-8.5088 -9.6118 -1.8188 0.9495
-6.6478 -10.9467 -1.8146 0.9496
-4.5867 -11.9344 -1.8116 0.9497
-3.5004 -12.2888 -1.8105 0.9497
-1.2576 -12.7066 -1.8092 0.9497
-0.1179 -12.7670 -1.8090 0.9497
1.0228 -12.7276 -1.8092 0.9497
4.3654 -12.0168 -1.8115 0.9497
5.4253 -11.5878 -1.8129 0.9496
6.4444 -11.0673 -1.8146 0.9496
7.4150 -10.4588 -1.8165 0.9495
8.3295 -9.7668 -1.8188 0.9495
3.5513 -3.4798 -0.7045 0.9801
11.2908 -6.2708 -1.8300 0.9492
14.0866 -0.8443 -1.9995 0.9446
14.0684 1.6818 -2.0075 0.9444
13.8895 2.9373 -2.0115 0.9443
12.0778 6.2367 -1.9260 0.9466
11.1996 7.1170 -1.8802 0.9478
8.3770 6.4414 -1.4973 0.9582
9.7863 9.0247 -1.8862 0.9476
7.6219 12.2222 -2.0409 0.9435
2.8689 14.1590 -2.0469 0.9433
1.5935 14.3630 -2.0476 0.9433
-0.9870 14.4181 -2.0477 0.9433
-2.2701 14.2688 -2.0472 0.9433
-2.1241 8.4172 -1.2300 0.9655
-4.7673 13.6233 -2.0451 0.9434
-3.7904 8.3519 -1.2995 0.9636
-8.1846 11.8390 -2.0393 0.9435
-10.8954 7.5863 -1.8811 0.9478
-11.5094 6.5717 -1.8779 0.9479
-13.4180 4.7459 -2.0166 0.9441
-13.7615 3.5219 -2.0127 0.9442
-13.9933 2.2743 -2.0087 0.9443
-14.1181 -0.2502 -2.0007 0.9446
-14.0113 -1.5070 -1.9967 0.9447
-13.7934 -2.7468 -1.9928 0.9448
-13.4670 -3.9599 -1.9889 0.9449
-13.0254 -5.1333 -1.9837 0.9450
-11.5510 -5.7926 -1.8309 0.9491
-10.9687 -6.7893 -1.8278 0.9492
-10.3017 -7.7291 -1.8248 0.9493
-9.5558 -8.6051 -1.8220 0.9494
-8.7370 -9.4109 -1.8195 0.9494
-7.8517 -10.1407 -1.8172 0.9495
-4.8688 -11.8247 -1.8119 0.9496
-1.5581 -12.6739 -1.8093 0.9497
0.7212 -12.7477 -1.8091 0.9497
1.8571 -12.6351 -1.8095 0.9497
2.9792 -12.4235 -1.8102 0.9497
4.0790 -12.1146 -1.8112 0.9497
6.1790 -11.2138 -1.8141 0.9496
7.1632 -10.6282 -1.8160 0.9495
8.0933 -9.9579 -1.8182 0.9495
3.7176 -3.1921 -0.6943 0.9804
12.1625 -4.4645 -1.8357 0.9490
14.1324 0.0832 -2.0024 0.9445
13.9479 2.6063 -2.0105 0.9443
13.3133 5.0655 -2.0183 0.9441
12.8314 6.2458 -2.0220 0.9440
11.3598 6.8468 -1.8793 0.9478
8.8560 6.4820 -1.5550 0.9566
8.9394 11.2674 -2.0379 0.9435
7.9068 12.0349 -2.0403 0.9435
5.6505 13.2748 -2.0442 0.9434
3.2029 14.0856 -2.0467 0.9433
-4.4443 13.7348 -2.0454 0.9433
-5.4261 8.2602 -1.4003 0.9609
-9.8936 10.4083 -2.0347 0.9436
-11.3560 6.8454 -1.8787 0.9478
-13.0622 4.9710 -1.9803 0.9451
-14.0918 1.3480 -2.0058 0.9444
-14.0504 -1.1755 -1.9977 0.9446
-13.5638 -3.6419 -1.9899 0.9448
-13.1594 -4.8295 -1.9861 0.9449
-11.1313 -6.5307 -1.8286 0.9492
-10.4862 -7.4862 -1.8256 0.9493
-9.7607 -8.3798 -1.8227 0.9494
-8.9605 -9.2048 -1.8201 0.9494
-8.0921 -9.9552 -1.8178 0.9495
-6.1787 -11.2116 -1.8138 0.9496
-5.1484 -11.7085 -1.8123 0.9496
-1.8578 -12.6343 -1.8094 0.9497
1.5574 -12.6746 -1.8094 0.9497
2.6840 -12.4891 -1.8100 0.9497
3.7905 -12.2058 -1.8109 0.9497
5.9103 -11.3541 -1.8137 0.9496
-12.1215 1.0951 -2.0050 0.9519
-12.1499 0.0083 -2.0016 0.9519
-12.0812 -1.0749 -1.9981 0.9520
-11.9166 -2.1459 -1.9947 0.9521
-10.8453 -5.1912 -1.9808 0.9524
-9.0006 -6.4975 -1.8287 0.9560
-6.9310 -8.6191 -1.8220 0.9562
-6.1275 -9.1945 -1.8202 0.9562
-5.2773 -9.6966 -1.8187 0.9562
-4.3871 -10.1217 -1.8173 0.9563
-3.4636 -10.4668 -1.8163 0.9563
-2.5140 -10.7295 -1.8154 0.9563
0.4197 -11.0072 -1.8146 0.9563
1.4012 -10.9274 -1.8149 0.9563
5.1490 -9.7655 -1.8187 0.9562
6.0058 -9.2748 -1.8203 0.9562
3.3092 -3.5275 -0.7968 0.9806
3.3302 -2.9677 -0.7348 0.9821
4.0637 -2.4862 -0.7848 0.9809
11.6152 -3.3498 -1.9915 0.9522
12.1495 -0.1521 -2.0017 0.9519
12.1354 0.9351 -2.0051 0.9519
12.0241 2.0186 -2.0086 0.9518
11.5116 4.1392 -2.0153 0.9516
11.1138 5.1589 -2.0185 0.9515
10.6250 6.1403 -2.0216 0.9515
9.3232 6.5639 -1.8784 0.9548
7.2775 8.8339 -1.8855 0.9547
4.0276 11.7046 -2.0392 0.9511
2.9677 12.0233 -2.0402 0.9510
-1.4302 12.3061 -2.0409 0.9510
-1.7693 8.5044 -1.4310 0.9654
-6.5907 10.4471 -2.0349 0.9512
-7.4897 9.8068 -2.0328 0.9512
-5.2226 5.7008 -1.2737 0.9691
-8.4364 7.6989 -1.8815 0.9548
-10.1315 5.1651 -1.8734 0.9549
-11.6985 3.5244 -2.0128 0.9517
-11.9463 2.4614 -2.0094 0.9518
-12.0977 1.3824 -2.0059 0.9518
-11.4090 -3.9504 -1.9890 0.9522
-9.6939 -5.4501 -1.8321 0.9559
-9.1552 -6.2850 -1.8294 0.9560
-8.5458 -7.0678 -1.8269 0.9560
-7.8706 -7.7930 -1.8247 0.9561
-4.6263 -10.0168 -1.8177 0.9563
-3.7110 -10.3834 -1.8165 0.9563
2.1166 -10.8140 -1.8153 0.9563
4.0104 -10.2749 -1.8170 0.9563
6.6069 -8.8665 -1.8216 0.9562
3.3341 -3.1158 -0.7518 0.9817
3.8974 -2.5131 -0.7639 0.9814
9.8546 -5.1718 -1.8334 0.9559
10.4569 -4.3458 -1.8655 0.9551
11.5276 -3.6223 -1.9906 0.9522
12.0285 -1.5189 -1.9973 0.9520
12.1486 0.6473 -2.0042 0.9519
12.0630 1.7326 -2.0076 0.9518
11.6014 3.8639 -2.0144 0.9516
11.2281 4.8924 -2.0177 0.9516
8.2157 7.9444 -1.8827 0.9547
6.6866 9.3002 -1.8870 0.9546
1.0743 12.3434 -2.0411 0.9510
-1.1386 12.3372 -2.0410 0.9510
-5.3755 11.1363 -2.0371 0.9511
-8.9152 7.1210 -1.8797 0.9548
-11.8901 2.7448 -2.0103 0.9517
-12.1470 0.5838 -2.0034 0.9519
-12.1296 -0.5024 -1.9999 0.9520
-11.1117 -4.6860 -1.9867 0.9523
-10.0997 -5.3677 -1.8842 0.9547
-8.7138 -6.8660 -1.8276 0.9560
-8.0555 -7.6070 -1.8252 0.9561
-6.5591 -8.8987 -1.8212 0.9562
-4.8630 -9.9064 -1.8180 0.9562
-3.9563 -10.2942 -1.8168 0.9563
-2.0601 -10.8240 -1.8152 0.9563
-1.0850 -10.9622 -1.8147 0.9563
1.8598 -10.8601 -1.8151 0.9563
4.6792 -9.9942 -1.8180 0.9562
5.5574 -9.5441 -1.8194 0.9562
6.3935 -9.0180 -1.8211 0.9562
3.4009 -2.7830 -0.7239 0.9823
3.7438 -2.5415 -0.7454 0.9818
4.4467 -2.4696 -0.8379 0.9796
10.1924 -4.5218 -1.8369 0.9558
11.4275 -3.8903 -1.9887 0.9522
11.7550 -2.8605 -1.9930 0.9521
11.9837 -1.8024 -1.9964 0.9521
12.0951 1.4459 -2.0067 0.9518
11.3360 4.6232 -2.0168 0.9516
10.8950 5.6260 -2.0200 0.9515
9.0448 6.9549 -1.8796 0.9548
4.6693 6.1804 -1.2761 0.9691
6.5376 10.4835 -2.0353 0.9511
3.4840 8.7544 -1.5522 0.9625
3.5325 11.8666 -2.0397 0.9510
2.4597 12.1396 -2.0405 0.9510
0.2610 12.3880 -2.0412 0.9510
-1.9463 12.2336 -2.0407 0.9510
-2.1240 8.4165 -1.4300 0.9654
-4.0879 11.6819 -2.0389 0.9511
-7.0211 10.1559 -2.0340 0.9512
-8.0680 8.0950 -1.8828 0.9547
-9.3541 6.5131 -1.8777 0.9548
-9.8837 5.6434 -1.8750 0.9549
-12.0296 1.9552 -2.0078 0.9518
-12.1353 0.8716 -2.0043 0.9519
-12.0552 -1.2966 -1.9974 0.9520
-11.2242 -4.4235 -1.9875 0.9523
-9.4496 -5.8490 -1.8308 0.9559
-8.2360 -7.4166 -1.8258 0.9561
-7.5317 -8.1127 -1.8236 0.9561
-3.2701 -10.5277 -1.8161 0.9563
-2.3159 -10.7732 -1.8153 0.9563
-0.3624 -11.0091 -1.8146 0.9563
5.3287 -9.6708 -1.8190 0.9562
3.3281 -2.8576 -0.7226 0.9824
3.6256 -2.5887 -0.7339 0.9821
10.0707 -4.7561 -1.8348 0.9559
11.3032 -4.1490 -1.9836 0.9524
11.9323 -2.0846 -1.9955 0.9521
12.0915 -1.0124 -1.9989 0.9520
12.1545 0.0716 -2.0024 0.9519
12.1205 1.1587 -2.0058 0.9518
11.4374 4.3518 -2.0160 0.9516
6.0112 6.3231 -1.4373 0.9652
7.1153 8.9684 -1.8860 0.9547
6.7823 10.3233 -2.0348 0.9512
3.9031 7.2851 -1.3615 0.9671
2.8056 8.6687 -1.5010 0.9637
1.1591 8.5873 -1.4275 0.9655
0.5542 12.3782 -2.0412 0.9510
-0.3800 8.4996 -1.4016 0.9661
-1.6563 12.2771 -2.0408 0.9510
-2.7452 12.0762 -2.0402 0.9510
-3.8108 11.7772 -2.0392 0.9511
-4.8443 11.3826 -2.0379 0.9511
-4.4841 8.3708 -1.5644 0.9622
-5.4249 8.2584 -1.6278 0.9607
-5.7261 7.2183 -1.5179 0.9633
-8.5743 7.5403 -1.8810 0.9548
-9.7513 5.8781 -1.8757 0.9549
-10.4962 5.1099 -1.9232 0.9538
-11.7573 3.3073 -2.0121 0.9517
-11.9290 -2.0832 -1.9949 0.9521
-11.6757 -3.1350 -1.9916 0.9522
-10.8786 -5.1368 -1.9819 0.9524
-9.0355 -6.4505 -1.8289 0.9560
-6.1762 -9.1626 -1.8203 0.9562
-3.5189 -10.4488 -1.8163 0.9563
-2.5705 -10.7164 -1.8155 0.9563
-1.6028 -10.8997 -1.8149 0.9563
1.3436 -10.9345 -1.8149 0.9563
2.3154 -10.7740 -1.8154 0.9563
3.2697 -10.5288 -1.8162 0.9563
-10.6219 0.9596 -2.0046 0.9575
-10.6490 0.0072 -2.0016 0.9576
-10.5911 -0.9424 -1.9986 0.9576
-10.4490 -1.8816 -1.9956 0.9577
-8.9202 -5.2968 -1.9500 0.9587
-7.8996 -5.7027 -1.8313 0.9611
-6.7440 -7.0013 -1.8272 0.9612
-6.0859 -7.5682 -1.8254 0.9612
-4.6349 -8.5162 -1.8224 0.9613
-3.8534 -8.8904 -1.8213 0.9613
-2.2084 -9.4255 -1.8196 0.9614
0.3687 -9.6699 -1.8189 0.9614
1.2310 -9.5996 -1.8191 0.9614
2.0839 -9.4539 -1.8196 0.9614
2.9210 -9.2336 -1.8203 0.9613
3.7358 -8.9406 -1.8213 0.9613
4.5222 -8.5768 -1.8225 0.9613
3.2559 -2.9014 -0.8197 0.9824
3.3956 -2.5201 -0.7948 0.9829
3.9969 -2.4452 -0.8807 0.9811
5.4627 -2.7039 -1.1457 0.9755
10.1867 -2.9378 -1.9927 0.9578
10.0811 3.6248 -2.0136 0.9573
6.2319 6.3183 -1.6681 0.9645
5.6560 8.2732 -1.8837 0.9600
4.0890 7.3058 -1.5737 0.9665
2.5949 10.5130 -2.0353 0.9569
1.6461 10.7058 -2.0359 0.9569
-0.2846 10.8298 -2.0363 0.9569
-1.2505 10.7598 -2.0360 0.9569
-2.2058 10.6024 -2.0355 0.9569
-4.9294 9.6234 -2.0323 0.9569
-3.6920 5.8522 -1.3006 0.9722
-6.0787 7.9592 -1.8824 0.9601
-7.3822 6.7369 -1.8785 0.9601
-9.9440 3.9953 -2.0143 0.9573
-10.2463 3.0869 -2.0114 0.9574
-10.6004 1.2113 -2.0054 0.9575
-10.6147 -0.6917 -1.9994 0.9576
-10.4947 -1.6344 -1.9964 0.9577
-10.2916 -2.5613 -1.9934 0.9578
-10.0074 -3.4651 -1.9906 0.9578
-9.6445 -4.3389 -1.9878 0.9579
-7.5014 -6.2041 -1.8297 0.9612
-6.2649 -7.4239 -1.8259 0.9612
-4.8361 -8.4057 -1.8228 0.9613
-3.2597 -9.1207 -1.8205 0.9613
-0.7249 -9.6499 -1.8189 0.9614
0.1397 -9.6758 -1.8189 0.9614
1.0033 -9.6256 -1.8190 0.9614
2.7013 -9.2991 -1.8201 0.9614
5.0788 -8.2657 -1.8235 0.9613
3.1870 -3.5625 -0.8985 0.9807
4.5559 -2.3910 -0.9671 0.9793
5.5382 -2.3016 -1.1273 0.9759
10.1105 -3.1769 -1.9920 0.9578
10.3689 -2.2647 -1.9949 0.9577
10.5454 -1.3316 -1.9979 0.9577
10.6382 -0.3852 -2.0009 0.9576
10.4066 2.4594 -2.0099 0.9574
9.4223 5.1516 -2.0185 0.9572
8.9362 5.9802 -2.0211 0.9572
7.1886 6.9511 -1.8795 0.9601
5.4419 6.2959 -1.5642 0.9667
4.1301 6.9859 -1.5254 0.9675
2.9318 6.1554 -1.2815 0.9726
3.7626 10.1474 -2.0342 0.9569
2.8427 10.4476 -2.0351 0.9569
1.8990 10.6632 -2.0358 0.9569
0.9393 10.7922 -2.0362 0.9569
-2.8968 10.4317 -2.0349 0.9569
-5.8900 8.1029 -1.8829 0.9600
-5.9999 5.7415 -1.5609 0.9668
-8.3171 5.5034 -1.8746 0.9602
-9.4461 5.1009 -2.0178 0.9572
-10.1743 3.3298 -2.0122 0.9574
-10.6452 0.5117 -2.0032 0.9576
-8.1660 -5.3259 -1.8325 0.9611
-7.6485 -6.0266 -1.8303 0.9611
-5.0347 -8.2905 -1.8231 0.9613
-4.2713 -8.7009 -1.8219 0.9613
-3.4751 -9.0422 -1.8208 0.9613
-1.8098 -9.5087 -1.8193 0.9614
-0.9532 -9.6304 -1.8190 0.9614
-0.0893 -9.6763 -1.8189 0.9614
0.7752 -9.6463 -1.8190 0.9614
1.6338 -9.5404 -1.8193 0.9614
2.4801 -9.3594 -1.8199 0.9614
3.3075 -9.1047 -1.8208 0.9613
4.1098 -8.7781 -1.8218 0.9613
4.8807 -8.3819 -1.8231 0.9613
5.6143 -7.9190 -1.8246 0.9613
3.1833 -3.7325 -0.9221 0.9802
3.2172 -3.1525 -0.8466 0.9818
3.6616 -2.4857 -0.8319 0.9821
5.6313 -2.4983 -1.1580 0.9752
10.3084 -2.5085 -1.9941 0.9577
10.5067 -1.5802 -1.9971 0.9577
10.4578 2.2115 -2.0091 0.9574
10.2335 3.1412 -2.0121 0.9574
9.9263 4.0483 -2.0150 0.9573
9.0722 5.7651 -2.0204 0.9572
7.9156 6.0866 -1.8768 0.9602
6.7216 7.4141 -1.8810 0.9601
4.6689 6.1798 -1.4558 0.9690
3.1265 6.1828 -1.3023 0.9722
3.0889 10.3763 -2.0349 0.9569
2.1507 10.6145 -2.0357 0.9569
0.2282 10.8312 -2.0363 0.9569
-1.7018 10.6965 -2.0358 0.9569
-3.5747 10.2153 -2.0342 0.9569
-3.7893 8.3496 -1.7235 0.9634
-4.9432 8.7251 -1.8849 0.9600
-5.6979 8.2420 -1.8833 0.9600
-5.8216 6.9921 -1.7101 0.9636
-5.7367 5.7559 -1.5275 0.9675
-10.0965 3.5711 -2.0129 0.9573
-10.5396 1.7130 -2.0070 0.9575
-10.6440 -0.1887 -2.0010 0.9576
-10.4094 -2.0729 -1.9950 0.9577
-9.8463 -3.8804 -1.9892 0.9578
-9.4475 -4.7377 -1.9865 0.9579
-8.5452 -5.2893 -1.8890 0.9599
-5.9445 -7.6775 -1.8251 0.9613
-5.2307 -8.1707 -1.8235 0.9613
-3.6887 -8.9587 -1.8210 0.9613
-2.8725 -9.2478 -1.8201 0.9614
-2.0345 -9.4639 -1.8195 0.9614
3.9002 -8.8714 -1.8215 0.9613
4.6800 -8.4934 -1.8227 0.9613
3.5089 -2.5054 -0.8104 0.9826
4.1365 -2.4272 -0.9015 0.9807
5.5382 -2.6155 -1.1512 0.9754
9.9412 -3.6491 -1.9905 0.9578
10.2421 -2.7507 -1.9933 0.9578
10.4623 -1.8278 -1.9963 0.9577
10.6526 0.0627 -2.0023 0.9576
10.6204 1.0153 -2.0053 0.9575
10.3010 2.8970 -2.0113 0.9574
10.0156 3.8108 -2.0142 0.9573
9.6487 4.6965 -2.0170 0.9573
9.2030 5.5468 -2.0197 0.9572
5.5038 8.3773 -1.8840 0.9600
3.3197 7.7990 -1.5932 0.9661
1.3913 6.1187 -1.1794 0.9748
0.4846 10.8226 -2.0363 0.9569
-0.3800 8.4989 -1.5991 0.9660
-2.4003 10.5593 -2.0354 0.9569
-4.7362 8.8414 -1.8853 0.9600
-5.7067 7.1938 -1.7259 0.9633
-7.5031 6.5983 -1.8781 0.9601
-8.6392 5.2077 -1.8960 0.9598
-9.6461 4.6960 -2.0165 0.9573
-10.2983 2.8969 -2.0108 0.9574
-9.9390 -3.6476 -1.9900 0.9578
-9.5604 -4.5144 -1.9872 0.9579
-9.0321 -5.2991 -1.9683 0.9583
-7.9302 -5.6614 -1.8314 0.9611
-7.3842 -6.3396 -1.8293 0.9612
-6.1260 -7.5365 -1.8255 0.9612
-5.4238 -8.0463 -1.8239 0.9613
-3.0910 -9.1783 -1.8204 0.9613
-1.4080 -9.5753 -1.8191 0.9614
0.3178 -9.6717 -1.8189 0.9614
3.6885 -8.9599 -1.8212 0.9613
4.4768 -8.6001 -1.8224 0.9613
-9.4693 0.0064 -2.0016 0.9620
-9.2946 -1.6737 -1.9963 0.9621
-9.0961 -2.4938 -1.9937 0.9622
-6.0049 -6.2340 -1.8297 0.9652
-5.4195 -6.7395 -1.8281 0.9653
-4.1281 -7.5851 -1.8254 0.9653
-3.4323 -7.9189 -1.8244 0.9653
-1.9673 -8.3963 -1.8229 0.9654
-0.4421 -8.6093 -1.8222 0.9654
0.3285 -8.6144 -1.8222 0.9654
1.8563 -8.4216 -1.8229 0.9654
2.6019 -8.2251 -1.8235 0.9653
4.0278 -7.6390 -1.8254 0.9653
3.0589 -3.9085 -1.0491 0.9799
3.1658 -2.8211 -0.8963 0.9828
3.3504 -2.4865 -0.8819 0.9831
3.9364 -2.4083 -0.9754 0.9813
5.7326 -2.2248 -1.2998 0.9752
9.2720 -1.7963 -1.9963 0.9621
9.4078 -0.9623 -1.9990 0.9621
9.3640 1.5720 -2.0071 0.9619
8.9583 3.2211 -2.0123 0.9618
8.6457 4.0132 -2.0148 0.9618
8.2626 4.7750 -2.0172 0.9617
6.2100 6.2961 -1.8693 0.9645
5.6528 6.8617 -1.8792 0.9643
3.4694 6.1987 -1.5015 0.9714
3.3286 7.4370 -1.7223 0.9672
2.9002 8.4285 -1.8841 0.9642
1.5063 6.1026 -1.3287 0.9746
1.3206 8.5884 -1.8368 0.9651
-0.2344 8.9174 -1.8856 0.9642
-1.8032 5.9439 -1.3130 0.9749
-3.3378 8.2615 -1.8834 0.9642
-4.7482 7.5265 -1.8811 0.9643
-5.3971 7.0668 -1.8796 0.9643
-5.2216 5.6997 -1.6339 0.9689
-6.5560 5.9829 -1.8761 0.9644
-7.0567 5.3679 -1.8742 0.9644
-8.4943 4.3305 -2.0154 0.9618
-9.3027 1.9167 -2.0077 0.9619
-9.4699 0.2307 -2.0023 0.9620
-9.3348 -1.4537 -1.9970 0.9621
-9.1557 -2.2786 -1.9944 0.9622
-8.9042 -3.0831 -1.9918 0.9622
-8.5827 -3.8612 -1.9893 0.9623
-7.6204 -5.2313 -1.9538 0.9629
-6.6783 -5.5233 -1.8319 0.9652
-6.1523 -6.0916 -1.8301 0.9652
-5.5788 -6.6108 -1.8285 0.9653
-4.9621 -7.0769 -1.8270 0.9653
-1.4341 -5.5280 -1.2072 0.9769
-0.6458 -8.5966 -1.8223 0.9654
0.1245 -8.6197 -1.8222 0.9654
1.6564 -8.4626 -1.8228 0.9654
2.4062 -8.2835 -1.8233 0.9653
3.1377 -8.0390 -1.8241 0.9653
3.0728 -3.4349 -0.9742 0.9813
3.1429 -2.9371 -0.9093 0.9826
3.2315 -2.5191 -0.8661 0.9834
3.7662 -2.4285 -0.9472 0.9818
4.4579 -2.3396 -1.0642 0.9796
5.3251 -2.2131 -1.2190 0.9767
8.9952 -2.8265 -1.9931 0.9622
9.4656 0.5044 -2.0037 0.9620
9.3953 1.3494 -2.0064 0.9619
9.2495 2.1860 -2.0090 0.9619
9.0290 3.0071 -2.0116 0.9618
8.7354 3.8062 -2.0142 0.9618
7.9377 5.3120 -2.0189 0.9617
7.4162 5.9872 -2.0147 0.9618
6.3836 6.1728 -1.8770 0.9643
5.8123 6.7244 -1.8788 0.9643
4.1372 6.9980 -1.7184 0.9673
2.3409 8.6033 -1.8847 0.9642
1.5637 8.7805 -1.8852 0.9642
-2.3855 8.5903 -1.8845 0.9642
-3.1417 8.3393 -1.8837 0.9642
-5.2294 7.1941 -1.8800 0.9643
-9.2579 2.1371 -2.0084 0.9619
-9.3993 1.3001 -2.0057 0.9619
-9.3699 -1.2328 -1.9977 0.9621
-9.2102 -2.0619 -1.9950 0.9621
-8.6745 -3.6581 -1.9900 0.9622
-7.8450 -5.1166 -1.9798 0.9624
-4.4841 -7.3837 -1.8260 0.9653
-1.6122 -8.4706 -1.8226 0.9654
-0.0796 -8.6202 -1.8222 0.9654
0.6906 -8.5933 -1.8223 0.9654
1.4555 -8.4988 -1.8226 0.9654
2.2093 -8.3373 -1.8232 0.9654
2.9462 -8.1100 -1.8239 0.9653
4.3469 -7.4651 -1.8260 0.9653
4.9998 -7.0522 -1.8273 0.9653
3.0663 -3.5954 -0.9988 0.9809
3.1188 -3.0560 -0.9230 0.9823
3.2081 -2.6252 -0.8762 0.9832
5.0562 -2.2431 -1.1692 0.9776
8.9228 -3.0376 -1.9924 0.9622
9.3451 -1.4055 -1.9976 0.9621
9.4715 0.2800 -2.0030 0.9620
9.2954 1.9657 -2.0083 0.9619
9.0946 2.7916 -2.0109 0.9619
8.0588 5.1211 -2.0183 0.9617
7.5777 5.8268 -2.0206 0.9617
5.9684 6.5834 -1.8783 0.9643
2.5436 8.5446 -1.8845 0.9642
1.2349 6.0948 -1.3145 0.9749
-0.6092 8.8993 -1.8855 0.9642
-1.4013 8.8079 -1.8852 0.9642
-2.0743 5.9277 -1.3275 0.9747
-3.6814 8.1117 -1.8830 0.9642
-4.3883 7.7457 -1.8818 0.9643
-5.6873 6.8308 -1.8788 0.9643
-6.7724 5.6772 -1.8680 0.9645
-7.5450 5.2535 -1.9434 0.9631
-8.2851 4.7306 -2.0167 0.9617
-8.6640 3.9670 -2.0142 0.9618
-9.2079 2.3565 -2.0091 0.9619
-9.3692 1.5228 -2.0064 0.9619
-9.4551 0.6791 -2.0038 0.9620
-9.3998 -1.0110 -1.9984 0.9621
-9.2597 -1.8440 -1.9957 0.9621
-9.0462 -2.6600 -1.9931 0.9622
-8.7615 -3.4529 -1.9906 0.9622
-6.4370 -5.7966 -1.8310 0.9652
-5.8881 -6.3423 -1.8293 0.9652
-5.2937 -6.8369 -1.8278 0.9653
-3.9874 -7.6588 -1.8252 0.9653
-2.5588 -8.2378 -1.8234 0.9653
-0.2836 -8.6159 -1.8222 0.9654
0.4870 -8.6071 -1.8223 0.9654
1.2538 -8.5304 -1.8225 0.9654
2.0111 -8.3865 -1.8230 0.9654
4.1682 -7.5646 -1.8257 0.9653
3.0595 -3.7643 -1.0254 0.9804
3.1020 -3.1870 -0.9401 0.9820
3.1835 -2.7335 -0.8870 0.9830
3.4605 -2.4708 -0.8988 0.9828
4.0773 -2.3925 -0.9993 0.9809
4.8061 -2.2698 -1.1235 0.9785
8.8454 -3.2469 -1.9917 0.9622
9.4721 0.0558 -2.0022 0.9620
9.4420 0.9026 -2.0049 0.9620
9.3361 1.7445 -2.0076 0.9619
8.5725 4.1727 -2.0153 0.9618
8.1753 4.9274 -2.0177 0.9617
7.7113 5.6441 -2.0200 0.9617
5.5265 6.9658 -1.8795 0.9643
3.7442 6.9885 -1.6759 0.9681
1.3689 6.0202 -1.3050 0.9751
0.3990 8.9116 -1.8856 0.9642
-0.2656 5.9412 -1.2571 0.9760
-1.1925 8.8391 -1.8853 0.9642
-3.4888 8.1978 -1.8832 0.9642
-4.2045 7.8487 -1.8821 0.9643
-4.8851 7.4367 -1.8808 0.9643
-6.1197 6.4380 -1.8776 0.9643
-6.6636 5.8600 -1.8757 0.9644
-7.2131 5.2802 -1.8896 0.9641
-8.1734 4.9269 -2.0173 0.9617
-8.8977 3.3861 -2.0124 0.9618
-9.4397 0.9030 -2.0045 0.9620
-9.3040 -1.6248 -1.9964 0.9621
-8.5080 -4.0175 -1.9888 0.9623
-8.1057 -4.7556 -1.9865 0.9623
-7.3201 -5.2259 -1.9012 0.9639
-6.0380 -6.2026 -1.8298 0.9652
-4.1682 -7.5635 -1.8255 0.9653
-3.4741 -7.9009 -1.8244 0.9653
-2.7534 -8.1758 -1.8236 0.9653
-1.2543 -8.5300 -1.8225 0.9654
1.0515 -8.5573 -1.8224 0.9654
2.5585 -8.2385 -1.8235 0.9653
3.9873 -7.6598 -1.8254 0.9653
-8.4730 -0.7539 -1.9992 0.9657
-7.9422 -2.9624 -1.9922 0.9658
-7.6375 -3.6557 -1.9900 0.9658
-7.2728 -4.3186 -1.9879 0.9658
-5.9542 -5.1666 -1.8528 0.9681
-4.8800 -6.0686 -1.8302 0.9685
-4.3156 -6.4757 -1.8289 0.9685
-3.0913 -7.1320 -1.8269 0.9686
-2.4410 -7.3765 -1.8261 0.9686
0.2959 -7.7594 -1.8250 0.9686
1.6720 -7.5854 -1.8255 0.9686
2.3435 -7.4082 -1.8261 0.9686
3.6274 -6.8796 -1.8278 0.9685
2.4772 -3.8256 -1.0711 0.9814
2.9230 -3.7348 -1.1146 0.9807
3.3035 -2.4518 -0.9669 0.9832
4.5621 -2.2581 -1.1964 0.9793
8.1543 -2.3517 -1.9946 0.9657
8.4626 -0.8657 -1.9993 0.9656
8.5164 -0.1066 -2.0017 0.9656
8.5022 0.6552 -2.0041 0.9656
8.4198 1.4135 -2.0065 0.9655
8.0529 2.8955 -2.0112 0.9654
7.7708 3.6072 -2.0135 0.9654
7.4257 4.2913 -2.0157 0.9654
7.0199 4.9424 -2.0177 0.9653
6.5568 5.5548 -2.0197 0.9653
5.8389 5.9198 -1.9542 0.9664
5.0781 6.1641 -1.8770 0.9677
4.5106 6.5977 -1.8784 0.9677
2.6047 7.5696 -1.8814 0.9676
1.9190 7.7745 -1.8820 0.9676
1.2173 7.9167 -1.8825 0.9676
0.5055 7.9947 -1.8827 0.9676
-0.2105 8.0080 -1.8827 0.9676
-1.6312 7.8405 -1.8822 0.9676
-2.3241 7.6611 -1.8816 0.9676
-2.3903 5.9164 -1.4997 0.9741
-3.6465 7.1188 -1.8798 0.9677
-5.2201 5.6981 -1.8162 0.9687
-5.8904 5.3755 -1.8742 0.9678
-6.8346 5.1990 -2.0182 0.9653
-7.2642 4.5632 -2.0162 0.9654
-7.9429 3.1913 -2.0118 0.9654
-8.1867 2.4664 -2.0095 0.9655
-8.3644 1.7234 -2.0071 0.9655
-8.4747 0.9684 -2.0047 0.9656
-8.4912 -0.5533 -1.9999 0.9656
-8.3978 -1.3078 -1.9975 0.9657
-8.0125 -2.7744 -1.9928 0.9658
-7.7241 -3.4749 -1.9906 0.9658
-7.3750 -4.1464 -1.9885 0.9658
-6.2531 -5.1716 -1.9071 0.9672
-5.0233 -5.9526 -1.8306 0.9685
-4.4684 -6.3728 -1.8293 0.9685
-3.2597 -7.0578 -1.8271 0.9686
-1.2710 -7.6615 -1.8252 0.9686
0.8051 -7.7237 -1.8251 0.9686
2.1673 -7.4609 -1.8260 0.9686
3.4630 -6.9625 -1.8276 0.9686
2.4595 -4.0029 -1.1042 0.9809
2.8340 -3.8032 -1.1147 0.9807
2.9731 -3.3235 -1.0480 0.9818
3.0563 -2.8562 -0.9831 0.9830
3.1706 -2.4716 -0.9448 0.9836
3.7077 -2.3907 -1.0368 0.9820
8.2983 -1.8124 -1.9963 0.9657
8.5126 0.4536 -2.0035 0.9656
7.8518 3.4212 -2.0129 0.9654
7.5231 4.1132 -2.0151 0.9654
7.1331 4.7735 -2.0172 0.9653
6.6848 5.3967 -2.0192 0.9653
4.6646 6.4879 -1.8780 0.9677
4.0693 6.8831 -1.8792 0.9677
1.4043 7.8852 -1.8824 0.9676
-0.0157 6.0311 -1.4174 0.9755
-0.5540 6.0034 -1.4169 0.9755
-1.4452 7.8774 -1.8823 0.9676
-2.1423 7.7147 -1.8817 0.9676
-2.8216 7.4896 -1.8810 0.9676
-3.4775 7.2042 -1.8801 0.9677
-6.6232 5.2903 -1.9922 0.9658
-7.1561 4.7352 -2.0167 0.9654
-7.8674 3.3794 -2.0124 0.9654
-8.5124 0.4091 -2.0029 0.9656
-8.2865 -1.8551 -1.9957 0.9657
-7.8065 -3.2921 -1.9912 0.9658
-7.4732 -3.9718 -1.9890 0.9658
-7.0813 -4.6185 -1.9870 0.9659
-5.1639 -5.8332 -1.8310 0.9685
-4.6189 -6.2664 -1.8296 0.9685
-4.0382 -6.6495 -1.8284 0.9685
-2.7880 -7.2542 -1.8265 0.9686
-1.5756 -5.5316 -1.3518 0.9766
-0.7648 -7.7276 -1.8250 0.9686
0.6220 -7.7404 -1.8250 0.9686
1.3110 -7.6551 -1.8253 0.9686
1.9899 -7.5094 -1.8258 0.9686
2.3601 -4.0532 -1.1023 0.9809
2.7442 -3.8707 -1.1151 0.9807
2.9559 -3.4659 -1.0706 0.9815
3.0313 -2.9703 -0.9974 0.9827
3.5565 -2.4143 -1.0103 0.9825
4.1744 -2.3184 -1.1222 0.9806
4.9798 -2.2092 -1.2804 0.9779
8.0290 -2.7333 -1.9933 0.9658
8.2505 -2.0077 -1.9957 0.9657
8.4068 -1.2644 -1.9980 0.9657
8.5182 0.2519 -2.0028 0.9656
8.3576 1.7674 -2.0077 0.9655
7.9282 3.2334 -2.0123 0.9654
6.8090 5.2357 -2.0187 0.9653
6.3201 5.8282 -2.0205 0.9653
5.3637 5.9164 -1.8769 0.9677
4.6667 6.1768 -1.8194 0.9687
3.5013 6.9241 -1.8235 0.9686
2.9594 7.4361 -1.8810 0.9676
1.8218 6.1199 -1.5007 0.9741
1.5904 7.8493 -1.8823 0.9676
0.8833 7.9614 -1.8826 0.9676
0.1688 8.0091 -1.8827 0.9676
-0.5471 7.9918 -1.8827 0.9676
-2.6438 7.5552 -1.8812 0.9676
-3.3064 7.2855 -1.8803 0.9677
-4.5442 6.5731 -1.8780 0.9677
-5.1092 6.1364 -1.8766 0.9677
-5.6321 5.6510 -1.8751 0.9677
-6.3387 5.3136 -1.9439 0.9666
-7.4461 4.2516 -2.0152 0.9654
-8.0657 2.8528 -2.0107 0.9655
-8.2786 2.1187 -2.0084 0.9655
-8.4247 1.3693 -2.0060 0.9655
-8.5133 -0.1509 -2.0011 0.9656
-8.3307 -1.6590 -1.9964 0.9657
-8.1397 -2.3935 -1.9940 0.9657
-7.5672 -3.7948 -1.9896 0.9658
-6.7393 -5.0563 -1.9801 0.9660
-4.7668 -6.1565 -1.8299 0.9685
-4.1951 -6.5531 -1.8287 0.9685
-3.5910 -6.8975 -1.8276 0.9686
-2.9592 -7.1870 -1.8267 0.9686
-2.3047 -7.4196 -1.8260 0.9686
-0.9476 -7.7076 -1.8251 0.9686
-0.2555 -7.7607 -1.8249 0.9686
1.1293 -7.6836 -1.8252 0.9686
2.4796 -7.3644 -1.8263 0.9686
2.9463 -3.6251 -1.0979 0.9810
3.1001 -2.6619 -0.9603 0.9834
3.4121 -2.4363 -0.9854 0.9829
4.0148 -2.3558 -1.0940 0.9811
4.7285 -2.2331 -1.2290 0.9787
8.1981 -2.2018 -1.9950 0.9657
8.3719 -1.4626 -1.9974 0.9657
8.4792 -0.7100 -1.9998 0.9656
8.4908 0.8117 -2.0046 0.9656
8.0001 3.0439 -2.0117 0.9654
7.7049 3.7504 -2.0140 0.9654
7.3470 4.4282 -2.0161 0.9654
4.3890 6.6805 -1.8786 0.9677
2.4651 7.6168 -1.8815 0.9676
-0.2656 5.9407 -1.3976 0.9759
-1.0709 7.9378 -1.8825 0.9676
-1.7751 7.8087 -1.8820 0.9676
-3.1335 7.3627 -1.8806 0.9677
-3.7764 7.0497 -1.8796 0.9677
-4.3881 6.6800 -1.8784 0.9677
-4.9635 6.2569 -1.8770 0.9677
-5.4980 5.7840 -1.8755 0.9677
-6.0673 5.3356 -1.8989 0.9673
-6.9277 5.0713 -2.0178 0.9653
-7.3454 4.4279 -2.0157 0.9654
-7.7032 3.7502 -2.0136 0.9654
-8.4889 0.8121 -2.0042 0.9656
-8.1966 -2.2008 -1.9946 0.9657
-7.6571 -3.6157 -1.9901 0.9658
-7.2959 -4.2805 -1.9880 0.9658
-6.8681 -4.9032 -1.9833 0.9659
-6.0193 -5.1677 -1.8645 0.9679
-5.4365 -5.5847 -1.8317 0.9685
-4.9122 -6.0431 -1.8303 0.9685
-4.3498 -6.4531 -1.8290 0.9685
-3.7538 -6.8115 -1.8279 0.9685
-3.1289 -7.1158 -1.8269 0.9686
-1.3674 -5.7006 -1.3778 0.9762
-1.1298 -7.6833 -1.8252 0.9686
-0.4391 -7.7526 -1.8250 0.9686
1.6320 -7.5940 -1.8255 0.9686
-7.7080 0.6964 -2.0039 0.9685
-7.7309 0.0053 -2.0017 0.9686
-7.6920 -0.6844 -1.9995 0.9686
-7.4316 -2.0374 -1.9952 0.9687
-6.9364 -3.3202 -1.9911 0.9687
-6.6059 -3.9226 -1.9892 0.9688
-6.2235 -4.4928 -1.9874 0.9688
-5.7765 -5.0124 -1.9802 0.9689
-3.9213 -5.8841 -1.8308 0.9712
-3.3783 -6.2073 -1.8298 0.9712
-2.8092 -6.4812 -1.8289 0.9712
-1.3426 -5.7300 -1.5238 0.9760
-0.9900 -6.9880 -1.8274 0.9713
0.8977 -7.0005 -1.8274 0.9713
1.5195 -6.8937 -1.8277 0.9713
1.6718 -4.0009 -1.1227 0.9822
2.2560 -3.4839 -1.0747 0.9830
3.1852 -2.3639 -1.0270 0.9837
3.7939 -2.3211 -1.1516 0.9818
4.5235 -2.2391 -1.3069 0.9794
7.4042 -2.1354 -1.9952 0.9687
7.7305 -0.0968 -2.0017 0.9686
7.7167 0.5946 -2.0039 0.9685
7.5041 1.9621 -2.0083 0.9685
7.3065 2.6272 -2.0104 0.9684
5.9468 5.0380 -2.0180 0.9683
5.4776 5.5535 -2.0196 0.9683
4.0900 5.9826 -1.8764 0.9705
2.3615 6.8627 -1.8791 0.9705
1.7397 7.0484 -1.8797 0.9704
1.1036 7.1771 -1.8801 0.9704
-0.1908 7.2598 -1.8803 0.9704
-0.8383 7.2131 -1.8802 0.9704
-1.4788 7.1081 -1.8798 0.9704
-4.9405 5.3929 -1.8937 0.9702
-5.7582 5.2549 -2.0184 0.9683
-7.2065 2.8954 -2.0109 0.9684
-7.4285 2.2380 -2.0088 0.9685
-7.7308 0.1883 -2.0022 0.9686
-7.7083 -0.5023 -2.0000 0.9686
-7.4798 -1.8615 -1.9957 0.9687
-2.3766 -6.6499 -1.8284 0.9712
-1.4272 -5.5017 -1.4716 0.9768
-1.1551 -6.9629 -1.8275 0.9713
-0.5287 -7.0374 -1.8272 0.9713
1.5805 -4.0492 -1.1254 0.9822
1.8612 -3.7421 -1.0821 0.9829
2.1747 -3.5394 -1.0756 0.9830
4.3268 -2.2708 -1.2652 0.9800
7.5344 -1.6456 -1.9968 0.9686
7.7264 0.4117 -2.0033 0.9685
7.6671 1.1012 -2.0055 0.9685
7.5463 1.7835 -2.0077 0.9685
7.3647 2.4528 -2.0098 0.9684
7.1235 3.1039 -2.0119 0.9684
6.8246 3.7313 -2.0139 0.9684
6.4702 4.3299 -2.0158 0.9683
5.6063 5.4211 -2.0192 0.9683
5.0749 5.8713 -2.0093 0.9684
2.9314 6.1546 -1.7651 0.9722
-0.0189 7.2623 -1.8804 0.9704
-1.0970 5.9796 -1.5741 0.9752
-1.9423 6.9942 -1.8795 0.9705
-2.5582 6.7904 -1.8788 0.9705
-3.1530 6.5319 -1.8780 0.9705
-3.4979 5.8468 -1.7641 0.9722
-4.2597 5.8601 -1.8758 0.9705
-6.0872 4.8622 -2.0171 0.9683
-7.1379 3.0660 -2.0114 0.9684
-7.3755 2.4138 -2.0093 0.9684
-7.5536 1.7437 -2.0072 0.9685
-7.7203 -0.3198 -2.0006 0.9686
-7.3357 -2.3471 -1.9942 0.9687
-7.0895 -2.9897 -1.9921 0.9687
-6.7875 -3.6074 -1.9902 0.9687
-6.4322 -4.1952 -1.9883 0.9688
-6.0241 -4.7466 -1.9858 0.9688
-5.4280 -5.1258 -1.9330 0.9696
-4.1968 -5.6938 -1.8314 0.9712
-2.5336 -6.5924 -1.8286 0.9712
-1.5729 -5.5220 -1.4866 0.9766
-1.3197 -6.9339 -1.8275 0.9713
-0.6951 -7.0230 -1.8273 0.9713
1.1914 -6.9571 -1.8275 0.9713
1.8084 -6.8245 -1.8280 0.9712
1.4909 -4.1039 -1.1305 0.9821
2.0923 -3.5932 -1.0766 0.9830
2.3577 -3.3256 -1.0555 0.9833
3.0470 -2.4934 -1.0194 0.9839
3.5019 -2.3773 -1.0959 0.9827
7.2908 -2.4820 -1.9941 0.9687
7.4913 -1.8230 -1.9962 0.9686
7.5842 1.6039 -2.0071 0.9685
7.4186 2.2772 -2.0093 0.9684
7.1931 2.9336 -2.0113 0.9684
6.1758 4.7488 -2.0171 0.9683
5.7319 5.2858 -2.0188 0.9683
5.2410 5.7810 -2.0204 0.9683
3.2730 6.4725 -1.8779 0.9705
2.6831 6.7419 -1.8788 0.9705
2.0710 6.9571 -1.8794 0.9705
0.8007 7.2176 -1.8802 0.9704
0.1530 7.2607 -1.8804 0.9704
-0.4960 7.2451 -1.8803 0.9704
-0.9530 5.9902 -1.5705 0.9752
-2.3970 6.8498 -1.8790 0.9705
-2.9978 6.6056 -1.8782 0.9705
-4.1205 5.9603 -1.8761 0.9705
-5.3425 5.3604 -1.9595 0.9692
-5.9718 5.0060 -2.0176 0.9683
-6.3893 4.4488 -2.0158 0.9683
-6.7547 3.8568 -2.0139 0.9684
-7.0652 3.2350 -2.0119 0.9684
-7.3184 2.5885 -2.0099 0.9684
-7.6458 1.2427 -2.0056 0.9685
-7.7177 0.5543 -2.0034 0.9685
-7.7279 -0.1370 -2.0012 0.9686
-7.6764 -0.8256 -1.9990 0.9686
-7.3912 -2.1734 -1.9947 0.9687
-6.8728 -3.4466 -1.9907 0.9687
-6.5313 -4.0427 -1.9888 0.9688
-4.8167 -5.1883 -1.8330 0.9712
-4.3311 -5.5938 -1.8317 0.9712
-3.2632 -6.2678 -1.8296 0.9712
-2.6892 -6.5312 -1.8288 0.9712
-2.0945 -6.7429 -1.8281 0.9712
-1.4835 -6.9011 -1.8276 0.9713
-0.8612 -7.0048 -1.8273 0.9713
0.3986 -7.0459 -1.8272 0.9713
1.6939 -3.8530 -1.0898 0.9828
2.7209 -3.3477 -1.1170 0.9823
2.9208 -3.0008 -1.0842 0.9828
3.0210 -2.5939 -1.0310 0.9837
7.6974 -0.6445 -2.0000 0.9686
7.7327 0.0455 -2.0022 0.9686
7.6179 1.4235 -2.0065 0.9685
7.2585 2.7618 -2.0108 0.9684
6.9899 3.4024 -2.0128 0.9684
6.6646 4.0169 -2.0148 0.9684
6.2850 4.6002 -2.0166 0.9683
5.3753 5.6542 -2.0200 0.9683
3.4248 6.3923 -1.8777 0.9705
1.3687 6.0193 -1.5983 0.9748
0.9713 7.1964 -1.8802 0.9704
0.3248 7.2550 -1.8803 0.9704
-0.2656 5.9403 -1.5396 0.9757
-3.4241 6.3920 -1.8775 0.9705
-5.8529 5.1471 -2.0181 0.9683
-6.6632 4.0166 -2.0144 0.9684
-6.9885 3.4022 -2.0125 0.9684
-7.2570 2.7617 -2.0104 0.9684
-7.6164 1.4237 -2.0062 0.9685
-7.7312 0.0460 -2.0018 0.9686
-7.2269 -2.6523 -1.9932 0.9687
-6.6268 -3.8879 -1.9893 0.9688
