ply
format ascii 1.0
element vertex 1596
property float32 x
property float32 y
property float32 z
property float32 I
end_header
-2.6263 -5.4602 -1.7153 0.9751
-2.2874 -6.0939 -1.8427 0.9733
-1.7350 -6.2730 -1.8425 0.9733
-1.1689 -6.4024 -1.8424 0.9733
0.5665 -6.4839 -1.8425 0.9733
0.6871 -3.8551 -1.1085 0.9839
1.0082 -3.7057 -1.0872 0.9842
1.3283 -3.5845 -1.0822 0.9842
2.2309 -2.5857 -0.9668 0.9859
2.5769 -2.4971 -1.0158 0.9852
6.4696 -2.8327 -1.9994 0.9711
6.9957 -1.0213 -2.0014 0.9710
7.0613 -0.3939 -2.0021 0.9710
7.0708 0.2371 -2.0028 0.9710
6.7630 2.1014 -2.0048 0.9710
5.6088 4.3373 -2.0072 0.9710
5.2012 4.8211 -2.0077 0.9709
3.5719 5.7538 -1.9172 0.9722
1.8695 6.3148 -1.8644 0.9730
1.2993 6.4566 -1.8645 0.9730
0.6571 5.9860 -1.7048 0.9753
-0.4550 6.5701 -1.8644 0.9730
-0.9504 5.9498 -1.7057 0.9753
-3.2438 5.7266 -1.8632 0.9730
-4.5346 5.4512 -2.0073 0.9710
-5.4275 4.5570 -2.0062 0.9710
-5.8103 4.0539 -2.0056 0.9710
-6.1466 3.5189 -2.0050 0.9710
-6.4337 2.9561 -2.0044 0.9710
-6.8516 1.7656 -2.0030 0.9710
-6.3176 -3.1439 -1.9977 0.9711
-4.0071 -5.1333 -1.8435 0.9733
-3.0311 -5.7613 -1.8429 0.9733
-1.9597 -6.2067 -1.8426 0.9733
-1.3986 -6.3563 -1.8425 0.9733
-0.2479 -6.5035 -1.8424 0.9733
0.3328 -6.4999 -1.8425 0.9733
0.5658 -4.0033 -1.1446 0.9833
1.5139 -3.5010 -1.0798 0.9843
1.8923 -3.4856 -1.1228 0.9836
2.0657 -3.1079 -1.0564 0.9846
2.1852 -2.7252 -0.9889 0.9856
6.3627 -3.0633 -1.9991 0.9711
6.9534 -1.2722 -2.0011 0.9710
7.0738 -0.0175 -2.0025 0.9710
6.6428 2.4588 -2.0052 0.9710
6.3992 3.0420 -2.0058 0.9710
6.1043 3.6013 -2.0064 0.9710
5.7606 4.1322 -2.0070 0.9710
4.9379 5.0917 -2.0079 0.9709
3.8656 5.7539 -1.9623 0.9716
3.1700 5.7708 -1.8639 0.9730
2.6434 6.0311 -1.8641 0.9730
0.9539 6.5167 -1.8645 0.9730
0.3692 6.5758 -1.8645 0.9730
-0.2183 6.5824 -1.8644 0.9730
-1.9514 6.2884 -1.8639 0.9730
-3.0358 5.8401 -1.8633 0.9730
-3.5522 5.5587 -1.8675 0.9729
-4.2621 5.5158 -1.9733 0.9714
-4.8176 5.2013 -2.0070 0.9710
-5.2606 4.7499 -2.0065 0.9710
-5.6613 4.2609 -2.0059 0.9710
-6.3239 3.1861 -2.0046 0.9710
-6.7846 2.0114 -2.0033 0.9710
-6.9345 1.3982 -2.0026 0.9710
-7.0676 0.1447 -2.0012 0.9710
-6.8471 -1.7285 -1.9992 0.9711
-5.8045 -4.0074 -1.9968 0.9711
-2.5160 -5.4705 -1.7046 0.9753
-2.1818 -6.1323 -1.8426 0.9733
-1.6265 -6.3020 -1.8425 0.9733
-1.0583 -6.4216 -1.8424 0.9733
0.7471 -3.8098 -1.0991 0.9840
1.0704 -3.6822 -1.0856 0.9842
1.3890 -3.5585 -1.0814 0.9842
2.0214 -3.2924 -1.0937 0.9841
2.2658 -2.5364 -0.9628 0.9860
3.1167 -2.4349 -1.1197 0.9837
3.6425 -2.3550 -1.2279 0.9821
4.4001 -2.3170 -1.4078 0.9795
6.5180 -2.7208 -1.9995 0.9711
7.0128 -0.9005 -2.0016 0.9710
7.0084 0.9878 -2.0036 0.9710
6.5037 2.8094 -2.0056 0.9710
5.9050 3.9218 -2.0067 0.9710
4.1660 5.7432 -2.0086 0.9709
3.4357 5.7536 -1.8971 0.9725
0.6057 6.5583 -1.8645 0.9730
-1.0597 5.9710 -1.7168 0.9751
-1.7239 6.3549 -1.8640 0.9730
-2.2831 6.1751 -1.8638 0.9730
-4.6278 5.3718 -2.0072 0.9710
-6.7087 2.2545 -2.0036 0.9710
-6.8806 1.6471 -2.0029 0.9710
-7.0588 0.3990 -2.0015 0.9710
-7.0127 -0.8600 -2.0001 0.9711
-6.5289 -2.6820 -1.9982 0.9711
-5.5821 -4.3100 -1.9965 0.9711
-4.4893 -4.9682 -1.8956 0.9725
-3.9178 -5.2015 -1.8435 0.9733
0.4449 -6.4933 -1.8425 0.9733
0.9412 -3.7344 -1.0902 0.9841
2.0902 -3.0300 -1.0421 0.9848
2.4925 -2.5077 -1.0009 0.9854
3.4096 -2.3827 -1.1776 0.9829
4.0307 -2.3115 -1.3154 0.9809
2.7072 -2.4408 -1.1211 0.9849
3.1629 -2.3769 -1.2169 0.9836
3.8253 -2.3727 -1.3845 0.9813
6.0459 -2.3918 -1.9998 0.9732
6.3785 -1.2811 -2.0011 0.9731
5.9359 2.6972 -2.0054 0.9731
5.6734 3.2164 -2.0059 0.9731
5.3655 3.7102 -2.0065 0.9731
4.1955 5.0007 -2.0078 0.9731
3.7338 5.3557 -2.0081 0.9730
2.0309 5.7215 -1.8674 0.9749
1.5100 5.8686 -1.8638 0.9750
-1.1704 5.9450 -1.8636 0.9750
-2.2068 5.6414 -1.8632 0.9750
-2.7745 5.5701 -1.9140 0.9743
-3.9003 5.2318 -2.0071 0.9731
-4.3501 4.8622 -2.0067 0.9731
-5.1416 4.0106 -2.0057 0.9731
-6.0142 2.5053 -2.0039 0.9731
-6.3595 1.3968 -2.0027 0.9731
-6.4566 0.8242 -2.0020 0.9731
-6.4385 -0.9124 -2.0001 0.9732
-6.1705 -2.0398 -1.9989 0.9732
-5.9624 -2.5809 -1.9983 0.9732
-5.4066 -3.5965 -1.9973 0.9732
-4.6800 -4.4973 -1.9964 0.9732
-3.0692 -5.1486 -1.8436 0.9752
-2.5978 -5.4010 -1.8434 0.9752
-2.1059 -5.6105 -1.8432 0.9752
-1.5974 -5.7754 -1.8431 0.9752
-1.0762 -5.8946 -1.8430 0.9752
-0.0126 -5.9920 -1.8430 0.9752
0.5216 -5.9695 -1.8431 0.9752
0.9032 -3.3196 -1.0582 0.9857
1.1972 -3.2308 -1.0598 0.9857
1.5089 -3.1710 -1.0801 0.9854
1.8571 -3.1452 -1.1234 0.9848
2.0537 -2.8608 -1.0832 0.9854
2.5417 -2.4631 -1.0886 0.9853
2.9603 -2.3960 -1.1714 0.9842
4.2382 -2.3261 -1.4870 0.9800
5.9552 -2.6075 -1.9996 0.9732
6.3275 -1.5097 -2.0008 0.9731
6.4389 -0.9400 -2.0015 0.9731
6.4991 -0.3625 -2.0021 0.9731
6.5077 0.2183 -2.0027 0.9731
6.0284 2.4816 -2.0052 0.9731
5.4950 3.5144 -2.0063 0.9731
4.7860 4.4362 -2.0072 0.9731
4.3725 4.8461 -2.0076 0.9731
2.8810 5.7237 -1.9709 0.9735
2.2655 5.7204 -1.8924 0.9746
1.7202 5.8103 -1.8638 0.9750
1.1955 5.9408 -1.8639 0.9750
0.6539 5.9568 -1.8432 0.9752
-0.4187 6.0452 -1.8638 0.9750
-0.9456 5.9200 -1.8439 0.9752
-2.0025 5.7175 -1.8633 0.9750
-2.5341 5.5824 -1.8856 0.9747
-3.1440 5.5504 -1.9620 0.9737
-3.7098 5.3692 -2.0073 0.9731
-4.1727 5.0161 -2.0069 0.9731
-4.9945 4.1935 -2.0059 0.9731
-5.3469 3.7306 -2.0053 0.9731
-5.9209 2.7205 -2.0042 0.9731
-6.1379 2.1813 -2.0036 0.9731
-6.3059 1.6250 -2.0029 0.9731
-6.2406 -1.8166 -1.9991 0.9732
-5.8156 -2.8941 -1.9980 0.9732
-5.2067 -3.8787 -1.9970 0.9732
-4.8392 -4.3263 -1.9965 0.9732
-3.8592 -4.9438 -1.9290 0.9741
-2.7906 -5.3042 -1.8435 0.9752
-1.8042 -5.7143 -1.8431 0.9752
-0.7609 -5.9434 -1.8430 0.9752
-0.2282 -5.9876 -1.8430 0.9752
0.3064 -5.9843 -1.8431 0.9752
0.5157 -3.6493 -1.1336 0.9847
1.0781 -3.2656 -1.0577 0.9857
1.3853 -3.2038 -1.0736 0.9855
1.7515 -3.2261 -1.1291 0.9848
2.0031 -3.0136 -1.1130 0.9850
2.3029 -2.3983 -1.0227 0.9862
3.2739 -2.3730 -1.2437 0.9832
3.9523 -2.3581 -1.4156 0.9809
6.0866 -2.2872 -1.9999 0.9732
6.2682 -1.7362 -2.0006 0.9731
6.5105 -0.0161 -2.0025 0.9731
6.4139 1.1408 -2.0037 0.9731
3.6409 5.4195 -2.0082 0.9730
1.9281 5.7445 -1.8638 0.9750
-0.2009 6.0565 -1.8639 0.9750
-0.7398 6.0141 -1.8638 0.9750
-2.3037 5.6023 -1.8631 0.9750
-2.8923 5.5639 -1.9287 0.9741
-3.5145 5.4997 -2.0075 0.9731
-4.8409 4.3710 -2.0061 0.9731
-5.8199 2.9321 -2.0044 0.9731
-6.0562 2.4010 -2.0038 0.9731
-6.5051 0.1332 -2.0013 0.9731
-6.1340 -2.1458 -1.9988 0.9732
-5.6524 -3.1990 -1.9977 0.9732
-2.9799 -5.2006 -1.8436 0.9752
-2.5042 -5.4449 -1.8434 0.9752
-2.0088 -5.6459 -1.8432 0.9752
-0.9744 -5.9122 -1.8430 0.9752
-0.4435 -5.9755 -1.8430 0.9752
0.0908 -5.9914 -1.8430 0.9752
1.5624 -3.1425 -1.0794 0.9854
2.0767 -2.7899 -1.0697 0.9856
2.2370 -2.5041 -1.0328 0.9860
2.6199 -2.4526 -1.1038 0.9851
4.4307 -2.3331 -1.5402 0.9793
5.9997 -2.5045 -1.9997 0.9732
6.3530 -1.4004 -2.0009 0.9731
6.4500 0.9091 -2.0035 0.9731
6.3453 1.4808 -2.0041 0.9731
5.7324 3.1094 -2.0058 0.9731
5.4338 3.6088 -2.0064 0.9731
4.7089 4.5183 -2.0073 0.9731
4.2883 4.9210 -2.0077 0.9731
3.3476 5.6060 -2.0083 0.9730
0.0172 6.0599 -1.8639 0.9750
-2.1008 5.6819 -1.8633 0.9750
-3.8018 5.3042 -2.0072 0.9731
-4.2584 4.9431 -2.0068 0.9731
-4.6809 4.5428 -2.0063 0.9731
-5.0659 4.1065 -2.0058 0.9731
-5.9666 2.6178 -2.0041 0.9731
-6.1742 2.0749 -2.0034 0.9731
-6.3326 1.5159 -2.0028 0.9731
-6.4405 0.9451 -2.0022 0.9731
-6.4970 0.3672 -2.0015 0.9731
-6.5018 -0.2132 -2.0009 0.9731
-6.2080 -1.9239 -1.9990 0.9732
-5.7645 -2.9938 -1.9979 0.9732
-5.4733 -3.4948 -1.9974 0.9732
-5.1388 -3.9677 -1.9969 0.9732
-3.1688 -5.0960 -1.8458 0.9752
-2.2107 -5.5701 -1.8432 0.9752
-0.6583 -5.9557 -1.8430 0.9752
0.4096 -5.9782 -1.8431 0.9752
0.5735 -3.6076 -1.1235 0.9848
1.1354 -3.2494 -1.0587 0.9857
1.4483 -3.1968 -1.0795 0.9854
1.8034 -3.1893 -1.1269 0.9848
2.8633 -2.4077 -1.1507 0.9845
3.3848 -2.3653 -1.2701 0.9829
2.2783 -2.4561 -1.1136 0.9860
3.1978 -2.4030 -1.3296 0.9833
5.7714 -1.7063 -2.0005 0.9750
6.0225 -0.1188 -2.0023 0.9749
6.0109 0.4186 -2.0029 0.9749
5.8445 1.4800 -2.0041 0.9749
5.6909 1.9955 -2.0046 0.9749
5.4918 2.4955 -2.0051 0.9749
4.9639 3.4325 -2.0061 0.9749
4.6393 3.8621 -2.0065 0.9749
4.2774 4.2611 -2.0069 0.9749
3.8813 4.6262 -2.0073 0.9749
3.4541 4.9545 -2.0076 0.9749
1.4630 5.6861 -1.9517 0.9756
0.9314 5.6780 -1.9126 0.9760
0.4164 5.6674 -1.8890 0.9763
-0.5951 5.6388 -1.8848 0.9764
-1.6320 5.5987 -1.9385 0.9757
-2.1802 5.5733 -1.9893 0.9751
-2.6926 5.4057 -2.0075 0.9749
-4.0245 4.4983 -2.0063 0.9749
-5.0674 3.2709 -2.0049 0.9749
-5.5646 2.3180 -2.0038 0.9749
-5.7474 1.8123 -2.0032 0.9749
-5.8843 1.2925 -2.0026 0.9749
-5.9743 0.7627 -2.0020 0.9749
-6.0167 0.2271 -2.0014 0.9749
-6.0113 -0.3100 -2.0008 0.9749
-5.9580 -0.8443 -2.0002 0.9750
-5.8573 -1.3716 -1.9997 0.9750
-5.5178 -2.3884 -1.9986 0.9750
-5.2816 -2.8700 -1.9981 0.9750
-4.3313 -4.1622 -1.9968 0.9750
-3.9410 -4.5292 -1.9957 0.9750
-3.5111 -4.8480 -1.9897 0.9751
-2.9339 -4.9215 -1.9046 0.9761
-1.4784 -5.3455 -1.8436 0.9769
-0.9961 -5.4557 -1.8435 0.9769
0.4827 -5.5251 -1.8436 0.9769
1.6501 -2.7947 -1.0788 0.9864
1.9712 -2.7459 -1.1236 0.9859
2.4948 -2.4176 -1.1548 0.9855
3.5069 -2.3541 -1.4040 0.9824
5.7056 -1.9127 -2.0003 0.9750
6.0214 0.2019 -2.0027 0.9749
5.8933 1.2685 -2.0038 0.9749
5.7584 1.7892 -2.0044 0.9749
5.5775 2.2960 -2.0049 0.9749
5.3520 2.7846 -2.0054 0.9749
4.4277 4.1041 -2.0068 0.9749
4.0450 4.4832 -2.0072 0.9749
3.6299 4.8267 -2.0075 0.9749
2.2245 5.6170 -2.0082 0.9749
1.1433 5.6815 -1.9264 0.9759
0.6227 5.6719 -1.8967 0.9762
0.1138 5.6600 -1.8818 0.9764
-0.3910 5.6454 -1.8811 0.9764
-1.9557 5.5840 -1.9667 0.9754
-4.2576 4.2771 -2.0061 0.9749
-4.9469 3.4515 -2.0051 0.9749
-5.2335 2.9961 -2.0045 0.9749
-5.4782 2.5171 -2.0040 0.9749
-5.6791 2.0182 -2.0034 0.9749
-5.8347 1.5036 -2.0028 0.9749
-6.0054 0.4435 -2.0017 0.9749
-6.0192 -0.0935 -2.0011 0.9749
-5.6008 -2.1885 -1.9988 0.9750
-5.3820 -2.6783 -1.9983 0.9750
-4.4787 -4.0039 -1.9969 0.9750
-2.5903 -4.9235 -1.8493 0.9768
-1.1918 -5.4164 -1.8435 0.9769
-0.7043 -5.5010 -1.8435 0.9769
0.2836 -5.5388 -1.8435 0.9769
0.4781 -3.3829 -1.1357 0.9857
0.7517 -3.2158 -1.0978 0.9862
2.7451 -2.3903 -1.2099 0.9848
3.3135 -2.4017 -1.3603 0.9829
4.0106 -2.3929 -1.5524 0.9805
5.6324 -2.1165 -2.0001 0.9750
5.8003 -1.6066 -2.0007 0.9749
5.9970 -0.5516 -2.0018 0.9749
6.0240 -0.0149 -2.0024 0.9749
6.0032 0.5222 -2.0030 0.9749
5.6559 2.0935 -2.0047 0.9749
5.4482 2.5900 -2.0052 0.9749
5.1970 3.0660 -2.0057 0.9749
4.2034 4.3344 -2.0070 0.9749
3.8010 4.6926 -2.0074 0.9749
3.3682 5.0135 -2.0077 0.9749
2.9083 5.2944 -2.0079 0.9749
-0.1874 5.6516 -1.8797 0.9764
-0.6932 5.6355 -1.8874 0.9764
-2.2896 5.5679 -2.0012 0.9749
-3.2513 5.0879 -2.0071 0.9749
-4.1013 4.4279 -2.0062 0.9749
-4.8200 3.6277 -2.0053 0.9749
-5.1228 3.1829 -2.0048 0.9749
-5.3847 2.7129 -2.0042 0.9749
-5.6034 2.2215 -2.0037 0.9749
-5.9862 0.6594 -2.0019 0.9749
-6.0194 0.1232 -2.0013 0.9749
-5.9422 -0.9469 -2.0001 0.9750
-5.6765 -1.9858 -1.9990 0.9750
-5.2311 -2.9605 -1.9980 0.9750
-4.6203 -3.8405 -1.9971 0.9750
-4.2587 -4.2362 -1.9967 0.9750
-3.8599 -4.5937 -1.9945 0.9750
-2.8200 -4.9217 -1.8855 0.9764
-1.3860 -5.3701 -1.8436 0.9769
0.4039 -3.8545 -1.2883 0.9838
0.6422 -3.2746 -1.1092 0.9860
1.1863 -3.0392 -1.0845 0.9863
1.7698 -2.8825 -1.1243 0.9858
2.0192 -2.7127 -1.1241 0.9858
3.6061 -2.3315 -1.4274 0.9821
4.5882 -2.4161 -1.7237 0.9784
5.5520 -2.3176 -1.9998 0.9750
5.8787 -1.2958 -2.0010 0.9749
5.9725 -0.7669 -2.0016 0.9749
6.0189 -0.2316 -2.0022 0.9749
6.0174 0.3058 -2.0028 0.9749
5.9679 0.8412 -2.0034 0.9749
5.8708 1.3701 -2.0039 0.9749
5.7269 1.8884 -2.0045 0.9749
5.5373 2.3920 -2.0050 0.9749
5.0271 3.3387 -2.0060 0.9749
4.7106 3.7743 -2.0065 0.9749
3.9672 4.5525 -2.0072 0.9749
3.0968 5.1861 -2.0078 0.9749
2.6226 5.4421 -2.0081 0.9749
2.1273 5.6547 -2.0083 0.9749
1.0414 5.6799 -1.9195 0.9760
0.5236 5.6698 -1.8927 0.9763
0.0161 5.6573 -1.8805 0.9764
-0.9982 5.6245 -1.8988 0.9762
-1.5201 5.6035 -1.9300 0.9758
-2.0627 5.5790 -1.9772 0.9752
-2.5909 5.4554 -2.0075 0.9749
-3.0663 5.2019 -2.0072 0.9749
-3.5171 4.9070 -2.0068 0.9749
-3.9396 4.5731 -2.0064 0.9749
-4.3306 4.2028 -2.0060 0.9749
-4.6868 3.7992 -2.0055 0.9749
-5.0055 3.3655 -2.0050 0.9749
-5.5205 2.4220 -2.0039 0.9749
-5.7128 1.9198 -2.0033 0.9749
-5.8594 1.4026 -2.0027 0.9749
-6.0118 0.3398 -2.0015 0.9749
-6.0164 -0.1973 -2.0010 0.9749
-5.5619 -2.2847 -1.9987 0.9750
-5.3348 -2.7706 -1.9982 0.9750
-4.7559 -3.6720 -1.9973 0.9750
-4.4088 -4.0805 -1.9969 0.9750
-4.0268 -4.4563 -1.9965 0.9750
-3.6035 -4.7842 -1.9909 0.9751
-2.4977 -4.9530 -1.8439 0.9769
-0.1156 -5.5447 -1.8435 0.9769
0.8054 -3.1954 -1.0954 0.9862
1.0775 -3.0837 -1.0858 0.9863
1.5984 -2.8267 -1.0794 0.9864
2.0913 -2.5178 -1.0880 0.9863
2.4134 -2.4280 -1.1380 0.9857
4.1117 -2.3580 -1.5755 0.9802
1.6945 -2.6473 -1.1240 0.9867
2.2402 -2.4150 -1.1780 0.9861
4.9955 -2.5121 -1.9996 0.9765
5.3649 -1.5861 -2.0006 0.9765
5.4865 -1.1020 -2.0012 0.9765
5.5317 0.8857 -2.0034 0.9765
5.1042 2.3193 -2.0049 0.9765
4.8783 2.7657 -2.0054 0.9765
4.6134 3.1901 -2.0058 0.9765
3.6071 4.2993 -2.0069 0.9764
2.7872 4.8728 -2.0075 0.9764
2.3421 5.1023 -2.0077 0.9764
1.8781 5.2912 -2.0078 0.9764
0.9090 5.5410 -2.0080 0.9764
-2.0449 5.2275 -2.0073 0.9764
-2.5024 5.0238 -2.0071 0.9764
-2.9397 4.7800 -2.0068 0.9764
-3.7403 4.1806 -2.0060 0.9765
-4.0971 3.8298 -2.0056 0.9765
-4.7098 3.0401 -2.0047 0.9765
-5.1721 2.1545 -2.0036 0.9765
-5.4695 1.2014 -2.0025 0.9765
-5.5533 0.7089 -2.0020 0.9765
-5.5928 0.2111 -2.0014 0.9765
-5.5384 -0.7848 -2.0004 0.9765
-4.9100 -2.6681 -1.9984 0.9765
-4.6517 -3.0944 -1.9979 0.9765
-4.3565 -3.4959 -1.9975 0.9766
-0.4703 -5.1347 -1.8439 0.9783
0.5522 -3.0978 -1.1253 0.9867
1.0557 -2.8489 -1.0865 0.9872
2.0983 -2.4321 -1.1487 0.9864
3.5239 -2.3656 -1.5178 0.9821
4.9013 -2.6900 -1.9994 0.9765
5.1229 -2.2430 -1.9999 0.9765
5.5382 -0.8085 -2.0015 0.9765
5.5969 0.1877 -2.0026 0.9765
5.5594 0.6860 -2.0032 0.9765
5.4776 1.1791 -2.0037 0.9765
5.3521 1.6630 -2.0042 0.9765
4.9742 2.5881 -2.0052 0.9765
4.7248 3.0218 -2.0056 0.9765
4.4376 3.4316 -2.0061 0.9765
4.1149 3.8142 -2.0064 0.9764
3.7592 4.1665 -2.0068 0.9764
1.5939 5.3838 -2.0079 0.9764
1.1078 5.5047 -2.0080 0.9764
0.1128 5.6140 -2.0080 0.9764
-0.8856 5.5443 -2.0078 0.9764
-1.8556 5.2980 -2.0074 0.9764
-2.3201 5.1109 -2.0072 0.9764
-3.9570 3.9751 -2.0058 0.9765
-4.8642 2.7847 -2.0044 0.9765
-5.0917 2.3395 -2.0038 0.9765
-5.5952 -0.0869 -2.0011 0.9765
-5.5637 -0.5851 -2.0006 0.9765
-5.3686 -1.5627 -1.9995 0.9765
-5.2066 -2.0345 -1.9990 0.9765
-5.0034 -2.4899 -1.9985 0.9765
-4.7604 -2.9252 -1.9981 0.9765
-4.1638 -3.7224 -1.9973 0.9766
-3.0235 -4.6803 -1.9926 0.9766
-2.5766 -4.8974 -1.9789 0.9768
-1.5526 -4.9173 -1.8440 0.9783
-1.1081 -5.0359 -1.8440 0.9783
0.2636 -5.1497 -1.8440 0.9783
0.4469 -3.1619 -1.1419 0.9865
0.9553 -2.8935 -1.0897 0.9871
1.4627 -2.6942 -1.0963 0.9871
1.7235 -2.5930 -1.1134 0.9869
2.3105 -2.4062 -1.1930 0.9859
3.3162 -2.4036 -1.4646 0.9828
5.0383 -2.4257 -1.9997 0.9765
5.2358 -1.9675 -2.0002 0.9765
5.3918 -1.4934 -2.0007 0.9765
5.5743 -0.5127 -2.0018 0.9765
5.5994 -0.0138 -2.0024 0.9765
5.5799 0.4854 -2.0029 0.9765
5.4079 1.4692 -2.0040 0.9765
4.5579 3.2694 -2.0059 0.9765
3.5325 4.3611 -2.0070 0.9764
2.7028 4.9202 -2.0075 0.9764
1.7866 5.3229 -2.0079 0.9764
1.3051 5.4612 -2.0080 0.9764
0.8132 5.5559 -2.0080 0.9764
-0.1861 5.6119 -2.0080 0.9764
-0.6855 5.5727 -2.0079 0.9764
-1.1794 5.4890 -2.0077 0.9764
-2.1347 5.1913 -2.0073 0.9764
-3.0216 4.7284 -2.0067 0.9764
-3.4304 4.4395 -2.0063 0.9764
-3.8117 4.1153 -2.0059 0.9765
-5.0048 2.5215 -2.0040 0.9765
-5.2082 2.0648 -2.0035 0.9765
-5.3701 1.5920 -2.0030 0.9765
-5.5644 0.6130 -2.0019 0.9765
-5.5953 0.1145 -2.0013 0.9765
-5.5237 -0.8802 -2.0003 0.9765
-5.4219 -1.3687 -1.9997 0.9765
-5.0902 -2.3084 -1.9987 0.9765
-4.8631 -2.7522 -1.9983 0.9765
-3.9593 -3.9383 -1.9971 0.9766
-3.5919 -4.2748 -1.9967 0.9766
-2.7663 -4.8279 -1.9898 0.9766
-1.7418 -4.8955 -1.8582 0.9782
-0.8385 -5.0876 -1.8439 0.9783
-0.3817 -5.1421 -1.8439 0.9783
0.4138 -3.9492 -1.4200 0.9833
1.1041 -2.8287 -1.0859 0.9872
1.3529 -2.7212 -1.0867 0.9872
1.6309 -2.6564 -1.1147 0.9868
1.8593 -2.4979 -1.1135 0.9869
3.6631 -2.3683 -1.5599 0.9816
5.3340 -1.6863 -2.0005 0.9765
5.5470 0.7818 -2.0033 0.9765
5.4567 1.2735 -2.0038 0.9765
4.6722 3.1030 -2.0057 0.9765
4.3779 3.5078 -2.0061 0.9765
3.6869 4.2309 -2.0069 0.9764
3.2956 4.5433 -2.0072 0.9764
1.9769 5.2550 -2.0078 0.9764
1.5008 5.4106 -2.0079 0.9764
1.0126 5.5230 -2.0080 0.9764
0.5164 5.5913 -2.0080 0.9764
-0.4845 5.5939 -2.0079 0.9764
-0.9811 5.5281 -2.0078 0.9764
-2.8497 4.8344 -2.0068 0.9764
-4.0248 3.9061 -2.0057 0.9765
-4.6522 3.1280 -2.0048 0.9765
-4.9113 2.7002 -2.0043 0.9765
-5.5882 0.3159 -2.0016 0.9765
-5.5926 -0.1834 -2.0010 0.9765
-5.5524 -0.6809 -2.0005 0.9765
-5.3405 -1.6551 -1.9994 0.9765
-5.1705 -2.1239 -1.9989 0.9765
-4.9594 -2.5757 -1.9984 0.9765
-4.7091 -3.0068 -1.9980 0.9765
-4.4214 -3.4138 -1.9976 0.9765
-4.0988 -3.7936 -1.9972 0.9766
-3.3590 -4.4596 -1.9965 0.9766
-2.9410 -4.7296 -1.9917 0.9766
-2.4697 -4.8975 -1.9615 0.9770
-1.4675 -4.9433 -1.8440 0.9783
1.5163 -2.6815 -1.1016 0.9870
2.8597 -2.4047 -1.3362 0.9843
4.1202 -2.3629 -1.6985 0.9800
1.8778 -2.4265 -1.1758 0.9869
2.2278 -2.4016 -1.2553 0.9861
2.6669 -2.4044 -1.3760 0.9847
3.8403 -2.3821 -1.7318 0.9808
4.6619 -2.3444 -1.9997 0.9779
5.0066 -1.4802 -2.0007 0.9779
5.1925 -0.5681 -2.0017 0.9779
4.7626 2.1641 -2.0047 0.9778
4.0229 3.3490 -2.0059 0.9778
3.3654 4.0113 -2.0066 0.9778
2.9949 4.2959 -2.0069 0.9778
0.8480 5.1697 -2.0076 0.9778
0.3839 5.2247 -2.0076 0.9778
-0.0833 5.2380 -2.0076 0.9778
-0.5498 5.2095 -2.0075 0.9778
-1.0118 5.1395 -2.0074 0.9778
-2.7428 4.4598 -2.0064 0.9778
-3.4898 3.9007 -2.0057 0.9778
-3.8228 3.5734 -2.0053 0.9778
-4.6289 2.4331 -2.0040 0.9778
-4.8261 2.0104 -2.0035 0.9779
-5.1821 0.6615 -2.0020 0.9779
-5.2191 0.1970 -2.0015 0.9779
-5.0814 -1.1899 -2.0000 0.9779
-4.3414 -2.8879 -1.9982 0.9779
-3.7583 -3.6115 -1.9974 0.9779
-3.4209 -3.9315 -1.9971 0.9779
-2.6673 -4.4743 -1.9962 0.9779
-2.2534 -4.6849 -1.9922 0.9780
-1.8238 -4.8590 -1.9889 0.9780
-1.3468 -4.8696 -1.9362 0.9786
0.3218 -3.6830 -1.4168 0.9843
0.5186 -2.9093 -1.1325 0.9874
0.7542 -2.7721 -1.1009 0.9878
1.0086 -2.7218 -1.1124 0.9876
1.4740 -2.4963 -1.1110 0.9877
1.7521 -2.4407 -1.1514 0.9872
2.9744 -2.4075 -1.4664 0.9837
3.5990 -2.4159 -1.6611 0.9816
4.5741 -2.5104 -1.9995 0.9779
4.9496 -1.6592 -2.0005 0.9779
5.2162 -0.2909 -2.0020 0.9779
5.2227 0.1752 -2.0026 0.9779
5.1112 1.1002 -2.0036 0.9779
4.1405 3.2018 -2.0058 0.9778
3.1474 4.1851 -2.0067 0.9778
2.7623 4.4495 -2.0070 0.9778
2.3549 4.6785 -2.0072 0.9778
1.9287 4.8702 -2.0074 0.9778
1.4871 5.0230 -2.0075 0.9778
0.1053 5.2377 -2.0076 0.9778
-2.9760 4.3071 -2.0062 0.9778
-4.2901 2.9932 -2.0046 0.9778
-4.5387 2.5984 -2.0042 0.9778
-4.9256 1.7504 -2.0032 0.9779
-5.1555 0.8477 -2.0022 0.9779
-5.2092 0.3847 -2.0017 0.9779
-5.0102 -1.4584 -1.9997 0.9779
-4.4429 -2.7301 -1.9983 0.9779
-4.1810 -3.1146 -1.9979 0.9779
-3.8861 -3.4742 -1.9976 0.9779
-3.2065 -4.1076 -1.9969 0.9779
-1.9988 -4.7932 -1.9902 0.9780
-0.1848 -4.8500 -1.8600 0.9794
0.4203 -2.9740 -1.1510 0.9872
1.3860 -2.5529 -1.1132 0.9876
1.6334 -2.4574 -1.1308 0.9874
4.7019 -2.2637 -1.9998 0.9779
5.1371 -0.9399 -2.0013 0.9779
5.2018 -0.4784 -2.0018 0.9779
5.2068 0.4530 -2.0029 0.9779
5.1470 0.9154 -2.0034 0.9779
5.0461 1.3709 -2.0039 0.9778
4.7247 2.2460 -2.0048 0.9778
4.2527 3.0505 -2.0056 0.9778
3.6448 3.7584 -2.0063 0.9778
3.2958 4.0689 -2.0066 0.9778
2.9204 4.3470 -2.0069 0.9778
2.5217 4.5906 -2.0071 0.9778
1.6669 4.9661 -2.0074 0.9778
0.7587 5.1835 -2.0076 0.9778
0.2937 5.2305 -2.0076 0.9778
-3.2007 4.1422 -2.0060 0.9778
-3.8837 3.5068 -2.0053 0.9778
-4.4427 2.7603 -2.0044 0.9778
-4.6699 2.3528 -2.0039 0.9778
-5.1925 0.5720 -2.0019 0.9779
-5.2089 -0.3588 -2.0009 0.9779
-5.0599 -1.2773 -1.9999 0.9779
-4.2907 -2.9623 -1.9981 0.9779
-4.0089 -3.3323 -1.9977 0.9779
-3.6953 -3.6757 -1.9974 0.9779
-3.3525 -3.9898 -1.9971 0.9779
-2.5886 -4.5178 -1.9954 0.9779
-2.1715 -4.7214 -1.9915 0.9780
-1.7336 -4.8724 -1.9819 0.9781
0.0734 -4.8432 -1.8562 0.9795
0.5650 -2.8809 -1.1250 0.9875
1.0586 -2.7121 -1.1157 0.9876
2.1442 -2.4003 -1.2334 0.9863
3.0906 -2.4144 -1.5029 0.9833
3.6586 -2.3655 -1.6696 0.9815
4.9777 -1.5737 -2.0006 0.9779
5.0994 -1.1241 -2.0011 0.9779
5.2207 -0.2009 -2.0021 0.9779
5.0917 1.1883 -2.0037 0.9779
4.8021 2.0744 -2.0046 0.9778
4.5991 2.4947 -2.0050 0.9778
3.7775 3.6246 -2.0062 0.9778
3.0748 4.2389 -2.0068 0.9778
2.6851 4.4966 -2.0070 0.9778
2.2739 4.7185 -2.0072 0.9778
1.4002 5.0480 -2.0075 0.9778
0.9448 5.1528 -2.0076 0.9778
0.0149 5.2387 -2.0076 0.9778
-0.4521 5.2190 -2.0075 0.9778
-0.9154 5.1576 -2.0074 0.9778
-1.3713 5.0551 -2.0072 0.9778
-1.8162 4.9123 -2.0070 0.9778
-2.2465 4.7303 -2.0068 0.9778
-4.0644 3.2947 -2.0050 0.9778
-4.3409 2.9187 -2.0046 0.9778
-4.5827 2.5196 -2.0041 0.9778
-4.7878 2.1006 -2.0036 0.9779
-4.9548 1.6651 -2.0031 0.9779
-5.0822 1.2166 -2.0026 0.9779
-5.1691 0.7586 -2.0021 0.9779
-5.2148 0.2948 -2.0016 0.9779
-5.2189 -0.1711 -2.0011 0.9779
-5.1816 -0.6355 -2.0006 0.9779
-5.1031 -1.0945 -2.0001 0.9779
-3.8254 -3.5406 -1.9975 0.9779
-2.7513 -4.4246 -1.9966 0.9779
-2.3417 -4.6436 -1.9930 0.9780
-1.9152 -4.8255 -1.9895 0.9780
-1.4459 -4.8705 -1.9470 0.9785
-0.9829 -4.8654 -1.9022 0.9790
-0.5369 -4.8578 -1.8729 0.9793
0.4673 -2.9395 -1.1406 0.9873
0.7037 -2.7919 -1.1034 0.9877
0.9548 -2.7327 -1.1093 0.9877
2.0034 -2.4120 -1.2016 0.9867
3.4399 -2.4039 -1.6082 0.9822
4.1047 -2.3539 -1.8133 0.9799
3.2514 -2.4434 -1.6646 0.9826
3.8299 -2.3756 -1.8445 0.9807
4.3654 -2.1953 -1.9999 0.9791
4.7940 -0.9629 -2.0013 0.9791
4.8912 -0.0965 -2.0022 0.9791
4.8329 0.7738 -2.0032 0.9791
4.2615 2.4160 -2.0049 0.9791
4.0300 2.7867 -2.0053 0.9790
3.1507 3.7554 -2.0063 0.9790
2.8038 4.0218 -2.0065 0.9790
2.0456 4.4565 -2.0069 0.9790
1.6404 4.6215 -2.0071 0.9790
0.7939 4.8396 -2.0072 0.9790
-0.0780 4.9036 -2.0072 0.9790
-0.9473 4.8114 -2.0070 0.9790
-1.3722 4.7075 -2.0068 0.9790
-2.1857 4.3881 -2.0064 0.9790
-2.9292 3.9292 -2.0058 0.9790
-3.5790 3.3455 -2.0051 0.9790
-3.8622 3.0126 -2.0047 0.9791
-4.1145 2.6558 -2.0043 0.9791
-4.5186 1.8823 -2.0034 0.9791
-4.6673 1.4717 -2.0029 0.9791
-4.7788 1.0496 -2.0025 0.9791
-1.9519 0.2492 -0.8054 0.9915
-1.9419 -0.1001 -0.7958 0.9916
-4.7582 -1.1142 -2.0001 0.9791
-3.8075 -3.0554 -1.9980 0.9791
-3.5195 -3.3821 -1.9977 0.9791
-3.2036 -3.6817 -1.9974 0.9791
-2.8623 -3.9521 -1.9972 0.9791
-2.1147 -4.3966 -1.9967 0.9791
-1.7123 -4.5618 -1.9942 0.9792
-0.8733 -4.7830 -1.9899 0.9792
-0.4428 -4.8341 -1.9868 0.9792
-0.0101 -4.8239 -1.9743 0.9794
0.4949 -2.7767 -1.1544 0.9879
0.9526 -2.5706 -1.1220 0.9882
3.6156 -2.4271 -1.7823 0.9814
4.2832 -2.3508 -1.9997 0.9791
4.4767 -1.9601 -2.0001 0.9791
4.7558 -1.1347 -2.0011 0.9791
4.8392 -0.7065 -2.0015 0.9791
4.8571 0.5993 -2.0030 0.9791
4.7855 1.0301 -2.0034 0.9791
4.5286 1.8642 -2.0043 0.9791
4.3453 2.2609 -2.0048 0.9791
3.8764 2.9976 -2.0055 0.9790
2.9466 3.9181 -2.0064 0.9790
2.5860 4.1656 -2.0067 0.9790
2.2046 4.3799 -2.0069 0.9790
1.8056 4.5593 -2.0070 0.9790
0.9675 4.8079 -2.0072 0.9790
0.5352 4.8751 -2.0072 0.9790
0.0985 4.9033 -2.0072 0.9790
-0.7735 4.8425 -2.0071 0.9790
-1.2020 4.7540 -2.0069 0.9790
-1.6207 4.6275 -2.0067 0.9790
-2.0265 4.4641 -2.0065 0.9790
-2.4160 4.2652 -2.0062 0.9790
-3.4566 3.4724 -2.0053 0.9790
-4.2494 2.4328 -2.0040 0.9791
-1.9135 -0.0297 -0.7832 0.9918
-1.9573 -0.2058 -0.8055 0.9915
-4.7956 -0.9423 -2.0003 0.9791
-4.6915 -1.3657 -1.9998 0.9791
-4.5501 -1.7780 -1.9994 0.9791
-4.3726 -2.1760 -1.9989 0.9791
-4.1605 -2.5565 -1.9986 0.9791
-3.9153 -2.9166 -1.9982 0.9791
-3.3342 -3.5643 -1.9975 0.9791
-2.6477 -4.0986 -1.9970 0.9791
-2.2717 -4.3178 -1.9968 0.9791
-1.8765 -4.4999 -1.9954 0.9791
-1.4659 -4.6428 -1.9927 0.9792
-0.6172 -4.8208 -1.9891 0.9792
-0.1840 -4.8283 -1.9775 0.9793
0.2466 -4.8165 -1.9739 0.9794
0.3987 -2.8209 -1.1660 0.9878
0.6334 -2.7095 -1.1388 0.9880
0.8627 -2.6129 -1.1262 0.9882
1.3347 -2.4584 -1.1449 0.9880
1.6145 -2.4289 -1.1937 0.9875
2.7766 -2.4178 -1.5069 0.9842
3.3546 -2.4314 -1.6957 0.9823
3.9600 -2.3627 -1.8873 0.9803
4.4028 -2.1197 -1.9999 0.9791
4.5753 -1.7193 -2.0004 0.9791
4.7114 -1.3050 -2.0009 0.9791
4.8101 -0.8801 -2.0014 0.9791
4.8923 -0.0121 -2.0023 0.9791
4.8751 0.4241 -2.0028 0.9791
4.8190 0.8571 -2.0033 0.9791
4.7245 1.2835 -2.0037 0.9791
4.5924 1.6999 -2.0042 0.9791
3.7117 3.2000 -2.0057 0.9790
2.7341 4.0696 -2.0066 0.9790
1.5604 4.6491 -2.0071 0.9790
1.1399 4.7699 -2.0072 0.9790
-0.1626 4.9015 -2.0072 0.9790
-1.0301 4.7943 -2.0070 0.9790
-1.4532 4.6830 -2.0068 0.9790
-1.8646 4.5344 -2.0066 0.9790
-2.6394 4.1302 -2.0061 0.9790
-3.3296 3.5948 -2.0054 0.9790
-3.9134 2.9454 -2.0046 0.9791
-4.1595 2.5843 -2.0042 0.9791
-4.5502 1.8040 -2.0033 0.9791
-4.6918 1.3909 -2.0028 0.9791
-1.9513 -0.1344 -0.8005 0.9916
-4.7380 -1.1960 -2.0000 0.9791
-4.6115 -1.6132 -1.9995 0.9791
-4.4485 -2.0174 -1.9991 0.9791
-4.0180 -2.7740 -1.9983 0.9791
-3.4605 -3.4422 -1.9977 0.9791
-2.7936 -4.0008 -1.9971 0.9791
-2.0385 -4.4323 -1.9967 0.9791
-1.6329 -4.5894 -1.9937 0.9792
-1.2159 -4.7111 -1.9913 0.9792
-0.3587 -4.8324 -1.9832 0.9793
0.0731 -4.8216 -1.9736 0.9794
0.5426 -2.7668 -1.1539 0.9879
0.7711 -2.6526 -1.1306 0.9881
1.2294 -2.4727 -1.1302 0.9881
1.4989 -2.4412 -1.1724 0.9877
1.7948 -2.4112 -1.2302 0.9871
2.5696 -2.4055 -1.4406 0.9849
3.1251 -2.4414 -1.6231 0.9830
3.6631 -2.3683 -1.7853 0.9813
4.3233 -2.2766 -1.9998 0.9791
4.5100 -1.8827 -2.0002 0.9791
4.6610 -1.4735 -2.0007 0.9791
4.8867 0.2484 -2.0026 0.9791
4.3058 2.3356 -2.0048 0.9791
3.8242 3.0641 -2.0056 0.9790
3.5365 3.3933 -2.0059 0.9790
3.2204 3.6956 -2.0062 0.9790
2.8786 3.9684 -2.0065 0.9790
2.5138 4.2097 -2.0067 0.9790
2.1288 4.4174 -2.0069 0.9790
1.3108 4.7257 -2.0071 0.9790
0.8845 4.8239 -2.0072 0.9790
0.4510 4.8836 -2.0072 0.9790
0.0139 4.9043 -2.0072 0.9790
-0.4232 4.8858 -2.0071 0.9790
-0.8569 4.8284 -2.0070 0.9790
-2.1032 4.4284 -2.0065 0.9790
-3.1983 3.7126 -2.0056 0.9790
-3.8052 3.0846 -2.0048 0.9791
-4.0642 2.7326 -2.0044 0.9791
-4.2906 2.3590 -2.0039 0.9791
-4.4828 1.9667 -2.0035 0.9791
-1.9536 -0.2396 -0.8055 0.9915
-4.7784 -1.0249 -2.0002 0.9791
-4.3343 -2.2510 -1.9989 0.9791
-3.8643 -2.9836 -1.9981 0.9791
-3.2721 -3.6212 -1.9975 0.9791
-2.9359 -3.8979 -1.9972 0.9791
-2.5766 -4.1435 -1.9970 0.9791
-2.1968 -4.3563 -1.9968 0.9791
-1.7980 -4.5303 -1.9948 0.9792
-1.3853 -4.6664 -1.9922 0.9792
-0.9629 -4.7665 -1.9902 0.9792
-0.5339 -4.8302 -1.9889 0.9792
-0.1006 -4.8263 -1.9757 0.9794
0.6784 -2.6915 -1.1360 0.9881
0.9058 -2.5925 -1.1240 0.9882
1.1289 -2.4918 -1.1196 0.9882
1.3866 -2.4521 -1.1529 0.9879
2.0012 -2.4093 -1.2819 0.9866
2.3907 -2.4052 -1.3880 0.9854
2.8833 -2.4245 -1.5418 0.9838
3.4771 -2.4299 -1.7361 0.9818
3.2005 -2.4051 -1.7448 0.9827
4.2682 -1.6885 -2.0004 0.9802
4.4565 1.1285 -2.0035 0.9801
4.3391 1.5215 -2.0039 0.9801
3.7841 2.6167 -2.0051 0.9801
2.6327 3.7763 -2.0062 0.9801
2.2859 3.9963 -2.0064 0.9801
1.5403 4.3393 -2.0067 0.9801
1.1474 4.4595 -2.0068 0.9801
0.7454 4.5441 -2.0069 0.9801
-0.0732 4.6043 -2.0069 0.9801
-0.4833 4.5792 -2.0068 0.9801
-0.8894 4.5177 -2.0067 0.9801
-3.0679 3.4291 -2.0053 0.9801
-3.3607 3.1414 -2.0049 0.9801
-3.8636 2.4939 -2.0041 0.9801
-1.5808 0.4985 -0.7224 0.9928
-1.5231 0.3345 -0.6796 0.9932
-1.5158 -0.2148 -0.6672 0.9933
-1.5867 -0.5245 -0.7283 0.9927
-3.5761 -2.8697 -1.9983 0.9802
-3.0089 -3.4580 -1.9977 0.9802
-2.6884 -3.7119 -1.9974 0.9802
-2.3466 -3.9364 -1.9972 0.9802
-0.0096 -4.5738 -1.9933 0.9802
0.4650 -2.6088 -1.1549 0.9885
0.6822 -2.5076 -1.1326 0.9887
1.1653 -2.4489 -1.1819 0.9882
2.0770 -2.4074 -1.3857 0.9862
4.3526 -1.4591 -2.0007 0.9802
4.5445 -0.6634 -2.0016 0.9802
4.5612 0.5628 -2.0029 0.9801
3.8756 2.4787 -2.0049 0.9801
3.6399 2.8147 -2.0053 0.9801
3.3751 3.1284 -2.0056 0.9801
2.0700 4.1125 -2.0066 0.9801
1.6954 4.2810 -2.0067 0.9801
0.5025 4.5774 -2.0069 0.9801
-1.1286 4.4638 -2.0066 0.9801
-1.9028 4.1917 -2.0062 0.9801
-2.2685 4.0049 -2.0060 0.9801
-2.6161 3.7863 -2.0057 0.9801
-3.2457 3.2606 -2.0050 0.9801
-3.5228 2.9578 -2.0047 0.9801
-3.9904 2.2845 -2.0039 0.9801
-1.5944 0.5666 -0.7375 0.9926
-1.5500 0.3994 -0.6976 0.9930
-1.5073 0.2478 -0.6657 0.9934
-1.5292 0.1129 -0.6683 0.9933
-1.5255 -0.0237 -0.6649 0.9934
-1.5694 -0.4568 -0.7123 0.9929
-4.2733 -1.6698 -1.9995 0.9802
-4.1067 -2.0436 -1.9991 0.9802
-3.6773 -2.7393 -1.9984 0.9802
-3.4179 -3.0557 -1.9981 0.9802
-3.1315 -3.3476 -1.9978 0.9802
-2.8203 -3.6130 -1.9975 0.9802
-1.7636 -4.2292 -1.9970 0.9802
-1.3795 -4.3693 -1.9969 0.9802
-0.1742 -4.5708 -1.9935 0.9802
0.5933 -2.5380 -1.1359 0.9887
1.0631 -2.4586 -1.1674 0.9884
1.6046 -2.4141 -1.2633 0.9874
1.9330 -2.4106 -1.3466 0.9866
2.3156 -2.4114 -1.4570 0.9855
2.8135 -2.4499 -1.6259 0.9839
3.3325 -2.4154 -1.7937 0.9822
3.9402 -2.3509 -1.9996 0.9802
4.1349 -1.9908 -2.0001 0.9802
4.4246 -1.2255 -2.0009 0.9802
4.5173 -0.8265 -2.0014 0.9802
4.5740 -0.4207 -2.0018 0.9802
4.5943 -0.0113 -2.0023 0.9802
4.3124 1.5962 -2.0040 0.9801
3.9620 2.3374 -2.0048 0.9801
3.2040 3.3039 -2.0058 0.9801
2.5672 3.8212 -2.0063 0.9801
2.2166 4.0352 -2.0065 0.9801
0.6669 4.5563 -2.0069 0.9801
0.2582 4.5977 -2.0069 0.9801
-0.5622 4.5702 -2.0068 0.9801
-0.9672 4.5016 -2.0067 0.9801
-1.7508 4.2576 -2.0063 0.9801
-2.4783 3.8782 -2.0058 0.9801
-3.1265 3.3755 -2.0052 0.9801
-3.9059 2.4268 -2.0041 0.9801
-4.1058 2.0686 -2.0036 0.9801
-4.2729 1.6940 -2.0032 0.9801
-1.5721 0.4661 -0.7146 0.9929
-1.5084 0.3041 -0.6706 0.9933
-1.5244 0.1679 -0.6684 0.9933
-1.5264 0.0312 -0.6654 0.9934
-1.5294 -0.1054 -0.6681 0.9933
-1.5467 -0.3904 -0.6952 0.9931
-1.5929 -0.5572 -0.7355 0.9927
-4.1779 -1.8947 -1.9993 0.9802
-3.9916 -2.2591 -1.9989 0.9802
-3.7737 -2.6054 -1.9985 0.9802
-2.9487 -3.5093 -1.9976 0.9802
-2.6239 -3.7577 -1.9974 0.9802
-1.9147 -4.1631 -1.9970 0.9802
-1.5359 -4.3169 -1.9969 0.9802
-0.7442 -4.5159 -1.9947 0.9802
0.0693 -4.5732 -1.9933 0.9802
0.3396 -3.2414 -1.4204 0.9859
0.7265 -2.4992 -1.1343 0.9887
0.9637 -2.4689 -1.1551 0.9885
1.4868 -2.4216 -1.2384 0.9877
2.5937 -2.4280 -1.5484 0.9846
4.0603 -2.1381 -1.9999 0.9802
4.4842 -0.9884 -2.0012 0.9802
4.5890 0.2332 -2.0026 0.9802
4.0432 2.1931 -2.0046 0.9801
3.3207 3.1863 -2.0057 0.9801
3.0239 3.4700 -2.0059 0.9801
2.7029 3.7262 -2.0062 0.9801
2.3603 3.9527 -2.0064 0.9801
1.9988 4.1477 -2.0066 0.9801
1.2308 4.4372 -2.0068 0.9801
0.8305 4.5294 -2.0069 0.9801
0.4235 4.5854 -2.0069 0.9801
0.0131 4.6048 -2.0069 0.9801
-0.3974 4.5875 -2.0068 0.9801
-1.5965 4.3181 -2.0064 0.9801
-2.3372 3.9651 -2.0059 0.9801
-3.0032 3.4861 -2.0053 0.9801
-3.3014 3.2040 -2.0050 0.9801
-3.5732 2.8965 -2.0046 0.9801
-4.2095 1.8469 -2.0034 0.9801
-1.5141 0.2222 -0.6669 0.9933
-1.5296 0.0865 -0.6677 0.9933
-1.5281 -0.0501 -0.6663 0.9934
-1.5784 -0.4892 -0.7202 0.9928
-4.2437 -1.7432 -1.9994 0.9802
-3.3646 -3.1141 -1.9980 0.9802
-3.0732 -3.4011 -1.9977 0.9802
-2.7575 -3.6610 -1.9975 0.9802
-2.0633 -4.0916 -1.9971 0.9802
-1.6903 -4.2589 -1.9969 0.9802
-0.9065 -4.4875 -1.9952 0.9802
-0.5027 -4.5476 -1.9940 0.9802
-0.0953 -4.5729 -1.9934 0.9802
0.4231 -2.6616 -1.1745 0.9883
0.6353 -2.5207 -1.1329 0.9887
1.3735 -2.4289 -1.2161 0.9879
2.4016 -2.4162 -1.4847 0.9852
2.9169 -2.4528 -1.6609 0.9835
3.9804 -2.2826 -1.9997 0.9802
1.5469 -2.4167 -1.3282 0.9874
1.8636 -2.4081 -1.4095 0.9867
2.2521 -2.4279 -1.5329 0.9855
3.6712 -2.2772 -1.9997 0.9811
4.1453 -1.2256 -2.0009 0.9811
4.2989 -0.4703 -2.0017 0.9811
4.3246 -0.0853 -2.0022 0.9811
4.2728 0.6841 -2.0030 0.9811
4.0851 1.4325 -2.0038 0.9811
3.9419 1.7912 -2.0042 0.9811
3.7673 2.1358 -2.0046 0.9811
3.5625 2.4635 -2.0049 0.9811
2.7851 3.3196 -2.0058 0.9811
2.4784 3.5550 -2.0060 0.9811
2.1519 3.7621 -2.0062 0.9811
1.8082 3.9392 -2.0063 0.9811
1.4500 4.0850 -2.0065 0.9811
0.7017 4.2778 -2.0066 0.9811
0.3177 4.3233 -2.0066 0.9811
-0.0689 4.3344 -2.0066 0.9811
-0.4549 4.3108 -2.0065 0.9811
-1.9321 3.8789 -2.0059 0.9811
-2.5894 3.4733 -2.0054 0.9811
-2.8882 3.2282 -2.0051 0.9811
-3.4143 2.6632 -2.0044 0.9811
-3.6374 2.3479 -2.0040 0.9811
-3.8315 2.0140 -2.0036 0.9811
-1.3292 0.4191 -0.6451 0.9939
-1.3003 0.2856 -0.6163 0.9941
-1.3220 -0.5722 -0.6668 0.9937
-3.5953 -2.3917 -1.9988 0.9811
0.2660 -3.0450 -1.4149 0.9866
0.4460 -2.5021 -1.1764 0.9889
0.6718 -2.4692 -1.1845 0.9888
0.9078 -2.4498 -1.2093 0.9886
1.1563 -2.4300 -1.2456 0.9882
1.4310 -2.4235 -1.3027 0.9877
1.7315 -2.4119 -1.3743 0.9870
3.5866 -2.4076 -1.9995 0.9811
4.2788 -0.6247 -2.0016 0.9811
4.3183 -0.2409 -2.0020 0.9811
4.0035 1.6480 -2.0040 0.9811
3.6486 2.3335 -2.0048 0.9811
3.1773 2.9451 -2.0054 0.9811
2.9026 3.2170 -2.0057 0.9811
1.9487 3.8715 -2.0063 0.9811
1.5960 4.0301 -2.0064 0.9811
0.4730 4.3091 -2.0066 0.9811
0.0871 4.3341 -2.0066 0.9811
-0.2995 4.3245 -2.0065 0.9811
-1.0624 4.2021 -2.0063 0.9811
-1.4326 4.0904 -2.0062 0.9811
-1.7913 3.9461 -2.0060 0.9811
-2.1356 3.7703 -2.0057 0.9811
-2.4628 3.5645 -2.0055 0.9811
-3.5508 2.4775 -2.0042 0.9811
-3.7568 2.1507 -2.0038 0.9811
-1.3335 0.4739 -0.6551 0.9938
-1.3213 0.2173 -0.6198 0.9941
-1.3356 -0.0207 -0.6183 0.9941
-1.3355 -0.1404 -0.6216 0.9941
-1.3304 -0.5198 -0.6612 0.9937
-3.6793 -2.2609 -1.9989 0.9811
-2.9488 -3.1522 -1.9980 0.9812
-2.6558 -3.4021 -1.9978 0.9812
-2.3417 -3.6249 -1.9976 0.9812
-0.5479 -4.2794 -1.9970 0.9812
0.2206 -4.3088 -1.9971 0.9812
0.3940 -2.7880 -1.3034 0.9877
0.5790 -2.4768 -1.1774 0.9889
0.8117 -2.4585 -1.1984 0.9887
1.3167 -2.4253 -1.2774 0.9879
1.6052 -2.4149 -1.3422 0.9873
1.9316 -2.4090 -1.4293 0.9865
2.3384 -2.4352 -1.5628 0.9852
2.8183 -2.4541 -1.7298 0.9837
3.8933 -1.8744 -2.0002 0.9811
4.0457 -1.5203 -2.0006 0.9811
4.1660 -1.1539 -2.0010 0.9811
4.3065 -0.3961 -2.0018 0.9811
4.3102 0.3750 -2.0027 0.9811
4.2605 0.7578 -2.0031 0.9811
4.0599 1.5028 -2.0039 0.9811
3.9106 1.8590 -2.0043 0.9811
3.2811 2.8287 -2.0053 0.9811
2.7275 3.3672 -2.0058 0.9811
1.7400 3.9699 -2.0064 0.9811
1.3793 4.1094 -2.0065 0.9811
1.0076 4.2162 -2.0066 0.9811
0.6278 4.2893 -2.0066 0.9811
0.2430 4.3282 -2.0066 0.9811
-0.1437 4.3325 -2.0066 0.9811
-0.5292 4.3023 -2.0065 0.9811
-0.9105 4.2378 -2.0064 0.9811
-1.6482 4.0081 -2.0060 0.9811
-2.3331 3.6510 -2.0056 0.9811
-2.9434 3.1778 -2.0050 0.9811
-3.2144 2.9024 -2.0047 0.9811
-3.6773 2.2847 -2.0039 0.9811
-3.8655 1.9475 -2.0035 0.9811
-1.3248 0.3928 -0.6396 0.9939
-1.3080 0.2637 -0.6176 0.9941
-1.3362 0.0274 -0.6186 0.9941
-1.3385 -0.0922 -0.6210 0.9941
-1.3336 -0.4665 -0.6540 0.9938
-1.3161 -0.5968 -0.6689 0.9937
-3.5534 -2.4533 -1.9987 0.9811
-2.4707 -3.5384 -1.9977 0.9812
-2.1453 -3.7442 -1.9975 0.9812
-1.4463 -4.0650 -1.9972 0.9812
-1.0782 -4.1776 -1.9971 0.9812
-0.3194 -4.3025 -1.9970 0.9812
0.7168 -2.4659 -1.1887 0.9887
1.2070 -2.4278 -1.2550 0.9881
1.4863 -2.4207 -1.3149 0.9876
2.1637 -2.4221 -1.5033 0.9858
2.6294 -2.4615 -1.6672 0.9842
3.4036 -2.6590 -1.9992 0.9811
3.6277 -2.3455 -1.9996 0.9811
3.8231 -2.0132 -2.0000 0.9811
4.2147 0.9836 -2.0033 0.9811
3.9746 1.7169 -2.0041 0.9811
3.6079 2.3962 -2.0048 0.9811
3.3806 2.7086 -2.0051 0.9811
2.8467 3.2667 -2.0057 0.9811
2.5445 3.5079 -2.0059 0.9811
1.5263 4.0570 -2.0064 0.9811
0.7818 4.2639 -2.0066 0.9811
0.3986 4.3166 -2.0066 0.9811
0.0123 4.3349 -2.0066 0.9811
-1.1348 4.1831 -2.0063 0.9811
-2.2003 3.7328 -2.0057 0.9811
-2.5239 3.5213 -2.0054 0.9811
-3.3639 2.7269 -2.0044 0.9811
-3.5929 2.4158 -2.0041 0.9811
-1.3265 0.1947 -0.6206 0.9941
-1.3385 0.0757 -0.6206 0.9941
-1.3322 -0.1634 -0.6213 0.9941
-1.3281 -0.4116 -0.6436 0.9939
-1.3270 -0.5451 -0.6640 0.9937
-3.8329 -1.9906 -1.9992 0.9811
-3.6396 -2.3239 -1.9989 0.9811
-3.4175 -2.6386 -1.9985 0.9811
-3.1682 -2.9323 -1.9982 0.9812
-2.8939 -3.2026 -1.9980 0.9812
-1.9429 -3.8529 -1.9974 0.9812
-1.5917 -4.0104 -1.9972 0.9812
-0.8543 -4.2290 -1.9971 0.9812
-0.4740 -4.2882 -1.9970 0.9812
0.2949 -4.3044 -1.9971 0.9812
0.4198 -2.6408 -1.2377 0.9883
0.6233 -2.4731 -1.1805 0.9888
0.8577 -2.4547 -1.2036 0.9886
1.1026 -2.4338 -1.2368 0.9883
2.8785 -2.4205 -1.7409 0.9836
3.5407 -2.4743 -1.9995 0.9811
3.7478 -2.1493 -1.9998 0.9811
3.2586 -2.4488 -1.9995 0.9820
3.9118 -1.1565 -2.0010 0.9820
4.0001 -0.8034 -2.0013 0.9820
4.0566 -0.4438 -2.0018 0.9820
3.9591 1.0026 -2.0033 0.9820
3.5547 2.0153 -2.0044 0.9820
3.3615 2.3245 -2.0047 0.9820
3.1414 2.6152 -2.0050 0.9820
2.8962 2.8852 -2.0053 0.9820
2.3385 3.3543 -2.0057 0.9819
2.0304 3.5497 -2.0059 0.9819
1.7061 3.7168 -2.0061 0.9819
1.3681 3.8543 -2.0062 0.9819
1.0192 3.9610 -2.0063 0.9819
0.6621 4.0362 -2.0063 0.9819
0.2997 4.0792 -2.0063 0.9819
-0.4293 4.0674 -2.0062 0.9819
-0.7900 4.0128 -2.0061 0.9819
-1.4897 3.8082 -2.0058 0.9819
-1.8230 3.6599 -2.0056 0.9819
-2.1417 3.4824 -2.0054 0.9820
-2.4432 3.2773 -2.0052 0.9820
-2.7252 3.0461 -2.0049 0.9820
-2.9854 2.7906 -2.0046 0.9820
-3.2217 2.5130 -2.0042 0.9820
-1.1203 0.5889 -0.6208 0.9944
-1.1893 0.1518 -0.5881 0.9947
-1.1962 -0.0617 -0.5876 0.9947
-1.1645 -0.2727 -0.5867 0.9947
-1.1450 -0.4956 -0.6120 0.9945
-2.9375 -2.8228 -1.9984 0.9820
-0.7313 -4.0056 -1.9973 0.9820
-0.0085 -4.0718 -1.9973 0.9820
0.2536 -2.9025 -1.4292 0.9871
0.4429 -2.4847 -1.2380 0.9888
1.7368 -2.4194 -1.4609 0.9868
2.1179 -2.4548 -1.5904 0.9857
2.5422 -2.4636 -1.7365 0.9844
3.1682 -2.5643 -1.9993 0.9820
3.3847 -2.2721 -1.9997 0.9820
3.8674 -1.2965 -2.0008 0.9820
3.9683 -0.9468 -2.0012 0.9820
4.0377 -0.5895 -2.0016 0.9820
4.0750 -0.2273 -2.0020 0.9820
4.0799 0.1368 -2.0024 0.9820
4.0522 0.5000 -2.0028 0.9820
3.7777 1.5551 -2.0039 0.9820
3.6247 1.8859 -2.0043 0.9820
3.4428 2.2018 -2.0046 0.9820
2.9980 2.7789 -2.0052 0.9820
2.4576 3.2678 -2.0057 0.9819
2.1568 3.4742 -2.0059 0.9819
1.1610 3.9218 -2.0062 0.9819
0.8069 4.0097 -2.0063 0.9819
-0.2826 4.0803 -2.0063 0.9819
-1.0024 3.9649 -2.0061 0.9819
-1.3517 3.8595 -2.0059 0.9819
-2.0151 3.5574 -2.0055 0.9819
-2.6140 3.1423 -2.0050 0.9820
-2.8832 2.8964 -2.0047 0.9820
-3.1294 2.6275 -2.0044 0.9820
-3.3505 2.3377 -2.0040 0.9820
-1.1394 0.5235 -0.6151 0.9944
-1.1562 0.4109 -0.6019 0.9945
-1.1924 -0.1254 -0.5881 0.9947
-1.1752 -0.2309 -0.5875 0.9947
-1.1590 -0.3374 -0.5921 0.9946
-3.2678 -2.4343 -1.9988 0.9820
-3.0374 -2.7154 -1.9985 0.9820
-2.5064 -3.2108 -1.9980 0.9820
-1.8962 -3.6041 -1.9976 0.9820
-1.2260 -3.8830 -1.9974 0.9820
-0.8750 -3.9767 -1.9973 0.9820
-0.1551 -4.0689 -1.9973 0.9820
0.2082 -4.0666 -1.9974 0.9820
0.3990 -2.8235 -1.3987 0.9874
1.0461 -2.4192 -1.2929 0.9883
1.6055 -2.4155 -1.4227 0.9872
1.9472 -2.4283 -1.5268 0.9862
2.3719 -2.4701 -1.6798 0.9849
3.3005 -2.3923 -1.9995 0.9820
3.9314 -1.0889 -2.0010 0.9820
4.0673 0.3538 -2.0026 0.9820
3.8310 1.4180 -2.0038 0.9820
3.0959 2.6691 -2.0051 0.9820
2.8461 2.9348 -2.0053 0.9820
2.2803 3.3942 -2.0058 0.9819
1.3014 3.8774 -2.0062 0.9819
0.5924 4.0470 -2.0063 0.9819
-0.4994 4.0594 -2.0062 0.9819
-1.2120 3.9057 -2.0060 0.9819
-2.7773 2.9985 -2.0048 0.9820
-3.2645 2.4570 -2.0042 0.9820
-1.1283 0.5684 -0.6197 0.9944
-1.1513 0.4564 -0.6075 0.9945
-1.1590 0.3436 -0.5930 0.9946
-1.1738 0.2367 -0.5874 0.9947
-1.1955 -0.0824 -0.5878 0.9947
-1.1584 -0.2924 -0.5861 0.9947
-1.1567 -0.4046 -0.6011 0.9946
-1.1407 -0.5173 -0.6144 0.9944
-2.8883 -2.8730 -1.9983 0.9820
-2.0247 -3.5336 -1.9977 0.9820
-1.7016 -3.6998 -1.9976 0.9820
-1.0176 -3.9427 -1.9974 0.9820
-0.6621 -4.0176 -1.9973 0.9820
-0.3014 -4.0606 -1.9973 0.9820
0.0617 -4.0714 -1.9973 0.9820
0.3009 -2.8717 -1.4163 0.9872
0.4845 -2.4707 -1.2350 0.9888
0.9485 -2.4300 -1.2796 0.9884
1.8027 -2.4219 -1.4810 0.9866
2.2026 -2.4656 -1.6217 0.9854
3.2121 -2.5093 -1.9994 0.9820
3.4235 -2.2134 -1.9997 0.9820
3.8893 -1.2296 -2.0009 0.9820
3.9842 -0.8782 -2.0013 0.9820
4.0474 -0.5197 -2.0017 0.9820
4.0432 0.5699 -2.0029 0.9820
3.9770 0.9281 -2.0033 0.9820
3.8792 1.2791 -2.0036 0.9820
3.7504 1.6201 -2.0040 0.9820
3.5917 1.9482 -2.0043 0.9820
2.4009 3.3098 -2.0057 0.9819
1.7754 3.6841 -2.0060 0.9819
1.4401 3.8279 -2.0062 0.9819
1.0932 3.9412 -2.0063 0.9819
0.3761 4.0728 -2.0063 0.9819
0.0116 4.0901 -2.0063 0.9819
-0.3530 4.0748 -2.0063 0.9819
-0.7147 4.0269 -2.0062 0.9819
-1.4181 3.8355 -2.0059 0.9819
-2.0761 3.5221 -2.0055 0.9819
-2.3815 3.3226 -2.0052 0.9820
-2.6677 3.0967 -2.0049 0.9820
-3.1742 2.5730 -2.0043 0.9820
-1.1096 0.6101 -0.6211 0.9944
-1.1577 0.3890 -0.5991 0.9946
-1.1961 0.0676 -0.5876 0.9947
-1.1965 -0.0392 -0.5872 0.9947
-1.1901 -0.1459 -0.5881 0.9947
-1.1588 -0.3591 -0.5951 0.9946
-1.1230 -0.5832 -0.6207 0.9944
-3.4348 -2.1932 -1.9990 0.9820
-3.2252 -2.4902 -1.9987 0.9820
-1.8337 -3.6362 -1.9976 0.9820
-1.5022 -3.7849 -1.9975 0.9820
-1.1588 -3.9036 -1.9974 0.9820
1.0954 -2.4178 -1.3020 0.9882
1.3700 -2.4229 -1.3653 0.9877
2.0208 -2.4329 -1.5514 0.9860
3.5369 -2.0283 -2.0000 0.9820
1.9141 -2.4733 -1.6225 0.9860
3.0814 -2.3155 -1.9996 0.9828
3.2760 -2.0320 -1.9999 0.9828
3.4447 -1.7323 -2.0003 0.9828
3.6989 -1.0936 -2.0010 0.9828
3.8586 -0.0761 -2.0021 0.9828
3.8122 0.6104 -2.0029 0.9828
3.7433 0.9479 -2.0032 0.9827
3.6446 1.2780 -2.0036 0.9827
3.5168 1.5980 -2.0039 0.9827
3.3609 1.9054 -2.0043 0.9827
2.7382 2.7278 -2.0051 0.9827
2.4845 2.9613 -2.0053 0.9827
1.9196 3.3560 -2.0057 0.9827
1.6130 3.5140 -2.0058 0.9827
1.2934 3.6439 -2.0060 0.9827
0.2834 3.8565 -2.0061 0.9827
-0.0615 3.8664 -2.0061 0.9827
-0.4058 3.8454 -2.0060 0.9827
-1.0820 3.7119 -2.0058 0.9827
-2.8226 2.6384 -2.0044 0.9827
-3.2451 2.0947 -2.0038 0.9827
-1.0628 0.3351 -0.5781 0.9950
-1.1066 0.0418 -0.5745 0.9950
-1.0768 -0.2521 -0.5737 0.9950
-1.0480 -0.4536 -0.5924 0.9949
-3.2085 -2.1343 -1.9991 0.9828
-3.0050 -2.4114 -1.9988 0.9828
-2.7778 -2.6693 -1.9986 0.9828
-1.9720 -3.3081 -1.9980 0.9828
-1.0265 -3.7113 -1.9976 0.9828
-0.6916 -3.7879 -1.9976 0.9828
-0.3512 -3.8344 -1.9976 0.9828
-0.0081 -3.8505 -1.9976 0.9828
0.3352 -3.8360 -1.9976 0.9828
0.4431 -2.4857 -1.3099 0.9887
0.6672 -2.4523 -1.3185 0.9886
0.9006 -2.4302 -1.3445 0.9884
1.7535 -2.4426 -1.5599 0.9865
2.1377 -2.4777 -1.6977 0.9854
3.2005 -2.1485 -1.9998 0.9828
3.3799 -1.8550 -2.0001 0.9828
3.5324 -1.5466 -2.0005 0.9828
3.8178 -0.5574 -2.0016 0.9828
3.8530 -0.2149 -2.0020 0.9828
3.8314 0.4728 -2.0027 0.9828
3.7747 0.8125 -2.0031 0.9828
3.5717 1.4703 -2.0038 0.9827
3.2550 2.0818 -2.0044 0.9827
2.5893 2.8698 -2.0052 0.9827
2.3235 3.0895 -2.0055 0.9827
1.7383 3.4535 -2.0058 0.9827
1.0977 3.7077 -2.0060 0.9827
0.7629 3.7909 -2.0061 0.9827
0.4220 3.8438 -2.0061 0.9827
-1.2780 3.6488 -2.0057 0.9827
-1.5979 3.5201 -2.0055 0.9827
-1.9051 3.3633 -2.0053 0.9827
-2.1971 3.1798 -2.0051 0.9827
-1.0007 0.5729 -0.5982 0.9948
-1.0597 0.3766 -0.5834 0.9949
-1.0938 0.1798 -0.5750 0.9950
-1.1054 0.0816 -0.5750 0.9950
-1.1064 -0.0172 -0.5740 0.9950
-1.1027 -0.1160 -0.5752 0.9950
-1.0552 -0.4123 -0.5877 0.9949
-1.0309 -0.5130 -0.5974 0.9948
-0.9823 -0.6036 -0.5981 0.9948
-3.0900 -2.3019 -1.9989 0.9828
-2.6316 -2.8132 -1.9984 0.9828
-2.3701 -3.0362 -1.9982 0.9828
-2.0899 -3.2351 -1.9980 0.9828
-1.7931 -3.4082 -1.9979 0.9828
-1.4821 -3.5542 -1.9977 0.9828
-1.1594 -3.6720 -1.9976 0.9828
-0.8275 -3.7606 -1.9976 0.9828
-0.4890 -3.8193 -1.9976 0.9828
0.3834 -2.7131 -1.4215 0.9877
0.5745 -2.4574 -1.3092 0.9887
0.8046 -2.4369 -1.3314 0.9885
1.3144 -2.4211 -1.4292 0.9877
1.6183 -2.4347 -1.5166 0.9869
1.9878 -2.4790 -1.6484 0.9858
2.3392 -2.4361 -1.7521 0.9849
3.1209 -2.2621 -1.9997 0.9828
3.7173 -1.0296 -2.0011 0.9828
3.7950 -0.6943 -2.0014 0.9828
3.8425 -0.3534 -2.0018 0.9828
3.8594 -0.0095 -2.0022 0.9828
3.8457 0.3345 -2.0026 0.9828
3.8012 0.6761 -2.0030 0.9828
3.7265 1.0124 -2.0033 0.9827
3.6221 1.3407 -2.0037 0.9827
3.4888 1.6585 -2.0040 0.9827
3.3276 1.9631 -2.0043 0.9827
3.1399 2.2522 -2.0046 0.9827
2.6908 2.7747 -2.0051 0.9827
0.2168 3.8608 -2.0061 0.9827
-0.4721 3.8378 -2.0060 0.9827
-1.4703 3.5755 -2.0056 0.9827
-1.7829 3.4299 -2.0054 0.9827
-2.0813 3.2569 -2.0052 0.9827
-2.3630 3.0581 -2.0049 0.9827
-0.9792 0.6084 -0.5981 0.9948
-1.1021 0.1214 -0.5752 0.9950
-1.1065 0.0227 -0.5741 0.9950
-1.1056 -0.0762 -0.5749 0.9950
-1.0947 -0.1744 -0.5751 0.9950
-1.0713 -0.2704 -0.5732 0.9950
-1.0602 -0.3709 -0.5827 0.9950
-1.0437 -0.4733 -0.5945 0.9948
-1.0035 -0.5679 -0.5982 0.9948
-2.9629 -2.4629 -1.9988 0.9828
-2.7313 -2.7168 -1.9985 0.9828
-2.4780 -2.9491 -1.9983 0.9828
-2.2050 -3.1579 -1.9981 0.9828
-1.9147 -3.3415 -1.9979 0.9828
-1.6091 -3.4986 -1.9978 0.9828
-0.9623 -3.7284 -1.9976 0.9828
-0.6261 -3.7993 -1.9976 0.9828
0.0584 -3.8501 -1.9976 0.9828
0.2842 -2.7118 -1.4145 0.9878
0.4842 -2.4692 -1.3053 0.9887
0.9606 -2.4611 -1.3706 0.9882
1.2202 -2.4542 -1.4219 0.9877
1.4962 -2.4369 -1.4835 0.9872
1.8400 -2.4720 -1.5987 0.9862
2.8133 -2.6337 -1.9992 0.9828
3.0373 -2.3728 -1.9995 0.9828
3.2372 -2.0930 -1.9998 0.9828
3.5587 -1.4855 -2.0006 0.9828
3.7673 -0.8304 -2.0013 0.9828
3.8549 0.1959 -2.0024 0.9828
3.7603 0.8776 -2.0032 0.9828
3.6677 1.2094 -2.0035 0.9827
3.3959 1.8420 -2.0042 0.9827
2.7888 2.6759 -2.0050 0.9827
2.2699 3.1292 -2.0055 0.9827
1.9821 3.3194 -2.0057 0.9827
1.6785 3.4831 -2.0058 0.9827
1.0336 3.7261 -2.0060 0.9827
0.3556 3.8505 -2.0061 0.9827
-0.3337 3.8524 -2.0060 0.9827
-1.0123 3.7315 -2.0058 0.9827
-1.3407 3.6262 -2.0057 0.9827
-2.2515 3.1413 -2.0050 0.9827
-2.5222 2.9278 -2.0048 0.9827
-2.7727 2.6909 -2.0045 0.9827
-3.0011 2.4327 -2.0042 0.9827
-1.0614 0.3567 -0.5809 0.9950
-1.0752 0.2574 -0.5736 0.9950
-1.1062 0.0625 -0.5748 0.9950
-1.1066 -0.0363 -0.5744 0.9950
-1.0822 -0.2321 -0.5742 0.9950
-1.0631 -0.3295 -0.5774 0.9950
-1.0520 -0.4321 -0.5900 0.9949
-1.0225 -0.5311 -0.5977 0.9948
-3.0498 -2.3548 -1.9989 0.9828
-2.3173 -3.0766 -1.9982 0.9828
-1.4205 -3.5792 -1.9977 0.9828
-0.7625 -3.7743 -1.9976 0.9828
-0.4230 -3.8272 -1.9976 0.9828
-0.0802 -3.8497 -1.9976 0.9828
0.2632 -3.8416 -1.9976 0.9828
0.4312 -2.7125 -1.4248 0.9877
1.1050 -2.4391 -1.3891 0.9880
1.3713 -2.4250 -1.4453 0.9875
2.4254 -2.4401 -1.7848 0.9846
3.3444 -1.9179 -2.0001 0.9828
1.5860 -2.4779 -1.6113 0.9867
1.9229 -2.4847 -1.7208 0.9858
2.7113 -2.4444 -1.9994 0.9835
3.5036 -1.0358 -2.0010 0.9835
3.5826 -0.7196 -2.0014 0.9835
3.6548 -0.0721 -2.0021 0.9835
3.6473 0.2540 -2.0025 0.9835
3.3309 1.5135 -2.0038 0.9835
3.1832 1.8046 -2.0041 0.9835
3.0101 2.0815 -2.0044 0.9834
2.8130 2.3418 -2.0047 0.9834
2.5934 2.5835 -2.0049 0.9834
2.3531 2.8046 -2.0051 0.9834
1.8180 3.1784 -2.0055 0.9834
1.5276 3.3280 -2.0056 0.9834
1.2250 3.4511 -2.0057 0.9834
0.5928 3.6140 -2.0058 0.9834
0.2684 3.6525 -2.0059 0.9834
-0.3843 3.6419 -2.0058 0.9834
-1.3339 3.4099 -2.0054 0.9834
-1.6323 3.2771 -2.0052 0.9834
-1.9177 3.1183 -2.0050 0.9834
-2.1878 2.9346 -2.0048 0.9834
-2.8850 2.2504 -2.0040 0.9835
-0.8870 0.5725 -0.5782 0.9952
-0.9673 0.4030 -0.5739 0.9952
-1.0213 0.1304 -0.5639 0.9953
-1.0276 0.0388 -0.5632 0.9953
-1.0273 -0.0530 -0.5634 0.9953
-1.0193 -0.1444 -0.5639 0.9953
-0.9997 -0.2341 -0.5623 0.9953
-0.9787 -0.3235 -0.5646 0.9953
-0.8786 -0.5845 -0.5780 0.9952
-2.6313 -2.5286 -1.9987 0.9835
-1.8681 -3.1337 -1.9982 0.9835
-1.2819 -3.4151 -1.9979 0.9835
-0.6551 -3.5883 -1.9978 0.9835
-0.0077 -3.6476 -1.9978 0.9835
0.3175 -3.6338 -1.9978 0.9835
0.6671 -2.4520 -1.3918 0.9885
0.9050 -2.4423 -1.4265 0.9882
1.1575 -2.4327 -1.4755 0.9878
1.4515 -2.4582 -1.5636 0.9871
2.1121 -2.4481 -1.7709 0.9854
2.6214 -2.5403 -1.9993 0.9835
3.0317 -2.0351 -1.9999 0.9835
3.4638 -1.1612 -2.0009 0.9835
3.6162 -0.5279 -2.0016 0.9835
3.6495 -0.2036 -2.0020 0.9835
3.6538 0.1225 -2.0023 0.9835
3.5753 0.7696 -2.0030 0.9835
3.4930 1.0854 -2.0034 0.9835
3.3829 1.3926 -2.0037 0.9835
2.2006 2.9261 -2.0053 0.9834
1.6464 3.2708 -2.0056 0.9834
1.0396 3.5115 -2.0058 0.9834
0.0736 3.6615 -2.0058 0.9834
-0.8976 3.5502 -2.0056 0.9834
-1.2103 3.4558 -2.0055 0.9834
-1.5134 3.3339 -2.0053 0.9834
-1.8044 3.1854 -2.0051 0.9834
-2.0808 3.0116 -2.0049 0.9834
-0.8646 0.6033 -0.5774 0.9952
-1.0274 -0.0160 -0.5628 0.9953
-0.9716 -0.3796 -0.5713 0.9953
-0.8998 -0.5529 -0.5785 0.9952
-2.7207 -2.4324 -1.9988 0.9835
-1.9797 -3.0645 -1.9982 0.9835
-1.4040 -3.3669 -1.9980 0.9835
-0.7839 -3.5624 -1.9978 0.9835
-0.4632 -3.6180 -1.9978 0.9835
-0.1389 -3.6449 -1.9978 0.9835
0.1865 -3.6429 -1.9978 0.9835
0.8039 -2.4348 -1.4044 0.9884
1.0548 -2.4394 -1.4556 0.9880
1.9898 -2.4815 -1.7421 0.9856
2.7531 -2.3974 -1.9995 0.9835
3.1360 -1.8711 -2.0001 0.9835
3.2908 -1.5844 -2.0004 0.9835
3.4195 -1.2850 -2.0008 0.9835
3.6425 0.3169 -2.0025 0.9835
3.5296 0.9589 -2.0032 0.9835
3.1517 1.8594 -2.0042 0.9834
2.9738 2.1331 -2.0045 0.9834
2.5485 2.6279 -2.0050 0.9834
1.7630 3.2094 -2.0055 0.9834
1.4700 3.3539 -2.0057 0.9834
1.1653 3.4718 -2.0057 0.9834
0.5304 3.6237 -2.0058 0.9834
