ply
format ascii 1.0
element vertex 1569
property float32 x
property float32 y
property float32 z
property float32 I
end_header
13.8623 -13.7695 -0.5502 0.9248
-12.4837 -14.9077 -0.9861 0.9251
-8.1276 -14.2451 -0.8318 0.9364
-6.7763 -14.8082 -0.8259 0.9369
-2.2957 -14.1190 -0.7254 0.9443
7.0970 -14.1786 -0.8041 0.9385
8.5774 -13.8838 -0.8276 0.9367
12.6797 -14.1101 -0.9621 0.9268
-5.9256 -5.5630 -0.4122 0.9680
-13.0226 -14.6216 -0.9930 0.9246
-8.7215 -14.2580 -0.8476 0.9352
-1.4759 -14.3700 -0.7326 0.9438
7.0042 -15.1284 -0.8455 0.9354
8.0103 -13.8961 -0.8134 0.9378
9.9185 -14.1235 -0.8752 0.9332
-18.7598 6.8166 -1.0122 0.9232
-13.6001 -14.3635 -1.0032 0.9238
-9.5200 -14.5479 -0.8817 0.9327
-7.7454 -14.5165 -0.8344 0.9362
-1.9226 -14.3886 -0.7362 0.9435
1.9445 -14.3013 -0.7320 0.9438
3.1964 -14.0002 -0.7283 0.9441
4.6179 -14.2304 -0.7587 0.9418
8.6277 -13.1183 -0.7963 0.9391
-8.1685 -14.2460 -0.8328 0.9363
-6.7739 -14.7197 -0.8218 0.9372
-2.3268 -14.1197 -0.7257 0.9443
-1.0640 -14.3528 -0.7299 0.9440
1.5022 -14.3021 -0.7293 0.9440
4.1486 -14.2499 -0.7527 0.9423
7.0592 -14.1786 -0.8032 0.9385
12.6844 -14.1761 -0.9647 0.9266
15.1299 -4.7621 -0.8044 0.9384
-4.1971 -14.4254 -0.7619 0.9416
-1.5071 -14.3713 -0.7328 0.9438
3.6145 -13.9911 -0.7328 0.9438
7.0019 -15.2088 -0.8491 0.9351
9.8748 -14.1253 -0.8740 0.9333
13.8624 -13.7695 -0.9909 0.9247
-10.0816 -14.4921 -1.2944 0.9316
-8.1276 -14.2452 -1.2025 0.9363
-3.6908 -14.4236 -1.0916 0.9420
1.5330 -14.3011 -1.0546 0.9439
2.7831 -14.0092 -1.0473 0.9443
4.1809 -14.2476 -1.0887 0.9422
7.0686 -14.1220 -1.1579 0.9386
-5.9244 -5.5619 -0.5958 0.9679
-8.7215 -14.2580 -1.2255 0.9352
-7.1448 -14.4338 -1.1809 0.9374
-2.7418 -14.1287 -1.0553 0.9439
-1.4758 -14.3690 -1.0591 0.9437
2.3433 -14.0187 -1.0421 0.9446
3.7182 -14.2669 -1.0810 0.9426
8.0104 -13.8961 -1.1761 0.9377
9.8787 -14.0669 -1.2603 0.9334
13.9205 -13.7683 -1.4356 0.9245
-14.2909 8.3191 -1.2125 0.9358
-17.5933 8.2364 -1.4243 0.9250
-15.8696 5.7664 -1.2380 0.9345
-13.6002 -14.3636 -1.4504 0.9237
-7.7127 -14.4552 -1.2013 0.9364
-3.1937 -14.1384 -1.0628 0.9435
3.1964 -14.0002 -1.0529 0.9440
13.3122 -13.9948 -1.4162 0.9255
-12.4242 -14.7724 -1.4153 0.9255
-10.1278 -14.4923 -1.2964 0.9315
-6.7148 -14.5913 -1.1777 0.9376
-3.7237 -14.4237 -1.0922 0.9420
-2.3268 -14.1197 -1.0492 0.9442
-1.0639 -14.3519 -1.0552 0.9439
1.5021 -14.3011 -1.0544 0.9440
2.7522 -14.0098 -1.0469 0.9443
12.6242 -14.1089 -1.3882 0.9269
11.9286 -6.2645 -0.9879 0.9474
15.1310 -4.7624 -1.1631 0.9384
-13.0263 -14.5630 -1.4326 0.9246
-2.7732 -14.1293 -1.0558 0.9439
3.6145 -13.9912 -1.0595 0.9437
6.9482 -15.0920 -1.2182 0.9355
7.9714 -13.8970 -1.1747 0.9378
12.6546 -15.0414 -1.4413 0.9242
13.8624 -13.7696 -1.4326 0.9246
-15.7949 -10.9383 -1.8445 0.9257
-10.0808 -14.4909 -1.6947 0.9315
-8.1276 -14.2452 -1.5746 0.9362
-6.4083 -18.1253 -1.8457 0.9257
2.7831 -14.0092 -1.3712 0.9442
4.1641 -14.1902 -1.4198 0.9423
11.5508 -15.4258 -1.8501 0.9255
12.6207 -14.0444 -1.8128 0.9269
14.1149 -13.1341 -1.8510 0.9254
15.2338 -11.8253 -1.8514 0.9254
15.1544 -4.7343 -1.5242 0.9382
-0.0164 7.3730 -0.7078 0.9708
-12.6306 8.3841 -1.4554 0.9409
-17.5286 5.7707 -1.7717 0.9285
-16.9890 -8.9720 -1.8445 0.9257
-16.1209 -10.4517 -1.8445 0.9257
-15.1246 -11.8484 -1.8445 0.9257
-5.9233 -5.5609 -0.7800 0.9679
-11.4498 -15.4331 -1.8449 0.9257
-8.7215 -14.2581 -1.6046 0.9350
-4.1468 -14.3670 -1.4356 0.9417
-2.7418 -14.1287 -1.3817 0.9438
-1.4699 -14.3110 -1.3812 0.9438
-0.2506 -19.2362 -1.8469 0.9256
2.3433 -14.0187 -1.3645 0.9445
3.7028 -14.2077 -1.4096 0.9427
8.0104 -13.8962 -1.5399 0.9376
15.9052 -10.9107 -1.8517 0.9254
18.2377 -6.3138 -1.8529 0.9254
18.7316 -4.6626 -1.8532 0.9254
17.2890 8.7961 -1.8623 0.9250
10.0319 7.6150 -1.2092 0.9506
2.3329 19.7474 -1.9090 0.9232
0.5572 19.7070 -1.8927 0.9238
-0.4422 7.2328 -0.6957 0.9713
-2.9726 19.6184 -1.9050 0.9234
-10.1116 7.1654 -1.1898 0.9514
-14.2909 8.3192 -1.5875 0.9357
-15.8697 5.7664 -1.6210 0.9344
-18.4831 -5.2498 -1.8447 0.9257
-17.9402 -6.8773 -1.8446 0.9257
-15.4786 -11.3817 -1.8445 0.9257
-14.4021 -12.7176 -1.8446 0.9257
-11.9145 -15.0765 -1.8448 0.9257
-7.7121 -14.4541 -1.5728 0.9363
-5.8922 -18.3006 -1.8458 0.9257
-1.9145 -14.3278 -1.3878 0.9436
0.8811 -19.2204 -1.8472 0.9256
1.9364 -14.2416 -1.3798 0.9439
4.5995 -14.1737 -1.4306 0.9419
8.6290 -13.1202 -1.5076 0.9388
13.2862 -13.9675 -1.8507 0.9255
14.4827 -12.7296 -1.8512 0.9254
16.5217 -9.9579 -1.8520 0.9254
12.0226 -5.8535 -1.2838 0.9477
18.5797 -5.2311 -1.8531 0.9254
13.6909 6.4479 -1.4529 0.9410
8.6419 8.8527 -1.1877 0.9515
1.1601 19.7210 -1.8966 0.9237
-0.2200 7.1934 -0.6909 0.9715
-9.3317 8.4577 -1.2091 0.9507
-17.2361 8.7193 -1.8544 0.9253
-17.9416 7.1456 -1.8541 0.9253
-18.5040 5.5156 -1.8537 0.9253
-17.5043 -7.9202 -1.8445 0.9257
-14.7828 -12.2725 -1.8446 0.9257
-13.6298 -13.5430 -1.8446 0.9257
-10.1269 -14.4911 -1.6973 0.9314
-6.7155 -14.5929 -1.5422 0.9375
-6.4469 -18.1115 -1.8457 0.9257
-3.7084 -14.3646 -1.4243 0.9421
-2.3268 -14.1197 -1.3738 0.9441
1.4961 -14.2441 -1.3750 0.9441
2.7522 -14.0099 -1.3707 0.9442
4.1315 -14.1914 -1.4190 0.9423
7.0107 -17.9354 -1.8488 0.9255
8.5372 -13.8848 -1.5648 0.9366
11.5178 -15.4504 -1.8501 0.9255
12.6249 -14.1097 -1.8177 0.9267
14.0868 -13.1641 -1.8510 0.9254
16.2093 -10.4562 -1.8519 0.9254
11.9286 -6.2645 -1.2935 0.9473
17.8168 -7.4124 -1.8526 0.9254
15.1313 -4.7625 -1.5229 0.9382
1.7659 19.7348 -1.9022 0.9235
-1.7616 19.6500 -1.8941 0.9238
-12.6327 8.4245 -1.4577 0.9408
-17.7166 7.6896 -1.8542 0.9253
-17.7378 -7.3830 -1.8445 0.9257
-16.1431 -10.4173 -1.8445 0.9257
-11.4827 -15.4086 -1.8449 0.9257
-7.1834 -14.4342 -1.5479 0.9373
-2.7732 -14.1294 -1.3824 0.9438
-1.5009 -14.3121 -1.3816 0.9438
-0.2916 -19.2356 -1.8469 0.9256
1.4257 -19.1890 -1.8473 0.9256
2.3126 -14.0194 -1.3641 0.9445
3.6145 -13.9912 -1.3873 0.9436
6.4602 -18.1393 -1.8486 0.9255
7.9714 -13.8970 -1.5381 0.9377
14.8388 -12.3149 -1.8513 0.9254
15.8818 -10.9445 -1.8517 0.9254
17.5814 -7.9516 -1.8525 0.9254
10.0742 7.6132 -1.2123 0.9505
-9.9758 -11.9128 -1.8457 0.9393
-8.8740 -12.7561 -1.8458 0.9393
-6.4672 -14.1328 -1.8462 0.9393
-3.6754 -14.3635 -1.7612 0.9420
0.2716 -15.5512 -1.8475 0.9393
1.5267 -14.2429 -1.7016 0.9439
2.7831 -14.0093 -1.6966 0.9441
8.1841 -13.2471 -1.8497 0.9392
10.4120 -11.5865 -1.8504 0.9392
11.4062 -10.6136 -1.8507 0.9392
12.3098 -9.5556 -1.8511 0.9392
13.1156 -8.4209 -1.8514 0.9391
16.4963 -3.5760 -2.0050 0.9343
16.8733 -0.5878 -2.0055 0.9343
16.8602 0.9198 -2.0057 0.9342
16.4308 3.9018 -2.0060 0.9342
16.0181 5.3522 -2.0061 0.9342
14.3594 6.2718 -1.8613 0.9388
13.7429 7.5278 -1.8613 0.9388
9.8229 7.9397 -1.5003 0.9504
12.1350 11.7456 -2.0061 0.9342
9.8534 13.7134 -2.0059 0.9342
8.5901 14.5364 -2.0057 0.9342
7.2583 15.2431 -2.0055 0.9343
-3.0337 16.5897 -2.0033 0.9343
-6.1355 8.4596 -1.2414 0.9588
-11.0669 12.6995 -2.0010 0.9344
-13.1425 10.5268 -2.0002 0.9344
-12.6256 8.3808 -1.8001 0.9408
-14.3365 6.1862 -1.8548 0.9390
-16.3867 3.8146 -1.9986 0.9345
-16.6786 -2.1565 -1.9977 0.9345
-16.4187 -3.6355 -1.9975 0.9345
-14.3307 -6.0008 -1.8455 0.9393
-5.9221 -5.5598 -0.9649 0.9678
-6.8948 -13.9286 -1.8461 0.9393
-4.1465 -14.3660 -1.7761 0.9415
-2.7418 -14.1288 -1.7096 0.9437
1.1857 -15.5101 -1.8478 0.9393
2.3433 -14.0188 -1.6883 0.9444
3.7025 -14.2067 -1.7439 0.9426
5.2530 -14.6508 -1.8488 0.9392
6.5403 -14.1266 -1.8492 0.9392
8.9501 -12.7446 -1.8499 0.9392
10.0533 -11.8977 -1.8503 0.9392
11.0767 -10.9556 -1.8506 0.9392
14.7350 -5.1012 -1.8522 0.9391
16.3529 -4.0705 -2.0018 0.9344
16.6795 -2.6000 -2.0052 0.9343
16.8469 -1.1018 -2.0055 0.9343
16.8798 0.4055 -2.0057 0.9342
16.7779 1.9098 -2.0058 0.9342
16.1735 4.8614 -2.0061 0.9342
15.2212 6.1027 -1.9480 0.9361
10.1523 6.3644 -1.4233 0.9529
9.9994 7.5903 -1.4912 0.9507
12.4876 11.3705 -2.0061 0.9342
11.4229 12.4385 -2.0060 0.9342
7.7199 15.0154 -2.0055 0.9343
6.3489 15.6424 -2.0053 0.9343
3.4673 16.5172 -2.0048 0.9343
1.9798 16.7581 -2.0045 0.9343
0.4769 16.8651 -2.0041 0.9343
-0.4460 7.2955 -0.8682 0.9710
-2.5266 16.6756 -2.0034 0.9343
-4.0035 16.3806 -2.0031 0.9343
-5.4477 15.9551 -2.0027 0.9343
-6.8479 15.4025 -2.0023 0.9344
-8.1930 14.7273 -2.0019 0.9344
-12.8163 10.9232 -2.0003 0.9344
-10.0785 7.1420 -1.4673 0.9515
-14.8124 5.3822 -1.8721 0.9385
-16.8188 -0.1475 -1.9979 0.9345
-16.5222 -3.1334 -1.9976 0.9345
-13.9528 -6.8330 -1.8455 0.9393
-13.2876 -8.0504 -1.8455 0.9393
-12.5166 -9.2037 -1.8455 0.9393
-9.6343 -12.1910 -1.8457 0.9393
-4.7640 -14.7967 -1.8465 0.9393
-3.1937 -14.1385 -1.7218 0.9433
4.5991 -14.1727 -1.7699 0.9417
8.5569 -13.0106 -1.8498 0.9392
10.7369 -11.2874 -1.8505 0.9392
11.7032 -10.2866 -1.8508 0.9392
12.5765 -9.2033 -1.8512 0.9392
13.3497 -8.0462 -1.8515 0.9391
12.0227 -5.8535 -1.5884 0.9476
13.8854 -5.2863 -1.7649 0.9419
15.5172 -4.3688 -1.9149 0.9371
16.5918 -3.1071 -2.0051 0.9343
16.8838 -0.1093 -2.0056 0.9342
16.6373 2.8932 -2.0059 0.9342
16.3139 4.3661 -2.0061 0.9342
13.5240 7.9144 -1.8613 0.9388
10.3337 8.8484 -1.6160 0.9467
8.6418 8.8526 -1.4695 0.9514
8.1743 14.7736 -2.0056 0.9342
5.4177 15.9873 -2.0051 0.9343
3.9694 16.4046 -2.0049 0.9343
0.9908 16.8437 -2.0043 0.9343
-0.2191 7.1655 -0.8516 0.9715
-2.0174 16.7459 -2.0036 0.9343
-4.9591 16.1148 -2.0028 0.9343
-6.3757 15.6051 -2.0024 0.9344
-4.4852 8.6747 -1.1600 0.9614
-7.7702 8.4220 -1.3612 0.9549
-9.3317 8.4577 -1.4960 0.9505
-9.3553 5.8349 -1.3097 0.9566
-13.9345 7.0491 -1.8550 0.9390
-14.2926 5.6923 -1.8275 0.9399
-16.1253 4.8065 -1.9987 0.9345
-16.4875 3.3484 -1.9985 0.9345
-16.7184 1.8641 -1.9982 0.9345
-16.8161 0.3652 -1.9980 0.9345
-16.6104 -2.6284 -1.9976 0.9345
-16.3087 -4.0993 -1.9975 0.9345
-12.7912 -8.8179 -1.8455 0.9393
-11.9539 -9.9240 -1.8455 0.9393
-8.9012 -12.7371 -1.8458 0.9393
-7.7302 -13.4816 -1.8460 0.9393
-6.4974 -14.1189 -1.8462 0.9393
-2.3268 -14.1198 -1.6999 0.9440
1.4960 -14.2431 -1.7012 0.9439
2.7522 -14.0099 -1.6960 0.9441
6.9386 -13.9364 -1.8493 0.9392
10.3871 -11.6087 -1.8504 0.9392
11.3835 -10.6379 -1.8507 0.9392
12.2894 -9.5818 -1.8511 0.9392
11.9285 -6.2645 -1.6005 0.9472
14.3953 -5.9890 -1.8520 0.9391
14.8744 -4.6817 -1.8523 0.9391
16.7471 -2.1262 -2.0053 0.9343
16.8620 0.8838 -2.0057 0.9342
16.7174 2.3847 -2.0059 0.9342
13.0351 8.6959 -1.8613 0.9388
9.8039 7.8898 -1.4948 0.9506
12.1600 11.7197 -2.0061 0.9342
9.8827 13.6923 -2.0059 0.9342
4.4678 16.2768 -2.0050 0.9343
2.9976 16.6081 -2.0047 0.9343
-0.0006 7.3668 -0.8751 0.9708
-4.4659 16.2595 -2.0029 0.9343
-7.2813 15.2012 -2.0022 0.9344
-8.6066 14.4882 -2.0018 0.9344
-12.1285 11.6854 -2.0006 0.9344
-15.9721 5.2961 -1.9988 0.9345
-16.3785 3.8496 -1.9986 0.9345
-16.7978 0.8777 -1.9981 0.9345
-16.8074 -0.6242 -1.9979 0.9345
-14.3435 -5.9702 -1.8455 0.9393
-13.7535 -7.2258 -1.8455 0.9393
-13.0540 -8.4239 -1.8455 0.9393
-12.2508 -9.5549 -1.8455 0.9393
-11.3499 -10.6100 -1.8456 0.9393
-10.3588 -11.5808 -1.8457 0.9393
-9.2850 -12.4596 -1.8458 0.9393
-8.1372 -13.2393 -1.8459 0.9393
-6.9245 -13.9138 -1.8461 0.9393
-5.6563 -14.4777 -1.8463 0.9393
-4.1799 -14.3662 -1.7773 0.9415
-2.7732 -14.1294 -1.7104 0.9436
-1.5008 -14.3112 -1.7093 0.9437
-0.2358 -15.5508 -1.8474 0.9393
2.3127 -14.0194 -1.6878 0.9444
5.2218 -14.6619 -1.8488 0.9392
8.9228 -12.7636 -1.8499 0.9392
10.0278 -11.9191 -1.8502 0.9392
11.9908 -9.9513 -1.8510 0.9392
12.8331 -8.8436 -1.8513 0.9392
13.5732 -7.6649 -1.8516 0.9391
14.2052 -6.4246 -1.8519 0.9391
16.8806 0.3694 -2.0057 0.9342
16.7818 1.8740 -2.0058 0.9342
16.5490 3.3637 -2.0060 0.9342
16.1839 4.8269 -2.0061 0.9342
15.3167 6.1031 -1.9585 0.9357
10.0447 7.5909 -1.4956 0.9505
-10.7116 -7.4181 -1.8461 0.9487
-10.0074 -8.3442 -1.8462 0.9487
-9.2235 -9.2040 -1.8462 0.9487
-4.3450 -12.2896 -1.8469 0.9487
-3.2318 -12.6296 -1.8471 0.9487
3.6739 -12.5198 -1.8487 0.9487
4.7769 -12.1441 -1.8490 0.9486
5.8421 -11.6715 -1.8493 0.9486
6.8611 -11.1057 -1.8496 0.9486
9.5615 -8.8970 -1.8505 0.9486
10.3187 -8.0099 -1.8508 0.9486
11.5812 -6.0506 -1.8514 0.9486
13.4729 -4.2090 -1.9999 0.9446
14.1303 0.7709 -2.0051 0.9444
14.0062 2.0284 -2.0052 0.9444
12.9708 5.6653 -2.0055 0.9444
9.7758 7.9016 -1.7810 0.9505
5.4275 6.2843 -1.1765 0.9670
7.1993 12.1828 -2.0050 0.9444
4.9189 13.2657 -2.0047 0.9444
3.7155 13.6501 -2.0044 0.9445
2.4827 13.9255 -2.0042 0.9445
-0.0161 7.2802 -1.0315 0.9710
-1.2925 14.0799 -2.0034 0.9445
-2.5430 13.9064 -2.0031 0.9445
-3.7728 13.6219 -2.0027 0.9445
-6.1313 12.7305 -2.0021 0.9445
-6.1355 8.4596 -1.4807 0.9587
-10.1898 9.7757 -2.0008 0.9445
-10.2236 8.1888 -1.8560 0.9485
-13.4029 4.4124 -1.9993 0.9446
-13.9705 1.9601 -1.9989 0.9446
-13.9873 -1.8085 -1.9983 0.9446
-13.7694 -3.0488 -1.9982 0.9446
-13.4419 -4.2648 -1.9981 0.9446
-12.0664 -5.0527 -1.8535 0.9485
-11.5215 -6.0846 -1.8461 0.9487
-8.6665 -9.7307 -1.8463 0.9487
-1.3322 -12.9710 -1.8475 0.9487
-0.1699 -13.0400 -1.8478 0.9487
2.1507 -12.8664 -1.8483 0.9487
3.2904 -12.6253 -1.8486 0.9487
6.5190 -11.3090 -1.8495 0.9486
7.5031 -10.6842 -1.8498 0.9486
10.0692 -8.3203 -1.8507 0.9486
10.7729 -7.3900 -1.8510 0.9486
11.9181 -5.3596 -1.8516 0.9486
13.7278 -3.4171 -2.0044 0.9445
14.1468 0.3398 -2.0050 0.9444
11.8563 6.0321 -1.8848 0.9477
9.7095 8.8409 -1.8606 0.9483
0.3997 14.1363 -2.0038 0.9445
-2.1180 13.9782 -2.0032 0.9445
-3.3560 13.7313 -2.0028 0.9445
-2.9382 8.6052 -1.2884 0.9639
-5.7407 12.9122 -2.0022 0.9445
-6.8686 12.3466 -2.0019 0.9445
-6.9824 8.5237 -1.5612 0.9565
-9.8876 10.0823 -2.0009 0.9445
-9.9697 8.4971 -1.8561 0.9485
-11.3176 6.5883 -1.8555 0.9485
-13.2627 4.8191 -1.9994 0.9446
-13.9047 2.3851 -1.9989 0.9446
-14.0606 1.1351 -1.9987 0.9446
-13.8561 -2.6278 -1.9983 0.9446
-13.1200 -5.0295 -1.9909 0.9448
-11.7016 -5.7306 -1.8461 0.9487
-11.1437 -6.7515 -1.8461 0.9487
-10.4971 -7.7188 -1.8461 0.9487
-5.0854 -12.0011 -1.8468 0.9487
-2.8726 -12.7166 -1.8472 0.9487
0.5973 -13.0286 -1.8480 0.9487
4.0275 -12.4113 -1.8488 0.9487
6.1709 -11.5018 -1.8494 0.9486
9.0006 -9.4621 -1.8503 0.9486
9.8104 -8.6229 -1.8506 0.9486
11.1899 -6.7444 -1.8512 0.9486
11.7486 -5.7201 -1.8515 0.9486
13.6167 -3.8338 -2.0044 0.9445
13.9060 -2.6041 -2.0046 0.9444
13.9433 2.4247 -2.0053 0.9444
13.6721 3.6591 -2.0054 0.9444
13.2917 4.8643 -2.0054 0.9444
12.8051 6.0307 -2.0055 0.9444
11.3338 6.6327 -1.8607 0.9483
5.9637 8.8171 -1.5082 0.9579
5.7185 12.9423 -2.0048 0.9444
4.5407 13.3994 -2.0046 0.9444
2.0942 8.6550 -1.2617 0.9647
2.0869 13.9897 -2.0041 0.9445
0.5069 8.6168 -1.2230 0.9657
-0.2194 7.1752 -1.0171 0.9714
-4.1572 13.5088 -2.0026 0.9445
-7.7701 8.4220 -1.6236 0.9548
-9.3317 8.4578 -1.7845 0.9504
-9.7826 7.3904 -1.7372 0.9517
-9.3552 5.8348 -1.5622 0.9564
-11.6843 5.9108 -1.8553 0.9485
-14.0200 1.5632 -1.9988 0.9446
-14.1022 0.3063 -1.9986 0.9446
-13.3115 -4.6427 -1.9975 0.9446
-11.8709 -5.3712 -1.8461 0.9487
-11.3443 -6.4087 -1.8461 0.9487
-10.7274 -7.3952 -1.8461 0.9487
-6.4826 -11.3059 -1.8466 0.9487
-5.4487 -11.8402 -1.8467 0.9487
-4.3712 -12.2802 -1.8469 0.9487
-3.2587 -12.6226 -1.8471 0.9487
-2.1200 -12.8646 -1.8474 0.9487
-0.9640 -13.0041 -1.8476 0.9487
0.1999 -13.0401 -1.8479 0.9487
1.3625 -12.9722 -1.8481 0.9487
3.6471 -12.5276 -1.8487 0.9487
4.7509 -12.1543 -1.8490 0.9486
5.8172 -11.6839 -1.8493 0.9486
6.8374 -11.1203 -1.8496 0.9486
8.7075 -9.7315 -1.8502 0.9486
9.5424 -8.9174 -1.8505 0.9486
10.3015 -8.0319 -1.8508 0.9486
10.9786 -7.0820 -1.8511 0.9486
12.0658 -5.0198 -1.8516 0.9486
13.4607 -4.2367 -1.9995 0.9446
13.8196 -3.0267 -2.0045 0.9444
14.1404 -0.5228 -2.0049 0.9444
14.0104 1.9985 -2.0052 0.9444
11.5307 6.2841 -1.8607 0.9483
9.4548 9.1125 -1.8606 0.9483
5.4281 6.2579 -1.1738 0.9671
6.3699 8.8255 -1.5422 0.9570
7.2253 12.1674 -2.0050 0.9444
3.7446 13.6422 -2.0045 0.9445
1.2605 14.0870 -2.0039 0.9445
-1.2625 14.0827 -2.0034 0.9445
-2.5133 13.9118 -2.0031 0.9445
-3.7437 13.6300 -2.0027 0.9445
-4.9438 13.2395 -2.0024 0.9445
-6.1041 12.7436 -2.0021 0.9445
-7.2154 12.1463 -2.0018 0.9445
-9.2559 10.6673 -2.0011 0.9445
-10.2061 8.2107 -1.8560 0.9485
-10.8962 7.2664 -1.8557 0.9485
-13.7346 3.2282 -1.9991 0.9446
-14.0867 0.7360 -1.9987 0.9446
-14.0950 -0.5235 -1.9985 0.9446
-13.7758 -3.0194 -1.9982 0.9446
-13.4510 -4.2361 -1.9981 0.9446
-12.1386 -5.0525 -1.8629 0.9483
-10.9478 -7.0647 -1.8461 0.9487
-5.9153 -5.5297 -1.1473 0.9678
-4.7433 -12.1409 -1.8469 0.9487
-3.6418 -12.5169 -1.8471 0.9487
-2.5110 -12.7934 -1.8473 0.9487
-1.3599 -12.9681 -1.8475 0.9487
-0.1977 -13.0395 -1.8478 0.9487
0.9664 -13.0071 -1.8480 0.9487
2.1232 -12.8710 -1.8483 0.9487
3.2634 -12.6322 -1.8486 0.9487
5.4580 -11.8552 -1.8492 0.9486
7.4803 -10.7001 -1.8498 0.9486
8.4064 -9.9919 -1.8501 0.9486
10.7571 -7.4129 -1.8510 0.9486
11.9066 -5.3850 -1.8516 0.9486
12.7319 -4.4382 -1.9104 0.9470
13.7204 -3.4464 -2.0044 0.9445
13.9747 -2.2089 -2.0047 0.9444
14.1175 -0.9536 -2.0049 0.9444
14.1475 0.3096 -2.0050 0.9444
13.8692 2.8190 -2.0053 0.9444
13.1486 5.2392 -2.0055 0.9444
11.1412 6.9513 -1.8607 0.9483
-8.6094 -7.1785 -1.8466 0.9556
-7.9349 -7.9182 -1.8467 0.9556
-7.1973 -8.5948 -1.8468 0.9556
-6.4022 -9.2030 -1.8469 0.9556
-5.5561 -9.7381 -1.8470 0.9556
-4.6656 -10.1957 -1.8471 0.9556
-1.8000 -11.0704 -1.8477 0.9556
-0.8054 -11.1881 -1.8479 0.9555
0.1959 -11.2167 -1.8481 0.9555
5.0248 -10.0387 -1.8494 0.9555
5.9011 -9.5518 -1.8496 0.9555
6.7306 -8.9886 -1.8499 0.9555
8.2231 -7.6516 -1.8504 0.9555
8.8741 -6.8885 -1.8507 0.9555
9.4544 -6.0702 -1.8509 0.9555
11.6108 -3.6273 -2.0039 0.9519
12.1504 0.6629 -2.0046 0.9519
12.0435 1.7442 -2.0047 0.9519
11.8405 2.8117 -2.0048 0.9519
11.5429 3.8569 -2.0049 0.9519
10.6742 5.8469 -2.0050 0.9519
9.3798 6.2864 -1.8602 0.9553
8.1131 7.8528 -1.8601 0.9553
5.4275 6.2842 -1.3679 0.9669
6.1905 10.4758 -2.0046 0.9519
3.1950 11.7380 -2.0041 0.9519
2.1350 11.9750 -2.0039 0.9519
1.0581 12.1164 -2.0036 0.9519
-0.0161 7.2367 -1.1922 0.9711
-2.1870 11.9595 -2.0029 0.9519
-7.4043 8.4967 -1.8566 0.9553
-8.7939 7.0437 -1.8561 0.9554
-9.3860 6.2304 -1.8559 0.9554
-11.1463 4.8096 -1.9999 0.9520
-11.5296 3.7957 -1.9997 0.9520
-11.8210 2.7518 -1.9994 0.9520
-12.0182 1.6862 -1.9993 0.9520
-12.1197 0.6073 -1.9991 0.9520
-12.1246 -0.4762 -1.9989 0.9520
-11.5641 -3.6690 -1.9986 0.9520
-9.9120 -5.2346 -1.8466 0.9556
-9.4055 -6.0979 -1.8466 0.9556
-8.8242 -6.9127 -1.8466 0.9556
-6.6796 -9.0034 -1.8468 0.9556
-2.1366 -11.0099 -1.8476 0.9556
-0.1461 -11.2170 -1.8480 0.9555
0.8552 -11.1867 -1.8483 0.9555
1.8499 -11.0672 -1.8485 0.9555
2.8302 -10.8596 -1.8488 0.9555
3.7882 -10.5653 -1.8490 0.9555
4.7162 -10.1867 -1.8493 0.9555
5.6069 -9.7267 -1.8495 0.9555
6.4532 -9.1891 -1.8498 0.9555
7.2482 -8.5780 -1.8501 0.9555
9.2646 -6.3553 -1.8508 0.9555
10.2540 -4.6113 -1.8522 0.9554
12.1647 0.2922 -2.0046 0.9519
12.0909 1.3763 -2.0047 0.9519
11.9205 2.4495 -2.0048 0.9519
10.8474 5.5188 -2.0050 0.9519
7.6371 8.3161 -1.8600 0.9553
3.8852 6.1393 -1.1969 0.9710
5.5635 10.8212 -2.0045 0.9519
2.6685 8.7429 -1.5059 0.9636
0.3437 12.1567 -2.0035 0.9519
-1.8215 12.0212 -2.0030 0.9519
-3.9276 11.5030 -2.0024 0.9519
-3.8223 8.5971 -1.5500 0.9626
-5.9075 10.6190 -2.0018 0.9519
-7.8904 8.0458 -1.8565 0.9553
-8.5755 7.3089 -1.8562 0.9553
-11.4089 4.1455 -1.9997 0.9520
-11.9616 2.0518 -1.9993 0.9520
-12.0959 0.9765 -1.9991 0.9520
-12.1338 -0.1064 -1.9990 0.9520
-12.0751 -1.1883 -1.9989 0.9520
-11.3281 -4.3426 -1.9986 0.9520
-9.5870 -5.8084 -1.8466 0.9556
-9.0307 -6.6405 -1.8466 0.9556
-7.7074 -8.1400 -1.8467 0.9556
-6.9508 -8.7955 -1.8468 0.9556
-6.1389 -9.3810 -1.8469 0.9556
-5.2779 -9.8919 -1.8470 0.9556
-4.3748 -10.3241 -1.8472 0.9556
-3.4367 -10.6742 -1.8474 0.9556
-0.4879 -11.2068 -1.8480 0.9555
0.5138 -11.2071 -1.8482 0.9555
1.5117 -11.1180 -1.8484 0.9555
4.4033 -10.3252 -1.8492 0.9555
5.3076 -9.8926 -1.8494 0.9555
6.1698 -9.3811 -1.8497 0.9555
7.7408 -8.1377 -1.8502 0.9555
8.4370 -7.4158 -1.8505 0.9555
12.1111 -1.1638 -2.0044 0.9519
12.1676 -0.0787 -2.0045 0.9519
11.7562 3.1463 -2.0049 0.9519
11.0106 5.1856 -2.0050 0.9519
10.2183 5.9799 -1.9504 0.9531
5.8910 10.6469 -2.0045 0.9519
4.9173 11.1290 -2.0044 0.9519
3.9046 11.5223 -2.0042 0.9519
1.7946 12.0303 -2.0038 0.9519
0.5069 8.6168 -1.4220 0.9656
-3.5147 8.6027 -1.5309 0.9630
-7.6419 8.2830 -1.8566 0.9553
-8.3492 7.5672 -1.8563 0.9553
-8.9897 6.7913 -1.8561 0.9554
-10.7899 5.4584 -1.9920 0.9522
-12.1317 0.2635 -1.9990 0.9520
-12.1060 -0.8197 -1.9989 0.9520
-9.7596 -5.5135 -1.8466 0.9556
-8.6247 -7.1601 -1.8466 0.9556
-7.2156 -8.5794 -1.8468 0.9556
-3.7604 -10.5641 -1.8473 0.9556
-1.8236 -11.0665 -1.8477 0.9556
-0.8293 -11.1863 -1.8479 0.9555
0.1719 -11.2170 -1.8481 0.9555
1.1720 -11.1584 -1.8483 0.9555
3.1370 -10.7754 -1.8488 0.9555
5.0033 -10.0493 -1.8494 0.9555
5.8807 -9.5643 -1.8496 0.9555
6.7114 -9.0029 -1.8499 0.9555
8.2067 -7.6691 -1.8504 0.9555
9.4414 -6.0904 -1.8509 0.9555
10.7772 -4.4837 -1.9229 0.9538
12.0697 -1.5323 -2.0043 0.9519
12.1592 -0.4496 -2.0045 0.9519
12.1518 0.6369 -2.0046 0.9519
11.8465 2.7865 -2.0048 0.9519
11.5511 3.8323 -2.0049 0.9519
10.6866 5.8241 -2.0050 0.9519
8.7967 7.0792 -1.8601 0.9553
8.1299 7.8355 -1.8601 0.9553
5.4281 6.2579 -1.3647 0.9670
6.6075 9.1546 -1.8599 0.9553
6.2129 10.4626 -2.0046 0.9519
4.2541 11.3983 -2.0043 0.9519
2.1605 11.9705 -2.0039 0.9519
1.0840 12.1141 -2.0036 0.9519
-1.0857 12.1109 -2.0031 0.9519
-4.2519 11.3866 -2.0023 0.9519
-4.3210 5.9846 -1.2160 0.9705
-9.3727 6.2504 -1.8559 0.9554
-11.1360 4.8334 -1.9999 0.9520
-11.5215 3.8203 -1.9997 0.9520
-11.8151 2.7770 -1.9995 0.9520
-12.1257 -0.4503 -1.9989 0.9520
-11.8513 -2.5976 -1.9987 0.9520
-11.5719 -3.6443 -1.9986 0.9520
-9.9231 -5.2134 -1.8466 0.9556
-9.4185 -6.0778 -1.8466 0.9556
-8.8389 -6.8938 -1.8466 0.9556
-7.4736 -8.3553 -1.8467 0.9556
-6.6988 -8.9892 -1.8468 0.9556
-4.9955 -10.0378 -1.8471 0.9556
-4.0805 -10.4443 -1.8472 0.9556
-0.1701 -11.2166 -1.8480 0.9555
0.8313 -11.1884 -1.8483 0.9555
2.8070 -10.8655 -1.8487 0.9555
5.5861 -9.7387 -1.8495 0.9555
7.9687 -7.9154 -1.8503 0.9555
9.7840 -5.5251 -1.8511 0.9555
11.4857 -4.0038 -2.0038 0.9519
11.7985 -2.9636 -2.0041 0.9519
12.1652 0.2662 -2.0046 0.9519
12.0938 1.3505 -2.0047 0.9519
11.9257 2.4240 -2.0048 0.9519
10.8592 5.4956 -2.0050 0.9519
-8.7446 -4.9647 -1.8901 0.9599
-7.5472 -6.2929 -1.8470 0.9608
-5.7393 -5.7271 -1.5240 0.9675
-6.3093 -7.5343 -1.8471 0.9608
-5.6123 -8.0675 -1.8472 0.9608
-4.8705 -8.5365 -1.8473 0.9608
-4.0899 -8.9375 -1.8474 0.9608
-3.2765 -9.2674 -1.8476 0.9608
-0.9759 -3.8136 -0.7399 0.9841
-0.6228 -3.8305 -0.7294 0.9843
-0.2815 -3.9100 -0.7368 0.9842
0.1717 -9.8319 -1.8483 0.9608
1.0482 -9.7784 -1.8485 0.9608
1.9165 -9.6471 -1.8487 0.9608
3.6012 -9.1552 -1.8492 0.9607
4.4040 -8.7986 -1.8494 0.9607
5.8989 -7.8779 -1.8499 0.9607
7.7771 -6.0370 -1.8505 0.9607
8.2856 -5.3198 -1.8507 0.9607
9.8474 -4.0723 -2.0030 0.9576
10.1750 -3.1787 -2.0037 0.9575
10.4189 -2.2586 -2.0038 0.9575
10.5797 -1.3202 -2.0040 0.9575
10.1149 3.3798 -2.0045 0.9575
9.3536 5.1235 -2.0046 0.9575
8.8579 5.9366 -2.0043 0.9575
7.1094 6.8813 -1.8597 0.9605
5.7730 8.0345 -1.8596 0.9605
2.2675 6.1152 -1.2259 0.9738
2.7999 10.2864 -2.0038 0.9575
1.8710 10.4942 -2.0036 0.9575
0.5373 6.1524 -1.1608 0.9752
-0.7425 8.0888 -1.5268 0.9675
-2.8437 10.2673 -2.0025 0.9576
-3.7478 9.9715 -2.0023 0.9576
-5.0644 8.4840 -1.8572 0.9606
-4.3321 5.9730 -1.3869 0.9704
-7.7080 6.1739 -1.8563 0.9606
-9.3563 5.0712 -2.0003 0.9576
-9.7703 4.2159 -2.0001 0.9576
-10.1065 3.3272 -1.9999 0.9576
-10.3620 2.4122 -1.9997 0.9576
-10.5350 1.4781 -1.9996 0.9576
-10.6241 0.5324 -1.9994 0.9576
-10.6286 -0.4175 -1.9993 0.9576
-10.3842 -2.2993 -1.9991 0.9576
-9.8098 -4.1077 -1.9990 0.9576
-5.8095 -5.4541 -1.4978 0.9681
-2.7260 -9.4446 -1.8477 0.9608
-0.7402 -3.8143 -0.7303 0.9843
-0.1281 -9.8322 -1.8482 0.9608
2.4807 -9.5184 -1.8489 0.9608
3.3203 -9.2603 -1.8491 0.9608
4.1336 -8.9283 -1.8493 0.9607
4.9142 -8.5251 -1.8495 0.9607
6.3525 -7.5180 -1.8500 0.9607
6.9987 -6.9222 -1.8502 0.9607
7.5892 -6.2710 -1.8505 0.9607
8.1193 -5.5697 -1.8507 0.9607
8.5847 -4.8237 -1.8509 0.9607
10.5343 -1.6421 -2.0039 0.9575
10.6396 -0.6959 -2.0041 0.9575
10.6599 0.2561 -2.0042 0.9575
10.5952 1.2060 -2.0043 0.9575
10.4458 2.1465 -2.0044 0.9575
10.2131 3.0698 -2.0045 0.9575
9.8988 3.9688 -2.0046 0.9575
9.5054 4.8360 -2.0046 0.9575
7.8812 5.9824 -1.8598 0.9605
6.6923 7.2873 -1.8597 0.9605
6.0153 7.8549 -1.8596 0.9605
4.5232 8.7978 -1.8594 0.9605
3.7201 9.1656 -1.8593 0.9605
3.1122 10.1966 -2.0038 0.9575
-0.6502 10.6369 -2.0030 0.9576
-1.5963 10.5353 -2.0028 0.9576
-2.5295 10.3496 -2.0026 0.9576
-6.2600 7.6419 -1.8568 0.9606
-8.0571 5.7096 -1.8561 0.9606
-9.6376 4.5119 -2.0002 0.9576
-10.0007 3.6338 -2.0000 0.9576
-10.2840 2.7270 -1.9998 0.9576
-10.6032 0.8560 -1.9995 0.9576
-10.5852 -1.0417 -1.9992 0.9576
-10.4496 -1.9817 -1.9991 0.9576
-7.9166 -5.8212 -1.8470 0.9608
-6.7565 -7.1357 -1.8471 0.9608
-6.0932 -7.7103 -1.8471 0.9608
-5.3814 -8.2235 -1.8472 0.9608
-4.6266 -8.6713 -1.8474 0.9608
-3.8349 -9.0501 -1.8475 0.9608
-3.0126 -9.3568 -1.8476 0.9608
-0.8622 -3.8169 -0.7355 0.9842
-0.4277 -9.8233 -1.8482 0.9608
0.4503 -9.8234 -1.8484 0.9608
2.1893 -9.5892 -1.8488 0.9608
3.8594 -9.0498 -1.8492 0.9607
4.6519 -8.6705 -1.8495 0.9607
6.1201 -7.7078 -1.8499 0.9607
6.7842 -7.1320 -1.8502 0.9607
7.9454 -5.8143 -1.8506 0.9607
8.4334 -5.0830 -1.8508 0.9607
9.2764 -4.5164 -1.9393 0.9589
10.4790 -1.9624 -2.0039 0.9575
10.6132 -1.0198 -2.0040 0.9575
10.6626 -0.0690 -2.0042 0.9575
10.0151 3.6652 -2.0045 0.9575
9.6484 4.5440 -2.0046 0.9575
8.3398 5.9388 -1.9244 0.9592
7.5156 6.4354 -1.8598 0.9605
6.2520 7.6680 -1.8596 0.9605
5.5428 8.1948 -1.8595 0.9605
3.4217 10.0973 -2.0039 0.9575
1.5727 10.5427 -2.0035 0.9575
0.4668 7.9350 -1.4940 0.9682
-2.2129 10.4223 -2.0027 0.9576
-3.1334 10.1822 -2.0024 0.9576
-4.0288 9.8608 -2.0022 0.9576
-4.4037 8.5171 -1.8022 0.9617
-7.3181 6.6327 -1.8564 0.9606
-9.8856 3.9371 -2.0000 0.9576
-10.1964 3.0393 -1.9999 0.9576
-10.4260 2.1174 -1.9997 0.9576
-10.5724 1.1788 -1.9995 0.9576
-10.6347 0.2310 -1.9994 0.9576
-10.6123 -0.7186 -1.9993 0.9576
-10.3147 -2.5927 -1.9991 0.9576
-8.0903 -5.5772 -1.8470 0.9608
-5.7439 -5.7073 -1.5220 0.9676
-6.3253 -7.5208 -1.8471 0.9608
-5.6295 -8.0555 -1.8472 0.9608
-4.8887 -8.5260 -1.8473 0.9608
-4.1089 -8.9287 -1.8474 0.9608
-0.9844 -3.8132 -0.7402 0.9841
-0.6310 -3.8291 -0.7294 0.9843
-0.2897 -3.9080 -0.7366 0.9842
4.3852 -8.8079 -1.8494 0.9607
5.8821 -7.8905 -1.8498 0.9607
6.5633 -7.3352 -1.8501 0.9607
7.7642 -6.0536 -1.8505 0.9607
9.8370 -4.0926 -2.0026 0.9576
10.1682 -3.2004 -2.0037 0.9575
10.6553 -0.3940 -2.0041 0.9575
10.5569 1.5059 -2.0044 0.9575
10.3809 2.4418 -2.0045 0.9575
9.7823 4.2478 -2.0046 0.9575
9.3645 5.1035 -2.0046 0.9575
8.8719 5.9186 -2.0046 0.9575
7.7084 6.2034 -1.8598 0.9605
7.1241 6.8661 -1.8597 0.9605
5.4281 6.2578 -1.5571 0.9668
5.0511 8.5062 -1.8595 0.9605
4.2719 8.9223 -1.8594 0.9605
2.2910 6.1384 -1.2315 0.9737
-0.0006 7.2239 -1.3578 0.9710
-4.2689 8.9123 -1.8574 0.9606
-5.0463 8.4949 -1.8572 0.9606
-4.3210 5.9846 -1.3874 0.9704
-7.6948 6.1904 -1.8563 0.9606
-8.3080 5.5404 -1.8770 0.9602
-10.5319 1.5006 -1.9996 0.9576
-10.6230 0.5550 -1.9994 0.9576
-10.5513 -1.3413 -1.9992 0.9576
-10.3891 -2.2771 -1.9991 0.9576
-10.1442 -3.1947 -1.9990 0.9576
-9.3815 -4.9288 -1.9919 0.9578
-5.8453 -5.4642 -1.5040 0.9680
-5.1462 -8.3729 -1.8473 0.9608
-3.5769 -9.1554 -1.8475 0.9608
-0.7487 -3.8146 -0.7307 0.9843
-0.4064 -3.8750 -0.7323 0.9843
-0.1491 -9.8318 -1.8482 0.9608
0.7287 -9.8070 -1.8484 0.9608
1.6008 -9.7040 -1.8486 0.9608
2.4604 -9.5237 -1.8488 0.9608
4.8960 -8.5355 -1.8495 0.9607
5.6386 -8.0657 -1.8498 0.9607
6.3364 -7.5315 -1.8500 0.9607
7.5758 -6.2872 -1.8504 0.9607
8.1074 -5.5870 -1.8507 0.9607
8.5744 -4.8420 -1.8509 0.9607
10.5307 -1.6645 -2.0039 0.9575
10.6380 -0.7186 -2.0041 0.9575
10.5977 1.1834 -2.0043 0.9575
9.9072 3.9476 -2.0046 0.9575
9.5157 4.8157 -2.0046 0.9575
9.0482 5.6454 -2.0046 0.9575
-5.7241 -5.7120 -1.7093 0.9675
-5.6111 -6.7006 -1.8474 0.9649
-4.9912 -7.1747 -1.8475 0.9649
-4.3315 -7.5917 -1.8476 0.9649
-3.6372 -7.9483 -1.8477 0.9649
-2.9139 -8.2417 -1.8478 0.9649
-0.8327 -3.2542 -0.7100 0.9864
-0.5330 -3.2779 -0.7020 0.9865
4.5990 -7.4441 -1.8496 0.9649
5.2453 -7.0050 -1.8498 0.9649
6.9151 -5.3679 -1.8504 0.9648
9.2635 -2.0081 -2.0036 0.9620
9.4742 -0.3301 -2.0039 0.9620
9.4664 0.5164 -2.0040 0.9620
9.3831 1.3589 -2.0041 0.9620
9.2248 2.1906 -2.0042 0.9620
8.6891 3.7951 -2.0043 0.9620
5.4274 6.2841 -1.7552 0.9666
2.3096 8.4852 -1.8589 0.9647
1.5434 8.6567 -1.8587 0.9647
0.5300 6.0690 -1.2877 0.9754
-0.0160 7.1984 -1.5216 0.9710
-0.7425 8.0888 -1.7170 0.9673
-3.0918 8.2261 -1.8576 0.9647
-4.5033 7.5441 -1.8572 0.9647
-5.7710 6.6223 -1.8568 0.9647
-6.3380 6.0804 -1.8566 0.9647
-8.6887 3.7492 -2.0003 0.9621
-8.9877 2.9589 -2.0001 0.9621
-9.2150 2.1452 -2.0000 0.9621
-9.3690 1.3145 -1.9998 0.9621
-9.3810 -1.2129 -1.9995 0.9621
-9.2351 -2.0449 -1.9994 0.9621
-8.3635 -4.4168 -1.9993 0.9621
-6.8795 -5.3893 -1.8473 0.9649
-5.7883 -5.4341 -1.6782 0.9681
-5.8126 -6.5263 -1.8474 0.9649
-5.2075 -7.0191 -1.8474 0.9649
-4.5608 -7.4560 -1.8475 0.9649
-0.0434 -3.3281 -0.7035 0.9865
0.6666 -8.7197 -1.8485 0.9649
1.4419 -8.6264 -1.8487 0.9649
2.2059 -8.4642 -1.8489 0.9649
2.9525 -8.2346 -1.8491 0.9649
3.6757 -7.9393 -1.8493 0.9649
4.3698 -7.5806 -1.8495 0.9649
5.0292 -7.1613 -1.8498 0.9649
5.6486 -6.6849 -1.8500 0.9649
6.7480 -5.5760 -1.8504 0.9648
7.2193 -4.9523 -1.8505 0.9648
8.6431 -3.8868 -2.0032 0.9620
9.3660 -1.4600 -2.0037 0.9620
6.5044 5.9225 -1.8595 0.9647
2.5673 8.4111 -1.8589 0.9647
1.8066 8.6059 -1.8588 0.9647
-0.9256 6.1089 -1.3060 0.9751
-2.0867 8.5379 -1.8579 0.9647
-2.8397 8.3168 -1.8577 0.9647
-2.6747 6.0160 -1.3917 0.9734
-4.2714 7.6781 -1.8572 0.9647
-4.9388 7.2657 -1.8570 0.9647
-5.5666 6.7954 -1.8568 0.9647
-6.6841 5.6968 -1.8564 0.9647
-8.5706 4.0124 -2.0004 0.9620
-8.8936 3.2316 -2.0002 0.9621
-9.3248 1.5995 -1.9999 0.9621
-9.4297 0.7612 -1.9997 0.9621
-9.4594 -0.0830 -1.9996 0.9621
-9.4138 -0.9264 -1.9995 0.9621
-9.2932 -1.7624 -1.9994 0.9621
-8.8316 -3.3856 -1.9993 0.9621
-7.0406 -5.1771 -1.8473 0.9649
-5.4189 -6.8570 -1.8474 0.9649
-0.4392 -3.2869 -0.7010 0.9865
0.1737 -3.7882 -0.8016 0.9846
1.1783 -8.6660 -1.8487 0.9649
1.9468 -8.5272 -1.8489 0.9649
2.7000 -8.3205 -1.8491 0.9649
4.1365 -7.7099 -1.8495 0.9649
4.8083 -7.3110 -1.8497 0.9649
5.4420 -6.8537 -1.8499 0.9649
6.5747 -5.7789 -1.8503 0.9648
7.5827 -4.5703 -1.8715 0.9645
8.8572 -3.3720 -2.0033 0.9620
9.1235 -2.5687 -2.0035 0.9620
9.4361 -0.9067 -2.0038 0.9620
9.4481 0.7846 -2.0040 0.9620
9.3409 1.6244 -2.0041 0.9620
9.1591 2.4512 -2.0042 0.9620
8.5781 4.0400 -2.0043 0.9620
8.1835 4.7891 -2.0043 0.9620
6.8955 5.9044 -1.9189 0.9636
6.1448 6.2946 -1.8594 0.9647
4.2582 7.6960 -1.8592 0.9647
3.5545 8.0447 -1.8591 0.9647
1.2973 8.6967 -1.8586 0.9647
0.4757 8.0877 -1.7125 0.9674
-1.8255 8.5978 -1.8579 0.9647
-2.5849 8.3998 -1.8577 0.9647
-2.4803 6.0708 -1.3862 0.9735
-5.3571 6.9622 -1.8569 0.9647
-7.3478 5.5510 -1.9466 0.9631
-8.4446 4.2719 -2.0004 0.9620
-9.4023 1.0483 -1.9998 0.9621
-9.4577 0.2054 -1.9996 0.9621
-9.4378 -0.6391 -1.9995 0.9621
-9.3428 -1.4784 -1.9994 0.9621
-9.1733 -2.3058 -1.9994 0.9621
-8.9308 -3.1148 -1.9993 0.9621
-8.6172 -3.8990 -1.9993 0.9621
-8.2237 -4.6458 -1.9965 0.9621
-7.1951 -4.9601 -1.8473 0.9649
-6.7240 -5.5822 -1.8473 0.9649
-5.6254 -6.6886 -1.8474 0.9649
-5.0065 -7.1640 -1.8475 0.9649
-2.9314 -8.2354 -1.8478 0.9649
-0.8400 -3.2537 -0.7103 0.9864
-0.5401 -3.2774 -0.7021 0.9865
-0.2451 -3.3065 -0.7008 0.9865
0.0518 -3.3823 -0.7150 0.9863
1.6859 -8.5823 -1.8488 0.9649
2.4451 -8.3986 -1.8490 0.9649
6.3952 -5.9764 -1.8502 0.9648
7.3570 -4.7458 -1.8506 0.9648
9.2592 -2.0279 -2.0036 0.9620
9.4039 -1.1939 -2.0037 0.9620
9.4675 0.4962 -2.0040 0.9620
9.3859 1.3389 -2.0041 0.9620
8.9992 2.9857 -2.0042 0.9620
8.6972 3.7766 -2.0043 0.9620
6.3338 6.1045 -1.8594 0.9647
5.4280 6.2578 -1.7510 0.9667
5.1479 7.1323 -1.8593 0.9647
4.4909 7.5627 -1.8592 0.9647
2.3277 8.4802 -1.8589 0.9647
-0.7849 8.7556 -1.8582 0.9647
-1.0885 6.0249 -1.2942 0.9753
-2.3278 8.4750 -1.8578 0.9647
-3.0742 8.2327 -1.8576 0.9647
-4.4872 7.5537 -1.8572 0.9647
-4.3210 5.9846 -1.5603 0.9703
-6.9282 5.5737 -1.8796 0.9643
-8.6806 3.7677 -2.0003 0.9621
-8.9814 2.9781 -2.0001 0.9621
-9.3662 1.3345 -1.9998 0.9621
-9.4531 -0.3511 -1.9996 0.9621
-9.3836 -1.1929 -1.9995 0.9621
-9.2394 -2.0251 -1.9994 0.9621
-8.7321 -3.6346 -1.9993 0.9621
-6.8910 -5.3746 -1.8473 0.9649
-5.8169 -5.4377 -1.6832 0.9680
-5.8266 -6.5139 -1.8474 0.9649
-4.5767 -7.4463 -1.8475 0.9649
-3.1810 -8.1420 -1.8478 0.9649
-0.3458 -3.2973 -0.7008 0.9865
1.4235 -8.6294 -1.8487 0.9649
2.9349 -8.2409 -1.8491 0.9649
3.6587 -7.9471 -1.8493 0.9649
5.0138 -7.1720 -1.8497 0.9649
5.6343 -6.6969 -1.8500 0.9649
6.7361 -5.5903 -1.8504 0.9648
7.2087 -4.9677 -1.8505 0.9648
8.0463 -4.5438 -1.9533 0.9629
8.6348 -3.9053 -2.0032 0.9620
9.4781 0.2074 -2.0040 0.9620
9.0860 2.7099 -2.0042 0.9620
8.4601 4.2815 -2.0043 0.9620
6.5203 5.9116 -1.8604 0.9647
-6.0376 -5.0342 -1.8475 0.9682
-5.5646 -5.5528 -1.8476 0.9682
-5.0472 -6.0272 -1.8476 0.9682
-2.3612 -4.1385 -1.1198 0.9806
-0.7570 -2.9583 -0.7177 0.9875
-0.4845 -2.9800 -0.7096 0.9877
0.8384 -7.8213 -1.8487 0.9682
2.8802 -7.3222 -1.8492 0.9682
3.5222 -7.0368 -1.8494 0.9682
4.1363 -6.6952 -1.8496 0.9682
4.7176 -6.3002 -1.8498 0.9682
5.7632 -5.3627 -1.8502 0.9682
6.2192 -4.8276 -1.8503 0.9682
7.8762 -3.2571 -2.0031 0.9656
8.5132 0.4644 -2.0038 0.9656
8.4382 1.2221 -2.0039 0.9656
7.8140 3.4129 -2.0040 0.9656
7.4785 4.0964 -2.0040 0.9656
7.0832 4.7472 -2.0040 0.9656
6.6314 5.3601 -2.0040 0.9656
1.6795 6.1703 -1.5029 0.9741
1.3880 7.7852 -1.8585 0.9680
0.5300 6.0689 -1.4318 0.9753
-0.0153 6.8952 -1.6205 0.9721
-0.6330 6.8958 -1.6275 0.9719
-2.7807 7.3984 -1.8575 0.9680
-4.0503 6.7852 -1.8572 0.9681
-4.3321 5.9730 -1.7341 0.9701
-5.8337 5.5966 -1.9000 0.9673
-6.6451 5.3226 -2.0010 0.9656
-7.0928 4.7081 -2.0008 0.9656
-7.4838 4.0563 -2.0006 0.9656
-7.8152 3.3722 -2.0004 0.9656
-8.4273 1.1824 -2.0000 0.9656
-8.4383 -1.0910 -1.9997 0.9656
-8.3070 -1.8394 -1.9996 0.9656
-8.1096 -2.5730 -1.9996 0.9656
-6.2650 -4.9079 -1.8704 0.9678
-5.2285 -5.8705 -1.8476 0.9682
-2.8574 -3.8515 -1.1271 0.9805
-3.4880 -7.0463 -1.8478 0.9682
-0.5771 -2.9739 -0.7120 0.9876
-0.3075 -2.9936 -0.7073 0.9877
-0.0392 -3.0088 -0.7072 0.9877
1.2969 -7.7589 -1.8488 0.9682
1.9841 -7.6130 -1.8490 0.9682
2.6556 -7.4064 -1.8492 0.9682
3.3060 -7.1407 -1.8494 0.9682
6.0689 -5.0148 -1.8503 0.9682
6.6851 -4.5859 -1.9053 0.9672
7.4251 -4.1722 -2.0017 0.9656
7.7730 -3.4956 -2.0031 0.9656
8.2718 -2.0590 -2.0034 0.9656
8.4230 -1.3130 -2.0035 0.9656
8.5232 0.2047 -2.0037 0.9656
7.9144 3.1731 -2.0040 0.9656
7.2246 4.5291 -2.0040 0.9656
6.7918 5.1555 -2.0040 0.9656
4.8095 6.2804 -1.8591 0.9680
3.8851 6.1392 -1.7075 0.9706
3.6166 7.0344 -1.8590 0.9680
2.9745 7.3286 -1.8588 0.9680
1.6247 7.7395 -1.8586 0.9680
0.1739 6.1485 -1.4456 0.9750
-1.1843 7.8163 -1.8580 0.9680
-4.4420 6.5348 -1.8571 0.9681
-5.0067 6.1119 -1.8569 0.9681
-5.5314 5.6403 -1.8567 0.9681
-7.3569 4.2827 -2.0007 0.9656
-8.2263 2.1813 -2.0002 0.9656
-8.3875 1.4387 -2.0001 0.9656
-8.4819 0.6847 -1.9999 0.9656
-8.5087 -0.0746 -1.9998 0.9656
-8.1843 -2.3246 -1.9996 0.9656
-7.9442 -3.0454 -1.9996 0.9656
-7.6407 -3.7419 -1.9995 0.9656
-7.2765 -4.4085 -1.9995 0.9656
-5.8925 -5.2033 -1.8475 0.9682
-4.8744 -6.1679 -1.8476 0.9682
-0.6701 -2.9667 -0.7148 0.9876
0.1539 -3.3570 -0.7898 0.9863
1.0598 -7.7946 -1.8488 0.9682
1.7511 -7.6697 -1.8489 0.9682
2.4285 -7.4836 -1.8491 0.9682
3.0867 -7.2379 -1.8493 0.9682
4.3246 -6.5755 -1.8497 0.9682
5.4253 -5.7035 -1.8500 0.9682
5.9130 -5.1973 -1.8502 0.9682
6.3537 -4.6495 -1.8504 0.9682
7.2812 -4.3885 -1.9980 0.9657
8.2049 -2.3101 -2.0033 0.9656
8.5254 -0.0552 -2.0037 0.9656
8.2367 2.2044 -2.0039 0.9656
8.0074 2.9304 -2.0040 0.9656
5.7343 5.8741 -1.9293 0.9668
4.9988 6.1309 -1.8591 0.9680
4.4318 6.5521 -1.8591 0.9680
3.8294 6.9210 -1.8590 0.9680
3.1966 7.2346 -1.8589 0.9680
2.5383 7.4905 -1.8588 0.9680
1.8599 7.6865 -1.8586 0.9680
1.1667 7.8212 -1.8585 0.9680
-0.2109 6.8954 -1.6213 0.9721
-2.3248 7.5546 -1.8577 0.9680
-4.2409 6.6674 -1.8571 0.9681
-4.8183 6.2619 -1.8569 0.9681
-5.3571 5.8065 -1.8567 0.9681
-6.1555 5.5790 -1.9525 0.9664
-6.7931 5.1319 -2.0009 0.9656
-7.5956 3.8424 -2.0006 0.9656
-8.1562 2.4311 -2.0002 0.9656
-8.4573 0.9430 -2.0000 0.9656
-8.4039 -1.3298 -1.9997 0.9656
-8.2515 -2.0741 -1.9996 0.9656
-8.0334 -2.8018 -1.9996 0.9656
-7.4075 -4.1847 -1.9995 0.9656
-6.9833 -4.8140 -1.9934 0.9657
-5.5764 -5.5409 -1.8476 0.9682
-5.0601 -6.0164 -1.8476 0.9682
-2.3706 -4.1343 -1.1201 0.9806
-0.7636 -2.9579 -0.7180 0.9875
-0.4910 -2.9794 -0.7097 0.9877
0.0468 -3.0524 -0.7175 0.9875
1.5164 -7.7193 -1.8489 0.9682
2.8645 -7.3284 -1.8492 0.9682
6.2088 -4.8409 -1.8503 0.9682
7.0735 -4.5629 -1.9783 0.9660
7.5452 -3.9625 -2.0030 0.9656
8.1305 -2.5590 -2.0033 0.9656
8.4570 -1.0737 -2.0035 0.9656
8.5141 0.4463 -2.0038 0.9656
8.0929 2.6850 -2.0040 0.9656
7.0933 4.7321 -2.0040 0.9656
6.6429 5.3459 -2.0040 0.9656
6.0925 5.8719 -1.9887 0.9658
5.1834 5.9758 -1.8592 0.9680
4.6295 6.4141 -1.8591 0.9680
4.0387 6.8012 -1.8590 0.9680
2.2910 6.1384 -1.5399 0.9734
1.6931 6.1683 -1.5033 0.9741
1.4046 7.7822 -1.8586 0.9680
0.5426 6.0641 -1.4309 0.9753
-1.0884 6.0249 -1.4389 0.9752
-5.1778 5.9673 -1.8568 0.9681
-5.8102 5.5979 -1.8962 0.9674
-7.4751 4.0723 -2.0006 0.9656
-7.8080 3.3889 -2.0004 0.9656
-8.4248 1.2003 -2.0000 0.9656
-8.5030 -0.3158 -1.9998 0.9656
-8.4406 -1.0730 -1.9997 0.9656
-7.8546 -3.2693 -1.9995 0.9656
-7.5316 -3.9569 -1.9995 0.9656
-6.2923 -4.9077 -1.8755 0.9677
-5.7427 -5.3683 -1.8475 0.9682
-2.8716 -3.8535 -1.1295 0.9804
-2.5082 -4.0808 -1.1258 0.9805
-0.8589 -2.9519 -0.7225 0.9874
-0.5836 -2.9735 -0.7122 0.9876
-0.0456 -3.0086 -0.7072 0.9877
0.2738 -3.6846 -0.8684 0.9849
1.9678 -7.6172 -1.8490 0.9682
2.6397 -7.4120 -1.8492 0.9682
3.2907 -7.1477 -1.8494 0.9682
5.0673 -6.0231 -1.8499 0.9682
6.0582 -5.0277 -1.8503 0.9682
6.6570 -4.5875 -1.9001 0.9673
8.0485 -2.8056 -2.0032 0.9656
8.2673 -2.0766 -2.0034 0.9656
8.5058 -0.5745 -2.0036 0.9656
7.9211 3.1562 -2.0040 0.9656
7.6081 3.8503 -2.0040 0.9656
7.2343 4.5137 -2.0040 0.9656
6.8028 5.1410 -2.0040 0.9656
-6.7164 -3.8132 -1.9997 0.9686
-5.8515 -4.8789 -1.9726 0.9690
-2.7319 -3.2623 -1.1017 0.9826
-2.3380 -3.3608 -1.0600 0.9832
-1.7564 -3.8383 -1.0929 0.9827
-0.4497 -2.7660 -0.7256 0.9885
0.0496 -2.8401 -0.7355 0.9883
2.0109 -6.8527 -1.8491 0.9709
2.6144 -6.6466 -1.8493 0.9709
3.1972 -6.3875 -1.8494 0.9709
3.7546 -6.0773 -1.8496 0.9709
4.2821 -5.7187 -1.8498 0.9709
5.2311 -4.8676 -1.8501 0.9709
6.5058 -4.1771 -2.0018 0.9686
6.8561 -3.5820 -2.0028 0.9685
7.1489 -2.9563 -2.0030 0.9685
7.3846 -2.3070 -2.0031 0.9685
7.5615 -1.6391 -2.0033 0.9685
7.7332 -0.2694 -2.0035 0.9685
7.7268 0.4215 -2.0036 0.9685
7.6587 1.1092 -2.0037 0.9685
7.5294 1.7880 -2.0037 0.9685
7.0921 3.0976 -2.0038 0.9685
6.7876 3.7180 -2.0038 0.9685
6.4289 4.3086 -2.0038 0.9685
5.5608 5.3823 -2.0038 0.9685
5.0476 5.8443 -1.9994 0.9686
3.6524 6.1808 -1.8588 0.9708
3.0864 6.4816 -1.8588 0.9708
2.2675 6.1152 -1.6887 0.9734
0.5300 6.0689 -1.5773 0.9751
-0.0152 6.8375 -1.7703 0.9721
-0.6277 6.8378 -1.7779 0.9720
-1.1017 6.0246 -1.5857 0.9750
-2.5240 6.7155 -1.8575 0.9708
-3.1127 6.4630 -1.8573 0.9708
-4.2109 5.8059 -1.8570 0.9708
-4.8926 5.6144 -1.9282 0.9697
-5.5775 5.3508 -2.0012 0.9686
-6.0321 4.8315 -2.0010 0.9686
-7.3386 2.4160 -2.0004 0.9686
-7.5244 1.7516 -2.0003 0.9686
-7.7184 -0.3032 -2.0000 0.9686
-7.6603 -0.9904 -1.9999 0.9686
-6.8295 -3.6067 -1.9997 0.9686
-6.0635 -4.7501 -1.9943 0.9687
-2.8929 -3.2481 -1.1262 0.9822
-2.4378 -3.2860 -1.0594 0.9832
-2.1883 -3.5775 -1.0858 0.9828
-1.8534 -3.7441 -1.0817 0.9829
-1.5638 -4.0279 -1.1187 0.9823
-0.7896 -2.7355 -0.7372 0.9883
-0.2852 -2.7770 -0.7228 0.9885
2.4105 -6.7230 -1.8492 0.9709
3.5675 -6.1888 -1.8495 0.9709
4.1057 -5.8464 -1.8497 0.9709
5.5885 -4.6178 -1.8770 0.9705
6.3653 -4.3664 -1.9986 0.9686
7.0553 -3.1728 -2.0029 0.9685
7.7213 -0.5050 -2.0035 0.9685
7.6888 0.8752 -2.0036 0.9685
7.4114 2.2277 -2.0038 0.9685
6.5572 4.1107 -2.0038 0.9685
5.7223 5.2104 -2.0038 0.9685
5.2345 5.6999 -2.0037 0.9685
4.4781 5.8475 -1.9070 0.9700
3.8392 6.0667 -1.8589 0.9708
3.2826 6.3847 -1.8588 0.9708
1.4746 7.0247 -1.8585 0.9708
0.1933 6.8371 -1.7709 0.9721
-6.3054 4.4682 -2.0009 0.9686
-7.4677 1.9802 -2.0003 0.9686
-7.6998 0.6216 -2.0001 0.9686
-7.6870 -0.7565 -1.9999 0.9686
-7.5886 -1.4392 -1.9998 0.9686
-7.4298 -2.1103 -1.9998 0.9686
-7.2118 -2.7646 -1.9998 0.9686
-6.9363 -3.3969 -1.9997 0.9686
-6.6056 -4.0021 -1.9997 0.9686
-6.2152 -4.5702 -1.9974 0.9686
-5.5294 -4.8827 -1.9099 0.9700
-2.5453 -3.2207 -1.0629 0.9832
-2.2463 -3.4327 -1.0622 0.9832
-1.6967 -4.0039 -1.1259 0.9822
-0.8783 -2.7279 -0.7420 0.9882
-0.3704 -2.7721 -0.7241 0.9885
-0.1214 -2.7876 -0.7224 0.9885
0.9620 -7.0755 -1.8488 0.9709
2.2044 -6.7931 -1.8492 0.9709
3.3771 -6.2944 -1.8495 0.9709
4.4427 -5.5952 -1.8498 0.9709
6.2195 -4.5513 -1.9954 0.9687
6.6248 -3.9929 -2.0027 0.9685
6.9551 -3.3863 -2.0029 0.9685
7.2300 -2.7525 -2.0030 0.9685
7.4472 -2.0968 -2.0032 0.9685
7.6050 -1.4242 -2.0033 0.9685
7.7118 0.6404 -2.0036 0.9685
7.2677 2.6597 -2.0038 0.9685
7.0015 3.2975 -2.0038 0.9685
6.6795 3.9089 -2.0038 0.9685
6.3041 4.4891 -2.0038 0.9685
5.8785 5.0336 -2.0038 0.9685
4.7665 5.8461 -1.9530 0.9693
2.9013 6.5664 -1.8587 0.9708
2.3039 6.7987 -1.8586 0.9708
-0.8583 7.1243 -1.8579 0.9708
-1.4903 7.0187 -1.8578 0.9708
-2.1102 6.8572 -1.8576 0.9708
-3.8495 6.0521 -1.8571 0.9708
-4.3736 5.6841 -1.8570 0.9708
-5.1661 5.5995 -1.9726 0.9690
-6.1664 4.6585 -2.0010 0.9686
-7.4040 2.2069 -2.0004 0.9686
-7.5709 1.5376 -2.0003 0.9686
-7.7228 0.1677 -2.0000 0.9686
-7.6290 -1.2072 -1.9999 0.9686
-7.0367 -3.1839 -1.9997 0.9686
-6.7245 -3.7989 -1.9997 0.9686
-6.3589 -4.3836 -1.9997 0.9686
-2.7398 -3.2576 -1.1021 0.9826
-2.3448 -3.3553 -1.0599 0.9832
-0.9674 -2.7177 -0.7469 0.9882
-0.2062 -2.7822 -0.7223 0.9885
0.3787 -3.6054 -0.9386 0.9851
1.3765 -7.0071 -1.8489 0.9709
2.6002 -6.6522 -1.8493 0.9709
3.1835 -6.3943 -1.8494 0.9709
3.7416 -6.0853 -1.8496 0.9709
4.2699 -5.7278 -1.8498 0.9709
4.7643 -5.3246 -1.8499 0.9709
5.8989 -4.5992 -1.9367 0.9696
7.5579 -1.6553 -2.0033 0.9685
7.6759 -0.9745 -2.0034 0.9685
7.7277 0.4050 -2.0036 0.9685
7.6610 1.0928 -2.0037 0.9685
7.0987 3.0825 -2.0038 0.9685
6.7955 3.7035 -2.0038 0.9685
6.4381 4.2949 -2.0038 0.9685
6.0292 4.8521 -2.0038 0.9685
5.5722 5.3705 -2.0038 0.9685
5.0693 5.8442 -2.0031 0.9685
2.2910 6.1384 -1.6964 0.9733
0.5426 6.0640 -1.5764 0.9752
-1.0884 6.0249 -1.5852 0.9750
-2.5097 6.7209 -1.8575 0.9708
-3.0989 6.4696 -1.8574 0.9708
-3.6634 6.1668 -1.8572 0.9708
-4.1985 5.8149 -1.8570 0.9708
-6.7856 3.6967 -2.0007 0.9686
-7.3335 2.4316 -2.0004 0.9686
-7.5206 1.7676 -2.0003 0.9686
-7.7142 0.4031 -2.0001 0.9686
-7.7190 -0.2867 -2.0000 0.9686
-7.6624 -0.9741 -1.9999 0.9686
-7.5447 -1.6537 -1.9998 0.9686
-7.3669 -2.3201 -1.9998 0.9686
-7.1305 -2.9679 -1.9997 0.9686
-6.4895 -4.1877 -1.9997 0.9686
-5.2285 -4.8877 -1.8531 0.9709
-2.9048 -3.2475 -1.1281 0.9822
-2.4453 -3.2814 -1.0596 0.9832
-2.1961 -3.5731 -1.0859 0.9828
-1.8615 -3.7405 -1.0818 0.9829
-1.5732 -4.0267 -1.1193 0.9823
-0.7958 -2.7351 -0.7375 0.9883
-0.2912 -2.7767 -0.7229 0.9885
0.2434 -3.2753 -0.8504 0.9865
1.1622 -7.0456 -1.8489 0.9709
3.5543 -6.1964 -1.8495 0.9709
4.5996 -5.4671 -1.8499 0.9709
5.5659 -4.6192 -1.8727 0.9706
7.3053 -2.5465 -2.0031 0.9685
7.5038 -1.8848 -2.0032 0.9685
7.6425 -1.2080 -2.0033 0.9685
7.7363 0.1693 -2.0036 0.9685
7.5837 1.5415 -2.0037 0.9685
7.4161 2.2119 -2.0038 0.9685
7.1894 2.8647 -2.0038 0.9685
6.5660 4.0967 -2.0038 0.9685
6.1743 4.6660 -2.0038 0.9685
5.7334 5.1981 -2.0038 0.9685
-2.7865 -2.7806 -1.1144 0.9838
-2.1903 -3.1484 -1.0858 0.9842
0.0466 -2.6666 -0.7550 0.9890
2.3912 -6.0791 -1.8493 0.9732
4.3677 -4.8605 -1.8499 0.9732
4.9700 -4.6246 -1.9219 0.9722
5.5789 -4.3306 -1.9993 0.9711
6.9153 -1.4991 -2.0031 0.9710
7.0723 -0.2464 -2.0033 0.9710
7.0041 1.0144 -2.0035 0.9710
6.7127 2.2430 -2.0036 0.9710
6.4859 2.8329 -2.0036 0.9710
5.8794 3.9404 -2.0036 0.9710
5.5044 4.4491 -2.0036 0.9710
4.6260 5.3562 -2.0035 0.9710
4.1296 5.7473 -2.0035 0.9710
3.4397 5.8208 -1.9140 0.9723
2.8226 5.9277 -1.8586 0.9731
2.2534 6.0773 -1.8349 0.9734
-0.0146 6.5634 -1.8581 0.9731
-0.5999 6.5355 -1.8579 0.9731
-2.3084 6.1419 -1.8575 0.9731
-2.8469 5.9110 -1.8573 0.9731
-4.6448 5.3300 -2.0014 0.9710
-5.8889 3.9090 -2.0010 0.9710
-6.2136 3.3679 -2.0008 0.9710
-6.7123 2.2098 -2.0005 0.9710
-7.0567 0.3536 -2.0002 0.9711
-7.0598 -0.2773 -2.0001 0.9711
-7.0067 -0.9059 -2.0001 0.9711
-6.8977 -1.5273 -2.0000 0.9711
-6.5163 -2.7286 -1.9999 0.9711
-5.5612 -4.3566 -1.9999 0.9711
-2.2879 -3.0839 -1.0871 0.9842
-1.0644 -2.7415 -0.8325 0.9878
-0.7559 -2.6190 -0.7717 0.9887
-0.5097 -2.6265 -0.7574 0.9889
-0.0344 -2.6384 -0.7470 0.9891
0.6050 -3.6192 -1.0388 0.9849
1.0204 -3.9151 -1.1454 0.9833
1.3945 -3.8892 -1.1697 0.9830
2.7447 -5.9283 -1.8494 0.9732
3.2628 -5.6603 -1.8496 0.9732
3.7551 -5.3471 -1.8497 0.9732
4.6925 -4.6413 -1.8684 0.9729
5.4368 -4.4925 -1.9966 0.9711
5.8333 -4.0015 -2.0026 0.9710
6.6860 -2.3147 -2.0030 0.9710
6.9917 -1.0899 -2.0032 0.9710
7.0748 0.1699 -2.0034 0.9710
7.0317 0.8004 -2.0035 0.9710
6.3082 3.2094 -2.0036 0.9710
5.9967 3.7593 -2.0036 0.9710
5.2332 4.7650 -2.0036 0.9710
4.7871 5.2127 -2.0036 0.9710
3.0020 5.8390 -1.8587 0.9731
2.4691 6.0832 -1.8586 0.9731
1.9165 6.2789 -1.8585 0.9731
0.1855 6.5610 -1.8581 0.9731
-0.4005 6.5509 -1.8580 0.9731
-1.5579 6.3745 -1.8577 0.9731
-2.1202 6.2096 -1.8575 0.9731
-3.1894 5.7331 -1.8572 0.9731
-4.4803 5.4692 -2.0015 0.9710
-4.9499 5.0474 -2.0013 0.9710
-5.3800 4.5853 -2.0012 0.9710
-5.7671 4.0868 -2.0010 0.9710
-6.6420 2.4134 -2.0006 0.9710
-6.9643 1.1946 -2.0003 0.9711
-7.0428 0.5685 -2.0002 0.9711
-7.0651 -0.0620 -2.0002 0.9711
-6.5965 -2.5287 -1.9999 0.9711
-5.6914 -4.1850 -1.9999 0.9711
-5.2841 -4.6661 -1.9956 0.9711
-2.6715 -2.8215 -1.1000 0.9840
-2.0924 -3.1974 -1.0818 0.9842
-1.5513 -3.6610 -1.1256 0.9836
-0.3516 -2.6314 -0.7515 0.9890
0.1259 -2.7473 -0.7785 0.9886
1.2662 -3.9019 -1.1613 0.9831
4.5039 -4.7348 -1.8500 0.9732
5.2425 -4.6080 -1.9759 0.9714
5.7069 -4.1762 -2.0019 0.9710
6.0588 -3.6518 -2.0027 0.9710
6.3609 -3.0969 -2.0028 0.9710
6.8108 -1.9176 -2.0031 0.9710
6.9551 -1.3025 -2.0032 0.9710
7.0766 -0.0458 -2.0034 0.9710
7.0527 0.5857 -2.0035 0.9710
6.9726 1.2125 -2.0035 0.9710
6.8368 1.8297 -2.0036 0.9710
6.6465 2.4324 -2.0036 0.9710
5.7653 4.1054 -2.0036 0.9710
5.3760 4.6033 -2.0036 0.9710
3.9360 5.8191 -1.9888 0.9712
2.6534 6.0052 -1.8586 0.9731
2.0939 6.1790 -1.8469 0.9732
0.3854 6.5524 -1.8582 0.9731
-0.7850 6.5157 -1.8579 0.9731
-1.9300 6.2715 -1.8576 0.9731
-2.4815 6.0739 -1.8574 0.9731
-3.5951 5.6521 -1.8963 0.9725
-4.7939 5.1960 -2.0014 0.9710
-5.9972 3.7404 -2.0009 0.9710
-6.5655 2.6148 -2.0006 0.9710
-6.7721 2.0186 -2.0005 0.9711
-7.0638 0.1534 -2.0002 0.9711
-6.9781 -1.1042 -2.0000 0.9711
-6.8516 -1.7222 -2.0000 0.9711
-6.6705 -2.3265 -1.9999 0.9711
-6.1508 -3.4748 -1.9999 0.9711
-5.8163 -4.0096 -1.9999 0.9711
-5.4312 -4.5089 -1.9983 0.9711
-0.9299 -2.6125 -0.7850 0.9885
-0.6769 -2.6221 -0.7666 0.9888
-0.1953 -2.6346 -0.7479 0.9891
0.3374 -3.2123 -0.9144 0.9867
0.7613 -3.8755 -1.1181 0.9837
2.3782 -6.0842 -1.8493 0.9732
4.3573 -4.8698 -1.8499 0.9732
4.9500 -4.6258 -1.9180 0.9722
5.9445 -3.8346 -2.0026 0.9710
6.2633 -3.2893 -2.0028 0.9710
6.5323 -2.7177 -2.0029 0.9710
6.7491 -2.1242 -2.0030 0.9710
7.0199 -0.8912 -2.0032 0.9710
7.0718 -0.2615 -2.0033 0.9710
7.0672 0.3704 -2.0034 0.9710
7.0062 0.9994 -2.0035 0.9710
6.7175 2.2286 -2.0036 0.9710
5.5139 4.4373 -2.0036 0.9710
5.0960 4.9114 -2.0036 0.9710
4.6374 5.3463 -2.0035 0.9710
4.1419 5.7385 -2.0035 0.9710
3.4565 5.8208 -1.9165 0.9722
2.8353 5.9217 -1.8586 0.9731
1.7377 6.3306 -1.8584 0.9731
1.1659 6.4600 -1.8583 0.9731
0.5426 6.0640 -1.7235 0.9750
-0.5860 6.5368 -1.8579 0.9731
-2.8343 5.9171 -1.8573 0.9731
-3.3644 5.6635 -1.8649 0.9730
-4.0634 5.6279 -1.9651 0.9716
-6.7076 2.2241 -2.0005 0.9710
-6.8788 1.6168 -2.0004 0.9711
-6.7384 -2.1221 -1.9999 0.9711
-6.5221 -2.7147 -1.9999 0.9711
-5.9359 -3.8305 -1.9999 0.9711
-2.9777 -2.7836 -1.1539 0.9832
-2.5807 -2.8851 -1.0958 0.9840
-1.7697 -3.5560 -1.1245 0.9836
-1.0930 -2.7977 -0.8503 0.9876
-0.0400 -2.6382 -0.7470 0.9891
0.5955 -3.6097 -1.0357 0.9849
1.0115 -3.9153 -1.1448 0.9833
1.3855 -3.8903 -1.1691 0.9830
3.2507 -5.6672 -1.8495 0.9732
3.7436 -5.3551 -1.8497 0.9732
