ply
format ascii 1.0
element vertex 1568
property float32 x
property float32 y
property float32 z
property float32 I
end_header
11.5098 -12.1771 2.1819 0.9346
-9.7608 -16.7296 2.5222 0.9248
4.2534 -15.0716 2.0393 0.9388
5.1419 -13.4841 1.8793 0.9434
10.8306 -12.3165 2.1358 0.9360
-6.4379 -15.8597 2.2289 0.9333
10.3819 -12.6989 2.1360 0.9360
14.2125 10.4005 2.2934 0.9314
-14.2632 4.0813 1.9319 0.9419
-5.3997 -15.6468 2.1554 0.9354
-3.8702 -15.6082 2.0941 0.9372
-0.9714 -15.0247 1.9606 0.9411
0.3571 -14.4659 1.8843 0.9433
4.2011 -13.9546 1.8977 0.9429
9.7328 -12.8186 2.0959 0.9371
15.1629 -11.6145 2.4872 0.9258
-4.4905 -15.7478 1.7584 0.9362
-0.1463 -14.5697 1.5646 0.9431
0.9463 -5.5645 0.6061 0.9775
4.9926 -13.8080 1.5767 0.9426
6.1858 -13.2704 1.5722 0.9428
9.8509 -13.9548 1.8342 0.9336
16.3717 -11.1795 2.1288 0.9233
4.1018 7.9908 0.9645 0.9645
-6.9251 -16.2450 1.8963 0.9314
-5.0535 -15.5763 1.7584 0.9362
-3.7194 -16.2902 1.7943 0.9350
0.6239 -14.4117 1.5490 0.9436
5.6602 -13.3783 1.5599 0.9432
7.1160 -13.3573 1.6252 0.9409
10.0649 -12.7568 1.7449 0.9367
11.5103 -12.1775 1.7993 0.9348
15.7353 -11.5954 2.0989 0.9244
-9.8194 -16.8301 2.0923 0.9246
-5.7305 -15.7152 1.7962 0.9349
0.1063 -14.5179 1.5590 0.9433
1.4076 -14.5309 1.5677 0.9430
1.0437 -5.5519 0.6066 0.9775
12.8149 -12.1862 1.8989 0.9313
15.3325 -12.1724 2.1022 0.9243
3.9511 8.0377 0.9617 0.9646
-6.4381 -15.8603 1.8381 0.9335
-4.8198 -15.7844 1.7722 0.9358
0.8891 -14.6481 1.5758 0.9427
4.7214 -13.8581 1.5721 0.9428
10.3815 -12.6984 1.7613 0.9361
11.8492 -12.1079 1.8192 0.9341
16.1959 -11.5064 2.1334 0.9232
-14.2789 4.0858 1.5948 0.9420
-9.6578 -17.2338 2.1214 0.9236
-7.3172 -16.3174 1.9203 0.9306
-5.3999 -15.6474 1.7775 0.9356
-3.8700 -15.6075 1.7267 0.9374
-0.9713 -15.0242 1.6167 0.9412
0.3572 -14.4664 1.5539 0.9434
9.7324 -12.8181 1.7282 0.9373
11.1555 -12.2503 1.7792 0.9355
-4.4903 -15.7472 1.3862 0.9364
1.1578 -14.5869 1.2387 0.9430
4.9924 -13.8075 1.2429 0.9428
9.8516 -13.9558 1.4461 0.9337
10.5581 -12.4355 1.3810 0.9366
12.4584 -12.2661 1.4800 0.9322
4.1067 8.0003 0.7613 0.9645
-5.2551 6.4199 0.7023 0.9672
-6.9249 -16.2443 1.4949 0.9316
-3.7198 -16.2920 1.4147 0.9351
0.6239 -14.4122 1.2212 0.9437
4.4693 -13.9041 1.2363 0.9431
5.6604 -13.3787 1.2297 0.9434
7.1157 -13.3568 1.2811 0.9411
10.0645 -12.7563 1.3755 0.9369
15.7345 -11.5949 1.6546 0.9245
-14.1709 4.3224 1.2542 0.9423
-5.7307 -15.7158 1.4161 0.9351
-1.2376 -15.0728 1.2802 0.9411
1.4076 -14.5304 1.2358 0.9431
1.0435 -5.5511 0.4781 0.9776
5.1422 -13.4851 1.2217 0.9437
6.5708 -13.4800 1.2695 0.9416
10.8315 -12.3174 1.3885 0.9363
15.3331 -12.1729 1.6573 0.9244
-0.4187 -14.6261 1.2386 0.9430
11.8497 -12.1084 1.4342 0.9343
14.2097 10.3984 1.4906 0.9318
-14.2918 4.0895 1.2584 0.9421
-9.6586 -17.2352 1.6725 0.9238
-5.4001 -15.6480 1.4013 0.9357
-0.9713 -15.0236 1.2744 0.9414
0.3572 -14.4669 1.2250 0.9436
1.6562 -14.4742 1.2333 0.9432
4.2008 -13.9536 1.2336 0.9432
11.1560 -12.2508 1.4026 0.9356
15.2532 -11.6836 1.6265 0.9258
-4.4901 -15.7466 1.0154 0.9365
-0.1463 -14.5707 0.9036 0.9433
1.1578 -14.5864 0.9074 0.9430
6.1862 -13.2713 0.9080 0.9430
9.8523 -13.9567 1.0594 0.9338
10.5579 -12.4352 1.0116 0.9367
12.4579 -12.2656 1.0841 0.9323
4.1100 8.0069 0.5581 0.9646
-5.0539 -15.5775 1.0155 0.9365
-3.7202 -16.2938 1.0364 0.9352
0.6239 -14.4127 0.8946 0.9438
5.6606 -13.3792 0.9008 0.9434
11.5111 -12.1785 1.0392 0.9350
15.7338 -11.5943 1.2119 0.9247
-4.1771 -15.6758 1.0060 0.9371
-1.2375 -15.0722 0.9378 0.9412
1.4075 -14.5299 0.9052 0.9432
4.2565 -15.0825 0.9718 0.9391
9.7343 -13.2937 1.0217 0.9361
10.8319 -12.3179 1.0172 0.9364
3.9531 8.0418 0.5557 0.9647
-4.8200 -15.7852 1.0235 0.9360
-0.4187 -14.6266 0.9074 0.9430
5.9135 -13.3273 0.9041 0.9432
10.3807 -12.6973 1.0170 0.9364
11.8502 -12.1089 1.0506 0.9344
-9.6593 -17.2365 1.2252 0.9239
-3.8697 -15.6063 0.9971 0.9376
-0.9713 -15.0231 0.9335 0.9415
0.3572 -14.4674 0.8974 0.9437
4.2006 -13.9531 0.9036 0.9433
6.8325 -13.4203 0.9338 0.9414
11.1564 -12.2513 1.0275 0.9358
15.2525 -11.6831 1.1914 0.9259
-4.4900 -15.7459 0.6456 0.9366
-1.5063 -15.1213 0.5992 0.9410
-0.1463 -14.5712 0.5746 0.9433
0.9458 -5.5614 0.2224 0.9777
4.9921 -13.8066 0.5789 0.9429
12.4574 -12.2651 0.6893 0.9324
16.3740 -11.1811 0.7818 0.9237
4.1079 8.0027 0.3547 0.9646
-5.2539 6.4184 0.3271 0.9673
-0.6889 -14.9704 0.5909 0.9418
0.6240 -14.4132 0.5689 0.9439
4.4689 -13.9031 0.5758 0.9432
7.1152 -13.3558 0.5967 0.9412
10.0637 -12.7553 0.6407 0.9370
11.5116 -12.1790 0.6608 0.9351
15.7330 -11.5938 0.7706 0.9247
-9.8180 -16.8276 0.7682 0.9250
-5.7312 -15.7170 0.6596 0.9352
0.1063 -14.5194 0.5725 0.9435
1.4075 -14.5294 0.5756 0.9432
1.0432 -5.5496 0.2227 0.9776
5.1426 -13.4860 0.5691 0.9439
6.5703 -13.4790 0.5913 0.9417
12.8132 -12.1846 0.6972 0.9317
15.3343 -12.1739 0.7720 0.9246
3.9552 8.0461 0.3535 0.9647
-6.4389 -15.8622 0.6750 0.9338
-4.8202 -15.7856 0.6508 0.9361
-3.8695 -15.6057 0.6340 0.9377
0.3572 -14.4679 0.5707 0.9437
1.6561 -14.4732 0.5744 0.9434
6.8323 -13.4198 0.5938 0.9415
11.1568 -12.2518 0.6534 0.9358
15.2518 -11.6825 0.7575 0.9260
-1.5062 -15.1207 0.2567 0.9410
0.9456 -5.5604 0.0953 0.9777
4.9919 -13.8061 0.2480 0.9430
6.1867 -13.2722 0.2473 0.9431
10.5573 -12.4346 0.2755 0.9368
4.1045 7.9961 0.1518 0.9647
-3.7211 -16.2974 0.2824 0.9353
-0.6888 -14.9699 0.2531 0.9418
-5.7314 -15.7176 0.2826 0.9353
1.4074 -14.5289 0.2466 0.9433
1.0431 -5.5489 0.0954 0.9777
4.2586 -15.0900 0.2649 0.9392
6.5701 -13.4785 0.2533 0.9418
9.7356 -13.2954 0.2784 0.9362
12.8127 -12.1841 0.2987 0.9317
15.3349 -12.1744 0.3307 0.9247
-4.8203 -15.7860 0.2788 0.9361
4.7208 -13.8561 0.2473 0.9431
5.9139 -13.3282 0.2463 0.9433
10.3799 -12.6963 0.2770 0.9365
11.8511 -12.1099 0.2862 0.9345
-5.4007 -15.6498 0.2797 0.9359
-3.8694 -15.6050 0.2716 0.9377
-0.9712 -15.0220 0.2543 0.9416
0.3572 -14.4684 0.2445 0.9437
1.6561 -14.4726 0.2461 0.9434
6.8320 -13.4193 0.2544 0.9415
9.7309 -12.8161 0.2718 0.9377
-1.5062 -15.1202 -0.0855 0.9410
0.9455 -5.5594 -0.0318 0.9777
4.9917 -13.8056 -0.0827 0.9430
10.5571 -12.4343 -0.0918 0.9368
4.1100 8.0068 -0.0507 0.9646
-5.2526 6.4168 -0.0467 0.9674
-3.7215 -16.2992 -0.0941 0.9353
0.6240 -14.4141 -0.0812 0.9439
5.6611 -13.3805 -0.0818 0.9435
10.0629 -12.7542 -0.0915 0.9371
15.7315 -11.5927 -0.1100 0.9248
-14.0517 4.2860 -0.0827 0.9429
-9.8170 -16.8260 -0.1097 0.9250
-4.1766 -15.6739 -0.0913 0.9372
0.1063 -14.5203 -0.0818 0.9436
1.4074 -14.5283 -0.0822 0.9433
1.0430 -5.5481 -0.0318 0.9777
5.1429 -13.4869 -0.0813 0.9439
6.5698 -13.4780 -0.0844 0.9418
12.8121 -12.1836 -0.0995 0.9317
3.9648 8.0655 -0.0506 0.9647
-0.4188 -14.6281 -0.0824 0.9431
0.8890 -14.6455 -0.0826 0.9430
5.9141 -13.3286 -0.0821 0.9433
10.3795 -12.6958 -0.0923 0.9365
11.8516 -12.1103 -0.0954 0.9345
16.1944 -11.5054 -0.1118 0.9236
14.2039 10.3942 -0.0991 0.9320
-14.3247 4.0989 -0.0839 0.9421
-7.3156 -16.3139 -0.1007 0.9310
-5.4009 -15.6504 -0.0932 0.9359
-3.8692 -15.6044 -0.0905 0.9377
-0.9712 -15.0215 -0.0847 0.9416
1.6560 -14.4721 -0.0820 0.9434
4.2002 -13.9516 -0.0820 0.9434
15.2503 -11.6814 -0.1082 0.9260
-1.5061 -15.1196 -0.4278 0.9410
1.1576 -14.5843 -0.4120 0.9431
0.9453 -5.5584 -0.1588 0.9777
4.9915 -13.8051 -0.4134 0.9429
6.1871 -13.2731 -0.4124 0.9431
15.4289 -12.6919 -0.5625 0.9232
4.1248 8.0357 -0.2543 0.9645
-5.2520 6.4160 -0.2335 0.9674
-3.7219 -16.3010 -0.4708 0.9353
-0.6888 -14.9688 -0.4219 0.9418
15.7308 -11.5921 -0.5502 0.9248
-1.2374 -15.0700 -0.4258 0.9413
0.1063 -14.5208 -0.4089 0.9435
4.2608 -15.0975 -0.4417 0.9392
6.5696 -13.4775 -0.4222 0.9418
9.7369 -13.2971 -0.4641 0.9362
10.8335 -12.3198 -0.4620 0.9365
3.9717 8.0796 -0.2535 0.9646
-0.4188 -14.6286 -0.4121 0.9431
0.8890 -14.6450 -0.4131 0.9430
4.7204 -13.8551 -0.4122 0.9431
11.8520 -12.1108 -0.4771 0.9344
14.2024 10.3931 -0.4956 0.9320
-9.6624 -17.2420 -0.5565 0.9240
-3.8691 -15.6038 -0.4527 0.9377
0.3572 -14.4694 -0.4076 0.9437
1.6559 -14.4716 -0.4101 0.9434
11.1581 -12.2532 -0.4667 0.9358
-4.4893 -15.7434 -0.8302 0.9365
-0.1463 -14.5732 -0.7391 0.9433
1.1576 -14.5838 -0.7419 0.9431
0.9451 -5.5573 -0.2859 0.9777
9.8556 -13.9615 -0.8667 0.9338
12.4553 -12.2630 -0.8864 0.9324
18.6553 -2.8747 -0.9573 0.9272
4.1230 8.0322 -0.4579 0.9645
-5.0549 -15.5805 -0.8307 0.9365
7.1142 -13.3539 -0.7673 0.9412
11.5134 -12.1809 -0.8500 0.9351
15.7300 -11.5915 -0.9909 0.9247
16.9141 -10.2731 -1.0036 0.9238
-13.9665 4.2600 -0.7405 0.9432
-9.8160 -16.8244 -0.9878 0.9250
-5.4242 -14.8752 -0.8030 0.9386
-4.1763 -15.6727 -0.8226 0.9371
-1.2373 -15.0695 -0.7668 0.9412
0.1063 -14.5213 -0.7365 0.9435
1.0427 -5.5466 -0.2862 0.9776
4.2618 -15.1013 -0.7958 0.9391
5.1433 -13.4878 -0.7321 0.9438
6.5693 -13.4771 -0.7604 0.9417
15.3368 -12.1759 -0.9931 0.9246
3.9784 8.0933 -0.4574 0.9645
-4.8206 -15.7872 -0.8371 0.9360
-0.4188 -14.6291 -0.7422 0.9431
5.9145 -13.3296 -0.7396 0.9433
10.3786 -12.6948 -0.8316 0.9364
16.1939 -11.5050 -1.0074 0.9235
-9.6632 -17.2434 -1.0024 0.9239
-7.3150 -16.3125 -0.9066 0.9309
-5.4013 -15.6516 -0.8397 0.9358
-3.8689 -15.6032 -0.8153 0.9376
6.8313 -13.4178 -0.7636 0.9415
11.1585 -12.2537 -0.8405 0.9358
16.5730 -10.4924 -0.9948 0.9244
-1.5003 -15.0610 -1.1098 0.9411
-0.1463 -14.5737 -1.0686 0.9432
4.9912 -13.8042 -1.0763 0.9428
6.1875 -13.2740 -1.0738 0.9430
9.7826 -13.8581 -1.2438 0.9342
12.4063 -12.2147 -1.2766 0.9326
15.3638 -12.6384 -1.4587 0.9233
18.6551 -2.8747 -1.3840 0.9271
4.1225 8.0312 -0.6619 0.9644
-6.8958 -16.1761 -1.2893 0.9319
-5.0550 -15.5811 -1.2011 0.9364
0.6241 -14.4156 -1.0580 0.9438
4.4681 -13.9006 -1.0706 0.9431
7.0865 -13.3019 -1.1051 0.9413
16.9167 -10.2747 -1.4512 0.9237
16.5247 9.5744 -1.4003 0.9263
-13.8995 4.2396 -1.0655 0.9434
-15.6667 -10.6358 -1.3884 0.9269
-9.7774 -16.7581 -1.4226 0.9251
-4.1597 -15.6104 -1.1845 0.9373
0.1063 -14.5218 -1.0648 0.9434
1.4072 -14.5268 -1.0701 0.9431
1.0425 -5.5459 -0.4138 0.9776
4.1313 -14.6390 -1.1153 0.9408
5.1435 -13.4882 -1.0585 0.9437
9.6469 -13.1742 -1.1972 0.9366
10.8343 -12.3207 -1.2030 0.9363
18.8090 -2.5650 -1.3919 0.9267
-6.4402 -15.8654 -1.2555 0.9336
-3.5337 -16.8169 -1.2600 0.9334
-0.4188 -14.6296 -1.0731 0.9430
0.8889 -14.6439 -1.0757 0.9429
7.3529 -13.2427 -1.1106 0.9411
11.8530 -12.1118 -1.2426 0.9343
14.1027 10.3201 -1.2813 0.9323
12.7811 11.2322 -1.2476 0.9340
4.3322 8.0672 -0.6714 0.9639
-7.2869 -16.2498 -1.3058 0.9311
-5.4015 -15.6522 -1.2141 0.9357
-0.9672 -14.9605 -1.0992 0.9416
0.3573 -14.4703 -1.0613 0.9436
4.1997 -13.9502 -1.0682 0.9432
9.6917 -12.7645 -1.1751 0.9377
16.5729 -10.4923 -1.4382 0.9243
-4.4709 -15.6789 -1.5653 0.9366
-1.5002 -15.0604 -1.4530 0.9410
-0.1463 -14.5742 -1.3993 0.9431
1.1529 -14.5247 -1.3988 0.9431
0.9448 -5.5553 -0.5410 0.9776
4.8374 -18.3542 -1.8223 0.9266
4.9707 -13.7475 -1.4034 0.9429
6.1877 -13.2745 -1.4061 0.9428
9.5415 -16.4563 -1.8262 0.9264
10.5560 -12.4330 -1.5658 0.9366
12.4057 -12.2142 -1.6714 0.9324
14.7536 -12.1364 -1.8341 0.9261
16.7172 -9.3483 -1.8388 0.9259
19.0374 -2.9336 -1.8493 0.9255
16.5531 10.4028 -1.8769 0.9244
15.5768 11.8495 -1.8790 0.9244
-1.2055 19.6614 -1.8911 0.9239
-5.2500 6.4137 -0.7957 0.9672
-15.3653 -11.2585 -1.8288 0.9263
-14.2867 -12.5709 -1.8270 0.9264
-13.0979 -13.7820 -1.8254 0.9264
-11.8082 -14.8830 -1.8239 0.9265
-5.0552 -15.5817 -1.5727 0.9363
-2.5557 -18.7839 -1.8200 0.9267
4.1739 -18.5122 -1.8219 0.9266
4.4504 -13.8455 -1.3962 0.9432
5.6619 -13.3824 -1.3950 0.9433
11.5143 -12.1818 -1.6093 0.9349
14.3010 -12.6525 -1.8332 0.9261
15.3908 -11.3416 -1.8354 0.9261
16.3617 -9.9376 -1.8378 0.9260
19.1833 -1.9168 -1.8509 0.9255
16.4699 9.5426 -1.8274 0.9264
-3.9595 19.1599 -1.8783 0.9244
-13.8484 4.2240 -1.3900 0.9435
-14.7348 -12.0540 -1.8277 0.9264
-10.9940 -15.4846 -1.8232 0.9265
-9.5644 -16.3931 -1.8221 0.9266
-8.0614 -17.1721 -1.8212 0.9266
-5.4253 -14.8782 -1.5204 0.9383
-3.2291 -18.6800 -1.8200 0.9267
5.1436 -13.4887 -1.3859 0.9436
9.8275 -16.2911 -1.8266 0.9264
10.8348 -12.3212 -1.5752 0.9362
12.7613 -12.1352 -1.6906 0.9317
14.9657 -11.8813 -1.8345 0.9261
15.9855 -10.5136 -1.8369 0.9260
17.6459 -7.5287 -1.8418 0.9258
18.2725 -5.9344 -1.8444 0.9257
19.0909 -2.6034 -1.8498 0.9255
17.4600 9.2949 -1.8990 0.9236
16.3736 10.6909 -1.8774 0.9244
15.3718 12.1205 -1.8793 0.9244
11.7470 11.0965 -1.5514 0.9371
4.0076 8.1527 -0.8722 0.9642
-4.9731 18.9157 -1.8777 0.9244
-13.9028 4.7931 -1.4118 0.9426
-14.6716 3.6332 -1.4511 0.9411
-10.1496 -16.0424 -1.8225 0.9266
-8.6748 -16.8743 -1.8216 0.9266
-4.8106 -15.7544 -1.5814 0.9360
-3.5341 -16.8190 -1.6500 0.9333
-2.2292 -18.8255 -1.8200 0.9267
-0.4188 -14.6301 -1.4051 0.9429
7.3527 -13.2422 -1.4541 0.9410
10.6874 -15.7531 -1.8276 0.9264
10.3359 -12.6425 -1.5677 0.9365
14.5219 -12.4053 -1.8336 0.9261
15.5893 -11.0754 -1.8359 0.9260
16.5360 -9.6546 -1.8383 0.9259
17.3543 -8.1534 -1.8408 0.9258
18.5787 -4.9567 -1.8460 0.9256
18.9739 -3.2858 -1.8487 0.9255
19.2191 -1.5839 -1.8514 0.9254
16.7396 10.0911 -1.8765 0.9245
11.6387 8.5170 -1.3846 0.9437
12.7805 11.2317 -1.6335 0.9339
-4.2911 19.0864 -1.8781 0.9244
-5.9884 18.6693 -1.8823 0.9242
-7.7294 18.3001 -1.9072 0.9233
-14.5933 5.6256 -1.5015 0.9391
-14.5207 -12.3056 -1.8273 0.9264
-12.0845 -14.6633 -1.8242 0.9265
-9.2774 -16.5550 -1.8219 0.9266
-3.8537 -15.5419 -1.5373 0.9377
-0.9672 -14.9600 -1.4392 0.9415
0.3573 -14.4708 -1.3897 0.9435
3.8288 -18.5846 -1.8217 0.9266
5.3931 -13.4375 -1.3901 0.9435
6.8040 -13.3641 -1.4397 0.9415
9.6913 -12.7640 -1.5386 0.9376
14.0600 -12.9128 -1.8327 0.9262
15.1735 -11.6225 -1.8350 0.9261
17.7788 -7.2232 -1.8423 0.9258
18.8326 -3.9632 -1.8476 0.9256
-1.5002 -15.0598 -1.7978 0.9409
-0.1463 -14.5747 -1.7314 0.9430
0.9446 -5.5543 -0.6692 0.9776
8.8946 -12.6001 -1.8321 0.9398
9.9905 -11.7670 -1.8336 0.9397
11.0095 -10.8395 -1.8353 0.9397
13.5262 -7.5639 -1.8409 0.9395
5.4735 -2.4485 -0.7123 0.9761
15.0966 -3.7287 -1.8472 0.9393
15.7373 6.3329 -2.0151 0.9340
15.1253 7.7180 -2.0171 0.9339
12.5612 9.5555 -1.8748 0.9384
8.4836 7.7396 -1.3641 0.9548
6.8102 7.4288 -1.1971 0.9602
7.8596 10.2803 -1.5372 0.9492
4.1345 8.0546 -1.0755 0.9642
0.4782 17.0683 -2.0283 0.9335
-1.0447 17.0398 -2.0279 0.9335
-8.2761 14.8840 -2.0229 0.9337
-9.5625 14.0765 -2.0214 0.9337
-5.2494 6.4129 -0.9844 0.9672
-11.8890 12.1339 -2.0179 0.9339
-8.1356 6.9412 -1.2703 0.9578
-13.4429 4.8973 -1.6995 0.9440
-14.0800 3.7473 -1.7307 0.9430
-15.4128 2.6595 -1.8579 0.9389
-16.7824 1.3728 -2.0002 0.9344
-16.4909 -3.1052 -1.9933 0.9346
-16.1309 -4.5577 -1.9911 0.9347
-15.6442 -5.9710 -1.9891 0.9348
-15.0348 -7.3343 -1.9871 0.9348
-6.0294 -14.1437 -1.8264 0.9399
-3.4211 -14.9836 -1.8256 0.9400
-2.0719 -15.2282 -1.8256 0.9400
-0.6859 -14.9065 -1.7726 0.9417
0.6241 -14.4166 -1.7141 0.9435
2.0315 -15.2412 -1.8265 0.9399
3.3831 -15.0050 -1.8271 0.9399
4.4503 -13.8450 -1.7275 0.9431
5.6621 -13.3828 -1.7261 0.9431
7.0860 -13.3009 -1.7902 0.9411
9.5580 -12.1142 -1.8330 0.9397
10.6089 -11.2240 -1.8346 0.9397
13.2399 -8.0415 -1.8401 0.9395
5.4697 -2.6867 -0.7239 0.9758
5.5879 -2.1502 -0.7112 0.9762
5.9454 -1.6973 -0.7344 0.9754
16.8803 -0.1746 -2.0052 0.9343
16.8481 1.3321 -2.0076 0.9342
16.3806 4.3119 -2.0121 0.9340
15.9481 5.7609 -2.0142 0.9340
15.3868 7.1667 -2.0163 0.9339
14.7009 8.5177 -2.0182 0.9339
12.0401 10.2161 -1.8757 0.9384
10.8314 13.1590 -2.0245 0.9337
8.3317 14.8886 -2.0266 0.9336
2.6059 16.8764 -2.0284 0.9335
1.0913 17.0409 -2.0284 0.9335
-0.4318 17.0678 -2.0281 0.9335
-7.7381 15.1761 -2.0235 0.9337
-9.0533 14.4155 -2.0221 0.9337
-6.6342 7.2764 -1.1696 0.9611
-13.4710 10.3055 -2.0147 0.9340
-14.3208 9.0543 -2.0126 0.9340
-14.5344 5.8948 -1.8631 0.9388
-15.3145 3.2131 -1.8588 0.9389
-16.8199 0.4764 -1.9988 0.9345
-15.8552 -5.4073 -1.9899 0.9347
-15.2946 -6.7920 -1.9879 0.9348
-9.9987 -11.7119 -1.8292 0.9399
-8.9099 -12.5493 -1.8282 0.9399
-7.7522 -13.2870 -1.8273 0.9399
-6.5346 -13.9197 -1.8266 0.9399
-5.2664 -14.4425 -1.8261 0.9400
-3.9575 -14.8517 -1.8257 0.9400
-1.2324 -15.0094 -1.7889 0.9411
0.1063 -14.5228 -1.7252 0.9432
1.4016 -14.4690 -1.7268 0.9431
4.1333 -14.6458 -1.8077 0.9405
6.5424 -13.4217 -1.7736 0.9416
12.1145 -9.6177 -1.8374 0.9396
12.9368 -8.5085 -1.8393 0.9395
5.7713 -1.8744 -0.7208 0.9759
15.4292 -2.1041 -1.8497 0.9392
16.8773 0.7255 -2.0066 0.9342
16.7647 2.2294 -2.0089 0.9341
11.4839 10.8480 -1.8765 0.9383
8.8597 14.5770 -2.0263 0.9336
4.0052 8.1478 -1.0785 0.9641
6.1354 15.9301 -2.0278 0.9335
3.2106 16.7717 -2.0284 0.9335
1.7030 16.9911 -2.0284 0.9335
-1.3404 17.0182 -2.0278 0.9335
-4.3374 16.4979 -2.0263 0.9336
-9.8039 13.9062 -2.0211 0.9338
-13.0974 10.7873 -2.0155 0.9339
-11.3772 6.3712 -1.5489 0.9488
-10.8720 3.7482 -1.3660 0.9547
-14.5026 3.5913 -1.7747 0.9416
-16.6561 2.5771 -2.0021 0.9344
-16.7998 1.0810 -1.9997 0.9344
-16.4309 -3.3903 -1.9929 0.9347
-11.3937 -10.3817 -1.8310 0.9398
-9.3572 -12.2237 -1.8286 0.9399
-8.2262 -13.0023 -1.8276 0.9399
-5.7826 -14.2454 -1.8263 0.9399
-3.1604 -15.0405 -1.8256 0.9400
-1.8072 -15.2619 -1.8256 0.9400
0.8852 -14.5837 -1.7355 0.9428
4.7009 -13.7978 -1.7315 0.9430
8.6575 -12.7611 -1.8318 0.9398
9.7684 -11.9484 -1.8333 0.9397
10.8042 -11.0401 -1.8349 0.9397
13.3803 -7.8121 -1.8405 0.9395
5.6400 -2.0586 -0.7132 0.9761
15.3364 -2.6559 -1.8489 0.9392
16.7672 -1.3819 -1.9985 0.9345
16.3067 4.5966 -2.0125 0.9340
14.3010 8.6210 -1.9835 0.9349
11.6387 8.5171 -1.7132 0.9436
11.8627 10.4251 -1.8759 0.9384
10.6026 13.3467 -2.0248 0.9336
4.3105 8.0267 -1.0822 0.9640
6.7031 15.6975 -2.0275 0.9336
5.2787 16.2366 -2.0280 0.9335
3.8111 16.6450 -2.0284 0.9335
0.7953 17.0569 -2.0283 0.9335
-0.7280 17.0570 -2.0280 0.9335
-3.7425 16.6461 -2.0267 0.9336
-9.3008 14.2540 -2.0217 0.9337
-10.5256 13.3574 -2.0201 0.9338
-12.7064 11.2555 -2.0164 0.9339
-14.4728 8.8025 -2.0122 0.9340
-13.5025 5.2051 -1.7190 0.9434
-15.3645 2.9461 -1.8583 0.9389
-16.7580 1.6848 -2.0007 0.9344
-15.1715 -7.0552 -1.9875 0.9348
-14.4502 -8.3607 -1.9831 0.9350
-11.7630 -9.9686 -1.8315 0.9398
-10.8197 -10.9694 -1.8302 0.9398
-3.6990 -14.9178 -1.8257 0.9400
-0.9672 -14.9595 -1.7807 0.9414
3.1035 -15.0640 -1.8270 0.9399
4.1832 -13.8953 -1.7237 0.9432
6.8037 -13.3637 -1.7813 0.9414
8.1908 -13.0599 -1.8312 0.9398
11.3834 -10.4546 -1.8359 0.9396
12.2820 -9.4078 -1.8377 0.9396
13.0853 -8.2843 -1.8397 0.9395
5.8452 -1.7868 -0.7260 0.9757
15.2239 -3.2037 -1.8480 0.9393
15.4973 -1.8399 -1.8538 0.9391
16.8700 -0.4881 -2.0048 0.9343
-3.5409 -12.4177 -1.8296 0.9492
-0.1296 -12.9119 -1.8296 0.9492
1.0219 -12.8743 -1.8299 0.9492
0.9444 -5.5533 -0.7981 0.9775
4.3958 -12.1576 -1.8317 0.9491
5.4646 -11.7232 -1.8327 0.9491
6.4915 -11.1959 -1.8337 0.9491
7.4682 -10.5795 -1.8349 0.9490
10.7280 -7.3257 -1.8406 0.9489
5.2927 -1.8211 -0.7931 0.9776
6.1248 -1.5127 -0.8939 0.9748
13.5877 4.1042 -2.0111 0.9443
12.6647 6.4624 -2.0146 0.9442
12.0478 7.5714 -2.0162 0.9441
10.5147 7.9986 -1.8719 0.9480
6.8100 7.4285 -1.4279 0.9601
7.8408 10.2558 -1.8292 0.9492
6.2660 9.9173 -1.6622 0.9537
4.1431 8.0712 -1.2855 0.9640
5.3632 13.2354 -2.0234 0.9439
1.6712 14.1872 -2.0241 0.9439
0.4001 14.2787 -2.0239 0.9439
-0.8740 14.2553 -2.0236 0.9439
-2.1406 14.1172 -2.0231 0.9439
-8.0040 11.7824 -2.0182 0.9441
-9.9543 10.1593 -2.0153 0.9442
-8.1355 6.9411 -1.5153 0.9577
-11.5805 8.2168 -2.0119 0.9442
-12.3436 4.4968 -1.8614 0.9483
-13.9265 2.4030 -2.0024 0.9445
-14.0714 1.1511 -2.0004 0.9446
-13.8347 -2.6050 -1.9947 0.9447
-13.5351 -3.8242 -1.9929 0.9448
-11.9964 -7.2417 -1.9854 0.9450
-8.0369 -10.1296 -1.8321 0.9491
-7.0988 -10.8007 -1.8313 0.9491
-5.0650 -11.8815 -1.8301 0.9492
3.9554 -12.3055 -1.8314 0.9491
6.0835 -11.4192 -1.8333 0.9491
7.0814 -10.8382 -1.8344 0.9490
8.0246 -10.1708 -1.8356 0.9490
9.7177 -8.5976 -1.8384 0.9489
10.4541 -7.7037 -1.8400 0.9489
5.2989 -2.0390 -0.8045 0.9773
12.8151 -2.4491 -1.8486 0.9487
14.0646 -1.4053 -2.0027 0.9445
13.9757 2.3724 -2.0085 0.9443
13.7214 3.6119 -2.0104 0.9443
13.3568 4.8248 -2.0122 0.9442
12.8845 6.0012 -2.0139 0.9442
9.2812 9.4210 -1.8738 0.9480
8.0502 11.7814 -2.0218 0.9440
4.2783 9.5562 -1.4835 0.9586
4.6510 13.5040 -2.0237 0.9439
1.3860 8.9762 -1.2869 0.9640
0.9129 14.2557 -2.0240 0.9439
-0.2177 8.6060 -1.2198 0.9658
-7.5775 12.0656 -2.0187 0.9441
-6.5880 7.2257 -1.3855 0.9613
-10.4764 9.6099 -2.0143 0.9442
-11.7012 6.0109 -1.8639 0.9482
-14.1045 0.3995 -1.9993 0.9446
-13.3051 -4.5376 -1.9918 0.9448
-12.8368 -5.7005 -1.9901 0.9448
-12.2677 -6.8164 -1.9885 0.9449
-9.2458 -9.0537 -1.8335 0.9491
-3.3247 -12.4770 -1.8295 0.9492
-2.1993 -12.7227 -1.8294 0.9492
-1.0566 -12.8683 -1.8294 0.9492
1.2453 -12.8552 -1.8300 0.9492
1.0421 -5.5436 -0.7992 0.9775
3.5101 -12.4377 -1.8311 0.9491
5.6679 -11.6278 -1.8328 0.9491
6.6856 -11.0828 -1.8339 0.9491
8.5588 -9.7330 -1.8364 0.9490
10.1671 -8.0716 -1.8393 0.9489
5.3990 -2.8972 -0.8682 0.9756
5.3063 -2.2640 -0.8174 0.9770
5.3340 -1.7323 -0.7946 0.9776
6.3870 -1.4603 -0.9283 0.9739
13.9719 -1.9053 -1.9980 0.9446
14.1436 0.6080 -2.0058 0.9444
14.0466 1.8679 -2.0078 0.9444
13.5167 4.3402 -2.0115 0.9443
11.9163 7.7806 -2.0164 0.9441
10.3756 8.1811 -1.8721 0.9480
9.6114 9.0792 -1.8734 0.9480
4.0296 8.1974 -1.2942 0.9638
2.6858 14.0304 -2.0241 0.9439
1.4246 14.2140 -2.0241 0.9439
-3.6291 13.8037 -2.0223 0.9440
-6.0167 12.9280 -2.0204 0.9440
-7.1408 12.3332 -2.0193 0.9441
-10.1276 9.9834 -2.0150 0.9442
-10.9681 9.0336 -2.0133 0.9442
-9.7430 6.6618 -1.6723 0.9534
-11.3336 6.3468 -1.8405 0.9489
-10.8716 3.7481 -1.6294 0.9546
-14.0866 0.9064 -2.0000 0.9446
-13.9966 -1.6059 -1.9962 0.9447
-13.7849 -2.8443 -1.9943 0.9447
-13.4643 -4.0580 -1.9925 0.9448
-12.5087 -6.3732 -1.9891 0.9449
-11.8447 -7.4337 -1.9814 0.9451
-9.5675 -8.7177 -1.8340 0.9491
-8.7473 -9.5302 -1.8329 0.9491
-5.9067 -11.4897 -1.8305 0.9491
-4.8578 -11.9671 -1.8300 0.9492
-2.6551 -12.6357 -1.8294 0.9492
-1.5183 -12.8218 -1.8294 0.9492
-0.3695 -12.9070 -1.8295 0.9492
0.7825 -12.8905 -1.8298 0.9492
1.9287 -12.7725 -1.8302 0.9492
3.0604 -12.5538 -1.8308 0.9491
5.2453 -11.8215 -1.8325 0.9491
6.2816 -11.3132 -1.8335 0.9491
9.0693 -9.2674 -1.8373 0.9490
10.5881 -7.5223 -1.8403 0.9489
11.2264 -6.5546 -1.8419 0.9488
5.3315 -2.5048 -0.8346 0.9765
5.8953 -1.5728 -0.8645 0.9757
14.0992 1.3614 -2.0070 0.9444
13.6590 3.8503 -2.0108 0.9443
10.8099 7.9105 -1.8979 0.9473
9.1173 9.5818 -1.8740 0.9480
5.6079 13.1328 -2.0233 0.9439
1.9345 14.1538 -2.0241 0.9439
0.6653 14.2691 -2.0240 0.9439
-3.1312 13.9273 -2.0226 0.9440
-4.3583 13.5875 -2.0218 0.9440
-6.6947 12.5849 -2.0197 0.9440
-4.9400 7.5708 -1.2809 0.9641
-8.8111 11.1817 -2.0171 0.9441
-6.8511 7.2571 -1.4141 0.9605
-10.2453 3.9495 -1.5558 0.9566
-12.4607 3.5655 -1.8364 0.9490
-13.8833 -2.3480 -1.9951 0.9447
-13.6063 -3.5728 -1.9932 0.9448
-13.2221 -4.7671 -1.9915 0.9448
-12.7338 -5.9216 -1.9898 0.9448
-12.1457 -7.0273 -1.9882 0.9449
-10.5910 -7.4619 -1.8357 0.9490
-9.0862 -9.2118 -1.8333 0.9491
-4.2128 -12.2074 -1.8298 0.9492
-3.1075 -12.5325 -1.8295 0.9492
3.7258 -12.3758 -1.8313 0.9491
4.8161 -11.9999 -1.8321 0.9491
6.8779 -10.9664 -1.8341 0.9490
7.8331 -10.3166 -1.8354 0.9490
8.7278 -9.5843 -1.8367 0.9490
9.5547 -8.7752 -1.8381 0.9489
10.3074 -7.8952 -1.8396 0.9489
10.9796 -6.9512 -1.8413 0.9489
5.3027 -2.1544 -0.8110 0.9771
5.5030 -1.6822 -0.8153 0.9770
12.7648 -2.6862 -1.8482 0.9487
14.0320 -1.6659 -2.0021 0.9445
14.1397 -0.4091 -2.0043 0.9445
-2.0844 -10.9248 -1.8322 0.9559
-1.1024 -11.0671 -1.8322 0.9559
4.7061 -10.0959 -1.8350 0.9558
5.5899 -9.6410 -1.8359 0.9558
7.2211 -8.5051 -1.8380 0.9558
7.9556 -7.8328 -1.8392 0.9557
8.6281 -7.0975 -1.8405 0.9557
9.2332 -6.3049 -1.8419 0.9557
7.2557 -1.1181 -1.2094 0.9707
12.1003 1.3958 -2.0066 0.9518
11.3265 4.5579 -2.0113 0.9517
9.7367 7.4069 -2.0154 0.9516
4.9674 7.8620 -1.5320 0.9630
4.1621 8.1084 -1.5015 0.9637
4.6058 11.3663 -2.0204 0.9515
3.5750 11.7336 -2.0207 0.9515
2.5153 12.0066 -2.0209 0.9515
-1.8383 12.1239 -2.0201 0.9515
-2.0174 8.2533 -1.3997 0.9661
-3.9592 11.5975 -2.0188 0.9515
-5.1471 6.2880 -1.3387 0.9676
-8.1354 6.9410 -1.7617 0.9576
-7.6157 4.4402 -1.4523 0.9649
-10.2347 4.8009 -1.8623 0.9552
-11.7555 3.1286 -2.0040 0.9519
-11.9774 2.0667 -2.0023 0.9519
-12.1336 -0.0925 -1.9989 0.9520
-12.0670 -1.1726 -1.9973 0.9520
-11.9048 -2.2417 -1.9957 0.9521
-11.6485 -3.2912 -1.9941 0.9521
-11.3003 -4.3131 -1.9926 0.9521
-10.8631 -5.2993 -1.9912 0.9522
-10.3406 -6.2422 -1.9898 0.9522
-8.3685 -7.3635 -1.8363 0.9558
-7.6750 -8.0759 -1.8354 0.9558
-4.3628 -10.2342 -1.8328 0.9559
-3.4327 -10.5804 -1.8324 0.9559
-1.4994 -11.0203 -1.8322 0.9559
-0.5112 -11.1105 -1.8323 0.9559
0.4811 -11.1132 -1.8325 0.9559
1.4700 -11.0282 -1.8328 0.9559
3.4067 -10.5983 -1.8339 0.9559
4.3395 -10.2566 -1.8347 0.9559
6.0976 -9.3325 -1.8365 0.9558
7.6670 -8.1115 -1.8387 0.9558
8.3651 -7.4009 -1.8400 0.9557
8.9980 -6.6306 -1.8413 0.9557
5.1902 -2.5494 -0.9526 0.9768
5.1617 -1.9862 -0.9111 0.9778
12.1657 -0.1259 -2.0043 0.9519
12.1386 0.9597 -2.0059 0.9518
11.7944 3.1047 -2.0092 0.9518
9.9942 7.0505 -2.0149 0.9516
8.8361 7.4975 -1.9090 0.9541
6.0121 7.3041 -1.5585 0.9624
6.4148 9.3879 -1.8731 0.9550
4.5371 8.1079 -1.5306 0.9630
3.9848 8.9007 -1.6065 0.9612
2.2602 9.1391 -1.5509 0.9626
1.3860 8.9759 -1.4962 0.9639
0.7840 12.2420 -2.0209 0.9515
-4.5703 11.3673 -2.0183 0.9515
-6.5877 7.2254 -1.6108 0.9611
-9.0027 8.2581 -2.0125 0.9517
-9.5658 6.0480 -1.8644 0.9552
-8.4208 4.3258 -1.5596 0.9623
-10.4709 4.2467 -1.8614 0.9552
-12.1332 0.3436 -1.9996 0.9520
-11.7629 -2.8714 -1.9947 0.9521
-11.4514 -3.9054 -1.9932 0.9521
-11.0497 -4.9069 -1.9917 0.9522
-7.9618 -7.7964 -1.8357 0.9558
-7.2318 -8.4709 -1.8349 0.9559
-5.6086 -9.6130 -1.8335 0.9559
-3.8109 -10.4509 -1.8326 0.9559
-0.9101 -11.0847 -1.8322 0.9559
0.0814 -11.1227 -1.8324 0.9559
1.0726 -11.0729 -1.8327 0.9559
1.0420 -5.5428 -0.9291 0.9774
3.0232 -10.7124 -1.8337 0.9559
3.9674 -10.4042 -1.8344 0.9559
7.3686 -8.3795 -1.8382 0.9558
8.0915 -7.6945 -1.8395 0.9557
8.7513 -6.9476 -1.8408 0.9557
5.2282 -2.8056 -0.9775 0.9762
5.2430 -1.7028 -0.9081 0.9779
6.2243 -1.4231 -1.0518 0.9744
12.1492 -0.5627 -2.0036 0.9519
11.8946 2.6780 -2.0086 0.9518
11.2473 4.7546 -2.0116 0.9517
10.7864 5.7421 -2.0130 0.9517
9.6078 7.5757 -2.0156 0.9516
8.2565 7.7994 -1.8711 0.9550
4.4080 11.4450 -2.0204 0.9515
2.3064 12.0486 -2.0209 0.9515
1.2234 12.2062 -2.0209 0.9515
-2.0484 12.0895 -2.0200 0.9515
-3.1169 11.8553 -2.0194 0.9515
-6.1342 10.5946 -2.0168 0.9516
-7.0501 10.0002 -2.0157 0.9516
-5.3114 6.2635 -1.3529 0.9673
-8.7025 8.5786 -2.0131 0.9517
-9.8699 5.5271 -1.8635 0.9552
-11.8061 2.9236 -2.0037 0.9519
-12.0095 1.8581 -2.0020 0.9519
-10.2294 -6.4200 -1.9896 0.9522
-9.1566 -6.9567 -1.8944 0.9545
-8.2386 -7.5068 -1.8361 0.9558
-7.5329 -8.2071 -1.8352 0.9558
-6.7684 -8.8419 -1.8344 0.9559
-5.9512 -9.4065 -1.8337 0.9559
-4.1843 -10.3080 -1.8327 0.9559
-3.2484 -10.6381 -1.8324 0.9559
-2.2871 -10.8843 -1.8322 0.9559
0.6740 -11.1035 -1.8326 0.9559
2.6360 -10.8127 -1.8334 0.9559
3.5904 -10.5383 -1.8341 0.9559
4.5172 -10.1806 -1.8348 0.9559
5.4092 -9.7421 -1.8357 0.9558
7.8077 -7.9781 -1.8390 0.9558
5.2837 -3.0849 -1.0079 0.9755
5.1793 -2.4333 -0.9427 0.9771
5.1632 -1.8845 -0.9055 0.9780
6.9362 -1.2012 -1.1597 0.9719
12.1681 0.0854 -2.0046 0.9519
12.1221 1.1705 -2.0063 0.9518
11.9793 2.2481 -2.0079 0.9518
11.7405 3.3095 -2.0095 0.9518
11.4075 4.3460 -2.0110 0.9517
9.8714 7.2238 -2.0151 0.9516
5.7648 7.2568 -1.5268 0.9631
3.6184 6.7380 -1.2599 0.9695
3.6651 8.5831 -1.5375 0.9629
-0.5230 12.2543 -2.0206 0.9515
-3.3357 7.8976 -1.4123 0.9658
-5.7507 10.8105 -2.0172 0.9516
-4.9399 7.5706 -1.4892 0.9640
-5.1665 6.5565 -1.3752 0.9667
-9.1434 8.0994 -2.0123 0.9517
-9.1124 6.7235 -1.8656 0.9551
-9.6679 5.8801 -1.8641 0.9552
-10.1455 4.9910 -1.8627 0.9552
-12.0853 1.2150 -2.0010 0.9520
-12.0888 -0.9484 -1.9976 0.9520
-11.7096 -3.0747 -1.9944 0.9521
-10.9613 -5.0973 -1.9915 0.9522
-8.5049 -7.2075 -1.8365 0.9558
-7.8245 -7.9327 -1.8356 0.9558
-7.0830 -8.5945 -1.8347 0.9559
-6.2863 -9.1878 -1.8340 0.9559
-5.4405 -9.7083 -1.8334 0.9559
-4.5524 -10.1519 -1.8329 0.9559
-3.6288 -10.5152 -1.8325 0.9559
-0.7176 -11.0990 -1.8322 0.9559
1.2648 -11.0531 -1.8328 0.9559
3.2089 -10.6590 -1.8338 0.9559
4.1478 -10.3346 -1.8345 0.9559
5.0547 -9.9282 -1.8353 0.9558
5.9225 -9.4431 -1.8363 0.9558
7.5139 -8.2514 -1.8385 0.9558
8.2250 -7.5539 -1.8397 0.9557
8.8718 -6.7956 -1.8410 0.9557
5.1635 -2.0978 -0.9181 0.9777
5.4070 -1.6528 -0.9314 0.9773
6.4554 -1.3585 -1.0867 0.9736
12.1523 0.7339 -2.0056 0.9518
-2.6763 -9.3857 -1.8345 0.9611
-1.8290 -9.5862 -1.8343 0.9611
0.9442 -5.5520 -1.0585 0.9773
2.4888 -9.4430 -1.8355 0.9610
3.3216 -9.1865 -1.8361 0.9610
4.9038 -8.4576 -1.8376 0.9610
6.9776 -6.8699 -1.8405 0.9609
7.5667 -6.2244 -1.8416 0.9609
4.8856 -3.3362 -1.1120 0.9762
5.0868 -2.8445 -1.0954 0.9766
5.8545 -1.4460 -1.1335 0.9758
10.6353 -0.6778 -2.0031 0.9576
10.6022 1.2230 -2.0060 0.9575
10.2309 3.0903 -2.0088 0.9574
9.9213 3.9925 -2.0101 0.9574
9.5320 4.8639 -2.0114 0.9574
9.0659 5.6974 -2.0126 0.9574
7.9185 7.2241 -2.0147 0.9573
6.0450 7.9068 -1.8708 0.9603
4.4083 6.9771 -1.5512 0.9670
3.9397 7.6751 -1.6216 0.9655
0.3008 10.7344 -2.0184 0.9572
-1.6094 10.6140 -2.0178 0.9572
-3.4664 10.1540 -2.0167 0.9573
-4.3560 9.8010 -2.0160 0.9573
-5.2100 9.3698 -2.0151 0.9573
-5.1325 6.2701 -1.5230 0.9676
-9.8615 3.5926 -1.9727 0.9582
-10.3017 2.7417 -2.0037 0.9575
-10.6091 0.8678 -2.0008 0.9576
-10.5791 -1.0281 -1.9978 0.9577
-9.9098 -3.7824 -1.9937 0.9577
-9.5273 -4.6476 -1.9925 0.9578
-8.5410 -6.2582 -1.9902 0.9578
-6.7331 -7.0848 -1.8371 0.9610
-6.0725 -7.6537 -1.8364 0.9610
-5.3643 -8.1617 -1.8358 0.9610
-3.8281 -8.9799 -1.8348 0.9610
-1.3157 -9.6700 -1.8343 0.9611
-0.4486 -9.7491 -1.8344 0.9611
2.9889 -9.2987 -1.8359 0.9610
3.8071 -8.9984 -1.8365 0.9610
4.5959 -8.6268 -1.8373 0.9610
6.0604 -7.6812 -1.8390 0.9610
6.7246 -7.1145 -1.8401 0.9609
7.3363 -6.4907 -1.8412 0.9609
7.8907 -5.8147 -1.8423 0.9609
5.0436 -2.4774 -1.0562 0.9774
6.5383 -1.2495 -1.2512 0.9733
10.6010 -1.0593 -2.0025 0.9576
10.6610 -0.1103 -2.0040 0.9575
10.6362 0.8410 -2.0054 0.9575
10.5265 1.7869 -2.0069 0.9575
5.6163 8.2194 -1.8711 0.9603
4.3352 7.7469 -1.6686 0.9645
3.1792 9.2307 -1.8350 0.9610
2.3919 9.6717 -1.8727 0.9603
1.3859 8.9756 -1.7071 0.9637
-0.2177 8.6052 -1.6180 0.9656
-1.2270 10.6659 -2.0180 0.9572
-1.7031 8.2413 -1.5818 0.9663
-3.0997 10.2734 -2.0170 0.9573
-4.0016 9.9528 -2.0163 0.9573
-2.8222 5.5350 -1.1678 0.9750
-7.3157 6.7106 -1.8659 0.9604
-7.8797 6.0280 -1.8648 0.9604
-8.8128 4.5271 -1.8622 0.9605
-9.2297 3.7433 -1.8721 0.9603
-10.4286 2.1880 -2.0028 0.9576
-10.5742 1.2489 -2.0014 0.9576
-10.6123 -0.6474 -1.9984 0.9576
-10.5049 -1.5896 -1.9970 0.9577
-10.0420 -3.4247 -1.9942 0.9577
-9.2628 -5.1468 -1.9918 0.9578
-8.7623 -5.9485 -1.9906 0.9578
-8.1654 -6.6798 -1.9829 0.9580
-5.6549 -7.9647 -1.8360 0.9610
-4.9210 -8.4344 -1.8354 0.9610
-3.3439 -9.1702 -1.8346 0.9611
-0.7986 -9.7265 -1.8344 0.9611
0.0715 -9.7597 -1.8345 0.9611
3.4808 -9.1281 -1.8362 0.9610
4.2822 -8.7849 -1.8369 0.9610
5.7792 -7.8924 -1.8386 0.9610
6.4631 -7.3498 -1.8396 0.9609
7.0966 -6.7485 -1.8407 0.9609
7.6746 -6.0929 -1.8419 0.9609
5.0657 -2.7184 -1.0806 0.9769
5.1478 -1.6718 -1.0173 0.9782
10.6470 -0.4932 -2.0034 0.9575
10.4207 2.3462 -2.0077 0.9575
10.1771 3.2678 -2.0091 0.9574
9.8517 4.1646 -2.0104 0.9574
8.9666 5.8546 -2.0128 0.9574
7.6640 7.2396 -1.9816 0.9580
6.5952 7.4499 -1.8702 0.9603
2.7378 9.5792 -1.8726 0.9603
2.0191 10.5476 -2.0185 0.9572
-0.8430 10.7038 -2.0181 0.9572
-2.7288 10.3794 -2.0172 0.9573
-3.6419 10.0916 -2.0166 0.9573
-5.3714 9.2771 -2.0149 0.9573
-6.1738 8.7572 -2.0139 0.9573
-7.0715 6.9708 -1.8664 0.9604
-6.8084 4.6552 -1.5502 0.9670
-8.6468 4.8422 -1.8628 0.9605
-10.0841 3.4766 -2.0049 0.9575
-10.3463 2.5621 -2.0034 0.9575
-10.5257 1.6286 -2.0020 0.9576
-10.6211 0.6834 -2.0005 0.9576
-10.1613 -3.0625 -1.9948 0.9577
-9.8414 -3.9533 -1.9935 0.9578
-9.4440 -4.8118 -1.9922 0.9578
-8.9724 -5.6311 -1.9911 0.9578
-8.4252 -6.4010 -1.9888 0.9578
-7.2272 -6.5853 -1.8378 0.9610
-6.6086 -7.2001 -1.8370 0.9610
-3.6715 -9.0447 -1.8348 0.9610
-2.8503 -9.3346 -1.8345 0.9611
0.5914 -9.7428 -1.8346 0.9611
3.1501 -9.2460 -1.8360 0.9610
3.9631 -8.9316 -1.8366 0.9610
4.7453 -8.5464 -1.8374 0.9610
5.4908 -8.0933 -1.8383 0.9610
6.1935 -7.5757 -1.8392 0.9610
7.9914 -5.6775 -1.8426 0.9609
6.7996 -1.1775 -1.2971 0.9723
10.6193 -0.8752 -2.0028 0.9576
10.6629 0.0748 -2.0043 0.9575
10.6215 1.0256 -2.0057 0.9575
10.4953 1.9696 -2.0071 0.9575
10.2851 2.8992 -2.0085 0.9574
9.6194 4.6854 -2.0111 0.9574
9.1691 5.5274 -2.0124 0.9574
8.6447 6.3261 -2.0135 0.9573
8.0506 7.0750 -2.0145 0.9573
6.1904 7.7926 -1.8706 0.9603
3.6183 6.7378 -1.4375 0.9694
0.5002 10.7271 -2.0185 0.9572
-0.4579 10.7279 -2.0183 0.9572
-2.3543 10.4719 -2.0174 0.9573
-3.2773 10.2174 -2.0168 0.9573
-2.9177 5.4847 -1.1677 0.9750
-4.9397 7.5704 -1.6991 0.9639
-6.8181 7.2222 -1.8668 0.9604
-8.4696 5.1513 -1.8633 0.9605
-10.2506 2.9331 -2.0040 0.9575
-10.4635 2.0063 -2.0025 0.9576
-10.6377 0.1165 -1.9996 0.9576
-9.9797 -3.5981 -1.9940 0.9577
-9.1710 -5.3062 -1.9915 0.9578
-6.8642 -6.9591 -1.8373 0.9610
-6.2141 -7.5401 -1.8365 0.9610
-3.9944 -8.9076 -1.8349 0.9610
-2.3488 -9.4726 -1.8344 0.9611
-1.4951 -9.6439 -1.8343 0.9611
0.2409 -9.7572 -1.8345 0.9611
1.9702 -9.5630 -1.8352 0.9610
2.8154 -9.3520 -1.8357 0.9610
3.6390 -9.0669 -1.8364 0.9610
4.4344 -8.7099 -1.8371 0.9610
5.9160 -7.7917 -1.8388 0.9610
7.2136 -6.6250 -1.8409 0.9609
5.0533 -2.5997 -1.0681 0.9771
5.1319 -1.5687 -1.0087 0.9784
10.5778 -1.2558 -2.0022 0.9576
-0.0872 -8.6859 -1.8361 0.9651
0.9324 -5.4827 -1.1756 0.9775
2.2149 -8.4038 -1.8371 0.9651
2.9559 -8.1753 -1.8376 0.9651
4.3636 -7.5260 -1.8389 0.9651
5.6356 -6.6376 -1.8406 0.9650
6.2079 -6.1121 -1.8415 0.9650
4.2350 -2.8919 -1.0840 0.9793
4.4593 -2.4937 -1.0800 0.9793
4.8935 -1.6837 -1.0939 0.9791
5.7732 -1.4259 -1.2570 0.9760
7.2685 -1.1201 -1.5545 0.9704
9.4786 0.2427 -2.0042 0.9620
9.4254 1.0872 -2.0055 0.9620
9.0939 2.7468 -2.0080 0.9619
8.8180 3.5485 -2.0092 0.9619
8.4714 4.3227 -2.0103 0.9619
4.7248 7.4781 -1.8698 0.9645
3.9062 7.6098 -1.8081 0.9656
1.9570 6.4229 -1.4193 0.9729
1.0355 8.7906 -1.8710 0.9645
0.2479 8.8475 -1.8709 0.9645
-1.3265 8.7486 -1.8704 0.9645
-4.9642 7.3076 -1.8674 0.9645
-5.1181 6.2526 -1.7080 0.9675
-4.9453 5.0471 -1.4936 0.9715
-6.7104 5.7252 -1.8646 0.9646
-7.1898 5.1014 -1.8635 0.9646
-8.3429 3.9135 -1.9479 0.9630
-8.9115 3.2465 -2.0048 0.9620
-9.3341 1.6106 -2.0022 0.9620
-9.4593 -0.0721 -1.9996 0.9621
-9.4091 -0.9144 -1.9983 0.9621
-9.2843 -1.7482 -1.9970 0.9621
-8.4761 -4.1348 -1.9935 0.9622
-7.5996 -5.5684 -1.9915 0.9622
-7.0601 -6.2122 -1.9878 0.9623
-6.0009 -6.3143 -1.8413 0.9650
-5.4040 -6.8111 -1.8378 0.9651
-1.9334 -8.4681 -1.8360 0.9651
0.3757 -8.6788 -1.8362 0.9651
1.1479 -8.6120 -1.8365 0.9651
1.9113 -8.4772 -1.8369 0.9651
2.6600 -8.2752 -1.8374 0.9651
5.3923 -6.8345 -1.8402 0.9650
4.7755 -2.3457 -1.1246 0.9785
4.9093 -1.8891 -1.1119 0.9787
5.3581 -1.5296 -1.1778 0.9775
6.6085 -1.2630 -1.4222 0.9729
9.4787 -0.0981 -2.0037 0.9620
9.4559 0.7476 -2.0050 0.9620
8.2317 4.7694 -2.0110 0.9619
7.2611 6.1611 -2.0129 0.9618
6.6858 6.7865 -2.0137 0.9618
5.6303 6.8402 -1.8727 0.9644
4.2983 7.6810 -1.8605 0.9647
2.9904 6.6796 -1.5470 0.9705
-0.2172 8.5851 -1.8153 0.9655
-2.5550 8.4682 -1.8697 0.9645
-3.2986 8.2043 -1.8691 0.9645
-2.7686 5.4297 -1.2883 0.9754
-4.6992 7.4826 -1.8677 0.9645
-7.0035 5.3578 -1.8639 0.9646
-7.8525 4.0338 -1.8661 0.9646
-8.7913 3.5655 -2.0053 0.9620
-9.0683 2.7660 -2.0040 0.9620
-9.2726 1.9455 -2.0027 0.9620
-9.4029 1.1105 -2.0014 0.9620
-9.4582 0.2679 -2.0001 0.9621
-9.4383 -0.5758 -1.9988 0.9621
-9.1746 -2.2396 -1.9963 0.9621
-8.6211 -3.8284 -1.9939 0.9622
-8.2411 -4.5791 -1.9929 0.9622
-7.7963 -5.2927 -1.9919 0.9622
-6.5410 -6.4051 -1.9351 0.9633
-5.0324 -7.0880 -1.8375 0.9651
-4.3795 -7.5063 -1.8370 0.9651
-3.6922 -7.8650 -1.8366 0.9651
-2.2366 -8.3934 -1.8361 0.9651
0.0636 -8.6863 -1.8362 0.9651
0.8377 -8.6471 -1.8364 0.9651
1.0260 -5.4580 -1.1739 0.9776
3.0976 -8.1232 -1.8377 0.9651
4.4940 -7.4497 -1.8390 0.9651
5.1423 -7.0226 -1.8399 0.9650
5.7505 -6.5394 -1.8407 0.9650
6.3137 -6.0040 -1.8417 0.9650
4.1865 -2.7534 -1.0592 0.9797
4.5027 -2.4163 -1.0802 0.9793
4.9038 -2.0922 -1.1270 0.9784
9.3837 -1.2796 -2.0019 0.9620
9.2631 2.0856 -2.0071 0.9619
9.0459 2.9046 -2.0083 0.9619
8.7561 3.7014 -2.0094 0.9619
8.3959 4.4696 -2.0105 0.9619
7.9683 5.2028 -2.0116 0.9618
6.9243 6.5408 -2.0134 0.9618
5.2004 7.0526 -1.8522 0.9648
3.1807 8.2584 -1.8707 0.9645
1.6642 8.6935 -1.8710 0.9645
-3.0020 8.3186 -1.8694 0.9645
-4.4281 7.6479 -1.8680 0.9645
-4.3652 5.1478 -1.4267 0.9728
-6.2846 6.1951 -1.8654 0.9646
-6.8080 5.6073 -1.8643 0.9646
-7.2765 4.9753 -1.8633 0.9646
-7.6863 4.3043 -1.8621 0.9646
-9.3594 1.4481 -2.0019 0.9620
-9.4450 0.6078 -2.0006 0.9620
-9.2514 -1.9089 -1.9968 0.9621
-8.4021 -4.2809 -1.9933 0.9622
-5.2846 -6.9035 -1.8377 0.9651
-4.6469 -7.3448 -1.8372 0.9651
-2.5368 -8.3079 -1.8362 0.9651
-1.7861 -8.5003 -1.8360 0.9651
-1.0214 -8.6255 -1.8360 0.9651
-0.2486 -8.6826 -1.8361 0.9651
0.5263 -8.6711 -1.8363 0.9651
1.2973 -8.5911 -1.8366 0.9651
2.0583 -8.4431 -1.8370 0.9651
2.8034 -8.2283 -1.8375 0.9651
5.5107 -6.7405 -1.8404 0.9650
6.0926 -6.2256 -1.8413 0.9650
4.1839 -2.9725 -1.0849 0.9792
4.3416 -2.5348 -1.0627 0.9797
4.8126 -2.2610 -1.1240 0.9785
4.9136 -1.7934 -1.1057 0.9788
9.4422 -0.7782 -2.0027 0.9620
9.4802 0.0665 -2.0040 0.9620
8.8814 3.3836 -2.0090 0.9619
8.1484 4.9121 -2.0112 0.9618
7.1536 6.2867 -2.0131 0.9618
4.8627 7.3886 -1.8697 0.9645
3.6182 6.7375 -1.6165 0.9692
1.9755 8.6279 -1.8710 0.9645
0.2854 6.1205 -1.2952 0.9753
-1.1638 8.7721 -1.8705 0.9645
-1.2985 5.7756 -1.2513 0.9761
-2.7015 8.4221 -1.8696 0.9645
-5.1459 6.5303 -1.7574 0.9666
-6.0592 6.4183 -1.8658 0.9646
-7.5285 4.5789 -1.8626 0.9646
-8.0823 3.9761 -1.9040 0.9638
-8.8508 3.4119 -2.0051 0.9620
-9.1138 2.6078 -2.0038 0.9620
-9.3038 1.7839 -2.0025 0.9620
-9.4603 0.1036 -1.9998 0.9621
-9.4257 -0.7395 -1.9985 0.9621
-9.3164 -1.5756 -1.9973 0.9621
-8.8779 -3.2008 -1.9949 0.9622
-8.5524 -3.9771 -1.9937 0.9622
-7.1839 -6.0880 -1.9905 0.9622
-5.5300 -6.7100 -1.8380 0.9651
-4.9084 -7.1739 -1.8374 0.9651
-4.2483 -7.5808 -1.8369 0.9651
-0.5604 -8.6679 -1.8360 0.9651
0.2144 -8.6840 -1.8362 0.9651
1.7534 -8.5108 -1.8368 0.9651
5.2639 -6.9329 -1.8400 0.9650
4.5416 -2.3365 -1.0796 0.9793
5.1780 -1.5828 -1.1445 0.9781
6.2955 -1.3248 -1.3599 0.9740
9.4740 -0.2741 -2.0034 0.9620
-0.7749 -7.7793 -1.8374 0.9684
-0.0785 -7.8178 -1.8375 0.9684
0.6187 -7.7945 -1.8377 0.9684
0.9304 -5.4706 -1.3042 0.9775
3.3065 -7.0934 -1.8393 0.9684
4.5167 -6.3983 -1.8407 0.9683
3.6662 -3.0158 -1.1157 0.9807
8.5045 -0.5420 -2.0028 0.9656
8.5240 0.2182 -2.0040 0.9656
8.3594 1.7302 -2.0063 0.9655
7.9280 3.1903 -2.0085 0.9655
7.6159 3.8862 -2.0095 0.9655
7.2426 4.5516 -2.0104 0.9655
4.2466 6.7212 -1.8685 0.9679
2.9870 7.3713 -1.8693 0.9678
1.6311 7.7859 -1.8696 0.9678
0.9306 7.9004 -1.8696 0.9678
-1.1922 7.8629 -1.8691 0.9679
-2.5682 7.5229 -1.8683 0.9679
-4.4624 6.5688 -1.8664 0.9679
-6.0329 5.1472 -1.8638 0.9679
-7.1424 4.1643 -1.9431 0.9666
-7.7261 3.6241 -2.0057 0.9655
-8.0138 2.9194 -2.0045 0.9656
-8.3949 1.4485 -2.0021 0.9656
-8.4855 0.6941 -2.0010 0.9656
-8.5086 -0.0649 -1.9998 0.9656
-8.4641 -0.8225 -1.9986 0.9657
-8.1744 -2.3096 -1.9964 0.9657
-7.9318 -3.0274 -1.9953 0.9657
-7.6266 -3.7204 -1.9943 0.9657
-7.2612 -4.3833 -1.9934 0.9657
-5.8196 -6.1235 -1.9854 0.9659
-4.2966 -6.5371 -1.8385 0.9684
-3.6960 -6.8925 -1.8381 0.9684
-2.4128 -7.4369 -1.8375 0.9684
-1.0540 -7.7464 -1.8374 0.9684
-0.3594 -7.8098 -1.8374 0.9684
0.3382 -7.8114 -1.8376 0.9684
1.0332 -7.7512 -1.8378 0.9684
1.7202 -7.6296 -1.8382 0.9684
2.3940 -7.4477 -1.8386 0.9684
3.0491 -7.2067 -1.8391 0.9684
4.2831 -6.5554 -1.8404 0.9683
3.7597 -2.7705 -1.0976 0.9810
3.9541 -2.4016 -1.0873 0.9812
4.1792 -2.0528 -1.0943 0.9810
5.3595 -1.5300 -1.3099 0.9774
6.7581 -1.2916 -1.6171 0.9721
8.5244 -0.0882 -2.0035 0.9656
8.5033 0.6723 -2.0047 0.9656
8.4143 1.4283 -2.0058 0.9655
8.2581 2.1738 -2.0070 0.9655
7.7491 3.6093 -2.0091 0.9655
6.5270 5.5382 -2.0118 0.9654
6.0096 6.1001 -2.0125 0.9654
4.5117 6.6028 -1.8795 0.9677
3.8830 6.9389 -1.8688 0.9679
3.2497 7.2587 -1.8691 0.9678
1.9098 7.7221 -1.8696 0.9678
0.3886 6.0673 -1.4289 0.9753
-1.1858 5.7380 -1.3770 0.9762
-2.2964 7.6112 -1.8684 0.9679
-4.2241 6.7260 -1.8667 0.9679
-4.8048 6.3202 -1.8659 0.9679
-5.3466 5.8642 -1.8651 0.9679
-5.8452 5.3618 -1.8642 0.9679
-6.7399 4.2613 -1.8741 0.9678
-7.5926 3.9003 -2.0061 0.9655
-8.1551 2.4874 -2.0038 0.9656
-8.5075 0.2410 -2.0003 0.9656
-8.4901 -0.5179 -1.9991 0.9657
-8.2539 -2.0148 -1.9968 0.9657
-7.7569 -3.4447 -1.9947 0.9657
-5.2437 -6.1422 -1.8981 0.9674
-4.5292 -6.3792 -1.8387 0.9684
-3.9416 -6.7558 -1.8382 0.9684
-2.0130 -7.5545 -1.8374 0.9684
-1.3316 -7.7035 -1.8374 0.9684
0.7539 -7.7828 -1.8377 0.9684
1.0242 -5.4483 -1.3029 0.9775
2.1246 -7.5282 -1.8384 0.9684
2.7878 -7.3108 -1.8389 0.9684
3.4294 -7.0354 -1.8395 0.9684
4.0442 -6.7041 -1.8401 0.9683
4.6274 -6.3194 -1.8408 0.9683
3.5954 -3.4190 -1.1661 0.9798
4.9365 -1.6032 -1.2198 0.9789
8.5199 0.3662 -2.0042 0.9656
8.1332 2.6116 -2.0076 0.9655
7.8722 3.3278 -2.0087 0.9655
7.5480 4.0182 -2.0097 0.9655
7.1631 4.6771 -2.0106 0.9655
5.6772 6.4130 -2.0129 0.9654
4.9219 6.6749 -1.9491 0.9665
3.5082 7.1368 -1.8690 0.9679
2.8586 7.4222 -1.8693 0.9678
1.4957 7.8131 -1.8696 0.9678
0.7933 7.9153 -1.8696 0.9678
-2.0216 7.6895 -1.8686 0.9679
-2.6983 7.4768 -1.8682 0.9679
-3.9803 6.8745 -1.8669 0.9679
-4.3652 5.1478 -1.5863 0.9726
-5.6499 5.5694 -1.8645 0.9679
-6.5423 4.4733 -1.8627 0.9680
-7.3477 4.1147 -1.9792 0.9660
-8.2731 2.0487 -2.0031 0.9656
-8.4178 1.3024 -2.0019 0.9656
-8.5052 -0.2126 -1.9996 0.9656
-8.4476 -0.9692 -1.9984 0.9657
-8.3228 -1.7173 -1.9973 0.9657
-8.1322 -2.4509 -1.9962 0.9657
-7.8773 -3.1643 -1.9951 0.9657
-7.1834 -4.5083 -1.9932 0.9658
-4.7560 -6.2130 -1.8389 0.9684
-0.9193 -7.7636 -1.8374 0.9684
0.4737 -7.8045 -1.8376 0.9684
4.3966 -6.4806 -1.8405 0.9683
4.9588 -6.0655 -1.8413 0.9683
5.4822 -5.6019 -1.8421 0.9683
3.9929 -2.3312 -1.0867 0.9812
4.2708 -2.0065 -1.1090 0.9808
5.5808 -1.4889 -1.3575 0.9765
8.5256 0.0598 -2.0038 0.9656
8.3892 1.5744 -2.0061 0.9655
8.2200 2.3171 -2.0072 0.9655
7.9850 3.0421 -2.0082 0.9655
7.6860 3.7436 -2.0093 0.9655
7.3252 4.4159 -2.0102 0.9655
6.4303 5.6511 -2.0119 0.9654
5.3285 6.7076 -2.0133 0.9654
4.3705 6.6408 -1.8684 0.9679
3.6180 6.7372 -1.7973 0.9691
3.1233 7.3143 -1.8692 0.9678
0.8546 6.2523 -1.4831 0.9744
0.3705 7.9462 -1.8696 0.9678
-1.0460 7.8840 -1.8691 0.9678
-4.9134 6.2353 -1.8657 0.9679
-5.4471 5.7700 -1.8649 0.9679
-6.9308 4.2153 -1.9065 0.9672
-7.6583 3.7675 -2.0059 0.9655
-8.1961 2.3452 -2.0036 0.9656
-8.3676 1.6044 -2.0024 0.9656
-8.5094 0.0932 -2.0000 0.9656
-8.3811 -1.4175 -1.9977 0.9657
-8.2168 -2.1576 -1.9966 0.9657
-7.9876 -2.8798 -1.9955 0.9657
-6.9312 -4.8833 -1.9927 0.9658
-5.9390 -6.0212 -1.9877 0.9658
-3.8236 -6.8229 -1.8382 0.9684
-3.1996 -7.1352 -1.8378 0.9684
-1.8816 -7.5882 -1.8374 0.9684
-0.5044 -7.8016 -1.8374 0.9684
0.8890 -7.7688 -1.8378 0.9684
3.5512 -6.9752 -1.8396 0.9683
4.1603 -6.6334 -1.8402 0.9683
4.7368 -6.2387 -1.8410 0.9683
5.2763 -5.7942 -1.8418 0.9683
3.5769 -3.2851 -1.1414 0.9802
4.3829 -1.7807 -1.1118 0.9807
5.1213 -1.5655 -1.2586 0.9782
8.4593 -1.0043 -2.0021 0.9656
8.5202 -0.2465 -2.0033 0.9656
8.5132 0.5142 -2.0045 0.9656
-1.3308 -6.9748 -1.8385 0.9711
-0.0713 -7.1006 -1.8386 0.9711
1.8105 -6.8694 -1.8393 0.9711
2.4161 -6.6822 -1.8398 0.9711
4.1017 -5.8104 -1.8415 0.9710
4.6050 -5.4238 -1.8422 0.9710
3.5992 -3.5436 -1.3078 0.9793
3.5597 -2.4308 -1.1161 0.9823
3.8017 -2.1259 -1.1278 0.9822
4.7655 -1.6397 -1.3049 0.9794
5.9150 -1.4609 -1.5775 0.9751
7.7193 -0.4920 -2.0027 0.9685
7.7366 0.1981 -2.0038 0.9685
7.5864 1.5702 -2.0059 0.9685
6.9106 3.5263 -2.0088 0.9685
5.7383 5.2350 -2.0111 0.9684
1.9568 6.4225 -1.7384 0.9726
0.8442 7.1669 -1.8685 0.9706
0.2021 7.2133 -1.8684 0.9706
-2.9281 6.5883 -1.8667 0.9706
-3.5026 6.2992 -1.8662 0.9707
-4.0487 5.9599 -1.8655 0.9707
-5.0385 5.1423 -1.8640 0.9707
-5.4744 4.6707 -1.8632 0.9707
-7.2733 2.6497 -2.0043 0.9685
-7.6200 1.3148 -2.0021 0.9686
-7.7027 0.6301 -2.0010 0.9686
-7.7241 -0.0589 -2.0000 0.9686
-7.5830 -1.4279 -1.9979 0.9686
-7.4218 -2.0970 -1.9969 0.9686
-7.2019 -2.7488 -1.9959 0.9687
-6.5936 -3.9803 -1.9942 0.9687
-6.2102 -4.5503 -1.9934 0.9687
-4.7631 -6.0034 -1.9842 0.9688
-2.7851 -6.5332 -1.8388 0.9711
-0.9573 -7.0358 -1.8385 0.9711
-0.3264 -7.0933 -1.8385 0.9711
0.9384 -7.0400 -1.8389 0.9711
1.5624 -6.9295 -1.8392 0.9711
2.1742 -6.7641 -1.8396 0.9711
2.7691 -6.5451 -1.8401 0.9711
3.8896 -5.9532 -1.8412 0.9710
4.8886 -5.1720 -1.8427 0.9710
3.4736 -3.0732 -1.2008 0.9810
3.6381 -2.2097 -1.1021 0.9826
3.8807 -1.9061 -1.1194 0.9823
5.3578 -1.5296 -1.4427 0.9772
6.7587 -1.2917 -1.7816 0.9720
7.7370 -0.0800 -2.0034 0.9685
7.7175 0.6102 -2.0044 0.9685
7.6363 1.2963 -2.0055 0.9685
7.4942 1.9727 -2.0065 0.9685
6.7146 3.8905 -2.0093 0.9684
5.4523 5.5344 -2.0115 0.9684
4.9388 6.0002 -2.0121 0.9684
3.5847 6.4057 -1.9006 0.9701
1.7325 7.0052 -1.8684 0.9706
1.1012 7.1319 -1.8685 0.9706
-0.1825 7.2135 -1.8683 0.9706
-2.0833 6.9049 -1.8674 0.9706
-4.8513 5.3209 -1.8643 0.9707
-5.3039 4.8653 -1.8635 0.9707
-6.5509 4.1418 -2.0067 0.9685
-6.8905 3.5397 -2.0057 0.9685
-7.1749 2.9099 -2.0047 0.9685
-7.4018 2.2577 -2.0036 0.9685
-7.5695 1.5881 -2.0025 0.9685
-7.6768 0.9067 -2.0015 0.9686
-7.7075 -0.4702 -1.9993 0.9686
-7.6310 -1.1547 -1.9983 0.9686
-7.4939 -1.8293 -1.9973 0.9686
-7.2975 -2.4887 -1.9963 0.9686
-6.7335 -3.7414 -1.9945 0.9687
-6.3707 -4.3249 -1.9937 0.9687
-5.9576 -4.8736 -1.9929 0.9687
-5.4976 -5.3834 -1.9922 0.9687
-1.2095 -6.9969 -1.8385 0.9711
-0.5811 -7.0769 -1.8385 0.9711
1.0224 -5.4386 -1.4328 0.9774
3.1145 -6.3893 -1.8404 0.9711
3.6727 -6.0883 -1.8410 0.9710
4.6988 -5.3435 -1.8424 0.9710
3.5078 -3.3357 -1.2533 0.9802
3.5837 -2.3570 -1.1106 0.9824
3.8317 -2.0562 -1.1259 0.9822
7.5587 1.7018 -2.0061 0.9685
6.8489 3.6460 -2.0089 0.9684
6.4994 4.2437 -2.0098 0.9684
6.0977 4.8080 -2.0106 0.9684
5.1506 5.8181 -2.0119 0.9684
4.6129 6.2558 -2.0125 0.9684
3.1826 6.4743 -1.8679 0.9706
1.9830 6.9382 -1.8684 0.9706
-0.4700 5.9675 -1.5499 0.9756
-1.8340 6.9759 -1.8676 0.9706
-2.0362 5.6424 -1.5531 0.9755
-3.0419 6.5361 -1.8666 0.9707
-3.6112 6.2370 -1.8660 0.9707
-4.1513 5.8883 -1.8654 0.9707
-4.3652 5.1477 -1.7475 0.9725
-6.3271 4.3261 -1.9845 0.9688
-6.7603 3.7858 -2.0061 0.9685
-7.0672 3.1665 -2.0051 0.9685
-7.6409 1.1822 -2.0019 0.9686
-7.7117 0.4962 -2.0008 0.9686
-7.6692 -0.8799 -1.9987 0.9686
-7.5563 -1.5592 -1.9977 0.9686
-7.3836 -2.2253 -1.9967 0.9686
-6.8648 -3.4977 -1.9948 0.9687
-6.1298 -4.6571 -1.9932 0.9687
-5.6883 -5.1830 -1.9925 0.9687
-5.2016 -5.6672 -1.9917 0.9687
-4.5895 -5.9955 -1.9549 0.9693
-3.8042 -6.0129 -1.8423 0.9710
-2.6712 -6.5804 -1.8388 0.9711
-2.0738 -6.7916 -1.8386 0.9711
-1.4602 -6.9490 -1.8385 0.9711
-0.8350 -7.0514 -1.8385 0.9711
-0.2032 -7.0980 -1.8385 0.9711
0.8269 -5.4756 -1.4338 0.9774
1.6825 -6.9016 -1.8393 0.9711
2.2914 -6.7256 -1.8397 0.9711
2.8825 -6.4964 -1.8402 0.9711
3.9927 -5.8852 -1.8414 0.9710
4.5030 -5.5080 -1.8421 0.9710
3.5327 -2.5098 -1.1220 0.9823
3.7149 -2.1689 -1.1138 0.9824
4.5820 -1.6724 -1.2629 0.9800
5.6072 -1.4960 -1.5026 0.9763
6.9218 -1.1987 -1.8188 0.9714
7.6134 1.4288 -2.0057 0.9685
6.6466 4.0068 -2.0094 0.9684
6.2656 4.5851 -2.0103 0.9684
5.8341 5.1271 -2.0110 0.9684
3.4253 6.3783 -1.8745 0.9705
2.8334 6.6353 -1.8681 0.9706
2.0946 6.4428 -1.7541 0.9724
0.9772 7.1500 -1.8685 0.9706
-0.9489 7.1521 -1.8680 0.9706
-4.4581 5.6575 -1.8649 0.9707
-5.9776 4.4106 -1.9234 0.9698
-6.9503 3.4192 -2.0055 0.9685
-7.2236 2.7846 -2.0045 0.9685
-7.4391 2.1286 -2.0034 0.9685
-7.5951 1.4563 -2.0023 0.9686
-7.6905 0.7732 -2.0013 0.9686
-7.7247 0.0846 -2.0002 0.9686
-7.2525 -2.6148 -1.9961 0.9686
-6.9873 -3.2493 -1.9952 0.9687
-6.2941 -4.4345 -1.9935 0.9687
-5.8717 -4.9760 -1.9928 0.9687
-5.4030 -5.4777 -1.9921 0.9687
-2.9061 -6.4805 -1.8389 0.9711
-1.7089 -6.8921 -1.8385 0.9711
-1.0878 -7.0168 -1.8385 0.9711
2.6469 -6.5950 -1.8400 0.9711
3.2251 -6.3347 -1.8405 0.9711
3.7781 -6.0240 -1.8411 0.9710
4.3015 -5.6653 -1.8418 0.9710
3.5031 -3.2173 -1.2315 0.9805
3.4772 -2.6635 -1.1341 0.9821
3.8549 -1.9832 -1.1224 0.9822
4.2954 -1.7452 -1.2005 0.9810
-1.7819 -6.2488 -1.8395 0.9733
-1.2178 -6.3825 -1.8394 0.9733
-0.6441 -6.4656 -1.8394 0.9733
-0.0652 -6.4976 -1.8395 0.9733
0.5142 -6.4781 -1.8397 0.9733
