ply
format ascii 1.0
element vertex 1598
property float32 x
property float32 y
property float32 z
property float32 I
end_header
5.4705 5.4626 -2.0017 0.9686
4.9617 5.9286 -2.0017 0.9686
2.9834 6.5226 -1.8571 0.9708
2.3900 6.7626 -1.8571 0.9708
1.1508 7.0796 -1.8571 0.9708
0.5150 7.1540 -1.8571 0.9708
-0.1249 7.1715 -1.8571 0.9708
-1.3062 6.5794 -1.7368 0.9727
-2.0185 6.8827 -1.8571 0.9708
-2.6241 6.6753 -1.8571 0.9708
-4.5965 6.1428 -1.9865 0.9688
-5.1653 5.7523 -2.0017 0.9686
-6.1049 4.7434 -2.0017 0.9686
-6.5035 4.1802 -2.0017 0.9686
-6.8503 3.5836 -2.0017 0.9686
-7.1426 2.9586 -2.0017 0.9686
-7.3779 2.3099 -2.0017 0.9686
-7.5545 1.6429 -2.0017 0.9686
-7.6709 0.9627 -2.0017 0.9686
-7.7262 0.2749 -2.0017 0.9686
-7.6522 -1.1017 -2.0017 0.9686
-7.5234 -1.7797 -2.0017 0.9686
-7.0877 -3.0876 -2.0017 0.9686
-6.7842 -3.7073 -2.0017 0.9686
-4.1751 -5.7959 -1.8495 0.9709
-3.6417 -6.1451 -1.8495 0.9709
-3.0793 -6.4453 -1.8495 0.9709
-1.8855 -6.8898 -1.8495 0.9709
-1.2637 -7.0304 -1.8495 0.9709
0.0052 -7.1431 -1.8495 0.9709
1.2738 -7.0286 -1.8495 0.9709
1.8954 -6.8870 -1.8495 0.9709
3.0885 -6.4408 -1.8495 0.9709
3.6505 -6.1397 -1.8495 0.9709
5.5665 -4.4762 -1.8494 0.9709
6.7831 -3.6940 -1.9998 0.9686
7.0919 -3.0773 -2.0016 0.9686
7.3381 -2.4327 -2.0016 0.9686
7.6535 -1.0907 -2.0016 0.9686
7.1381 2.9688 -2.0016 0.9686
6.8449 3.5934 -2.0017 0.9686
5.6499 5.2769 -2.0017 0.9686
5.1569 5.7596 -2.0017 0.9686
4.6228 6.1965 -2.0017 0.9686
2.6145 6.6790 -1.8571 0.9708
1.9237 6.5949 -1.7787 0.9720
0.7536 7.1328 -1.8571 0.9708
0.1146 7.1716 -1.8571 0.9708
-0.5187 7.0626 -1.8336 0.9712
-1.7875 6.9463 -1.8571 0.9708
-4.2948 6.1580 -1.9439 0.9695
-5.9431 4.9446 -2.0017 0.9686
-6.3603 4.3950 -2.0017 0.9686
-6.7268 3.8104 -2.0017 0.9686
-7.0398 3.1954 -2.0017 0.9686
-7.6345 1.2183 -2.0017 0.9686
-7.7127 0.5328 -2.0017 0.9686
-7.6847 -0.8456 -2.0017 0.9686
-7.5787 -1.5274 -2.0017 0.9686
-7.4123 -2.1971 -2.0017 0.9686
-6.9042 -3.4787 -2.0017 0.9686
-5.3011 -4.7879 -1.8495 0.9709
-4.3663 -5.6533 -1.8495 0.9709
-3.2928 -6.3389 -1.8495 0.9709
-1.4977 -6.9843 -1.8495 0.9709
-0.8690 -7.0900 -1.8495 0.9709
-0.2334 -7.1393 -1.8495 0.9709
1.6644 -6.9464 -1.8495 0.9709
2.8717 -6.5403 -1.8495 0.9709
3.4435 -6.2582 -1.8495 0.9709
4.5003 -5.5471 -1.8495 0.9709
5.4140 -4.6595 -1.8494 0.9709
6.6439 -3.9113 -1.9962 0.9686
7.7308 0.0280 -2.0016 0.9686
7.4477 2.0730 -2.0016 0.9686
6.6335 3.9701 -2.0017 0.9686
5.3463 5.5842 -2.0017 0.9686
4.8271 6.0387 -2.0017 0.9686
4.2130 6.3598 -1.9752 0.9690
3.4398 6.3601 -1.8721 0.9706
2.8360 6.5880 -1.8571 0.9708
2.2373 6.8147 -1.8571 0.9708
0.3254 6.5844 -1.7069 0.9731
-0.2829 7.0847 -1.8358 0.9711
-2.7736 6.6146 -1.8571 0.9708
-3.3583 6.3523 -1.8604 0.9707
-4.0052 6.1723 -1.9051 0.9701
-4.7698 6.0842 -2.0017 0.9686
-5.7746 5.1403 -2.0017 0.9686
-7.2073 2.7972 -2.0017 0.9686
-7.4280 2.1435 -2.0017 0.9686
-7.5895 1.4726 -2.0017 0.9686
-7.6906 0.7900 -2.0017 0.9686
-6.2098 -4.3577 -1.9642 0.9691
-5.4580 -4.6082 -1.8495 0.9709
-5.0253 -5.0765 -1.8495 0.9709
-3.5026 -6.2254 -1.8495 0.9709
-1.7301 -6.9304 -1.8495 0.9709
-0.4716 -7.1275 -1.8495 0.9709
0.8018 -7.0979 -1.8495 0.9709
1.4315 -6.9981 -1.8495 0.9709
2.6517 -6.6326 -1.8495 0.9709
3.2326 -6.3697 -1.8495 0.9709
3.7876 -6.0561 -1.8495 0.9709
4.8031 -5.2871 -1.8495 0.9709
5.6658 -4.3499 -1.8494 0.9709
6.8707 -3.5438 -2.0016 0.9686
7.5636 -1.5991 -2.0016 0.9686
7.7274 -0.2302 -2.0016 0.9686
7.5128 1.8231 -2.0016 0.9686
7.3203 2.4857 -2.0016 0.9686
7.0695 3.1285 -2.0016 0.9686
6.7624 3.7464 -2.0017 0.9686
6.4014 4.3345 -2.0017 0.9686
3.7196 6.3603 -1.9077 0.9700
2.4636 6.7361 -1.8571 0.9708
1.8000 6.7303 -1.8038 0.9716
-0.0467 7.1724 -1.8571 0.9708
-0.6772 7.0478 -1.8332 0.9712
-2.5511 6.7036 -1.8571 0.9708
-3.1387 6.4494 -1.8571 0.9708
-3.7264 6.1856 -1.8697 0.9706
-4.4965 6.1479 -1.9721 0.9690
-5.1022 5.8083 -2.0017 0.9686
-5.5998 5.3302 -2.0017 0.9686
-6.8108 3.6582 -2.0017 0.9686
-7.1099 3.0363 -2.0017 0.9686
-7.3523 2.3903 -2.0017 0.9686
-7.6599 1.0464 -2.0017 0.9686
-7.7227 0.3592 -2.0017 0.9686
-7.7240 -0.3308 -2.0017 0.9686
-7.3610 -2.3632 -2.0017 0.9686
-7.1210 -3.0101 -2.0017 0.9686
-5.6088 -4.4234 -1.8495 0.9709
-5.1920 -4.9059 -1.8495 0.9709
-4.2381 -5.7500 -1.8495 0.9709
-3.7085 -6.1050 -1.8495 0.9709
-0.0728 -7.1427 -1.8495 0.9709
0.5644 -7.1207 -1.8495 0.9709
1.8202 -6.9072 -1.8495 0.9709
2.4288 -6.7174 -1.8495 0.9709
3.0181 -6.4741 -1.8495 0.9709
3.5833 -6.1792 -1.8495 0.9709
4.1200 -5.8351 -1.8495 0.9709
4.6239 -5.4445 -1.8495 0.9709
5.0909 -5.0105 -1.8494 0.9709
5.5174 -4.5366 -1.8494 0.9709
6.7383 -3.7655 -1.9986 0.9686
7.0579 -3.1545 -2.0016 0.9686
7.7154 -0.4881 -2.0016 0.9686
7.7282 0.2018 -2.0016 0.9686
7.5695 1.5712 -2.0016 0.9686
7.3992 2.2399 -2.0016 0.9686
6.5426 4.1183 -2.0017 0.9686
5.7071 5.2149 -2.0017 0.9686
4.0104 6.3602 -1.9468 0.9694
5.0034 4.9961 -2.0017 0.9710
2.8947 6.3286 -1.9701 0.9715
2.2355 6.3256 -1.8993 0.9725
1.0526 6.4750 -1.8571 0.9731
-0.6987 6.5228 -1.8571 0.9731
-2.4425 6.2132 -1.8899 0.9726
-3.0938 6.1848 -1.9577 0.9717
-3.7146 6.0165 -2.0017 0.9710
-5.1745 4.8189 -2.0017 0.9710
-5.5835 4.3383 -2.0017 0.9710
-5.9481 3.8232 -2.0017 0.9710
-6.2653 3.2776 -2.0017 0.9710
-6.5326 2.7059 -2.0017 0.9710
-6.7479 2.1127 -2.0017 0.9710
-6.9094 1.5026 -2.0017 0.9710
-7.0158 0.8805 -2.0017 0.9710
-7.0606 -0.3796 -2.0017 0.9710
-6.9987 -1.0076 -2.0017 0.9710
-6.8809 -1.6277 -2.0017 0.9710
-6.2048 -3.3907 -2.0017 0.9710
-5.3799 -4.3389 -1.9566 0.9717
-4.6994 -4.5385 -1.8495 0.9732
-3.3307 -5.6203 -1.8495 0.9732
-2.8163 -5.8949 -1.8495 0.9732
-1.7245 -6.3014 -1.8495 0.9732
0.0047 -6.5331 -1.8495 0.9732
1.1650 -6.4283 -1.8495 0.9732
2.8248 -5.8908 -1.8495 0.9732
3.8262 -5.2954 -1.8495 0.9732
4.2831 -4.9331 -1.8495 0.9732
4.7059 -4.5316 -1.8495 0.9732
5.1042 -4.1044 -1.8542 0.9731
5.8681 -3.9118 -1.9965 0.9711
6.7114 -2.2250 -2.0016 0.9710
7.0143 0.8906 -2.0016 0.9710
6.5285 2.7153 -2.0017 0.9710
6.2604 3.2866 -2.0017 0.9710
5.9424 3.8317 -2.0017 0.9710
5.5771 4.3463 -2.0017 0.9710
4.7165 5.2678 -2.0017 0.9710
4.2280 5.6673 -2.0017 0.9710
3.1542 6.3282 -2.0017 0.9710
2.4767 6.3270 -1.9235 0.9721
0.1048 6.5592 -1.8571 0.9731
-0.4805 6.5424 -1.8571 0.9731
-1.6349 6.3531 -1.8571 0.9731
-2.8449 6.1960 -1.9301 0.9721
-4.0449 5.7996 -2.0017 0.9710
-4.5459 5.4159 -2.0017 0.9710
-5.8171 4.0197 -2.0017 0.9710
-6.4386 2.9225 -2.0017 0.9710
-6.6736 2.3368 -2.0017 0.9710
-6.8553 1.7325 -2.0017 0.9710
-6.9825 1.1143 -2.0017 0.9710
-7.0540 0.4873 -2.0017 0.9710
-7.0694 -0.1436 -2.0017 0.9710
-7.0284 -0.7734 -2.0017 0.9710
-6.9315 -1.3970 -2.0017 0.9710
-6.7793 -2.0095 -2.0017 0.9710
-6.3146 -3.1816 -2.0017 0.9710
-6.0057 -3.7320 -2.0017 0.9710
-5.6322 -4.2400 -1.9957 0.9711
-3.9935 -5.1705 -1.8495 0.9732
-2.4826 -6.0430 -1.8495 0.9732
-1.9339 -6.2403 -1.8495 0.9732
-0.7948 -6.4846 -1.8495 0.9732
3.1494 -5.7238 -1.8495 0.9732
3.6472 -5.4202 -1.8495 0.9732
4.1160 -5.0734 -1.8495 0.9732
4.5519 -4.6862 -1.8495 0.9732
5.6780 -4.0653 -1.9769 0.9714
6.3887 -3.0295 -2.0016 0.9710
6.6334 -2.4478 -2.0016 0.9710
6.9627 -1.2307 -2.0016 0.9710
7.0447 -0.6050 -2.0016 0.9710
6.9536 1.2810 -2.0016 0.9710
4.8897 5.1073 -2.0017 0.9710
3.9049 5.8947 -2.0017 0.9710
3.3637 6.2194 -2.0017 0.9710
2.7241 6.3281 -1.9504 0.9718
2.0764 6.3245 -1.8844 0.9727
1.4824 6.3903 -1.8571 0.9731
0.9067 6.4971 -1.8571 0.9731
0.3238 6.5520 -1.8571 0.9731
-1.4218 6.4041 -1.8571 0.9731
-1.9872 6.2519 -1.8571 0.9731
-2.6024 6.2065 -1.9052 0.9724
-3.2655 6.1768 -1.9779 0.9714
-3.8489 5.9315 -2.0017 0.9710
-4.3625 5.5646 -2.0017 0.9710
-5.6797 4.2117 -2.0017 0.9710
-6.5918 2.5583 -2.0017 0.9710
-6.7937 1.9604 -2.0017 0.9710
-7.0338 0.7225 -2.0017 0.9710
-7.0702 0.0925 -2.0017 0.9710
-7.0503 -0.5383 -2.0017 0.9710
-6.6565 -2.3850 -2.0017 0.9710
-6.4173 -2.9690 -2.0017 0.9710
-6.1270 -3.5294 -2.0017 0.9710
-5.7798 -4.0560 -1.9989 0.9711
-5.1433 -4.3425 -1.9056 0.9724
-3.2035 -5.6938 -1.8495 0.9732
-2.1412 -6.1723 -1.8495 0.9732
0.7334 -6.4918 -1.8495 0.9732
1.3093 -6.4005 -1.8495 0.9732
3.4642 -5.5389 -1.8495 0.9732
3.9443 -5.2080 -1.8495 0.9732
4.3929 -4.8356 -1.8495 0.9732
4.8066 -4.4246 -1.8495 0.9732
5.3248 -4.0880 -1.9004 0.9725
5.9610 -3.7829 -1.9986 0.9711
6.2840 -3.2412 -2.0016 0.9710
6.9177 -1.4625 -2.0016 0.9710
7.0206 -0.8399 -2.0016 0.9710
7.0675 -0.2105 -2.0016 0.9710
6.9925 1.0481 -2.0016 0.9710
6.6952 2.2735 -2.0017 0.9710
6.4658 2.8614 -2.0017 0.9710
5.4780 4.4706 -2.0017 0.9710
5.0576 4.9412 -2.0017 0.9710
4.5968 5.3725 -2.0017 0.9710
2.3137 6.3261 -1.9069 0.9724
1.6949 6.3373 -1.8571 0.9731
1.1231 6.4632 -1.8571 0.9731
0.5424 6.5376 -1.8571 0.9731
-2.3657 6.2164 -1.8829 0.9727
-4.1742 5.7072 -2.0017 0.9710
-4.6665 5.3123 -2.0017 0.9710
-5.9061 3.8879 -2.0017 0.9710
-6.5027 2.7770 -2.0017 0.9710
-6.8926 1.5779 -2.0017 0.9710
-7.0632 0.3285 -2.0017 0.9710
-6.8983 -1.5525 -2.0017 0.9710
-6.7324 -2.1614 -2.0017 0.9710
-6.5128 -2.7531 -2.0017 0.9710
-4.7602 -4.4978 -1.8540 0.9731
-4.3297 -4.8924 -1.8495 0.9732
-3.8762 -5.2590 -1.8495 0.9732
-3.3918 -5.5837 -1.8495 0.9732
-2.3461 -6.0973 -1.8495 0.9732
-1.7931 -6.2822 -1.8495 0.9732
-1.2258 -6.4171 -1.8495 0.9732
-0.6488 -6.5008 -1.8495 0.9732
-0.0666 -6.5327 -1.8495 0.9732
1.6647 -6.3174 -1.8495 0.9732
2.7604 -5.9212 -1.8495 0.9732
4.6562 -4.5826 -1.8495 0.9732
5.0462 -4.1492 -1.8495 0.9732
5.8221 -3.9735 -1.9955 0.9711
6.1723 -3.4492 -2.0016 0.9710
6.4552 -2.8851 -2.0016 0.9710
6.8650 -1.6927 -2.0016 0.9710
7.0236 0.8141 -2.0016 0.9710
6.9231 1.4371 -2.0016 0.9710
6.7674 2.0486 -2.0016 0.9710
6.2959 3.2181 -2.0017 0.9710
5.2197 4.7696 -2.0017 0.9710
4.2896 5.6209 -2.0017 0.9710
5.9220 2.6984 -2.0017 0.9731
4.9967 4.1694 -2.0017 0.9731
4.1767 4.9907 -2.0017 0.9731
3.7151 5.3432 -2.0017 0.9731
2.1685 6.1359 -2.0017 0.9731
1.6095 6.2921 -1.9976 0.9732
1.0217 6.2850 -1.9585 0.9737
-0.1091 6.2633 -1.9268 0.9741
-1.2370 6.2308 -1.9539 0.9738
-1.8211 6.2098 -1.9904 0.9733
-3.8990 5.2106 -2.0017 0.9731
-4.3481 4.8422 -2.0017 0.9731
-5.7665 3.0167 -2.0017 0.9731
-6.0126 2.4905 -2.0017 0.9731
-6.2107 1.9445 -2.0017 0.9731
-6.4415 -0.9274 -2.0017 0.9731
-5.9664 -2.5991 -2.0017 0.9731
-5.0570 -4.0784 -1.9982 0.9732
-4.4780 -4.3246 -1.9148 0.9743
-2.5921 -5.4256 -1.8495 0.9751
-2.0980 -5.6352 -1.8495 0.9751
-1.5872 -5.7998 -1.8495 0.9751
-1.0638 -5.9182 -1.8495 0.9751
0.0043 -6.0130 -1.8495 0.9751
1.0723 -5.9166 -1.8495 0.9751
1.5956 -5.7974 -1.8495 0.9752
2.1061 -5.6321 -1.8495 0.9752
3.0730 -5.1684 -1.8495 0.9752
3.5216 -4.8738 -1.8495 0.9752
5.4149 -3.6097 -2.0016 0.9731
5.7152 -3.1125 -2.0016 0.9731
6.4989 -0.3400 -2.0016 0.9731
6.5033 0.2408 -2.0016 0.9731
6.3571 1.3921 -2.0017 0.9731
6.2077 1.9534 -2.0017 0.9731
5.4694 3.5267 -2.0017 0.9731
5.1332 4.0003 -2.0017 0.9731
4.7560 4.4420 -2.0017 0.9731
3.4108 5.5424 -2.0017 0.9731
1.8224 6.2475 -2.0017 0.9731
1.2390 6.2880 -1.9712 0.9735
0.1002 6.2682 -1.9282 0.9741
-0.4593 6.2544 -1.9289 0.9741
-2.1774 6.1329 -2.0017 0.9731
-3.7229 5.3379 -2.0017 0.9731
-4.1840 4.9847 -2.0017 0.9731
-4.6118 4.5918 -2.0017 0.9731
-5.0028 4.1623 -2.0017 0.9731
-5.3540 3.6997 -2.0017 0.9731
-5.6626 3.2076 -2.0017 0.9731
-6.1423 2.1508 -2.0017 0.9731
-6.4266 1.0256 -2.0017 0.9731
-6.4925 0.4485 -2.0017 0.9731
-6.4689 -0.7118 -2.0017 0.9731
-6.3797 -1.2858 -2.0017 0.9731
-5.8119 -2.9284 -2.0017 0.9731
-5.1978 -3.9129 -2.0011 0.9731
-4.7825 -4.3196 -1.9822 0.9734
-3.2366 -5.0677 -1.8495 0.9751
-2.2850 -5.5620 -1.8495 0.9751
-1.2608 -5.8794 -1.8495 0.9751
-0.1964 -6.0098 -1.8495 0.9751
0.3402 -6.0034 -1.8495 0.9751
1.9169 -5.6992 -1.8495 0.9752
2.4174 -5.5056 -1.8495 0.9752
4.1896 -4.3131 -1.8495 0.9752
5.8801 -2.7884 -2.0016 0.9731
6.4084 -1.1327 -2.0016 0.9731
6.5077 0.0235 -2.0016 0.9731
6.4001 1.1790 -2.0017 0.9731
6.2695 1.7450 -2.0017 0.9731
5.2639 3.8266 -2.0017 0.9731
4.9017 4.2808 -2.0017 0.9731
4.5005 4.7008 -2.0017 0.9731
4.0634 5.0833 -2.0017 0.9731
2.5732 5.9775 -2.0017 0.9731
1.4592 6.2906 -1.9862 0.9733
0.8768 6.2829 -1.9512 0.9738
0.3100 6.2727 -1.9317 0.9741
-0.2500 6.2599 -1.9269 0.9741
-0.8112 6.2443 -1.9368 0.9740
-1.3822 6.2258 -1.9616 0.9737
-2.5165 6.0017 -2.0017 0.9731
-4.0152 5.1217 -2.0017 0.9731
-4.8611 4.3271 -2.0017 0.9731
-5.5523 3.3948 -2.0017 0.9731
-6.2528 1.8043 -2.0017 0.9731
-6.4739 0.6650 -2.0017 0.9731
-6.5074 0.0851 -2.0017 0.9731
-6.4190 -1.0720 -2.0017 0.9731
-5.9064 -2.7327 -2.0017 0.9731
-5.6392 -3.2484 -2.0017 0.9731
-5.3271 -3.7383 -2.0017 0.9731
-4.2840 -4.3276 -1.8730 0.9748
-3.8324 -4.6335 -1.8495 0.9751
-3.4040 -4.9568 -1.8495 0.9751
-2.4695 -5.4826 -1.8495 0.9751
-0.3970 -5.9999 -1.8495 0.9751
0.1395 -6.0114 -1.8495 0.9751
0.6750 -5.9750 -1.8495 0.9751
1.2050 -5.8910 -1.8495 0.9752
2.2322 -5.5833 -1.8495 0.9752
2.7212 -5.3620 -1.8495 0.9752
4.0432 -4.4506 -1.8495 0.9752
5.4947 -3.4870 -2.0016 0.9731
6.0267 -2.4556 -2.0016 0.9731
6.4962 0.3870 -2.0016 0.9731
6.3242 1.5347 -2.0017 0.9731
5.6926 3.1537 -2.0017 0.9731
5.3887 3.6487 -2.0017 0.9731
4.6549 4.5479 -2.0017 0.9731
4.2309 4.9448 -2.0017 0.9731
3.7732 5.3024 -2.0017 0.9731
3.2853 5.6177 -2.0017 0.9731
1.0923 6.2860 -1.9624 0.9737
0.5207 6.2768 -1.9372 0.9740
-0.6006 6.2505 -1.9314 0.9741
-1.1670 6.2331 -1.9505 0.9738
-3.8419 5.2529 -2.0017 0.9731
-4.7139 4.4870 -2.0017 0.9731
-5.4359 3.5783 -2.0017 0.9731
-5.9850 2.5559 -2.0017 0.9731
-6.3438 1.4523 -2.0017 0.9731
-6.5009 0.3024 -2.0017 0.9731
-6.4513 -0.8571 -2.0017 0.9731
-6.3491 -1.4289 -2.0017 0.9731
-6.1964 -1.9893 -2.0017 0.9731
-5.7446 -3.0583 -2.0017 0.9731
-5.4490 -3.5583 -2.0017 0.9731
-4.5752 -4.3230 -1.9361 0.9740
-3.9850 -4.5030 -1.8495 0.9751
-2.1594 -5.6119 -1.8495 0.9751
-1.6504 -5.7821 -1.8495 0.9751
0.4751 -5.9942 -1.8495 0.9751
1.0077 -5.9280 -1.8495 0.9751
3.0164 -5.2016 -1.8495 0.9752
3.8923 -4.5831 -1.8495 0.9752
4.2855 -4.2178 -1.8495 0.9752
4.9652 -4.0826 -1.9772 0.9735
5.3731 -3.6670 -2.0008 0.9731
6.3185 -1.5579 -2.0016 0.9731
6.4323 -0.9883 -2.0016 0.9731
6.5056 0.1699 -2.0016 0.9731
6.4645 0.7492 -2.0016 0.9731
6.2286 1.8855 -2.0017 0.9731
6.0357 2.4334 -2.0017 0.9731
5.7947 2.9619 -2.0017 0.9731
4.8042 4.3899 -2.0017 0.9731
4.3937 4.8008 -2.0017 0.9731
3.9481 5.1734 -2.0017 0.9731
2.4381 6.0339 -2.0017 0.9731
5.2352 2.9755 -2.0017 0.9749
4.6235 3.8580 -2.0017 0.9749
3.8648 4.6179 -2.0017 0.9749
3.4376 4.9441 -2.0017 0.9749
2.9831 5.2310 -2.0017 0.9749
2.0065 5.6776 -2.0017 0.9749
1.4923 5.8339 -2.0017 0.9749
-1.1727 5.9065 -2.0017 0.9749
-2.6941 5.3856 -2.0017 0.9749
-3.1635 5.1239 -2.0017 0.9749
-4.4068 4.1040 -2.0017 0.9749
-5.0657 3.2560 -2.0017 0.9749
-5.3358 2.7914 -2.0017 0.9749
-5.5635 2.3045 -2.0017 0.9749
-5.7468 1.7992 -2.0017 0.9749
-5.8601 -1.3862 -2.0017 0.9749
-5.7132 -1.9032 -2.0017 0.9749
-5.2843 -2.8877 -2.0017 0.9749
-5.0058 -3.3474 -2.0017 0.9749
-4.6874 -3.7804 -2.0017 0.9749
-3.2521 -4.5146 -1.8495 0.9768
-2.8366 -4.7866 -1.8495 0.9768
-2.3985 -5.0204 -1.8495 0.9768
-1.9413 -5.2143 -1.8495 0.9768
-0.9843 -5.4762 -1.8495 0.9768
-0.4921 -5.5421 -1.8495 0.9768
0.0040 -5.5639 -1.8495 0.9768
0.9922 -5.4747 -1.8495 0.9768
1.9488 -5.2114 -1.8495 0.9768
2.4057 -5.0169 -1.8495 0.9768
3.6477 -4.2013 -1.8495 0.9768
4.2597 -4.1019 -1.9657 0.9754
5.2883 -2.8800 -2.0017 0.9749
5.5241 -2.3970 -2.0017 0.9749
5.7158 -1.8949 -2.0017 0.9749
5.8620 -1.3777 -2.0017 0.9749
5.9615 -0.8495 -2.0017 0.9749
6.0135 -0.3146 -2.0017 0.9749
5.8823 1.2881 -2.0017 0.9749
5.7441 1.8075 -2.0017 0.9749
5.5600 2.3124 -2.0017 0.9749
5.0609 3.2632 -2.0017 0.9749
4.4008 4.1103 -2.0017 0.9749
3.6008 4.8266 -2.0017 0.9749
2.6862 5.3894 -2.0017 0.9749
1.6863 5.7809 -2.0017 0.9749
1.1641 5.9082 -2.0017 0.9749
0.6327 5.9885 -2.0017 0.9749
-2.0148 5.6748 -2.0017 0.9749
-2.5127 5.4726 -2.0017 0.9749
-2.9907 5.2267 -2.0017 0.9749
-3.8715 4.6124 -2.0017 0.9749
-4.6292 3.8514 -2.0017 0.9749
-4.9541 3.4233 -2.0017 0.9749
-5.4834 2.4890 -2.0017 0.9749
-5.6835 1.9901 -2.0017 0.9749
-5.9466 0.9490 -2.0017 0.9749
-6.0076 0.4150 -2.0017 0.9749
-6.0206 -0.1223 -2.0017 0.9749
-5.9857 -0.6587 -2.0017 0.9749
-5.9032 -1.1898 -2.0017 0.9749
-5.5980 -2.2193 -2.0017 0.9749
-5.3778 -2.7096 -2.0017 0.9749
-4.8110 -3.6217 -2.0017 0.9749
-3.9869 -4.3060 -1.9506 0.9756
-2.9949 -4.6892 -1.8495 0.9768
-2.5648 -4.9375 -1.8495 0.9768
-0.6769 -5.5226 -1.8495 0.9768
0.3148 -5.5550 -1.8495 0.9768
1.2964 -5.4107 -1.8495 0.9768
2.6822 -4.8747 -1.8495 0.9768
3.5054 -4.3208 -1.8495 0.9768
4.5533 -3.9188 -1.9969 0.9750
5.1892 -3.0550 -2.0017 0.9749
5.4410 -2.5801 -2.0017 0.9749
5.6493 -2.0847 -2.0017 0.9749
5.8127 -1.5727 -2.0017 0.9749
5.9298 -1.0481 -2.0017 0.9749
6.0217 0.0218 -2.0017 0.9749
5.8012 1.6147 -2.0017 0.9749
5.6341 2.1255 -2.0017 0.9749
4.8707 3.5408 -2.0017 0.9749
4.1644 4.3497 -2.0017 0.9749
3.7599 4.7037 -2.0017 0.9749
2.8647 5.2967 -2.0017 0.9749
2.3810 5.5311 -2.0017 0.9749
0.2972 6.0145 -2.0017 0.9749
-0.2403 6.0170 -2.0017 0.9749
-1.3052 5.8787 -2.0017 0.9749
-1.8241 5.7389 -2.0017 0.9749
-2.8145 5.3237 -2.0017 0.9749
-3.2779 5.0515 -2.0017 0.9749
-3.7153 4.7391 -2.0017 0.9749
-4.4980 4.0039 -2.0017 0.9749
-4.8371 3.5869 -2.0017 0.9749
-5.7858 1.6696 -2.0017 0.9749
-5.9116 1.1470 -2.0017 0.9749
-6.0214 0.0788 -2.0017 0.9749
-5.9396 -0.9920 -2.0017 0.9749
-5.8275 -1.5176 -2.0017 0.9749
-4.9292 -3.4591 -2.0017 0.9749
-4.2217 -4.2647 -1.9947 0.9750
-3.5669 -4.3125 -1.8603 0.9767
-2.7282 -4.8491 -1.8495 0.9768
-0.3673 -5.5518 -1.8495 0.9768
0.1291 -5.5624 -1.8495 0.9768
0.6246 -5.5287 -1.8495 0.9768
1.1150 -5.4510 -1.8495 0.9768
1.5966 -5.3299 -1.8495 0.9768
2.0655 -5.1663 -1.8495 0.9768
2.9503 -4.7172 -1.8495 0.9768
3.3591 -4.4354 -1.8495 0.9768
3.7561 -4.1346 -1.8568 0.9767
4.4146 -4.0638 -1.9945 0.9750
4.7751 -3.6661 -2.0011 0.9749
5.0843 -3.2265 -2.0017 0.9749
5.3518 -2.7604 -2.0017 0.9749
5.7570 -1.7659 -2.0017 0.9749
6.0190 -0.1793 -2.0017 0.9749
5.8519 1.4201 -2.0017 0.9749
5.7020 1.9362 -2.0017 0.9749
5.2674 2.9182 -2.0017 0.9749
4.6653 3.8074 -2.0017 0.9749
4.3073 4.2082 -2.0017 0.9749
3.4913 4.9063 -2.0017 0.9749
3.0400 5.1981 -2.0017 0.9749
2.0684 5.6554 -2.0017 0.9749
-0.0392 6.0217 -2.0017 0.9749
-2.1418 5.6281 -2.0017 0.9749
-3.1074 5.1581 -2.0017 0.9749
-4.3618 4.1518 -2.0017 0.9749
-4.7146 3.7464 -2.0017 0.9749
-5.3051 2.8494 -2.0017 0.9749
-5.5380 2.3650 -2.0017 0.9749
-5.7268 1.8618 -2.0017 0.9749
-5.8700 1.3438 -2.0017 0.9749
-5.9665 0.8150 -2.0017 0.9749
-5.7336 -1.8408 -2.0017 0.9749
-5.5467 -2.3447 -2.0017 0.9749
-5.3155 -2.8299 -2.0017 0.9749
-5.0420 -3.2925 -2.0017 0.9749
-4.7283 -3.7290 -2.0017 0.9749
-4.3670 -4.1263 -1.9971 0.9750
-2.4531 -4.9939 -1.8495 0.9768
-1.9981 -5.1928 -1.8495 0.9768
-0.0567 -5.5636 -1.8495 0.9768
0.9324 -5.4852 -1.8495 0.9768
3.2092 -4.5451 -1.8495 0.9768
4.6442 -3.8186 -1.9986 0.9750
4.9738 -3.3945 -2.0017 0.9749
5.2566 -2.9375 -2.0017 0.9749
5.4976 -2.4571 -2.0017 0.9749
5.6948 -1.9571 -2.0017 0.9749
6.0197 0.1572 -2.0017 0.9749
5.7634 1.7447 -2.0017 0.9749
5.5849 2.2517 -2.0017 0.9749
5.3619 2.7407 -2.0017 0.9749
5.0962 3.2078 -2.0017 0.9749
4.7899 3.6495 -2.0017 0.9749
4.0655 4.4422 -2.0017 0.9749
3.6532 4.7870 -2.0017 0.9749
3.2118 5.0937 -2.0017 0.9749
2.7449 5.3598 -2.0017 0.9749
2.2560 5.5832 -2.0017 0.9749
1.7493 5.7621 -2.0017 0.9749
4.8663 2.7658 -2.0017 0.9765
4.6003 3.1887 -2.0017 0.9765
3.9608 3.9551 -2.0017 0.9765
2.7729 4.8623 -2.0017 0.9765
2.3283 5.0902 -2.0017 0.9765
0.4019 5.5830 -2.0017 0.9765
-0.0975 5.5966 -2.0017 0.9765
-0.5961 5.5656 -2.0017 0.9765
-1.0900 5.4903 -2.0017 0.9765
-1.5752 5.3712 -2.0017 0.9765
-2.9406 4.7628 -2.0017 0.9765
-3.3535 4.4817 -2.0017 0.9765
-5.1714 2.1421 -2.0017 0.9765
-5.3418 1.6724 -2.0017 0.9765
-5.4696 1.1895 -2.0017 0.9765
-5.5404 -0.7977 -2.0017 0.9765
-4.6530 -3.1115 -2.0017 0.9765
-4.3570 -3.5139 -2.0017 0.9765
-4.0251 -3.8872 -2.0010 0.9765
-3.6519 -4.2184 -1.9953 0.9766
-3.0938 -4.2949 -1.8929 0.9778
-2.2295 -4.6666 -1.8495 0.9783
-1.8045 -4.8468 -1.8495 0.9783
-1.3652 -4.9884 -1.8495 0.9783
-0.4574 -5.1515 -1.8495 0.9783
1.3723 -4.9864 -1.8495 0.9783
1.8115 -4.8441 -1.8495 0.9783
3.5781 -4.1212 -1.9517 0.9771
4.0243 -3.8752 -1.9979 0.9765
4.3620 -3.5076 -2.0017 0.9765
4.9157 -2.6770 -2.0017 0.9765
5.1348 -2.2281 -2.0017 0.9765
5.5414 -0.7897 -2.0017 0.9765
5.5935 0.2071 -2.0017 0.9765
5.5528 0.7050 -2.0017 0.9765
5.1682 2.1495 -2.0017 0.9765
4.9559 2.6017 -2.0017 0.9765
4.7042 3.0333 -2.0017 0.9765
4.0907 3.8206 -2.0017 0.9765
3.7337 4.1701 -2.0017 0.9765
3.3470 4.4864 -2.0017 0.9765
1.5674 5.3735 -2.0017 0.9765
1.0821 5.4918 -2.0017 0.9765
-0.4100 5.5824 -2.0017 0.9765
-1.8728 5.2749 -2.0017 0.9765
-2.3356 5.0869 -2.0017 0.9765
-2.7799 4.8584 -2.0017 0.9765
-3.2020 4.5912 -2.0017 0.9765
-4.3029 3.5800 -2.0017 0.9765
-5.0970 2.3136 -2.0017 0.9765
-5.4269 1.3715 -2.0017 0.9765
-5.5275 0.8821 -2.0017 0.9765
-5.5842 0.3857 -2.0017 0.9765
-5.5963 -0.1137 -2.0017 0.9765
-5.5639 -0.6122 -2.0017 0.9765
-5.3667 -1.5908 -2.0017 0.9765
-4.9988 -2.5187 -2.0017 0.9765
-4.1540 -3.7518 -2.0017 0.9765
-3.7947 -4.0984 -1.9974 0.9766
-2.7838 -4.3587 -1.8495 0.9783
-2.3841 -4.5896 -1.8495 0.9783
-1.9653 -4.7838 -1.8495 0.9783
-1.5310 -4.9400 -1.8495 0.9783
-0.6292 -5.1334 -1.8495 0.9783
1.2051 -5.0294 -1.8495 0.9783
1.6487 -4.9019 -1.8495 0.9783
2.0792 -4.7354 -1.8495 0.9783
2.4932 -4.5311 -1.8495 0.9783
3.3550 -4.1354 -1.9043 0.9776
3.8885 -4.0032 -1.9958 0.9766
4.8235 -2.8397 -2.0017 0.9765
5.0575 -2.3983 -2.0017 0.9765
5.2512 -1.9378 -2.0017 0.9765
5.5768 -0.4789 -2.0017 0.9765
5.5973 0.0202 -2.0017 0.9765
5.3924 1.5009 -2.0017 0.9765
5.2371 1.9757 -2.0017 0.9765
5.0401 2.4348 -2.0017 0.9765
4.8029 2.8745 -2.0017 0.9765
4.2160 3.6819 -2.0017 0.9765
3.8709 4.0431 -2.0017 0.9765
2.2132 5.1413 -2.0017 0.9765
1.2649 5.4526 -2.0017 0.9765
0.7736 5.5437 -2.0017 0.9765
0.2763 5.5906 -2.0017 0.9765
-1.6956 5.3345 -2.0017 0.9765
-2.6161 4.9485 -2.0017 0.9765
-3.0469 4.6955 -2.0017 0.9765
-4.1810 3.7217 -2.0017 0.9765
-4.7756 2.9199 -2.0017 0.9765
-5.5682 0.5720 -2.0017 0.9765
-5.5812 -0.4261 -2.0017 0.9765
-5.5210 -0.9221 -2.0017 0.9765
-5.0801 -2.3504 -2.0017 0.9765
-4.5819 -3.2153 -2.0017 0.9765
-3.9337 -3.9737 -1.9995 0.9765
-1.2527 -5.0178 -1.8495 0.9783
-0.8002 -5.1095 -1.8495 0.9783
0.5806 -5.1391 -1.8495 0.9783
1.0365 -5.0669 -1.8495 0.9783
1.4841 -4.9543 -1.8495 0.9783
1.9199 -4.8022 -1.8495 0.9783
3.7347 -4.1110 -1.9862 0.9767
4.1134 -3.7865 -1.9994 0.9765
4.4398 -3.4086 -2.0017 0.9765
4.7260 -2.9992 -2.0017 0.9765
4.9746 -2.5658 -2.0017 0.9765
5.3513 -1.6414 -2.0017 0.9765
5.4763 -1.1578 -2.0017 0.9765
5.5355 0.8297 -2.0017 0.9765
4.6348 3.1383 -2.0017 0.9765
4.0037 3.9116 -2.0017 0.9765
3.6390 4.2530 -2.0017 0.9765
2.3837 5.0645 -2.0017 0.9765
1.9226 5.2569 -2.0017 0.9765
1.4462 5.4074 -2.0017 0.9765
0.9583 5.5148 -2.0017 0.9765
0.4628 5.5783 -2.0017 0.9765
-1.9909 5.2314 -2.0017 0.9765
-3.3045 4.5180 -2.0017 0.9765
-5.3232 1.7306 -2.0017 0.9765
-5.5460 0.7576 -2.0017 0.9765
-5.5914 0.2601 -2.0017 0.9765
-5.5924 -0.2395 -2.0017 0.9765
-5.5487 -0.7372 -2.0017 0.9765
-4.9409 -2.6304 -2.0017 0.9765
-4.6867 -3.0605 -2.0017 0.9765
-3.1649 -4.2939 -1.9076 0.9776
-2.2803 -4.6420 -1.8495 0.9783
-1.8573 -4.8268 -1.8495 0.9783
-1.4195 -4.9732 -1.8495 0.9783
0.4086 -5.1556 -1.8495 0.9783
1.7585 -4.8636 -1.8495 0.9783
2.1852 -4.6874 -1.8495 0.9783
2.5944 -4.4739 -1.8495 0.9783
2.9830 -4.2248 -1.8495 0.9783
3.5041 -4.1259 -1.9358 0.9773
4.3235 -3.5550 -2.0017 0.9765
4.6232 -3.1553 -2.0017 0.9765
4.8862 -2.7305 -2.0017 0.9765
5.2935 -1.8192 -2.0017 0.9765
5.5324 -0.8501 -2.0017 0.9765
5.5954 0.1461 -2.0017 0.9765
5.5601 0.6444 -2.0017 0.9765
5.4805 1.1376 -2.0017 0.9765
5.3573 1.6218 -2.0017 0.9765
4.9840 2.5475 -2.0017 0.9765
4.7370 2.9818 -2.0017 0.9765
4.4523 3.3923 -2.0017 0.9765
3.7790 4.1292 -2.0017 0.9765
3.3958 4.4497 -2.0017 0.9765
2.9855 4.7347 -2.0017 0.9765
2.5515 4.9821 -2.0017 0.9765
2.0971 5.1897 -2.0017 0.9765
4.5411 2.5809 -2.0017 0.9779
4.2929 2.9756 -2.0017 0.9779
4.0105 3.3465 -2.0017 0.9779
3.6961 3.6908 -2.0017 0.9779
2.9818 4.2886 -2.0017 0.9779
2.1727 4.7500 -2.0017 0.9779
1.7405 4.9248 -2.0017 0.9779
1.2944 5.0604 -2.0017 0.9779
0.3750 5.2099 -2.0017 0.9779
-0.0910 5.2226 -2.0017 0.9779
-1.9110 4.8612 -2.0017 0.9779
-2.3368 4.6715 -2.0017 0.9779
-2.7441 4.4445 -2.0017 0.9779
-3.4899 3.8865 -2.0017 0.9779
-3.8225 3.5598 -2.0017 0.9779
-4.3940 2.8243 -2.0017 0.9779
-4.9848 1.5607 -2.0017 0.9779
-5.1827 0.6505 -2.0017 0.9779
-5.1701 -0.7444 -2.0017 0.9779
-5.0831 -1.2024 -2.0017 0.9779
-4.9556 -1.6508 -2.0017 0.9779
-4.7887 -2.0861 -2.0017 0.9779
-4.5836 -2.5048 -2.0017 0.9779
-3.4155 -3.9454 -1.9998 0.9779
-3.0427 -4.2239 -1.9949 0.9779
-2.5357 -4.2788 -1.9060 0.9789
-2.0805 -4.3547 -1.8495 0.9795
-0.8538 -4.7500 -1.8495 0.9795
-0.4269 -4.8072 -1.8495 0.9795
0.0035 -4.8262 -1.8495 0.9795
0.8606 -4.7488 -1.8495 0.9795
1.2806 -4.6531 -1.8495 0.9795
2.4767 -4.1656 -1.8572 0.9795
2.9877 -4.1350 -1.9550 0.9784
3.4167 -3.9352 -1.9971 0.9779
3.7624 -3.6231 -2.0017 0.9779
4.3461 -2.8972 -2.0017 0.9779
4.5872 -2.4981 -2.0017 0.9779
4.7916 -2.0792 -2.0017 0.9779
5.0847 -1.1950 -2.0017 0.9779
5.1710 -0.7369 -2.0017 0.9779
5.1024 1.1173 -2.0017 0.9779
4.9824 1.5678 -2.0017 0.9779
4.6247 2.4279 -2.0017 0.9779
4.1200 3.2107 -2.0017 0.9779
3.4842 3.8914 -2.0017 0.9779
1.9040 4.8640 -2.0017 0.9779
1.0098 5.1248 -2.0017 0.9779
0.5488 5.1944 -2.0017 0.9779
-0.3826 5.2093 -2.0017 0.9779
-0.8455 5.1545 -2.0017 0.9779
-1.7476 4.9223 -2.0017 0.9779
-2.5941 4.5337 -2.0017 0.9779
-3.7015 3.6855 -2.0017 0.9779
-4.9299 1.7262 -2.0017 0.9779
-5.2110 0.3600 -2.0017 0.9779
-5.1204 -1.0320 -2.0017 0.9779
-5.0080 -1.4844 -2.0017 0.9779
-3.8763 -3.5011 -2.0017 0.9779
-3.5487 -3.8328 -2.0017 0.9779
-2.7313 -4.2765 -1.9445 0.9785
-1.8340 -4.4641 -1.8495 0.9795
-0.5871 -4.7903 -1.8495 0.9795
0.7016 -4.7749 -1.8495 0.9795
1.1245 -4.6933 -1.8495 0.9795
1.5385 -4.5743 -1.8495 0.9795
1.9403 -4.4189 -1.8495 0.9795
2.3266 -4.2283 -1.8495 0.9795
2.7906 -4.1471 -1.9155 0.9788
3.2804 -4.0435 -1.9953 0.9779
3.6368 -3.7441 -2.0003 0.9779
4.5012 -2.6499 -2.0017 0.9779
4.7195 -2.2380 -2.0017 0.9779
5.2232 0.0189 -2.0017 0.9779
5.1368 0.9463 -2.0017 0.9779
3.9342 3.4358 -2.0017 0.9779
3.6122 3.7729 -2.0017 0.9779
3.2614 4.0800 -2.0017 0.9779
2.8846 4.3545 -2.0017 0.9779
2.4849 4.5944 -2.0017 0.9779
2.0653 4.7977 -2.0017 0.9779
1.1803 5.0882 -2.0017 0.9779
0.2578 5.2170 -2.0017 0.9779
-0.2084 5.2192 -2.0017 0.9779
-1.1321 5.0992 -2.0017 0.9779
-1.5823 4.9780 -2.0017 0.9779
-2.8433 4.3817 -2.0017 0.9779
-5.2082 -0.3976 -2.0017 0.9779
-5.0548 -1.3164 -2.0017 0.9779
-4.9173 -1.7619 -2.0017 0.9779
-4.5261 -2.6072 -2.0017 0.9779
-3.9911 -3.3697 -2.0017 0.9779
-3.6747 -3.7121 -2.0017 0.9779
-3.3238 -4.0186 -1.9985 0.9779
-0.7468 -4.7680 -1.8495 0.9795
0.5418 -4.7956 -1.8495 0.9795
1.3849 -4.6232 -1.8495 0.9795
2.1841 -4.3037 -1.8495 0.9795
2.6008 -4.1584 -1.8796 0.9792
3.5064 -3.8598 -1.9984 0.9779
3.8430 -3.5376 -2.0017 0.9779
4.1431 -3.1808 -2.0017 0.9779
4.6422 -2.3944 -2.0017 0.9779
5.1103 -1.0804 -2.0017 0.9779
5.1656 0.7743 -2.0017 0.9779
5.0760 1.2318 -2.0017 0.9779
4.9459 1.6795 -2.0017 0.9779
4.7765 2.1138 -2.0017 0.9779
4.5690 2.5312 -2.0017 0.9779
4.3251 2.9286 -2.0017 0.9779
4.0467 3.3025 -2.0017 0.9779
3.7362 3.6502 -2.0017 0.9779
3.3958 3.9688 -2.0017 0.9779
2.2244 4.7260 -2.0017 0.9779
1.7941 4.9055 -2.0017 0.9779
1.3496 5.0460 -2.0017 0.9779
0.8943 5.1462 -2.0017 0.9779
-0.0340 5.2232 -2.0017 0.9779
-0.4996 5.1994 -2.0017 0.9779
-0.9612 5.1342 -2.0017 0.9779
-1.4152 5.0280 -2.0017 0.9779
-1.8578 4.8818 -2.0017 0.9779
-2.2857 4.6967 -2.0017 0.9779
-3.4473 3.9243 -2.0017 0.9779
-3.7834 3.6013 -2.0017 0.9779
-4.3629 2.8720 -2.0017 0.9779
-4.6016 2.4716 -2.0017 0.9779
-4.8037 2.0514 -2.0017 0.9779
-4.9675 1.6150 -2.0017 0.9779
-5.0917 1.1656 -2.0017 0.9779
-5.1753 0.7070 -2.0017 0.9779
-5.2186 -0.2235 -2.0017 0.9779
-5.1779 -0.6879 -2.0017 0.9779
-5.0959 -1.1469 -2.0017 0.9779
-3.4595 -3.9091 -2.0004 0.9779
-3.0895 -4.1917 -1.9955 0.9779
-2.5988 -4.2781 -1.9182 0.9788
-1.7331 -4.5042 -1.8495 0.9795
-0.0492 -4.8259 -1.8495 0.9795
0.8088 -4.7579 -1.8495 0.9795
1.6410 -4.5386 -1.8495 0.9795
2.0391 -4.3742 -1.8495 0.9795
2.4210 -4.1749 -1.8495 0.9795
3.3725 -3.9711 -1.9965 0.9779
4.7687 -2.1313 -2.0017 0.9779
4.9397 -1.6976 -2.0017 0.9779
5.1627 -0.7933 -2.0017 0.9779
5.2129 -0.3298 -2.0017 0.9779
5.2215 0.1363 -2.0017 0.9779
5.1885 0.6014 -2.0017 0.9779
4.8444 1.9531 -2.0017 0.9779
4.4205 2.7825 -2.0017 0.9779
3.8560 3.5234 -2.0017 0.9779
2.3809 4.6491 -2.0017 0.9779
1.9569 4.8429 -2.0017 0.9779
1.5173 4.9981 -2.0017 0.9779
4.4505 2.0279 -2.0017 0.9791
4.2520 2.4166 -2.0017 0.9791
4.0196 2.7861 -2.0017 0.9791
2.4228 4.2485 -2.0017 0.9791
1.6297 4.6113 -2.0017 0.9791
0.7847 4.8274 -2.0017 0.9791
-0.5209 4.8630 -2.0017 0.9791
-1.3764 4.6932 -2.0017 0.9791
-1.7893 4.5517 -2.0017 0.9791
-2.1881 4.3741 -2.0017 0.9791
-2.5694 4.1616 -2.0017 0.9791
-3.2677 3.6390 -2.0017 0.9791
-4.1143 2.6445 -2.0017 0.9791
-4.7791 1.0393 -2.0017 0.9791
-1.9432 -0.1045 -0.7965 0.9916
-4.7595 -1.1258 -2.0017 0.9791
-4.6401 -1.5457 -2.0017 0.9791
-4.4838 -1.9533 -2.0017 0.9791
-4.0656 -2.7187 -2.0017 0.9791
-3.8070 -3.0703 -2.0017 0.9791
-3.2011 -3.6977 -2.0017 0.9791
-2.4854 -4.1938 -1.9952 0.9792
-2.0360 -4.2616 -1.9330 0.9798
-0.7994 -4.4476 -1.8495 0.9807
-0.3997 -4.5012 -1.8495 0.9807
0.4062 -4.5006 -1.8495 0.9807
0.8058 -4.4465 -1.8495 0.9807
1.1991 -4.3569 -1.8495 0.9807
1.5828 -4.2326 -1.8495 0.9807
1.9999 -4.1706 -1.8930 0.9802
2.4641 -4.1443 -1.9733 0.9794
2.8577 -3.9550 -1.9970 0.9791
3.2059 -3.6924 -2.0013 0.9791
3.5229 -3.3924 -2.0017 0.9791
3.8114 -3.0648 -2.0017 0.9791
4.2951 -2.3391 -2.0017 0.9791
4.4866 -1.9468 -2.0017 0.9791
4.8841 -0.2555 -2.0017 0.9791
4.8874 0.1810 -2.0017 0.9791
4.8518 0.6160 -2.0017 0.9791
4.7775 1.0462 -2.0017 0.9791
4.3303 2.2733 -2.0017 0.9791
4.1104 2.6504 -2.0017 0.9791
3.8577 3.0063 -2.0017 0.9791
3.2624 3.6437 -2.0017 0.9791
2.9245 3.9201 -2.0017 0.9791
1.3696 4.6951 -2.0017 0.9791
0.9455 4.7985 -2.0017 0.9791
-0.7917 4.8263 -2.0017 0.9791
-2.0408 4.4447 -2.0017 0.9791
-2.4290 4.2450 -2.0017 0.9791
-3.4658 3.4508 -2.0017 0.9791
-4.0237 2.7804 -2.0017 0.9791
-4.2555 2.4105 -2.0017 0.9791
-4.7418 1.1983 -2.0017 0.9791
-2.0340 0.3246 -0.8430 0.9911
-1.9514 0.1348 -0.8005 0.9916
-1.9179 -0.0390 -0.7851 0.9917
-1.9565 -0.2153 -0.8056 0.9915
-4.6892 -1.3899 -2.0017 0.9791
-4.3677 -2.2007 -2.0017 0.9791
-3.3228 -3.5887 -2.0017 0.9791
-2.9884 -3.8692 -2.0009 0.9791
-2.2129 -4.2601 -1.9647 0.9795
-1.7515 -4.2633 -1.8864 0.9803
-0.9475 -4.4185 -1.8495 0.9807
-0.5498 -4.4853 -1.8495 0.9807
2.2860 -4.1547 -1.9408 0.9797
3.0782 -3.7942 -1.9997 0.9791
3.7069 -3.1903 -2.0017 0.9791
3.9766 -2.8471 -2.0017 0.9791
4.2146 -2.4812 -2.0017 0.9791
4.4191 -2.0955 -2.0017 0.9791
4.5883 -1.6932 -2.0017 0.9791
4.7210 -1.2773 -2.0017 0.9791
4.8161 -0.8513 -2.0017 0.9791
4.8696 0.4537 -2.0017 0.9791
4.7116 1.3114 -2.0017 0.9791
4.4038 2.1274 -2.0017 0.9791
3.9559 2.8758 -2.0017 0.9791
2.7010 4.0773 -2.0017 0.9791
1.9338 4.4922 -2.0017 0.9791
1.5256 4.6468 -2.0017 0.9791
1.1052 4.7643 -2.0017 0.9791
0.6760 4.8439 -2.0017 0.9791
0.2414 4.8848 -2.0017 0.9791
-0.1951 4.8869 -2.0017 0.9791
-0.6301 4.8500 -2.0017 0.9791
-1.0600 4.7746 -2.0017 0.9791
-1.4815 4.6610 -2.0017 0.9791
-2.6623 4.1027 -2.0017 0.9791
-3.0175 3.8490 -2.0017 0.9791
-3.3487 3.5646 -2.0017 0.9791
-3.6532 3.2519 -2.0017 0.9791
-3.9286 2.9132 -2.0017 0.9791
-4.1727 2.5513 -2.0017 0.9791
-4.3835 2.1691 -2.0017 0.9791
-4.5595 1.7696 -2.0017 0.9791
-4.6991 1.3560 -2.0017 0.9791
-4.8013 0.9316 -2.0017 0.9791
-1.9575 0.2011 -0.8054 0.9915
-1.9111 0.0250 -0.7822 0.9918
-4.7330 -1.2326 -2.0017 0.9791
-4.6042 -1.6497 -2.0017 0.9791
-4.0034 -2.8094 -2.0017 0.9791
-2.3893 -4.2467 -1.9943 0.9792
-1.4812 -4.2696 -1.8496 0.9807
-0.6992 -4.4645 -1.8495 0.9807
-0.2984 -4.5090 -1.8495 0.9807
0.1049 -4.5177 -1.8495 0.9807
0.5073 -4.4903 -1.8495 0.9807
0.9056 -4.4272 -1.8495 0.9807
1.2968 -4.3288 -1.8495 0.9807
2.5836 -4.1310 -1.9942 0.9792
3.8793 -2.9783 -2.0017 0.9791
4.1294 -2.6205 -2.0017 0.9791
4.7850 -1.0116 -2.0017 0.9791
4.8821 0.2908 -2.0017 0.9791
4.8367 0.7250 -2.0017 0.9791
4.4724 1.9792 -2.0017 0.9791
3.4983 3.4178 -2.0017 0.9791
3.1796 3.7161 -2.0017 0.9791
2.8356 3.9848 -2.0017 0.9791
2.4690 4.2218 -2.0017 0.9791
2.0827 4.4251 -2.0017 0.9791
1.6799 4.5932 -2.0017 0.9791
0.4044 4.8741 -2.0017 0.9791
-0.0318 4.8907 -2.0017 0.9791
-0.4678 4.8684 -2.0017 0.9791
-0.9000 4.8073 -2.0017 0.9791
-2.1402 4.3977 -2.0017 0.9791
-2.5238 4.1893 -2.0017 0.9791
-3.8291 3.0427 -2.0017 0.9791
-4.0852 2.6892 -2.0017 0.9791
-4.3087 2.3142 -2.0017 0.9791
-4.4979 1.9208 -2.0017 0.9791
-4.6512 1.5121 -2.0017 0.9791
-1.9484 0.2662 -0.8048 0.9915
-1.9386 0.0902 -0.7943 0.9916
-4.7715 -1.0739 -2.0017 0.9791
-4.5049 -1.9043 -2.0017 0.9791
-4.3171 -2.2984 -2.0017 0.9791
-3.5549 -3.3590 -2.0017 0.9791
-3.2413 -3.6626 -2.0017 0.9791
-2.8990 -3.9332 -1.9998 0.9791
-2.5316 -4.1675 -1.9957 0.9791
-2.0932 -4.2612 -1.9430 0.9797
-1.2403 -4.3454 -1.8495 0.9807
-0.8479 -4.4386 -1.8495 0.9807
-0.4488 -4.4966 -1.8495 0.9807
1.9456 -4.1734 -1.8846 0.9803
2.4053 -4.1478 -1.9624 0.9795
3.1645 -3.7261 -2.0008 0.9791
3.4857 -3.4306 -2.0017 0.9791
3.7777 -3.1062 -2.0017 0.9791
4.0396 -2.7570 -2.0017 0.9791
4.4651 -1.9956 -2.0017 0.9791
4.7485 -1.1708 -2.0017 0.9791
4.8340 -0.7428 -2.0017 0.9791
4.8810 -0.3088 -2.0017 0.9791
4.8891 0.1277 -2.0017 0.9791
4.8582 0.5631 -2.0017 0.9791
4.6810 1.4170 -2.0017 0.9791
4.3548 2.2259 -2.0017 0.9791
3.8902 2.9640 -2.0017 0.9791
3.6105 3.2991 -2.0017 0.9791
3.3019 3.6079 -2.0017 0.9791
2.9671 3.8879 -2.0017 0.9791
2.6086 4.1370 -2.0017 0.9791
1.8323 4.5346 -2.0017 0.9791
1.4207 4.6799 -2.0017 0.9791
3.2500 3.2453 -2.0017 0.9802
2.6219 3.7710 -2.0017 0.9802
2.2753 3.9898 -2.0017 0.9802
1.1382 4.4497 -2.0017 0.9802
0.7369 4.5334 -2.0017 0.9802
0.3298 4.5811 -2.0017 0.9802
-0.4892 4.5668 -2.0017 0.9802
-1.2925 4.4073 -2.0017 0.9802
-2.4129 3.9081 -2.0017 0.9802
-2.7517 3.6774 -2.0017 0.9802
-3.0687 3.4174 -2.0017 0.9802
-3.8637 2.4834 -2.0017 0.9802
-4.0697 2.1290 -2.0017 0.9802
-4.2434 1.7577 -2.0017 0.9802
-1.5798 0.4946 -0.7215 0.9928
-1.5214 0.3309 -0.6785 0.9932
-1.5207 0.1909 -0.6679 0.9933
-1.5284 0.0544 -0.6665 0.9933
-1.5151 -0.2181 -0.6671 0.9933
-1.5876 -0.5289 -0.7293 0.9927
-4.2108 -1.8343 -2.0017 0.9802
-3.3038 -3.1906 -2.0017 0.9802
-3.0062 -3.4725 -2.0017 0.9802
-2.6846 -3.7267 -2.0017 0.9802
-0.7623 -4.2408 -1.8778 0.9814
0.3814 -4.2265 -1.8495 0.9817
1.5603 -4.1723 -1.9414 0.9808
2.6891 -3.7216 -2.0010 0.9802
3.3084 -3.1858 -2.0017 0.9802
3.5792 -2.8781 -2.0017 0.9802
4.0335 -2.1966 -2.0017 0.9802
4.3596 -1.4453 -2.0017 0.9802
4.5866 -0.2400 -2.0017 0.9802
4.5897 0.1700 -2.0017 0.9802
4.3811 1.3786 -2.0017 0.9802
3.8600 2.4889 -2.0017 0.9802
3.6227 2.8232 -2.0017 0.9802
3.3566 3.1350 -2.0017 0.9802
2.7464 3.6813 -2.0017 0.9802
2.4072 3.9116 -2.0017 0.9802
1.6742 4.2769 -2.0017 0.9802
0.8879 4.5063 -2.0017 0.9802
0.4826 4.5675 -2.0017 0.9802
-0.7435 4.5324 -2.0017 0.9802
-1.5367 4.3283 -2.0017 0.9802
-1.9165 4.1740 -2.0017 0.9802
-2.6274 3.7672 -2.0017 0.9802
-2.9528 3.5180 -2.0017 0.9802
-3.5307 2.9376 -2.0017 0.9802
-3.7786 2.6110 -2.0017 0.9802
-4.1823 1.8984 -2.0017 0.9802
-1.5930 0.5578 -0.7356 0.9927
-1.5468 0.3909 -0.6953 0.9931
-1.5093 0.2409 -0.6661 0.9934
-1.5263 -0.0310 -0.6653 0.9934
-1.5244 -0.1677 -0.6684 0.9933
-1.5083 -0.3040 -0.6706 0.9933
-1.5721 -0.4660 -0.7146 0.9929
-4.1017 -2.0667 -2.0017 0.9802
-3.9011 -2.4242 -2.0017 0.9802
-2.8075 -3.6350 -2.0017 0.9802
-0.1386 -4.2414 -1.8495 0.9817
1.0056 -4.1971 -1.8809 0.9813
2.2082 -4.0132 -1.9963 0.9802
2.8936 -3.5667 -2.0017 0.9802
3.2001 -3.2945 -2.0017 0.9802
3.4811 -2.9960 -2.0017 0.9802
4.1499 -1.9679 -2.0017 0.9802
4.3089 -1.5900 -2.0017 0.9802
4.4335 -1.1995 -2.0017 0.9802
4.5760 -0.3930 -2.0017 0.9802
4.5929 0.0166 -2.0017 0.9802
4.2973 1.6212 -2.0017 0.9802
4.1356 1.9979 -2.0017 0.9802
3.9410 2.3587 -2.0017 0.9802
1.8160 4.2186 -2.0017 0.9802
1.4327 4.3638 -2.0017 0.9802
1.0379 4.4741 -2.0017 0.9802
-1.3913 4.3772 -2.0017 0.9802
-2.1466 4.0604 -2.0017 0.9802
-3.4307 3.0538 -2.0017 0.9802
-3.6893 2.7358 -2.0017 0.9802
-3.9186 2.3959 -2.0017 0.9802
-4.1166 2.0370 -2.0017 0.9802
-4.2818 1.6618 -2.0017 0.9802
-1.5019 0.2914 -0.6667 0.9933
-1.5062 -0.2516 -0.6655 0.9934
-1.5518 -0.4041 -0.6988 0.9930
-4.1684 -1.9286 -2.0017 0.9802
-3.9799 -2.2926 -2.0017 0.9802
-3.7596 -2.6383 -2.0017 0.9802
-2.9273 -3.5392 -2.0017 0.9802
-2.6001 -3.7861 -2.0017 0.9802
-2.2485 -3.9964 -1.9985 0.9802
-1.4721 -4.2434 -1.9574 0.9806
-1.0592 -4.2428 -1.9058 0.9811
-0.6640 -4.2398 -1.8703 0.9814
-0.2804 -4.2386 -1.8513 0.9816
0.8597 -4.2027 -1.8695 0.9815
1.6660 -4.1671 -1.9558 0.9806
3.6431 -2.7969 -2.0017 0.9802
4.0819 -2.1054 -2.0017 0.9802
4.2534 -1.7330 -2.0017 0.9802
4.5604 -0.5456 -2.0017 0.9802
4.5908 -0.1368 -2.0017 0.9802
4.5848 0.2731 -2.0017 0.9802
4.5421 0.6808 -2.0017 0.9802
4.3490 1.4768 -2.0017 0.9802
4.2000 1.8587 -2.0017 0.9802
3.8031 2.5751 -2.0017 0.9802
3.5583 2.9040 -2.0017 0.9802
2.9860 3.4898 -2.0017 0.9802
2.6629 3.7422 -2.0017 0.9802
1.1867 4.4370 -2.0017 0.9802
0.7863 4.5251 -2.0017 0.9802
-0.0299 4.5928 -2.0017 0.9802
-0.4393 4.5719 -2.0017 0.9802
-0.8452 4.5145 -2.0017 0.9802
-1.2444 4.4212 -2.0017 0.9802
-3.0312 3.4507 -2.0017 0.9802
-3.5959 2.8574 -2.0017 0.9802
-3.8364 2.5254 -2.0017 0.9802
-4.0463 2.1733 -2.0017 0.9802
-4.2239 1.8039 -2.0017 0.9802
-1.5175 0.2073 -0.6675 0.9933
-1.5292 0.0711 -0.6672 0.9933
-4.2305 -1.7883 -2.0017 0.9802
-3.8456 -2.5113 -2.0017 0.9802
-3.3384 -3.1544 -2.0017 0.9802
-3.0439 -3.4395 -2.0017 0.9802
-2.7250 -3.6972 -2.0017 0.9802
-2.0197 -4.1116 -1.9964 0.9802
-1.6326 -4.2429 -1.9813 0.9804
-1.2112 -4.2433 -1.9232 0.9809
-0.0432 -4.2435 -1.8495 0.9817
0.3353 -4.2304 -1.8495 0.9817
1.1049 -4.1930 -1.8898 0.9813
1.5095 -4.1748 -1.9347 0.9808
1.9333 -4.1472 -1.9942 0.9802
3.5476 -2.9170 -2.0017 0.9802
4.3435 -1.4928 -2.0017 0.9802
4.5396 -0.6975 -2.0017 0.9802
4.5913 0.1199 -2.0017 0.9802
4.5623 0.5288 -2.0017 0.9802
4.4970 0.9335 -2.0017 0.9802
4.3959 1.3307 -2.0017 0.9802
4.0896 2.0904 -2.0017 0.9802
3.6533 2.7835 -2.0017 0.9802
3.3906 3.0982 -2.0017 0.9802
3.1008 3.3882 -2.0017 0.9802
2.4497 3.8851 -2.0017 0.9802
2.0936 4.0880 -2.0017 0.9802
1.7207 4.2584 -2.0017 0.9802
3.9351 1.7930 -2.0017 0.9811
3.7595 2.1367 -2.0017 0.9811
3.5540 2.4634 -2.0017 0.9811
3.3202 2.7705 -2.0017 0.9811
3.0600 3.0555 -2.0017 0.9811
2.7753 3.3162 -2.0017 0.9811
2.4686 3.5505 -2.0017 0.9811
1.4409 4.0772 -2.0017 0.9811
1.0717 4.1895 -2.0017 0.9811
0.6938 4.2683 -2.0017 0.9811
0.3105 4.3132 -2.0017 0.9811
-0.4605 4.2998 -2.0017 0.9811
-1.2169 4.1496 -2.0017 0.9811
-1.5821 4.0246 -2.0017 0.9811
-1.9346 3.8675 -2.0017 0.9811
-2.2718 3.6796 -2.0017 0.9811
-2.5908 3.4624 -2.0017 0.9811
-2.8892 3.2176 -2.0017 0.9811
-3.1646 2.9471 -2.0017 0.9811
-3.6378 2.3382 -2.0017 0.9811
-3.8317 2.0045 -2.0017 0.9811
-1.3263 0.5494 -0.6645 0.9937
-1.3376 0.0476 -0.6195 0.9941
-1.3041 -0.3085 -0.6203 0.9941
-3.5947 -2.4038 -2.0017 0.9811
-3.1106 -3.0041 -2.0017 0.9811
-2.5276 -3.5088 -2.0017 0.9811
-2.2046 -3.7202 -2.0017 0.9811
-1.8625 -3.8985 -1.9999 0.9811
-1.5055 -4.0438 -1.9973 0.9812
-0.3744 -4.2162 -1.9593 0.9815
0.0030 -4.2090 -1.9483 0.9816
1.1433 -4.1541 -1.9944 0.9812
1.5105 -4.0392 -1.9962 0.9812
3.3699 -2.7098 -2.0017 0.9811
3.5981 -2.3986 -2.0017 0.9811
3.9669 -1.7213 -2.0017 0.9811
4.1046 -1.3608 -2.0017 0.9811
4.2096 -0.9894 -2.0017 0.9811
4.2811 -0.6101 -2.0017 0.9811
4.3184 -0.2259 -2.0017 0.9811
4.3213 0.1600 -2.0017 0.9811
4.2899 0.5447 -2.0017 0.9811
3.6343 2.3434 -2.0017 0.9811
3.1603 2.9517 -2.0017 0.9811
2.5858 3.4661 -2.0017 0.9811
2.2664 3.6828 -2.0017 0.9811
1.5763 4.0268 -2.0017 0.9811
1.2109 4.1513 -2.0017 0.9811
0.0691 4.3238 -2.0017 0.9811
-0.7000 4.2673 -2.0017 0.9811
-1.8044 3.9299 -2.0017 0.9811
-2.1476 3.7534 -2.0017 0.9811
-3.0644 3.0512 -2.0017 0.9811
-3.3243 2.7658 -2.0017 0.9811
-3.5576 2.4584 -2.0017 0.9811
-1.3159 0.5973 -0.6689 0.9937
-1.3336 0.4670 -0.6540 0.9938
-1.3228 0.2111 -0.6201 0.9941
-1.3362 -0.0271 -0.6186 0.9941
-1.3346 -0.1469 -0.6215 0.9941
-1.3080 -0.2636 -0.6176 0.9941
-3.8619 -1.9458 -2.0017 0.9811
-3.6730 -2.2824 -2.0017 0.9811
-3.4548 -2.6008 -2.0017 0.9811
-3.2092 -2.8985 -2.0017 0.9811
-1.9928 -3.8363 -2.0011 0.9811
-1.2765 -4.1188 -1.9960 0.9812
-0.9033 -4.2125 -1.9942 0.9812
1.7350 -3.9513 -1.9976 0.9812
4.2583 -0.7527 -2.0017 0.9811
4.3085 -0.3700 -2.0017 0.9811
4.2527 0.7835 -2.0017 0.9811
4.1660 1.1595 -2.0017 0.9811
3.7105 2.2207 -2.0017 0.9811
3.2571 2.8445 -2.0017 0.9811
2.7001 3.3778 -2.0017 0.9811
2.0572 3.8037 -2.0017 0.9811
1.7098 3.9719 -2.0017 0.9811
1.3489 4.1086 -2.0017 0.9811
0.9772 4.2125 -2.0017 0.9811
0.5977 4.2828 -2.0017 0.9811
-0.1725 4.3209 -2.0017 0.9811
-0.9373 4.2216 -2.0017 0.9811
-1.3099 4.1212 -2.0017 0.9811
-1.6722 3.9880 -2.0017 0.9811
-2.9608 3.1518 -2.0017 0.9811
-3.2301 2.8752 -2.0017 0.9811
-3.8759 1.9179 -2.0017 0.9811
-1.3307 0.5165 -0.6607 0.9937
-1.3358 0.1372 -0.6216 0.9941
-1.3353 0.0175 -0.6181 0.9941
-1.3383 -0.1022 -0.6213 0.9941
-1.3136 -0.3421 -0.6283 0.9940
-3.7472 -2.1585 -2.0017 0.9811
-3.5398 -2.4840 -2.0017 0.9811
-3.3042 -2.7897 -2.0017 0.9811
-2.7561 -3.3323 -2.0017 0.9811
-1.0438 -4.1812 -1.9948 0.9812
-0.6609 -4.2199 -1.9771 0.9813
0.4741 -4.1964 -1.9548 0.9816
3.1816 -2.9287 -2.0017 0.9811
3.4300 -2.6334 -2.0017 0.9811
3.8432 -1.9823 -2.0017 0.9811
4.1342 -1.2681 -2.0017 0.9811
4.2937 -0.5137 -2.0017 0.9811
4.3167 0.2572 -2.0017 0.9811
4.2023 1.0198 -2.0017 0.9811
4.0947 1.3904 -2.0017 0.9811
3.7826 2.0956 -2.0017 0.9811
2.8114 3.2857 -2.0017 0.9811
2.1831 3.7329 -2.0017 0.9811
1.4853 4.0613 -2.0017 0.9811
-0.0282 4.3243 -2.0017 0.9811
-0.4136 4.3045 -2.0017 0.9811
-0.7958 4.2505 -2.0017 0.9811
-1.1716 4.1626 -2.0017 0.9811
-2.2315 3.7041 -2.0017 0.9811
-2.5529 3.4904 -2.0017 0.9811
-3.1323 2.9815 -2.0017 0.9811
-3.3856 2.6903 -2.0017 0.9811
-3.6120 2.3777 -2.0017 0.9811
-3.8096 2.0462 -2.0017 0.9811
-1.3234 0.5652 -0.6661 0.9937
-1.3311 0.4328 -0.6479 0.9938
-1.3008 0.2978 -0.6177 0.9941
-1.3291 0.1816 -0.6209 0.9941
-1.3382 0.0622 -0.6201 0.9941
-1.3244 -0.5599 -0.6656 0.9937
-2.5657 -3.4810 -2.0017 0.9811
-2.2451 -3.6959 -2.0017 0.9811
-1.9053 -3.8787 -2.0003 0.9811
-1.5498 -4.0277 -1.9976 0.9812
-0.4208 -4.2169 -1.9616 0.9815
-0.0429 -4.2101 -1.9489 0.9816
0.7120 -4.1884 -1.9665 0.9814
1.4661 -4.0550 -1.9959 0.9812
2.1685 -3.7395 -2.0010 0.9811
2.7993 -3.2960 -2.0017 0.9811
3.0820 -3.0333 -2.0017 0.9811
3.3402 -2.7464 -2.0017 0.9811
3.5718 -2.4377 -2.0017 0.9811
3.7749 -2.1095 -2.0017 0.9811
3.9479 -1.7645 -2.0017 0.9811
4.0895 -1.4055 -2.0017 0.9811
4.2741 -0.6567 -2.0017 0.9811
4.3157 -0.2730 -2.0017 0.9811
4.2956 0.4979 -2.0017 0.9811
4.2341 0.8789 -2.0017 0.9811
3.8505 1.9681 -2.0017 0.9811
3.6597 2.3036 -2.0017 0.9811
3.4397 2.6208 -2.0017 0.9811
3.1923 2.9170 -2.0017 0.9811
2.9195 3.1900 -2.0017 0.9811
2.3065 3.6579 -2.0017 0.9811
1.9712 3.8490 -2.0017 0.9811
1.2562 4.1379 -2.0017 0.9811
3.5477 2.0163 -2.0017 0.9820
3.3538 2.3246 -2.0017 0.9820
3.1332 2.6144 -2.0017 0.9820
2.6190 3.1294 -2.0017 0.9820
1.6974 3.7109 -2.0017 0.9820
1.3597 3.8475 -2.0017 0.9820
1.0113 3.9534 -2.0017 0.9820
-0.0711 4.0801 -2.0017 0.9820
-0.4346 4.0575 -2.0017 0.9820
-2.1438 3.4723 -2.0017 0.9820
-2.7264 3.0363 -2.0017 0.9820
-2.9863 2.7811 -2.0017 0.9820
-3.2224 2.5037 -2.0017 0.9820
-1.1214 0.5866 -0.6208 0.9944
-1.1484 0.4757 -0.6097 0.9945
-1.1587 0.3628 -0.5956 0.9946
-1.1695 0.2543 -0.5871 0.9947
-1.1896 0.1493 -0.5881 0.9947
-1.1637 -0.2753 -0.5866 0.9947
-1.1445 -0.4986 -0.6123 0.9945
-1.1111 -0.6072 -0.6211 0.9944
-3.3922 -2.2684 -2.0017 0.9820
-3.1764 -2.5618 -2.0017 0.9820
-2.9353 -2.8348 -2.0017 0.9820
-2.6709 -3.0852 -2.0017 0.9820
-2.3852 -3.3111 -2.0017 0.9820
-1.7591 -3.6821 -2.0017 0.9820
-0.7204 -4.0082 -1.9976 0.9820
0.3658 -4.0534 -1.9964 0.9820
2.0855 -3.5075 -2.0017 0.9820
2.3899 -3.3076 -2.0017 0.9820
2.6753 -3.0813 -2.0017 0.9820
3.3954 -2.2634 -2.0017 0.9820
3.8734 -1.2841 -2.0017 0.9820
4.0482 0.5140 -2.0017 0.9820
3.9862 0.8729 -2.0017 0.9820
3.8925 1.2249 -2.0017 0.9820
3.6131 1.8968 -2.0017 0.9820
3.2187 2.5083 -2.0017 0.9820
2.7220 3.0402 -2.0017 0.9820
2.4401 3.2708 -2.0017 0.9820
1.4875 3.7999 -2.0017 0.9820
0.7889 4.0037 -2.0017 0.9820
0.0652 4.0802 -2.0017 0.9820
-0.2989 4.0697 -2.0017 0.9820
-2.0266 3.5419 -2.0017 0.9820
-2.3344 3.3471 -2.0017 0.9820
-3.3572 2.3198 -2.0017 0.9820
-3.5507 2.0113 -2.0017 0.9820
-1.1407 0.5177 -0.6145 0.9944
-1.1566 0.4050 -0.6011 0.9946
-1.1584 0.2927 -0.5861 0.9947
-1.1837 0.1889 -0.5880 0.9947
-1.1955 0.0826 -0.5878 0.9947
-1.1963 -0.0243 -0.5869 0.9947
-1.1739 -0.2366 -0.5874 0.9947
-3.2602 -2.4543 -2.0017 0.9820
-2.7724 -2.9943 -2.0017 0.9820
-2.4944 -3.2296 -2.0017 0.9820
-2.1965 -3.4391 -2.0017 0.9820
-1.2068 -3.8941 -1.9998 0.9820
-0.1330 -4.0677 -1.9964 0.9820
1.2993 -3.8631 -1.9992 0.9820
2.5709 -3.1689 -2.0017 0.9820
2.8432 -2.9271 -2.0017 0.9820
3.0929 -2.6619 -2.0017 0.9820
3.8283 -1.4127 -2.0017 0.9820
4.0184 -0.7103 -2.0017 0.9820
3.9312 1.0942 -2.0017 0.9820
3.6744 1.7751 -2.0017 0.9820
3.5015 2.0956 -2.0017 0.9820
3.3007 2.3995 -2.0017 0.9820
2.8220 2.9476 -2.0017 0.9820
2.2536 3.4020 -2.0017 0.9820
0.9221 3.9751 -2.0017 0.9820
-0.1628 4.0775 -2.0017 0.9820
-0.5257 4.0467 -2.0017 0.9820
-1.2361 3.8890 -2.0017 0.9820
-1.9072 3.6076 -2.0017 0.9820
-2.2213 3.4232 -2.0017 0.9820
-2.5177 3.2115 -2.0017 0.9820
-3.4815 2.1287 -2.0017 0.9820
-1.1758 0.2281 -0.5875 0.9947
-1.1961 0.0156 -0.5867 0.9947
-1.1821 -0.1974 -0.5879 0.9947
-1.1581 -0.3016 -0.5870 0.9947
-3.5360 -2.0369 -2.0017 0.9820
-3.1180 -2.6325 -2.0017 0.9820
-2.6008 -3.1445 -2.0017 0.9820
-2.0010 -3.5565 -2.0017 0.9820
-1.3367 -3.8530 -2.0005 0.9820
-0.6300 -4.0228 -1.9973 0.9820
0.0944 -4.0685 -1.9963 0.9820
0.4569 -4.0444 -1.9965 0.9820
1.5140 -3.7867 -2.0004 0.9820
1.8467 -3.6389 -2.0017 0.9820
3.6267 -1.8706 -2.0017 0.9820
3.7790 -1.5398 -2.0017 0.9820
3.9924 -0.8441 -2.0017 0.9820
4.0518 -0.4847 -2.0017 0.9820
4.0356 0.6049 -2.0017 0.9820
3.9656 0.9623 -2.0017 0.9820
3.8640 1.3121 -2.0017 0.9820
3.7316 1.6514 -2.0017 0.9820
3.5695 1.9775 -2.0017 0.9820
3.3789 2.2879 -2.0017 0.9820
2.6530 3.1006 -2.0017 0.9820
2.0601 3.5225 -2.0017 0.9820
1.4016 3.8324 -2.0017 0.9820
0.6986 4.0204 -2.0017 0.9820
0.3374 4.0667 -2.0017 0.9820
-0.0266 4.0806 -2.0017 0.9820
-1.1056 3.9281 -2.0017 0.9820
-1.4514 3.8139 -2.0017 0.9820
-1.7857 3.6693 -2.0017 0.9820
-2.4090 3.2938 -2.0017 0.9820
-3.4085 2.2438 -2.0017 0.9820
-1.1153 0.5990 -0.6210 0.9944
-1.1461 0.4895 -0.6113 0.9945
-1.1661 0.2670 -0.5868 0.9947
-1.1879 0.1623 -0.5881 0.9947
-1.1963 0.0556 -0.5875 0.9947
-1.1964 -0.0512 -0.5874 0.9947
-1.1885 -0.1579 -0.5881 0.9947
-1.1469 -0.4848 -0.6108 0.9945
-3.4167 -2.2312 -2.0017 0.9820
-2.9661 -2.8026 -2.0017 0.9820
-2.7044 -3.0559 -2.0017 0.9820
-2.1186 -3.4877 -2.0017 0.9820
-1.4652 -3.8078 -2.0013 0.9820
-1.1187 -3.9193 -1.9993 0.9820
-0.7642 -4.0004 -1.9978 0.9820
-0.0415 -4.0695 -1.9963 0.9820
0.3216 -4.0571 -1.9963 0.9820
0.6822 -4.0135 -1.9969 0.9820
1.3862 -3.8337 -1.9997 0.9820
2.0471 -3.5301 -2.0017 0.9820
2.3537 -3.3335 -2.0017 0.9820
3.3705 -2.3003 -2.0017 0.9820
3.8591 -1.3263 -2.0017 0.9820
3.9620 -0.9769 -2.0017 0.9820
3.9955 0.8294 -2.0017 0.9820
3.9056 1.1823 -2.0017 0.9820
3.2459 2.4731 -2.0017 0.9820
2.7550 3.0103 -2.0017 0.9820
2.1765 3.4518 -2.0017 0.9820
1.8601 3.6321 -2.0017 0.9820
1.5288 3.7835 -2.0017 0.9820
1.1854 3.9047 -2.0017 0.9820
3.1711 2.1980 -2.0017 0.9828
2.2026 3.1679 -2.0017 0.9828
1.6049 3.5088 -2.0017 0.9828
1.2857 3.6379 -2.0017 0.9828
0.9562 3.7381 -2.0017 0.9828
0.2770 3.8485 -2.0017 0.9828
-0.7514 3.7846 -2.0017 0.9828
-1.4116 3.5910 -2.0017 0.9828
-1.7262 3.4508 -2.0017 0.9828
-2.0270 3.2831 -2.0017 0.9828
-2.5779 2.8709 -2.0017 0.9828
-2.8236 2.6296 -2.0017 0.9828
-3.2458 2.0863 -2.0017 0.9828
-1.0814 0.2352 -0.5741 0.9950
-1.1063 -0.0595 -0.5747 0.9950
-1.0761 -0.2545 -0.5736 0.9950
-3.2074 -2.1448 -2.0017 0.9828
-1.9671 -3.3193 -2.0017 0.9828
0.0028 -3.8550 -1.9999 0.9828
0.6877 -3.7946 -2.0006 0.9828
1.0238 -3.7201 -2.0017 0.9828
1.6683 -3.4791 -2.0017 0.9828
1.9719 -3.3165 -2.0017 0.9828
3.0069 -2.4179 -2.0017 0.9828
3.5395 -1.5359 -2.0017 0.9828
3.7561 -0.8828 -2.0017 0.9828
3.8277 0.4860 -2.0017 0.9828
3.7691 0.8254 -2.0017 0.9828
