ply
format ascii 1.0
element vertex 1575
property float32 x
property float32 y
property float32 z
property float32 I
end_header
5.1318 -18.5851 -1.8510 0.9254
8.3586 -17.3860 -1.8520 0.9254
9.8794 -16.5748 -1.8525 0.9254
11.3220 -15.6307 -1.8529 0.9254
12.6746 -14.5611 -1.8533 0.9254
17.5881 -2.4717 -1.7051 0.9311
19.3815 -0.9748 -1.8631 0.9250
14.6834 0.5746 -1.4108 0.9427
14.7049 1.8998 -1.4235 0.9422
6.7643 4.3866 -0.7740 0.9681
11.8559 15.9900 -1.9111 0.9231
-10.2548 -16.2696 -1.8463 0.9256
-8.7640 -17.1241 -1.8468 0.9256
-4.1708 -13.7601 -1.3804 0.9439
0.9843 -15.5631 -1.4971 0.9393
4.6182 -18.7176 -1.8509 0.9255
6.2720 -18.2358 -1.8514 0.9254
7.8765 -17.6079 -1.8519 0.9254
10.8869 -15.9350 -1.8528 0.9254
12.2685 -14.9033 -1.8532 0.9254
13.5525 -13.7518 -1.8536 0.9253
15.0208 -1.1704 -1.4464 0.9413
6.4070 4.7422 -0.7653 0.9685
-10.6977 -15.9802 -1.8462 0.9256
-9.2310 -16.8752 -1.8467 0.9256
-7.6901 -17.6362 -1.8471 0.9256
-4.5243 -13.5699 -1.3733 0.9441
-3.4092 -14.4010 -1.4208 0.9423
-0.8489 -15.7880 -1.5179 0.9384
4.0038 -18.3888 -1.8068 0.9272
5.7674 -18.3999 -1.8512 0.9254
10.4436 -16.2274 -1.8527 0.9254
11.8442 -12.6990 -1.6671 0.9326
16.1160 -1.7030 -1.5558 0.9370
13.1699 -0.2096 -1.2645 0.9484
15.8958 1.1697 -1.5302 0.9380
6.4866 4.5303 -0.7596 0.9687
-11.1325 -15.6787 -1.8461 0.9256
-9.6911 -16.6136 -1.8465 0.9256
-5.1478 16.0329 -2.0002 0.9344
-7.9128 14.8559 -1.9994 0.9344
-9.2053 14.0877 -1.9990 0.9345
-11.5590 12.2223 -1.9983 0.9345
-12.6016 11.1401 -1.9979 0.9345
-13.5436 9.9695 -1.9977 0.9345
-14.3774 8.7198 -1.9974 0.9345
-15.0966 7.4010 -1.9972 0.9345
-15.6954 6.0236 -1.9970 0.9345
-16.5141 3.1369 -1.9967 0.9345
-16.7275 1.6504 -1.9966 0.9345
-16.7543 -1.3497 -1.9966 0.9345
-16.2486 -4.3072 -1.9968 0.9345
-15.8004 -5.7405 -1.9969 0.9345
-15.2263 -7.1284 -1.9971 0.9345
-12.7987 -10.9111 -1.9978 0.9345
-11.7756 -12.0117 -1.9981 0.9345
-4.0785 -6.0034 -0.8621 0.9712
-7.5557 -13.5915 -1.8472 0.9393
-6.3139 -14.2145 -1.8476 0.9393
-4.6115 -13.5230 -1.6972 0.9441
-3.5012 -14.3523 -1.7548 0.9422
0.4488 -15.5645 -1.8496 0.9392
1.8365 -15.4659 -1.8500 0.9392
3.2102 -15.2437 -1.8505 0.9392
7.1382 -13.8578 -1.8517 0.9391
8.3482 -13.1681 -1.8520 0.9391
12.4943 -11.3552 -2.0055 0.9343
14.3181 -8.9556 -2.0061 0.9342
15.0620 -7.6428 -2.0063 0.9342
15.6855 -6.2687 -2.0065 0.9342
16.1837 -4.8442 -2.0067 0.9342
15.5761 -1.7535 -1.8619 0.9388
13.2348 -0.3010 -1.5725 0.9481
16.6895 2.6248 -2.0068 0.9342
15.9553 5.5495 -2.0066 0.9342
6.5255 4.4915 -0.9410 0.9686
12.9992 10.7768 -2.0058 0.9342
11.9837 11.8921 -2.0055 0.9343
9.6752 13.8284 -2.0048 0.9343
4.2215 16.3262 -2.0031 0.9343
1.2512 16.8090 -2.0022 0.9344
-0.2539 16.8497 -2.0017 0.9344
-1.7563 16.7560 -2.0013 0.9344
-7.5016 15.0690 -1.9995 0.9344
-14.1327 9.1124 -1.9975 0.9345
-16.0368 5.0416 -1.9969 0.9345
-16.6760 2.1100 -1.9967 0.9345
-16.7974 0.6133 -1.9966 0.9345
-16.3607 -3.8585 -1.9967 0.9345
-15.9520 -5.3035 -1.9969 0.9345
-14.7576 -8.0565 -1.9972 0.9345
-10.1746 -11.7510 -1.8464 0.9393
-9.0869 -12.6145 -1.8467 0.9393
0.0204 -15.5699 -1.8495 0.9392
1.4102 -15.5095 -1.8499 0.9392
4.1470 -15.0185 -1.8507 0.9392
5.4720 -14.5916 -1.8512 0.9392
6.7538 -14.0480 -1.8515 0.9391
7.9823 -13.3919 -1.8519 0.9391
10.2398 -11.7639 -1.8526 0.9391
12.1566 -11.6748 -2.0021 0.9344
14.0657 -9.3457 -2.0060 0.9342
14.8455 -8.0540 -2.0062 0.9342
15.6549 -0.7873 -1.8619 0.9388
14.6472 0.5732 -1.7412 0.9427
10.2606 1.3256 -1.2289 0.9592
12.9209 2.8602 -1.5720 0.9481
11.4652 3.6374 -1.4288 0.9527
14.9350 7.8886 -2.0063 0.9342
13.2913 10.4156 -2.0058 0.9342
4.7840 5.3740 -0.8547 0.9714
10.0525 13.5578 -2.0049 0.9343
3.2038 16.5533 -2.0028 0.9343
1.7133 16.7694 -2.0023 0.9344
-1.2948 16.7991 -2.0014 0.9344
-2.7882 16.6128 -2.0010 0.9344
-4.2588 16.2940 -2.0005 0.9344
-5.6947 15.8454 -2.0001 0.9344
-7.0847 15.2706 -1.9996 0.9344
-8.4175 14.5744 -1.9992 0.9345
-9.6828 13.7623 -1.9988 0.9345
-12.9759 10.7003 -1.9978 0.9345
-15.3412 6.8781 -1.9971 0.9345
-15.8925 5.4810 -1.9969 0.9345
-16.3171 4.0405 -1.9968 0.9345
-16.7742 1.0752 -1.9966 0.9345
-16.6982 -1.9242 -1.9966 0.9345
-16.0915 -4.8626 -1.9968 0.9345
-15.5945 -6.2798 -1.9970 0.9345
-14.2325 -8.9540 -1.9974 0.9345
-8.2909 -13.1538 -1.8470 0.9393
-5.5250 -13.6867 -1.7533 0.9423
-3.1669 -15.2361 -1.8485 0.9392
-1.7949 -15.4614 -1.8489 0.9392
0.9830 -15.5413 -1.8498 0.9392
2.3666 -15.3951 -1.8502 0.9392
3.7320 -15.1258 -1.8506 0.9392
5.0681 -14.7357 -1.8510 0.9392
8.7960 -12.8746 -1.8522 0.9391
9.9118 -12.0405 -1.8525 0.9391
11.4134 -11.5813 -1.9315 0.9366
15.3161 -7.1215 -2.0064 0.9342
15.8920 -5.7267 -2.0066 0.9342
16.3408 -4.2858 -2.0067 0.9342
16.6590 -2.8105 -2.0068 0.9342
15.6273 -1.2177 -1.8619 0.9388
15.6738 0.1819 -1.8619 0.9388
15.5948 1.5800 -1.8619 0.9388
11.8799 3.4123 -1.4682 0.9514
14.4177 8.7960 -2.0062 0.9342
6.4184 4.7506 -0.9485 0.9683
12.6208 11.2161 -2.0056 0.9342
6.5291 15.5542 -2.0038 0.9343
5.1138 16.0714 -2.0034 0.9343
3.6582 16.4600 -2.0029 0.9343
2.1741 16.7171 -2.0025 0.9343
-5.2570 15.9971 -2.0002 0.9344
-8.0139 14.8014 -1.9994 0.9344
-9.3011 14.0243 -1.9990 0.9345
-14.4365 8.6215 -1.9974 0.9345
-16.7384 1.5362 -1.9966 0.9345
-16.8085 0.0362 -1.9966 0.9345
-16.2189 -4.4180 -1.9968 0.9345
-15.7609 -5.8482 -1.9969 0.9345
-15.1774 -7.2322 -1.9971 0.9345
-11.6936 -12.0919 -1.9981 0.9345
-9.7659 -12.0942 -1.8465 0.9393
-8.6491 -12.9199 -1.8468 0.9393
-4.5243 -13.5699 -1.6991 0.9440
-3.4089 -14.4000 -1.7578 0.9421
-2.2194 -15.4051 -1.8488 0.9392
-0.8359 -15.5452 -1.8492 0.9392
0.5550 -15.5614 -1.8496 0.9392
1.9420 -15.4533 -1.8501 0.9392
3.3142 -15.2218 -1.8505 0.9392
4.6605 -14.8685 -1.8509 0.9392
7.2327 -13.8090 -1.8517 0.9391
10.6384 -11.4062 -1.8527 0.9391
12.5717 -11.2698 -2.0055 0.9343
15.1139 -7.5399 -2.0063 0.9342
16.5751 -3.2676 -2.0068 0.9342
13.1698 -0.2096 -1.5646 0.9483
15.6325 1.1503 -1.8619 0.9388
16.3595 4.2154 -2.0068 0.9342
14.6547 8.3963 -2.0063 0.9342
6.4885 4.5316 -0.9401 0.9686
11.9022 11.9735 -2.0054 0.9343
10.7842 12.9858 -2.0051 0.9343
6.9550 15.3697 -2.0039 0.9343
5.5544 15.9257 -2.0035 0.9343
4.1099 16.3543 -2.0031 0.9343
2.6334 16.6521 -2.0026 0.9343
-3.3566 16.5058 -2.0008 0.9344
-6.2349 15.6392 -1.9999 0.9344
-8.9123 14.2757 -1.9991 0.9345
-10.1489 13.4208 -1.9987 0.9345
-13.3349 10.2479 -1.9977 0.9345
-14.1944 9.0157 -1.9975 0.9345
-15.5677 6.3472 -1.9970 0.9345
-16.0708 4.9320 -1.9969 0.9345
-16.4458 3.4779 -1.9967 0.9345
-15.3702 -6.8117 -1.9970 0.9345
-14.7024 -8.1571 -1.9972 0.9345
-12.0212 -11.7650 -1.9980 0.9345
-7.8349 -13.4316 -1.8471 0.9393
-6.6063 -14.0801 -1.8475 0.9393
1.9182 14.0015 -2.0024 0.9445
0.6608 14.1141 -2.0020 0.9445
-5.4978 13.0016 -2.0001 0.9446
-8.7412 11.0753 -1.9991 0.9446
-10.5679 9.3422 -1.9986 0.9446
-11.3581 8.3607 -1.9983 0.9446
-12.0576 7.3129 -1.9981 0.9446
-13.1634 5.0519 -1.9977 0.9446
-13.5609 3.8566 -1.9976 0.9446
-14.0294 1.3842 -1.9975 0.9446
-14.0968 0.1266 -1.9974 0.9446
-13.2515 -4.8145 -1.9977 0.9446
-12.1864 -7.0948 -1.9980 0.9446
-11.5058 -8.1549 -1.9982 0.9446
-9.1242 -9.3071 -1.8467 0.9487
-8.2584 -10.0857 -1.8470 0.9487
-5.2942 -11.9188 -1.8479 0.9487
-4.2101 -12.3460 -1.8482 0.9487
-3.0920 -12.6748 -1.8485 0.9487
-0.7897 -13.0275 -1.8492 0.9486
0.3762 -13.0485 -1.8496 0.9486
1.5396 -12.9654 -1.8500 0.9486
4.9219 -12.1011 -1.8510 0.9486
6.9972 -11.0371 -1.8516 0.9486
7.9556 -10.3702 -1.8519 0.9486
9.5560 -10.3869 -1.9998 0.9446
14.0691 -1.5838 -2.0060 0.9444
13.1322 -0.2986 -1.8612 0.9483
12.3292 6.9526 -2.0055 0.9444
6.5354 4.4983 -1.1241 0.9685
7.1076 5.8925 -1.3082 0.9634
9.1127 10.8219 -2.0046 0.9444
8.1093 11.5903 -2.0043 0.9445
7.0414 12.2658 -2.0039 0.9445
5.9176 12.8431 -2.0036 0.9445
-1.4725 14.0480 -2.0014 0.9445
-2.7198 13.8579 -2.0010 0.9445
-6.2902 12.6354 -1.9999 0.9446
-8.4335 11.3121 -1.9992 0.9446
-9.4080 10.5127 -1.9989 0.9446
-10.3073 9.6298 -1.9986 0.9446
-11.1242 8.6704 -1.9984 0.9446
-11.8523 7.6421 -1.9982 0.9446
-12.4858 6.5531 -1.9980 0.9446
-13.4499 4.2283 -1.9977 0.9446
-13.7729 3.0109 -1.9976 0.9446
-14.0777 -0.7450 -1.9974 0.9446
-13.9552 -1.9985 -1.9975 0.9446
-13.7216 -3.2361 -1.9975 0.9446
-11.7254 -7.8351 -1.9981 0.9446
-9.3764 -9.0522 -1.8466 0.9487
-7.6199 -10.5780 -1.8472 0.9487
-5.6198 -11.7681 -1.8478 0.9487
-1.1477 -13.0001 -1.8491 0.9486
0.0171 -13.0532 -1.8495 0.9486
1.1822 -13.0020 -1.8498 0.9486
4.5868 -12.2313 -1.8509 0.9486
6.6906 -11.2249 -1.8515 0.9486
8.9233 -10.2514 -1.9257 0.9466
10.2053 -9.8009 -2.0048 0.9444
11.0407 -8.8521 -2.0051 0.9444
11.7881 -7.8323 -2.0053 0.9444
12.4413 -6.7497 -2.0055 0.9444
14.0201 -1.9703 -2.0060 0.9444
13.2353 -0.6656 -1.8777 0.9479
13.1255 0.5137 -1.8612 0.9483
10.2605 1.3256 -1.4659 0.9591
12.8246 2.8389 -1.8611 0.9483
11.4651 3.6374 -1.7043 0.9526
13.0573 5.4680 -2.0058 0.9444
11.1392 8.7291 -2.0052 0.9444
10.3144 9.6872 -2.0049 0.9444
8.4255 11.3634 -2.0044 0.9445
7.3765 12.0681 -2.0040 0.9445
6.2690 12.6761 -2.0037 0.9445
5.1118 13.1827 -2.0034 0.9445
3.9141 13.5839 -2.0030 0.9445
2.6857 13.8764 -2.0026 0.9445
-2.3377 13.9283 -2.0011 0.9445
-7.0583 12.2210 -1.9996 0.9446
-9.1157 10.7681 -1.9990 0.9446
-10.8819 8.9735 -1.9985 0.9446
-12.3011 6.8943 -1.9980 0.9446
-12.8662 5.7685 -1.9978 0.9446
-13.3287 4.5968 -1.9977 0.9446
-14.0686 0.9018 -1.9975 0.9446
-13.4958 -4.0782 -1.9976 0.9446
-11.9361 -7.5093 -1.9981 0.9446
-11.2195 -8.5455 -1.9983 0.9446
-10.4133 -9.5139 -1.9985 0.9446
-8.7998 -9.6154 -1.8468 0.9487
-7.9077 -10.3639 -1.8471 0.9487
-6.9523 -11.0300 -1.8474 0.9487
-4.8822 -12.0944 -1.8480 0.9487
-3.7840 -12.4841 -1.8483 0.9487
-2.6552 -12.7744 -1.8487 0.9487
-1.5048 -12.9628 -1.8490 0.9486
-0.3420 -13.0479 -1.8494 0.9486
4.2483 -12.3521 -1.8508 0.9486
6.3789 -11.4041 -1.8514 0.9486
7.3725 -10.7911 -1.8517 0.9486
8.3075 -10.0916 -1.8520 0.9486
9.9314 -10.0775 -2.0047 0.9444
11.5677 -8.1534 -2.0052 0.9444
12.2505 -7.0892 -2.0055 0.9444
13.0686 1.3240 -1.8612 0.9483
12.8979 2.4850 -1.8611 0.9483
13.6069 3.9083 -2.0059 0.9444
10.5774 9.4001 -2.0050 0.9444
8.7353 11.1278 -2.0045 0.9444
7.7061 11.8612 -2.0041 0.9445
5.4728 13.0378 -2.0035 0.9445
-0.6977 14.1094 -2.0016 0.9445
-1.9538 13.9881 -2.0012 0.9445
-5.5863 12.9637 -2.0001 0.9446
-8.8164 11.0153 -1.9991 0.9446
-9.7629 10.1830 -1.9988 0.9446
-11.4148 8.2830 -1.9983 0.9446
-13.1975 4.9619 -1.9977 0.9446
-13.8679 2.5363 -1.9975 0.9446
-14.0973 0.0304 -1.9974 0.9446
-14.0438 -1.2279 -1.9975 0.9446
-13.8785 -2.4764 -1.9975 0.9446
-13.6027 -3.7053 -1.9976 0.9446
-12.1378 -7.1778 -1.9980 0.9446
-11.4499 -8.2333 -1.9982 0.9446
-9.0606 -9.3693 -1.8467 0.9487
-8.1894 -10.1420 -1.8470 0.9487
-4.0657 -6.0733 -1.0355 0.9709
-6.2579 -11.4400 -1.8476 0.9487
-3.0055 -12.6958 -1.8486 0.9487
-1.8608 -12.9158 -1.8489 0.9486
-0.7008 -13.0328 -1.8493 0.9486
0.4653 -13.0458 -1.8496 0.9486
2.7782 -12.7602 -1.8503 0.9486
3.9067 -12.4636 -1.8507 0.9486
5.0044 -12.0674 -1.8510 0.9486
6.0625 -11.5746 -1.8513 0.9486
7.0725 -10.9892 -1.8517 0.9486
8.0263 -10.3158 -1.8519 0.9486
9.6339 -10.3292 -2.0013 0.9445
10.5363 -9.4452 -2.0049 0.9444
12.0505 -7.4233 -2.0054 0.9444
13.1806 -5.1636 -2.0057 0.9444
14.0796 -1.4878 -2.0060 0.9444
13.1339 -0.2090 -1.8612 0.9483
12.9615 2.1293 -1.8611 0.9483
12.2814 7.0366 -2.0055 0.9444
6.4962 4.5370 -1.1227 0.9685
7.0971 5.9660 -1.3137 0.9632
9.9752 10.0351 -2.0048 0.9444
0.9527 14.0980 -2.0021 0.9445
-0.3093 14.1241 -2.0017 0.9445
-1.5683 14.0374 -2.0013 0.9445
-2.8143 13.8388 -2.0009 0.9445
-5.2278 13.1132 -2.0002 0.9446
-7.4733 11.9707 -1.9995 0.9446
-11.9041 7.5610 -1.9981 0.9446
-13.0563 5.3232 -1.9978 0.9446
-13.7930 2.9169 -1.9975 0.9446
-13.9413 -2.0937 -1.9975 0.9446
-13.6993 -3.3297 -1.9975 0.9446
-13.3481 -4.5392 -1.9977 0.9446
-12.8906 -5.7128 -1.9978 0.9446
-11.6717 -7.9150 -1.9981 0.9446
-9.3145 -9.1161 -1.8467 0.9487
-8.4650 -9.9124 -1.8469 0.9487
-7.5477 -10.6299 -1.8472 0.9487
-6.5699 -11.2629 -1.8475 0.9487
1.6497 12.0419 -2.0023 0.9519
0.5683 12.1391 -2.0020 0.9519
-0.5172 12.1393 -2.0016 0.9519
-1.5983 12.0427 -2.0013 0.9519
-3.7126 11.5630 -2.0007 0.9520
-4.7291 11.1838 -2.0003 0.9520
-5.7075 10.7155 -2.0000 0.9520
-7.5195 9.5274 -1.9995 0.9520
-8.3387 8.8172 -1.9992 0.9520
-9.0913 8.0369 -1.9990 0.9520
-9.7712 7.1926 -1.9988 0.9520
-10.3732 6.2913 -1.9986 0.9520
-11.6668 3.3180 -1.9982 0.9520
-11.9159 2.2634 -1.9981 0.9520
-12.0894 -0.9739 -1.9981 0.9520
-11.7243 -3.1079 -1.9982 0.9520
-11.4006 -4.1420 -1.9982 0.9520
-10.4841 -6.1037 -1.9985 0.9520
-9.8984 -7.0157 -1.9987 0.9520
-7.8493 -8.0066 -1.8471 0.9556
-4.0284 -5.9296 -1.1809 0.9714
-5.4501 -9.8037 -1.8478 0.9555
-4.5540 -10.2525 -1.8481 0.9555
-2.6596 -10.9022 -1.8487 0.9555
-1.6762 -11.0978 -1.8490 0.9555
-0.6792 -11.2050 -1.8493 0.9555
0.3236 -11.2227 -1.8496 0.9555
1.3241 -11.1509 -1.8499 0.9555
2.3144 -10.9901 -1.8502 0.9555
3.2865 -10.7414 -1.8505 0.9555
4.2327 -10.4068 -1.8508 0.9555
5.1454 -9.9890 -1.8511 0.9555
7.1275 -9.2907 -1.9291 0.9536
8.2371 -8.9533 -2.0042 0.9519
9.0044 -8.1834 -2.0045 0.9519
9.6998 -7.3479 -2.0047 0.9519
10.3179 -6.4535 -2.0049 0.9519
10.8536 -5.5074 -2.0050 0.9519
11.3026 -4.5171 -2.0052 0.9519
11.6613 -3.4905 -2.0053 0.9519
12.0970 -1.3618 -2.0054 0.9518
12.1704 -0.2768 -2.0055 0.9518
11.2692 0.7520 -1.8606 0.9552
11.1569 1.7547 -1.8606 0.9552
10.6664 3.7100 -1.8604 0.9553
7.4312 4.1906 -1.4054 0.9660
4.6205 5.4872 -1.1817 0.9713
6.9734 9.9669 -2.0039 0.9519
6.0552 10.5480 -2.0036 0.9519
5.0889 11.0447 -2.0033 0.9519
4.0823 11.4531 -2.0030 0.9519
1.9805 11.9925 -2.0024 0.9519
0.9021 12.1195 -2.0021 0.9519
-0.1831 12.1496 -2.0017 0.9519
-4.4198 11.3102 -2.0004 0.9520
-6.3583 10.3412 -1.9998 0.9520
-7.2548 9.7311 -1.9996 0.9520
-9.5700 7.4590 -1.9989 0.9520
-10.1965 6.5745 -1.9987 0.9520
-11.2011 4.6562 -1.9983 0.9520
-12.0328 1.5225 -1.9981 0.9520
-11.8052 -2.7841 -1.9981 0.9520
-11.5101 -3.8268 -1.9982 0.9520
-11.1233 -4.8390 -1.9983 0.9520
-10.6478 -5.8128 -1.9985 0.9520
-10.0873 -6.7405 -1.9986 0.9520
-9.4464 -7.6146 -1.9988 0.9520
-8.0663 -7.7873 -1.8470 0.9556
-4.8341 -10.1229 -1.8480 0.9555
-0.9872 -11.1815 -1.8492 0.9555
0.0147 -11.2268 -1.8495 0.9555
2.9896 -10.8272 -1.8504 0.9555
5.7536 -9.6529 -1.8513 0.9555
6.5931 -9.1021 -1.8515 0.9555
8.7755 -8.4277 -2.0044 0.9519
10.6977 -5.8038 -2.0050 0.9519
11.1738 -4.8262 -2.0051 0.9519
11.8551 -2.7631 -2.0053 0.9518
12.0548 -1.6941 -2.0054 0.9518
12.1581 -0.6115 -2.0055 0.9518
11.2856 0.4417 -1.8606 0.9552
11.0269 2.4409 -1.8605 0.9552
10.7646 3.4152 -1.8605 0.9552
10.7621 5.6845 -2.0051 0.9519
9.5783 7.5059 -2.0047 0.9519
8.8693 8.3299 -2.0045 0.9519
4.7386 5.3230 -1.1740 0.9715
7.2453 9.7716 -2.0040 0.9519
6.3434 10.3779 -2.0037 0.9519
3.3662 11.6822 -2.0028 0.9519
2.3098 11.9341 -2.0025 0.9519
1.2353 12.0907 -2.0022 0.9519
0.1512 12.1506 -2.0018 0.9519
-0.9336 12.1137 -2.0015 0.9519
-2.0107 11.9800 -2.0012 0.9519
-3.0714 11.7509 -2.0009 0.9520
-5.1099 11.0142 -2.0002 0.9520
-11.0690 4.9627 -1.9984 0.9520
-11.4671 3.9548 -1.9983 0.9520
-12.1037 0.7758 -1.9981 0.9520
-12.1246 -0.3075 -1.9980 0.9520
-11.8772 -2.4583 -1.9981 0.9520
-11.6108 -3.5086 -1.9982 0.9520
-9.6520 -7.3516 -1.9988 0.9520
-6.8025 -8.9155 -1.8474 0.9556
-5.1105 -9.9856 -1.8479 0.9555
-3.2548 -10.7384 -1.8485 0.9555
-2.2838 -10.9877 -1.8488 0.9555
-1.2943 -11.1495 -1.8491 0.9555
-0.2941 -11.2224 -1.8494 0.9555
0.7087 -11.2057 -1.8497 0.9555
3.6536 -10.6228 -1.8506 0.9555
4.5878 -10.2560 -1.8509 0.9555
5.4856 -9.8071 -1.8512 0.9555
6.3399 -9.2796 -1.8514 0.9555
8.5400 -8.6657 -2.0043 0.9519
9.2804 -7.8698 -2.0045 0.9519
9.9468 -7.0108 -2.0047 0.9519
11.4513 -4.1265 -2.0052 0.9519
11.7745 -3.0882 -2.0053 0.9519
11.2367 1.1384 -1.8606 0.9552
7.3688 2.8502 -1.3016 0.9685
10.9146 5.3864 -2.0051 0.9519
6.0199 3.6726 -1.1617 0.9718
8.3367 8.8615 -2.0043 0.9519
7.5117 9.5690 -2.0041 0.9519
6.6268 10.1999 -2.0038 0.9519
4.7065 11.2123 -2.0032 0.9519
3.6865 11.5858 -2.0029 0.9519
2.6373 11.8666 -2.0026 0.9519
-0.6001 12.1354 -2.0016 0.9519
-3.7914 11.5373 -2.0006 0.9520
-4.8052 11.1511 -2.0003 0.9520
-7.5842 9.4758 -1.9995 0.9520
-8.3986 8.7600 -1.9992 0.9520
-9.1458 7.9746 -1.9990 0.9520
-9.8200 7.1257 -1.9988 0.9520
-10.4158 6.2203 -1.9986 0.9520
-10.9285 5.2655 -1.9984 0.9520
-11.6892 3.2383 -1.9982 0.9520
-12.1285 0.0262 -1.9980 0.9520
-11.9402 -2.1306 -1.9981 0.9520
-10.4422 -6.1752 -1.9985 0.9520
-9.8503 -7.0831 -1.9987 0.9520
-7.0449 -8.7246 -1.8474 0.9556
-4.0159 -5.9989 -1.1893 0.9712
-5.3831 -9.8408 -1.8479 0.9555
-4.4840 -10.2834 -1.8481 0.9555
-3.5489 -10.6442 -1.8484 0.9555
-1.6005 -11.1092 -1.8490 0.9555
-0.6027 -11.2095 -1.8493 0.9555
5.2135 -9.9538 -1.8511 0.9555
6.0819 -9.4502 -1.8514 0.9555
7.2931 -9.3735 -1.9565 0.9530
8.2981 -8.8970 -2.0042 0.9519
9.0601 -8.1218 -2.0045 0.9519
10.3618 -6.3830 -2.0049 0.9519
10.8910 -5.4332 -2.0050 0.9519
11.2638 0.8289 -1.8606 0.9552
11.1447 1.8308 -1.8606 0.9552
10.9365 2.8181 -1.8605 0.9552
6.5144 4.5497 -1.3090 0.9683
8.5777 8.6291 -2.0044 0.9519
7.7724 9.3591 -2.0042 0.9519
6.9052 10.0141 -2.0039 0.9519
5.9831 10.5890 -2.0036 0.9519
5.0134 11.0790 -2.0033 0.9519
0.8194 12.1252 -2.0020 0.9519
-2.4206 11.9032 -2.0011 0.9520
-4.4969 11.2796 -2.0004 0.9520
-5.4848 10.8316 -2.0001 0.9520
-6.4286 10.2974 -1.9998 0.9520
-7.3210 9.6812 -1.9996 0.9520
-9.6206 7.3935 -1.9988 0.9520
-10.2410 6.5047 -1.9986 0.9520
-11.5958 3.5587 -1.9982 0.9520
-12.0429 1.4404 -1.9981 0.9520
-12.1069 -0.7236 -1.9980 0.9520
-11.9942 -1.8013 -1.9981 0.9520
-11.7860 -2.8646 -1.9981 0.9520
-10.0412 -6.8092 -1.9987 0.9520
-7.2820 -8.5272 -1.8473 0.9556
-4.2259 -5.9517 -1.2025 0.9708
-5.6515 -9.6885 -1.8478 0.9555
-4.7650 -10.1557 -1.8480 0.9555
1.4459 10.5538 -2.0022 0.9576
0.4981 10.6392 -2.0019 0.9576
-0.4533 10.6396 -2.0017 0.9576
-1.4009 10.5552 -2.0014 0.9576
-2.3370 10.3866 -2.0011 0.9576
-3.2542 10.1351 -2.0008 0.9576
-6.5914 8.3515 -1.9998 0.9576
-7.9695 7.0451 -1.9993 0.9576
-8.5656 6.3052 -1.9992 0.9576
-9.5487 4.6812 -1.9988 0.9576
-9.9278 3.8101 -1.9987 0.9576
-10.2277 2.9087 -1.9986 0.9576
-10.4461 1.9842 -1.9986 0.9576
-10.2781 -2.7245 -1.9986 0.9576
-9.6309 -4.5088 -1.9988 0.9576
-6.8807 -7.0186 -1.8474 0.9608
-4.7773 -8.5935 -1.8480 0.9608
-3.9918 -8.9867 -1.8483 0.9608
-2.3311 -9.5558 -1.8488 0.9608
-1.4692 -9.7271 -1.8491 0.9608
-0.5953 -9.8208 -1.8493 0.9607
1.1605 -9.7731 -1.8499 0.9607
2.8803 -9.4137 -1.8504 0.9607
3.7095 -9.1203 -1.8506 0.9607
7.2183 -7.8460 -2.0039 0.9575
7.8906 -7.1712 -2.0041 0.9575
8.4999 -6.4390 -2.0043 0.9575
9.5108 -4.8260 -2.0046 0.9575
9.9041 -3.9582 -2.0047 0.9575
10.4510 -2.1345 -2.0049 0.9575
10.6000 -1.1933 -2.0050 0.9575
10.6643 -0.2425 -2.0050 0.9575
10.6161 0.7084 -1.9999 0.9576
9.0187 4.0719 -1.8599 0.9605
6.2520 5.1831 -1.5264 0.9675
7.5682 7.5104 -2.0041 0.9575
4.5702 5.4275 -1.3337 0.9715
4.4598 9.6792 -2.0031 0.9576
1.7357 10.5105 -2.0023 0.9576
0.7907 10.6219 -2.0020 0.9576
-0.1605 10.6486 -2.0017 0.9576
-1.1100 10.5902 -2.0015 0.9576
-2.0504 10.4474 -2.0012 0.9576
-2.9743 10.2213 -2.0009 0.9576
-6.3594 8.5300 -1.9998 0.9576
-7.7729 7.2619 -1.9994 0.9576
-8.3892 6.5386 -1.9992 0.9576
-9.4165 4.9422 -1.9989 0.9576
-9.8193 4.0818 -1.9988 0.9576
-10.1439 3.1890 -1.9987 0.9576
-10.5486 1.3347 -1.9985 0.9576
-10.5253 -1.5073 -1.9985 0.9576
-10.3490 -2.4407 -1.9986 0.9576
-10.0903 -3.3547 -1.9987 0.9576
-8.2808 -6.6750 -1.9992 0.9576
-6.4341 -7.4310 -1.8475 0.9608
-4.2835 -5.9464 -1.3775 0.9706
-5.0117 -8.4585 -1.8480 0.9608
-3.4290 -9.2171 -1.8485 0.9608
-1.7362 -9.6826 -1.8490 0.9608
-0.8652 -9.8003 -1.8492 0.9607
0.8912 -9.8008 -1.8498 0.9607
1.7626 -9.6836 -1.8500 0.9607
2.6201 -9.4890 -1.8503 0.9607
3.4570 -9.2185 -1.8506 0.9607
7.6901 -7.3853 -2.0041 0.9575
8.3193 -6.6702 -2.0043 0.9575
8.8822 -5.9016 -2.0044 0.9575
9.3742 -5.0857 -2.0046 0.9575
10.5631 -1.4845 -2.0050 0.9575
10.6589 0.4171 -2.0050 0.9575
9.8150 1.2680 -1.8602 0.9605
9.1275 3.8223 -1.8600 0.9605
5.9999 4.7017 -1.4328 0.9695
4.7192 5.3013 -1.3341 0.9715
6.3493 8.5632 -2.0037 0.9575
5.5590 9.0946 -2.0035 0.9575
2.9501 10.2383 -2.0027 0.9576
2.0243 10.4592 -2.0024 0.9576
1.0826 10.5966 -2.0021 0.9576
0.1326 10.6494 -2.0018 0.9576
-1.7623 10.5003 -2.0013 0.9576
-2.6921 10.2997 -2.0010 0.9576
-3.6000 10.0169 -2.0007 0.9576
-4.4791 9.6543 -2.0004 0.9576
-6.8739 8.1200 -1.9997 0.9576
-8.2063 6.7671 -1.9993 0.9576
-9.2771 5.1995 -1.9989 0.9576
-10.0525 3.4669 -1.9987 0.9576
-10.6108 0.6801 -1.9985 0.9576
-10.6291 -0.2696 -1.9985 0.9576
-10.1786 -3.0758 -1.9986 0.9576
-6.6359 -7.2509 -1.8475 0.9608
-1.1345 -9.7724 -1.8492 0.9607
-0.2578 -9.8360 -1.8494 0.9607
0.6212 -9.8212 -1.8497 0.9607
1.4954 -9.7280 -1.8500 0.9607
3.2020 -9.3098 -1.8505 0.9607
4.0206 -8.9881 -1.8507 0.9607
5.8911 -8.6227 -1.9629 0.9584
8.7163 -6.1436 -2.0044 0.9575
9.2305 -5.3416 -2.0045 0.9575
9.6711 -4.4968 -2.0047 0.9575
10.3175 -2.7060 -2.0049 0.9575
10.6348 -0.8287 -2.0050 0.9575
10.6664 0.1238 -2.0050 0.9575
9.7177 1.8723 -1.8601 0.9605
9.5115 2.7320 -1.8601 0.9605
7.3687 2.8502 -1.4850 0.9684
8.8734 4.3790 -1.8599 0.9605
7.9703 7.0833 -2.0042 0.9575
7.3056 7.7655 -2.0040 0.9575
6.5827 8.3856 -2.0038 0.9575
4.9858 9.4200 -2.0033 0.9575
4.1247 9.8261 -2.0030 0.9576
3.2308 10.1537 -2.0028 0.9576
-1.4729 10.5453 -2.0013 0.9576
-3.3232 10.1126 -2.0008 0.9576
-5.0668 9.3582 -2.0002 0.9576
-6.6482 8.3063 -1.9998 0.9576
-8.0173 6.9905 -1.9993 0.9576
-9.1308 5.4529 -1.9990 0.9576
-9.9535 3.7422 -1.9987 0.9576
-10.2473 2.8388 -1.9986 0.9576
-10.6325 0.0229 -1.9985 0.9576
-10.4674 -1.8678 -1.9985 0.9576
-10.2593 -2.7946 -1.9986 0.9576
-9.5999 -4.5744 -1.9988 0.9576
-9.1540 -5.4133 -1.9989 0.9576
-8.0358 -6.9459 -1.9965 0.9577
-6.1755 -7.6478 -1.8476 0.9608
-4.7186 -8.6260 -1.8481 0.9608
-3.9304 -9.0138 -1.8483 0.9608
-3.1107 -9.3299 -1.8486 0.9608
-1.4028 -9.7370 -1.8491 0.9608
2.0941 -9.6179 -1.8501 0.9607
2.9445 -9.3939 -1.8504 0.9607
4.5689 -8.7232 -1.8509 0.9607
6.5462 -8.4135 -2.0037 0.9575
9.0799 -5.5934 -2.0045 0.9575
9.5435 -4.7610 -2.0046 0.9575
10.2390 -2.9888 -2.0049 0.9575
10.4653 -2.0631 -2.0049 0.9575
10.6079 -1.1210 -2.0050 0.9575
9.7656 1.6042 -1.8602 0.9605
9.5832 2.4693 -1.8601 0.9605
9.3242 3.3146 -1.8600 0.9605
6.7974 3.8946 -1.4725 0.9686
6.1120 4.2687 -1.4013 0.9701
4.6576 5.6084 -1.3703 0.9708
6.0513 8.7757 -2.0036 0.9575
4.3936 9.7093 -2.0031 0.9576
3.5091 10.0614 -2.0029 0.9576
2.5967 10.3330 -2.0026 0.9576
-0.2331 10.6471 -2.0017 0.9576
-3.0439 10.2006 -2.0009 0.9576
-4.8076 9.4944 -2.0003 0.9576
-6.4174 8.4863 -1.9998 0.9576
-7.1484 7.8788 -1.9996 0.9576
-8.9775 5.7022 -1.9990 0.9576
-9.4499 4.8778 -1.9989 0.9576
-10.6136 -0.6344 -1.9985 0.9576
-10.5148 -1.5791 -1.9985 0.9576
-10.3322 -2.5113 -1.9986 0.9576
-10.0672 -3.4235 -1.9987 0.9576
-9.7220 -4.3085 -1.9988 0.9576
-7.0242 -6.8745 -1.8474 0.9608
-6.3833 -7.4748 -1.8476 0.9608
-4.2158 -5.9374 -1.3687 0.9708
-4.9539 -8.4926 -1.8480 0.9608
-0.4031 9.4609 -2.0017 0.9620
-1.2457 9.3860 -2.0014 0.9620
-2.0782 9.2362 -2.0011 0.9620
-2.8938 9.0127 -2.0009 0.9620
-5.1761 7.9214 -2.0002 0.9621
-5.8618 7.4271 -2.0000 0.9621
-7.0875 6.2654 -1.9996 0.9621
-7.6177 5.6074 -1.9994 0.9621
-8.0872 4.9048 -1.9993 0.9621
-8.8293 3.3885 -1.9991 0.9621
-9.2904 1.7647 -1.9989 0.9621
-9.4559 0.0849 -1.9989 0.9621
-9.3205 -1.5976 -1.9989 0.9621
-8.8885 -3.2293 -1.9990 0.9621
-8.5653 -4.0099 -1.9991 0.9621
-8.1737 -4.7586 -1.9992 0.9621
-7.7169 -5.4695 -1.9994 0.9621
-7.1973 -6.1358 -1.9992 0.9621
-6.1191 -6.2418 -1.8476 0.9649
-5.5382 -6.7636 -1.8478 0.9649
-4.0024 -5.8914 -1.5055 0.9713
-3.5498 -7.9917 -1.8484 0.9649
-1.3065 -8.6497 -1.8491 0.9649
1.8036 -8.5644 -1.8501 0.9648
2.5611 -8.3703 -1.8503 0.9648
4.0093 -7.7835 -1.8507 0.9648
5.0622 -7.9848 -1.9984 0.9621
6.4178 -6.9759 -2.0037 0.9620
7.5571 -5.7248 -2.0040 0.9620
8.0385 -5.0278 -2.0042 0.9620
8.4557 -4.2906 -2.0043 0.9620
8.8054 -3.5191 -2.0044 0.9620
9.2914 -1.8977 -2.0046 0.9620
9.4239 -1.0609 -2.0046 0.9620
9.2338 1.4522 -1.9758 0.9625
8.0182 3.6202 -1.8596 0.9647
6.8524 3.8642 -1.6629 0.9683
6.1655 4.2437 -1.5821 0.9699
6.2774 5.2042 -1.7236 0.9672
4.5447 5.3971 -1.4914 0.9716
4.7182 8.2189 -2.0032 0.9620
2.3716 9.1718 -2.0025 0.9620
-0.9871 9.4171 -2.0015 0.9620
-1.8233 9.2902 -2.0012 0.9620
-4.2176 8.4722 -2.0005 0.9620
-4.9564 8.0611 -2.0003 0.9621
-5.6554 7.5857 -2.0001 0.9621
-6.3092 7.0500 -1.9998 0.9621
-9.0216 2.8362 -1.9990 0.9621
-9.3816 1.1870 -1.9989 0.9621
-9.4500 0.3450 -1.9989 0.9621
-9.2041 -2.1707 -1.9989 0.9621
-8.3013 -4.5319 -1.9992 0.9621
-3.7682 -7.8907 -1.8484 0.9649
-3.0493 -8.1965 -1.8486 0.9649
-1.5439 -8.6101 -1.8490 0.9649
0.7924 -8.7149 -1.8497 0.9649
1.5672 -8.6105 -1.8500 0.9649
2.3297 -8.4373 -1.8502 0.9648
3.0738 -8.1967 -1.8504 0.9648
4.7858 -8.0292 -1.9758 0.9625
6.2233 -7.1496 -2.0036 0.9620
8.7051 -3.7599 -2.0044 0.9620
9.0063 -2.9681 -2.0045 0.9620
9.3911 -1.3198 -2.0046 0.9620
9.4053 1.2151 -2.0046 0.9620
8.3861 2.6606 -1.8597 0.9647
6.3698 4.1308 -1.6048 0.9694
4.7047 5.2850 -1.4957 0.9715
4.9427 8.0862 -2.0033 0.9620
2.6231 9.1035 -2.0026 0.9620
0.9627 9.4224 -2.0021 0.9620
0.1179 9.4695 -2.0018 0.9620
-1.5671 9.3372 -2.0013 0.9620
-2.3939 9.1589 -2.0011 0.9620
-3.2014 8.9076 -2.0008 0.9620
-4.7329 8.1947 -2.0003 0.9620
-6.1131 7.2211 -1.9999 0.9621
-6.7325 6.6461 -1.9997 0.9621
-8.6299 3.8691 -1.9991 0.9621
-8.9403 3.0833 -1.9990 0.9621
-9.1794 2.2731 -1.9990 0.9621
-9.2602 -1.9166 -1.9989 0.9621
-9.0525 -2.7355 -1.9990 0.9621
-7.5248 -5.7314 -1.9994 0.9621
-5.9014 -6.4484 -1.8477 0.9649
-5.3029 -6.9500 -1.8479 0.9649
-4.6619 -7.3963 -1.8481 0.9649
-3.9837 -7.7838 -1.8483 0.9649
-3.2735 -8.1092 -1.8485 0.9649
-1.0088 -8.6899 -1.8492 0.9649
-0.2292 -8.7463 -1.8494 0.9649
0.5523 -8.7330 -1.8497 0.9649
1.3297 -8.6500 -1.8499 0.9649
3.5749 -7.9917 -1.8506 0.9648
6.0241 -7.3179 -2.0036 0.9620
7.2305 -6.1314 -2.0039 0.9620
8.2066 -4.7490 -2.0042 0.9620
9.1728 -2.4058 -2.0045 0.9620
9.4549 -0.7367 -2.0046 0.9620
9.4829 0.1100 -2.0046 0.9620
9.4352 0.9559 -2.0046 0.9620
8.8074 1.6969 -1.8959 0.9640
7.8890 3.8932 -1.8596 0.9647
5.9291 3.6172 -1.4681 0.9720
5.9182 4.3804 -1.5564 0.9703
6.5206 5.7949 -1.8440 0.9650
6.0262 6.4056 -1.8590 0.9647
5.4300 6.9172 -1.8589 0.9647
5.1634 7.9475 -2.0034 0.9620
2.8727 9.0282 -2.0027 0.9620
-3.7455 8.6920 -2.0006 0.9620
-5.9123 7.3868 -2.0000 0.9621
-7.1300 6.2169 -1.9996 0.9621
-7.6558 5.5553 -1.9994 0.9621
-8.5203 4.1052 -1.9992 0.9621
-8.8522 3.3282 -1.9991 0.9621
-9.1135 2.5248 -1.9990 0.9621
-9.3022 1.7013 -1.9989 0.9621
-9.4167 0.8643 -1.9989 0.9621
-9.4562 0.0204 -1.9989 0.9621
-9.3094 -1.6611 -1.9989 0.9621
-9.1242 -2.4854 -1.9989 0.9621
-8.8663 -3.2899 -1.9990 0.9621
-8.5377 -4.0683 -1.9991 0.9621
-7.6794 -5.5221 -1.9994 0.9621
-5.4919 -6.8013 -1.8478 0.9649
-3.9929 -5.9645 -1.5172 0.9711
-4.1962 -7.6710 -1.8482 0.9649
-3.4952 -8.0158 -1.8484 0.9649
-1.2474 -8.6585 -1.8491 0.9649
0.3119 -8.7446 -1.8496 0.9649
1.0912 -8.6830 -1.8498 0.9649
1.8620 -8.5520 -1.8501 0.9648
3.3536 -8.0867 -1.8505 0.9648
5.8203 -7.4806 -2.0035 0.9620
7.0589 -6.3279 -2.0039 0.9620
7.5961 -5.6731 -2.0040 0.9620
8.0727 -4.9729 -2.0042 0.9620
8.4848 -4.2329 -2.0043 0.9620
9.4580 0.6960 -2.0046 0.9620
8.5199 2.1954 -1.8598 0.9647
7.9933 3.6748 -1.8596 0.9647
6.7974 3.8945 -1.6560 0.9685
6.1157 4.2712 -1.5768 0.9700
6.2904 5.2878 -1.7371 0.9670
5.3803 7.8027 -2.0034 0.9620
4.6619 8.2508 -2.0032 0.9620
3.9065 8.6330 -2.0030 0.9620
3.1201 8.9461 -2.0027 0.9620
2.3089 9.1877 -2.0025 0.9620
1.4796 9.3559 -2.0022 0.9620
0.6386 9.4494 -2.0020 0.9620
-5.7070 7.5469 -2.0000 0.9621
-6.3571 7.0068 -1.9998 0.9621
-7.5002 5.7639 -1.9995 0.9621
-8.7574 3.5705 -1.9991 0.9621
-9.0407 2.7745 -1.9990 0.9621
-9.2520 1.9566 -1.9989 0.9621
-9.4394 -0.5642 -1.9989 0.9621
-9.3515 -1.4044 -1.9989 0.9621
-9.1890 -2.2334 -1.9989 0.9621
-8.9534 -3.0447 -1.9990 0.9621
-8.2703 -4.5884 -1.9992 0.9621
-7.8283 -5.3086 -1.9993 0.9621
-7.3238 -5.9865 -1.9995 0.9621
-5.6768 -6.6474 -1.8478 0.9649
-4.4054 -7.5524 -1.8482 0.9649
1.1563 8.4400 -2.0021 0.9656
0.3984 8.5086 -2.0019 0.9656
-4.0017 7.5129 -2.0006 0.9656
-5.2726 6.6805 -2.0002 0.9656
-6.3752 5.6357 -1.9998 0.9656
-6.8522 5.0439 -1.9997 0.9656
-8.3570 1.5874 -1.9992 0.9657
-8.4651 0.8352 -1.9992 0.9657
-8.5058 0.0764 -1.9991 0.9657
-8.4787 -0.6830 -1.9992 0.9657
-8.2225 -2.1796 -1.9992 0.9657
-7.9955 -2.9049 -1.9993 0.9656
-7.7046 -3.6070 -1.9994 0.9656
-6.9414 -4.9199 -1.9996 0.9656
-6.4751 -5.5201 -1.9997 0.9656
-4.9815 -6.0838 -1.8480 0.9682
-3.9894 -5.8723 -1.6685 0.9713
-3.8213 -6.8738 -1.8483 0.9682
-3.1929 -7.1881 -1.8485 0.9682
-1.8645 -7.6429 -1.8489 0.9682
-1.1751 -7.7797 -1.8492 0.9682
-0.4761 -7.8544 -1.8494 0.9682
0.2268 -7.8665 -1.8496 0.9682
0.9281 -7.8158 -1.8498 0.9682
2.9663 -7.2932 -1.8504 0.9682
3.8861 -7.5444 -1.9945 0.9657
4.5635 -7.1983 -2.0031 0.9656
5.1883 -6.7630 -2.0033 0.9656
6.3090 -5.7338 -2.0036 0.9656
7.2290 -4.5215 -2.0039 0.9656
8.1697 -2.4454 -2.0042 0.9656
8.3555 -1.7065 -2.0043 0.9656
8.5261 -0.1939 -2.0043 0.9656
8.5094 0.5678 -2.0043 0.9656
8.4246 1.3250 -2.0043 0.9656
8.1390 2.0381 -1.9719 0.9661
7.4727 2.5991 -1.8595 0.9680
7.2106 3.2556 -1.8594 0.9680
6.1051 4.2022 -1.7419 0.9700
4.5059 5.3510 -1.6441 0.9717
4.5335 6.4796 -1.8586 0.9680
4.2432 7.3915 -2.0031 0.9656
3.5662 7.7399 -2.0029 0.9656
2.8609 8.0265 -2.0027 0.9656
2.1329 8.2488 -2.0024 0.9656
1.3881 8.4053 -2.0022 0.9656
-0.1283 8.5162 -2.0017 0.9656
-0.8878 8.4698 -2.0015 0.9656
-2.3789 8.1752 -2.0011 0.9656
-3.7936 7.6204 -2.0006 0.9656
-4.4581 7.2507 -2.0004 0.9656
-6.2178 5.8091 -1.9999 0.9656
-6.7110 5.2306 -1.9997 0.9656
-7.8554 3.2654 -1.9994 0.9656
-8.3102 1.8167 -1.9992 0.9657
-8.4390 1.0678 -1.9992 0.9657
-8.5005 0.3104 -1.9992 0.9657
-8.4943 -0.4495 -1.9991 0.9657
-8.4204 -1.2058 -1.9992 0.9657
-8.2793 -1.9526 -1.9992 0.9657
-8.0723 -2.6838 -1.9993 0.9656
-7.8008 -3.3936 -1.9993 0.9656
-5.1468 -5.9443 -1.8479 0.9682
-4.2601 -5.9139 -1.7130 0.9705
-3.3893 -7.0973 -1.8485 0.9682
-2.7427 -7.3723 -1.8487 0.9682
-2.0740 -7.5885 -1.8489 0.9682
0.0103 -7.8695 -1.8495 0.9682
0.7127 -7.8381 -1.8497 0.9682
2.0953 -7.5882 -1.8502 0.9682
2.7645 -7.3718 -1.8504 0.9682
3.5471 -7.3779 -1.9240 0.9669
4.3627 -7.3193 -2.0026 0.9656
5.5967 -6.4297 -2.0034 0.9656
6.1488 -5.9051 -2.0036 0.9656
6.6518 -5.3332 -2.0038 0.9656
7.1017 -4.7186 -2.0039 0.9656
7.8283 -3.3812 -2.0041 0.9656
8.4452 -1.1868 -2.0043 0.9656
8.5218 0.3335 -2.0043 0.9656
7.2975 3.0560 -1.8594 0.9680
6.9953 3.6949 -1.8593 0.9680
6.3006 4.0859 -1.7649 0.9696
5.8548 4.5881 -1.7482 0.9699
4.6902 5.2686 -1.6578 0.9714
4.7102 6.3526 -1.8586 0.9680
3.7779 7.6391 -2.0029 0.9656
1.6188 8.3643 -2.0023 0.9656
0.8658 8.4744 -2.0020 0.9656
0.1060 8.5169 -2.0018 0.9656
-0.6545 8.4913 -2.0016 0.9656
-2.1531 8.2378 -2.0011 0.9656
-2.8794 8.0119 -2.0009 0.9656
-4.2571 7.3708 -2.0005 0.9656
-4.8974 6.9608 -2.0003 0.9656
-5.4986 6.4953 -2.0001 0.9656
-6.0558 5.9781 -1.9999 0.9656
-7.4215 4.1595 -1.9995 0.9656
-7.7627 3.4804 -1.9994 0.9656
-8.4888 0.5441 -1.9992 0.9657
-8.5034 -0.2157 -1.9991 0.9657
-8.3298 -1.7241 -1.9992 0.9657
-7.8911 -3.1777 -1.9993 0.9656
-7.5764 -3.8695 -1.9994 0.9656
-7.2012 -4.5305 -1.9995 0.9656
-6.7686 -5.1554 -1.9997 0.9656
-6.2755 -5.7334 -1.9977 0.9657
-4.7699 -6.2514 -1.8481 0.9682
-1.6011 -7.7028 -1.8490 0.9682
-0.9073 -7.8158 -1.8492 0.9682
0.4968 -7.8544 -1.8497 0.9682
1.1959 -7.7797 -1.8499 0.9682
4.1528 -7.4242 -1.9993 0.9656
5.4176 -6.5811 -2.0034 0.9656
6.5024 -5.5140 -2.0037 0.9656
7.3801 -4.2708 -2.0040 0.9656
8.0226 -2.8909 -2.0042 0.9656
8.5025 -0.6625 -2.0043 0.9656
8.3741 1.6134 -2.0043 0.9656
7.3402 2.8391 -1.8497 0.9682
5.9291 3.6172 -1.6323 0.9719
5.9124 5.2544 -1.8590 0.9680
4.8833 6.2208 -1.8587 0.9680
4.6436 7.1474 -2.0032 0.9656
2.5836 8.1196 -2.0026 0.9656
1.8484 8.3168 -2.0023 0.9656
1.0986 8.4477 -2.0021 0.9656
0.3403 8.5110 -2.0019 0.9656
-0.4206 8.5064 -2.0017 0.9656
-1.1780 8.4340 -2.0014 0.9656
-3.3689 7.8180 -2.0007 0.9656
-5.3180 6.6443 -2.0001 0.9656
-5.8892 6.1426 -2.0000 0.9656
-7.3044 4.3622 -1.9995 0.9656
-8.1979 2.2711 -1.9993 0.9657
-8.3676 1.5303 -1.9992 0.9657
-8.4706 0.7774 -1.9992 0.9657
-8.4739 -0.7409 -1.9992 0.9657
-7.6799 -3.6595 -1.9994 0.9656
-7.3230 -4.3305 -1.9995 0.9656
-4.9399 -6.1177 -1.8480 0.9682
-3.9813 -5.9473 -1.6820 0.9710
-3.7743 -6.8998 -1.8484 0.9682
-3.1438 -7.2098 -1.8486 0.9682
-1.8123 -7.6555 -1.8490 0.9682
-1.1220 -7.7876 -1.8492 0.9682
0.2805 -7.8648 -1.8496 0.9682
0.9814 -7.8093 -1.8498 0.9682
2.3547 -7.5122 -1.8502 0.9682
4.6126 -7.1671 -2.0031 0.9656
5.8144 -6.2340 -2.0035 0.9656
6.3481 -5.6907 -2.0037 0.9656
6.8311 -5.1018 -2.0038 0.9656
7.2597 -4.4721 -2.0039 0.9656
7.6303 -3.8065 -2.0041 0.9656
8.1862 -2.3896 -2.0042 0.9656
8.3670 -1.6495 -2.0043 0.9656
8.4810 -0.8962 -2.0043 0.9656
8.5053 0.6259 -2.0043 0.9656
7.4548 2.6501 -1.8594 0.9680
7.1882 3.3047 -1.8594 0.9680
6.7235 3.8522 -1.8212 0.9687
6.0600 4.2324 -1.7372 0.9701
4.1926 7.4202 -2.0031 0.9656
3.5133 7.7640 -2.0028 0.9656
2.0766 8.2631 -2.0024 0.9656
1.3307 8.4145 -2.0022 0.9656
0.5743 8.4987 -2.0020 0.9656
-0.1865 8.5151 -2.0017 0.9656
-0.9455 8.4635 -2.0015 0.9656
-1.6969 8.3444 -2.0013 0.9656
-2.4346 8.1587 -2.0010 0.9656
-3.1527 7.9080 -2.0008 0.9656
-5.1333 6.7883 -2.0002 0.9656
-6.2573 5.7665 -1.9999 0.9656
-6.7465 5.1847 -1.9997 0.9656
-7.5598 3.9022 -1.9995 0.9656
-7.8775 3.2117 -1.9994 0.9656
-8.3224 1.7600 -1.9992 0.9657
-8.5024 0.2523 -1.9992 0.9657
-8.4910 -0.5075 -1.9992 0.9657
-8.2658 -2.0090 -1.9992 0.9657
-7.7775 -3.4468 -1.9994 0.9656
-7.0416 -4.7751 -1.9996 0.9656
-6.0612 -5.9320 -1.9932 0.9658
-4.1804 -5.8876 -1.6971 0.9708
-3.3408 -7.1204 -1.8485 0.9682
1.0495 7.6610 -2.0021 0.9686
-0.3291 7.7239 -2.0017 0.9686
-1.0170 7.6629 -2.0015 0.9686
-3.0097 7.1176 -2.0009 0.9686
-3.6325 6.8199 -2.0007 0.9686
-4.7863 6.0644 -2.0003 0.9686
-5.7873 5.1161 -2.0000 0.9686
-6.2204 4.5789 -1.9999 0.9686
-6.9346 3.3997 -1.9996 0.9686
-7.2100 2.7671 -1.9996 0.9686
-7.5866 1.4411 -1.9994 0.9686
-7.7218 0.0693 -1.9994 0.9686
-7.6972 -0.6201 -1.9994 0.9686
-6.9943 -3.2745 -1.9996 0.9686
-6.6745 -3.8858 -1.9997 0.9686
-5.8781 -5.0111 -1.9999 0.9686
-3.4688 -6.2398 -1.8485 0.9709
-2.3047 -6.7584 -1.8488 0.9709
-0.4322 -7.1296 -1.8494 0.9709
0.2059 -7.1405 -1.8496 0.9709
0.8424 -7.0944 -1.8498 0.9709
3.5415 -6.8753 -2.0024 0.9685
4.1421 -6.5336 -2.0030 0.9685
4.7091 -6.1384 -2.0032 0.9685
5.2386 -5.6941 -2.0033 0.9685
6.9016 -3.5020 -2.0038 0.9685
7.1869 -2.8722 -2.0039 0.9685
7.4149 -2.2194 -2.0040 0.9685
7.5835 -1.5489 -2.0041 0.9685
7.6917 -0.8659 -2.0041 0.9685
7.7231 0.5154 -2.0041 0.9685
7.6462 1.2026 -2.0041 0.9685
7.2375 2.5173 -1.9840 0.9688
6.2543 3.5269 -1.8591 0.9708
5.5270 4.5821 -1.8589 0.9708
4.2249 6.0384 -1.9081 0.9700
3.8514 6.7090 -2.0029 0.9685
3.2370 7.0253 -2.0028 0.9685
1.9360 7.4873 -2.0024 0.9686
0.5740 7.7107 -2.0020 0.9686
-0.1165 7.7303 -2.0017 0.9686
-1.4886 7.5849 -2.0013 0.9686
-2.8128 7.1979 -2.0009 0.9686
-3.4436 6.9175 -2.0007 0.9686
-5.6445 5.2735 -2.0000 0.9686
-6.0922 4.7483 -1.9999 0.9686
-6.8385 3.5892 -1.9997 0.9686
-7.0817 -3.0808 -1.9996 0.9686
-5.5543 -5.3622 -1.9989 0.9686
-3.6391 -6.1418 -1.8484 0.9709
-3.0767 -6.4427 -1.8486 0.9709
-1.8826 -6.8884 -1.8489 0.9709
1.2794 -7.0293 -1.8499 0.9709
1.9019 -6.8877 -1.8501 0.9709
2.5737 -6.8631 -1.8978 0.9702
3.3462 -6.9601 -1.9995 0.9686
3.9607 -6.6449 -2.0029 0.9685
5.5808 -5.3597 -2.0034 0.9685
6.0373 -4.8405 -2.0036 0.9685
6.4456 -4.2827 -2.0037 0.9685
6.8025 -3.6905 -2.0038 0.9685
7.3509 -2.4226 -2.0040 0.9685
7.5380 -1.7569 -2.0040 0.9685
7.7305 -0.3888 -2.0041 0.9685
7.6765 0.9918 -2.0041 0.9685
7.3775 2.3406 -2.0040 0.9685
6.3491 3.3536 -1.8591 0.9708
5.6511 4.4284 -1.8589 0.9708
4.6542 5.2282 -1.8123 0.9715
3.4291 6.9338 -2.0028 0.9685
2.7963 7.2114 -2.0026 0.9685
2.1413 7.4315 -2.0024 0.9685
0.7859 7.6922 -2.0020 0.9686
-0.5941 7.7078 -2.0016 0.9686
-1.2795 7.6232 -2.0014 0.9686
-1.9545 7.4778 -2.0012 0.9686
-3.2521 7.0098 -2.0008 0.9686
-4.9915 5.8963 -2.0002 0.9686
-5.4974 5.4269 -2.0001 0.9686
-5.9594 4.9143 -1.9999 0.9686
-7.0471 3.1595 -1.9996 0.9686
-7.3006 2.5179 -1.9995 0.9686
-7.4960 1.8562 -1.9995 0.9686
-7.6316 1.1798 -1.9994 0.9686
-7.7063 0.4940 -1.9994 0.9686
-7.7196 -0.1958 -1.9994 0.9686
-7.6714 -0.8840 -1.9994 0.9686
-7.1637 -2.8848 -1.9995 0.9686
-6.5373 -4.1128 -1.9997 0.9686
-4.3300 -5.6749 -1.8482 0.9709
-3.2527 -6.3554 -1.8485 0.9709
-2.0714 -6.8338 -1.8489 0.9709
-0.8236 -7.0946 -1.8493 0.9709
-0.1872 -7.1406 -1.8495 0.9709
0.4509 -7.1295 -1.8497 0.9709
1.0855 -7.0616 -1.8498 0.9709
2.3241 -6.7575 -1.8502 0.9709
3.1490 -7.0395 -1.9967 0.9686
3.7763 -6.7511 -2.0029 0.9685
5.4311 -5.5110 -2.0034 0.9685
6.6983 -3.8762 -2.0038 0.9685
7.0179 -3.2631 -2.0039 0.9685
7.6323 -1.2876 -2.0041 0.9685
7.7009 0.7802 -2.0041 0.9685
7.4392 2.1368 -2.0040 0.9685
6.9442 2.6859 -1.9278 0.9697
5.3663 4.7690 -1.8588 0.9708
4.8297 5.1337 -1.8250 0.9713
4.4323 5.6462 -1.8585 0.9708
3.6187 6.8370 -2.0029 0.9685
2.9937 7.1320 -2.0027 0.9685
2.3451 7.3700 -2.0025 0.9685
1.6778 7.5491 -2.0023 0.9686
0.3089 7.7255 -2.0019 0.9686
-0.3818 7.7214 -2.0017 0.9686
-1.0693 7.6557 -2.0015 0.9686
-4.2704 6.4389 -2.0005 0.9686
-4.8275 6.0316 -2.0003 0.9686
-5.8221 5.0764 -2.0000 0.9686
-6.2515 4.5363 -1.9999 0.9686
-6.9576 3.3522 -1.9996 0.9686
-7.2287 2.7178 -1.9995 0.9686
-7.4422 2.0617 -1.9995 0.9686
-7.5963 1.3893 -1.9994 0.9686
-7.6021 -1.3565 -1.9994 0.9686
-6.6479 -3.9313 -1.9997 0.9686
-6.2708 -4.5092 -1.9998 0.9686
-5.8437 -5.0512 -1.9999 0.9686
-5.3564 -5.5389 -1.9950 0.9687
-3.9711 -5.9321 -1.8483 0.9709
-2.8538 -6.5448 -1.8486 0.9709
-2.2585 -6.7740 -1.8488 0.9709
-1.0184 -7.0691 -1.8492 0.9709
0.2546 -7.1390 -1.8496 0.9709
1.5201 -6.9815 -1.8500 0.9709
2.1373 -6.8186 -1.8502 0.9709
2.9156 -7.0305 -1.9707 0.9690
3.5890 -6.8523 -2.0028 0.9685
4.1866 -6.5052 -2.0030 0.9685
5.2774 -5.6582 -2.0033 0.9685
6.2001 -4.6305 -2.0036 0.9685
6.5890 -4.0590 -2.0037 0.9685
7.2064 -2.8231 -2.0039 0.9685
7.7194 0.5681 -2.0041 0.9685
7.6378 1.2547 -2.0041 0.9685
6.2301 3.5695 -1.8591 0.9708
5.0610 5.0914 -1.8587 0.9708
4.3918 6.3691 -2.0031 0.9685
3.8055 6.7350 -2.0029 0.9685
2.5470 7.3029 -2.0026 0.9685
1.2078 7.6378 -2.0021 0.9686
0.5213 7.7143 -2.0019 0.9686
-0.1693 7.7293 -2.0017 0.9686
-0.8583 7.6825 -2.0015 0.9686
-1.5404 7.5745 -2.0013 0.9686
-2.2100 7.4060 -2.0011 0.9686
-2.8619 7.1785 -2.0009 0.9686
-4.0917 6.5541 -2.0005 0.9686
-4.6599 6.1622 -2.0003 0.9686
-7.5552 1.5977 -1.9994 0.9686
-7.6675 0.9171 -1.9994 0.9686
-7.7187 0.2291 -1.9994 0.9686
-7.7084 -0.4607 -1.9994 0.9686
-7.6365 -1.1468 -1.9994 0.9686
-7.3113 -2.4863 -1.9995 0.9686
-5.9804 -4.8884 -1.9999 0.9686
-3.0327 -6.4636 -1.8486 0.9709
0.3307 7.0637 -2.0019 0.9710
-0.9302 7.0086 -2.0015 0.9710
-2.1610 6.7303 -2.0011 0.9710
-2.7528 6.5100 -2.0009 0.9710
-3.8656 5.9159 -2.0006 0.9710
-4.3778 5.5469 -2.0004 0.9711
-6.3430 3.1096 -1.9998 0.9711
-6.5949 2.5310 -1.9997 0.9711
-6.9619 -1.1933 -1.9996 0.9711
-6.8278 -1.8099 -1.9997 0.9711
-6.6392 -2.4121 -1.9997 0.9711
-6.3976 -2.9951 -1.9998 0.9711
-5.7638 -4.0852 -2.0000 0.9711
-5.3765 -4.5836 -2.0001 0.9711
-4.9463 -5.0454 -2.0002 0.9711
-4.4416 -5.4244 -1.9847 0.9713
-3.6691 -5.4008 -1.8484 0.9732
-2.1079 -6.1814 -1.8489 0.9732
-0.9756 -6.4589 -1.8492 0.9732
-0.3953 -6.5208 -1.8494 0.9732
0.7705 -6.4885 -1.8498 0.9732
1.3471 -6.3966 -1.8505 0.9732
2.6618 -6.5445 -2.0001 0.9711
3.2395 -6.2891 -2.0027 0.9710
3.7882 -5.9753 -2.0029 0.9710
4.3067 -5.6139 -2.0030 0.9710
4.7909 -5.2075 -2.0032 0.9710
5.2369 -4.7594 -2.0033 0.9710
5.6411 -4.2733 -2.0034 0.9710
6.0003 -3.7530 -2.0036 0.9710
6.3117 -3.2027 -2.0037 0.9710
6.5726 -2.6267 -2.0037 0.9710
6.7810 -2.0297 -2.0038 0.9710
6.9926 1.0998 -2.0039 0.9710
6.8664 1.7194 -2.0038 0.9710
6.4509 2.9126 -2.0037 0.9710
5.8306 3.2880 -1.8950 0.9726
5.0546 4.1905 -1.8587 0.9731
4.0562 5.7973 -2.0030 0.9710
2.9604 6.4251 -2.0027 0.9710
2.3750 6.6630 -2.0025 0.9710
1.7707 6.8478 -2.0023 0.9710
0.5249 7.0521 -2.0019 0.9710
-0.1065 7.0702 -2.0017 0.9710
-0.7370 7.0318 -2.0015 0.9710
-1.3615 6.9373 -2.0014 0.9710
-2.5727 6.5835 -2.0010 0.9710
-3.7015 6.0202 -2.0006 0.9710
-4.2237 5.6653 -2.0005 0.9711
-5.5724 4.3432 -2.0001 0.9711
-5.9374 3.8283 -1.9999 0.9711
-6.5229 2.7115 -1.9998 0.9711
-6.9006 1.5086 -1.9996 0.9711
-7.0587 0.2577 -1.9996 0.9711
-6.9921 -1.0013 -1.9996 0.9711
-6.8749 -1.6214 -1.9996 0.9711
-6.7030 -2.2285 -1.9997 0.9711
-6.4775 -2.8180 -1.9998 0.9711
-5.5005 -4.4338 -2.0000 0.9711
-4.6128 -5.3275 -1.9950 0.9711
-2.8141 -5.8928 -1.8487 0.9732
-1.7219 -6.3003 -1.8490 0.9732
-1.1529 -6.4295 -1.8492 0.9732
1.1701 -6.4289 -1.8499 0.9732
3.6223 -6.0771 -2.0028 0.9710
5.1039 -4.9016 -2.0033 0.9710
5.8947 -3.9166 -2.0035 0.9710
6.2211 -3.3751 -2.0036 0.9710
6.4977 -2.8065 -2.0037 0.9710
6.8936 -1.6067 -2.0038 0.9710
7.0096 -0.9851 -2.0039 0.9710
7.0696 -0.3556 -2.0039 0.9710
7.0732 0.2768 -2.0039 0.9710
5.5092 3.5727 -1.8589 0.9731
4.7857 4.4947 -1.8586 0.9731
4.0114 5.4102 -1.9067 0.9724
3.6899 6.0367 -2.0029 0.9710
3.1361 6.3413 -2.0027 0.9710
0.0880 7.0706 -2.0018 0.9710
-0.5433 7.0496 -2.0016 0.9710
-1.1702 6.9723 -2.0014 0.9710
-1.7876 6.8394 -2.0012 0.9710
-2.3907 6.6519 -2.0010 0.9710
-2.9745 6.4115 -2.0009 0.9710
-4.0663 5.7795 -2.0005 0.9710
-5.0283 4.9638 -2.0002 0.9711
-5.4509 4.4949 -2.0001 0.9711
-5.8300 3.9903 -2.0000 0.9711
-6.4459 2.8900 -1.9998 0.9711
-6.6778 2.3031 -1.9997 0.9711
-7.0489 0.4518 -1.9996 0.9711
-7.0170 -0.8086 -1.9996 0.9711
-6.9169 -1.4316 -1.9996 0.9711
-6.7617 -2.0433 -1.9997 0.9711
-6.5525 -2.6387 -1.9997 0.9711
-5.9796 -3.7619 -1.9999 0.9711
-5.6203 -4.2808 -2.0000 0.9711
-4.0934 -5.3648 -1.9103 0.9723
-2.9750 -5.8130 -1.8486 0.9732
-1.3293 -6.3951 -1.8491 0.9732
-0.1712 -6.5308 -1.8495 0.9732
0.4124 -6.5207 -1.8496 0.9732
2.8886 -6.4574 -2.0026 0.9710
3.9912 -5.8419 -2.0029 0.9710
4.9670 -5.0401 -2.0032 0.9710
5.3974 -4.5770 -2.0034 0.9710
6.1258 -3.5449 -2.0036 0.9710
6.6590 -2.3996 -2.0038 0.9710
6.8468 -1.7957 -2.0038 0.9710
7.0572 -0.5499 -2.0039 0.9710
7.0781 0.0821 -2.0039 0.9710
7.0425 0.7135 -2.0039 0.9710
6.9507 1.3392 -2.0039 0.9710
6.8033 1.9541 -2.0038 0.9710
5.2776 3.9063 -1.8588 0.9731
4.9077 4.3614 -1.8587 0.9731
4.0535 5.1637 -1.8584 0.9731
2.1447 6.7404 -2.0024 0.9710
1.5345 6.9043 -2.0022 0.9710
-0.9780 7.0021 -2.0015 0.9710
-1.5988 6.8862 -2.0013 0.9710
-4.8900 5.1004 -2.0003 0.9711
-5.3253 4.6433 -2.0001 0.9711
-6.3640 3.0662 -1.9998 0.9711
-6.9483 1.2707 -1.9996 0.9711
-7.0633 0.0152 -1.9996 0.9711
-6.9536 -1.2408 -1.9996 0.9711
-6.8153 -1.8565 -1.9997 0.9711
-6.6226 -2.4574 -1.9997 0.9711
-6.3771 -3.0387 -1.9998 0.9711
-6.0807 -3.5959 -1.9999 0.9711
-5.3451 -4.6202 -2.0001 0.9711
-3.1337 -5.7288 -1.8486 0.9732
-0.9315 -6.4655 -1.8492 0.9732
-0.3508 -6.5234 -1.8494 0.9732
0.2329 -6.5293 -1.8496 0.9732
2.7072 -6.5282 -2.0007 0.9710
3.8289 -5.9494 -2.0029 0.9710
4.3450 -5.5844 -2.0030 0.9710
5.2693 -4.7236 -2.0033 0.9710
6.5904 -2.5818 -2.0037 0.9710
7.0777 -0.1126 -2.0039 0.9710
6.9849 1.1474 -2.0039 0.9710
6.8545 1.7662 -2.0038 0.9710
6.6693 2.3709 -2.0038 0.9710
5.7845 3.3142 -1.8873 0.9727
5.0259 4.2249 -1.8587 0.9731
4.0165 5.8249 -2.0030 0.9710
3.4803 6.1596 -2.0028 0.9710
1.7239 6.8596 -2.0023 0.9710
-3.1928 6.3053 -2.0008 0.9710
-4.2622 5.6364 -2.0005 0.9711
-5.1956 4.7881 -2.0002 0.9711
-5.6019 4.3050 -2.0001 0.9711
-5.9634 3.7877 -1.9999 0.9711
-6.5412 2.6669 -1.9998 0.9711
-7.0603 0.2095 -1.9996 0.9711
-6.9851 -1.0490 -1.9996 0.9711
-6.8637 -1.6682 -1.9996 0.9711
-6.4582 -2.8621 -1.9998 0.9711
-6.1772 -3.4272 -1.9998 0.9711
-5.4701 -4.4713 -2.0001 0.9711
-5.0495 -4.9419 -2.0002 0.9711
-4.5749 -5.3572 -1.9943 0.9711
-3.7820 -5.3264 -1.8493 0.9732
-2.7738 -5.9119 -1.8487 0.9732
0.8835 6.4488 -2.0020 0.9731
-0.2770 6.5020 -2.0017 0.9731
-0.8561 6.4508 -2.0015 0.9731
-1.4283 6.3480 -2.0013 0.9731
-1.9890 6.1947 -2.0012 0.9731
-3.0581 5.7415 -2.0008 0.9731
-3.5581 5.4452 -2.0007 0.9731
-4.0295 5.1056 -2.0005 0.9731
-4.4688 4.7252 -2.0004 0.9731
-6.0704 2.3297 -1.9999 0.9732
-6.2539 1.7786 -1.9998 0.9732
-6.4702 0.6384 -1.9998 0.9732
-6.1111 -2.2203 -1.9999 0.9732
-5.8888 -2.7569 -1.9999 0.9732
-5.6195 -3.2716 -2.0000 0.9732
-5.3053 -3.7602 -2.0001 0.9732
-4.1160 -5.0267 -1.9983 0.9732
-3.5832 -5.2743 -1.9612 0.9737
-2.9203 -5.2531 -1.8486 0.9752
-2.4400 -5.4932 -1.8488 0.9752
-1.4248 -5.8405 -1.8491 0.9752
-0.8979 -5.9448 -1.8492 0.9752
0.1733 -6.0108 -1.8496 0.9751
0.7091 -5.9719 -1.8497 0.9751
1.3001 -6.1738 -1.9406 0.9739
1.9013 -6.2138 -1.9987 0.9732
3.4865 -5.4994 -2.0028 0.9731
3.9637 -5.1667 -2.0029 0.9731
4.8197 -4.3803 -2.0032 0.9731
5.8088 -2.9475 -2.0035 0.9731
6.0489 -2.4174 -2.0036 0.9731
6.2407 -1.8680 -2.0036 0.9731
6.3826 -1.3036 -2.0037 0.9731
6.5001 0.4338 -2.0037 0.9731
6.1527 2.1400 -2.0036 0.9731
4.7298 3.9212 -1.8897 0.9746
4.3297 4.2966 -1.8762 0.9748
4.0436 4.8020 -1.9309 0.9741
3.7331 5.3356 -2.0029 0.9731
2.7246 5.9134 -2.0026 0.9731
1.6297 6.3025 -2.0023 0.9731
-1.8179 6.2473 -2.0012 0.9731
-2.3680 6.0596 -2.0010 0.9731
-3.4070 5.5412 -2.0007 0.9731
-4.3372 4.8465 -2.0004 0.9731
-5.7576 3.0219 -2.0000 0.9732
-6.0041 2.4958 -1.9999 0.9732
-6.4925 -0.3436 -1.9998 0.9732
-6.3282 -1.4924 -1.9998 0.9732
-6.1699 -2.0513 -1.9999 0.9732
-5.7073 -3.1157 -2.0000 0.9732
-5.0629 -4.0811 -2.0002 0.9732
-4.6788 -4.5170 -2.0003 0.9732
-4.2572 -4.9168 -2.0004 0.9731
-3.1059 -5.2420 -1.8741 0.9748
-2.0959 -5.6338 -1.8489 0.9752
-1.5849 -5.7989 -1.8490 0.9752
1.1082 -6.0884 -1.9034 0.9744
1.7278 -6.2572 -1.9966 0.9732
2.8211 -5.8679 -2.0026 0.9731
3.8199 -5.2737 -2.0029 0.9731
4.2757 -4.9120 -2.0030 0.9731
4.6973 -4.5111 -2.0032 0.9731
5.0815 -4.0742 -2.0033 0.9731
5.9800 -2.5829 -2.0036 0.9731
6.3443 -1.4787 -2.0037 0.9731
6.5063 -0.3272 -2.0037 0.9731
6.5096 0.2548 -2.0037 0.9731
6.4608 0.8347 -2.0037 0.9731
5.3987 3.5011 -1.9791 0.9734
4.4427 4.1725 -1.8746 0.9748
4.1164 4.6241 -1.9042 0.9744
3.8785 5.2310 -2.0029 0.9731
3.3960 5.5558 -2.0028 0.9731
2.8864 5.8363 -2.0026 0.9731
2.3538 6.0701 -2.0025 0.9731
1.8025 6.2554 -2.0023 0.9731
1.2369 6.3908 -2.0021 0.9731
0.6615 6.4751 -2.0020 0.9731
-1.0771 6.4173 -2.0014 0.9731
-1.6454 6.2951 -2.0013 0.9731
-3.2533 5.6329 -2.0008 0.9731
-3.7428 5.3197 -2.0006 0.9731
-5.3662 3.6729 -2.0001 0.9732
-5.6723 3.1791 -2.0000 0.9732
-6.1467 2.1199 -1.9999 0.9732
-6.4254 0.9933 -1.9998 0.9732
-6.4883 0.4159 -1.9998 0.9732
-6.3668 -1.3178 -1.9998 0.9732
-6.0314 -2.4288 -1.9999 0.9732
-5.5039 -3.4627 -2.0000 0.9732
-4.3908 -4.7977 -2.0004 0.9731
-3.9357 -5.1582 -1.9956 0.9732
-3.3130 -5.2562 -1.9110 0.9743
-2.7383 -5.3504 -1.8487 0.9752
-2.2501 -5.5739 -1.8488 0.9752
-1.7438 -5.7530 -1.8490 0.9752
-0.6933 -5.9724 -1.8493 0.9752
-0.1575 -6.0109 -1.8495 0.9751
0.3796 -6.0015 -1.8496 0.9751
3.6733 -5.3766 -2.0028 0.9731
4.1388 -5.0277 -2.0030 0.9731
4.9674 -4.2123 -2.0032 0.9731
5.3238 -3.7524 -2.0034 0.9731
5.6377 -3.2625 -2.0035 0.9731
6.4237 -1.0837 -2.0037 0.9731
6.4948 -0.5061 -2.0037 0.9731
6.5141 0.0756 -2.0037 0.9731
6.4813 0.6566 -2.0037 0.9731
6.3968 1.2325 -2.0037 0.9731
6.2611 1.7984 -2.0037 0.9731
6.0755 2.3500 -2.0036 0.9731
5.5605 3.3924 -2.0035 0.9731
4.5649 4.0568 -1.8784 0.9748
3.9828 5.0737 -1.9839 0.9734
3.0459 5.7548 -2.0027 0.9731
2.5199 6.0032 -2.0025 0.9731
1.9739 6.2036 -2.0024 0.9731
0.8394 6.4546 -2.0020 0.9731
0.2600 6.5032 -2.0019 0.9731
-0.3214 6.4999 -2.0017 0.9731
-2.5745 5.9745 -2.0010 0.9731
-3.0972 5.7204 -2.0008 0.9731
-3.5951 5.4208 -2.0007 0.9731
-4.0643 5.0779 -2.0005 0.9731
-4.5009 4.6946 -2.0004 0.9731
-4.9017 4.2739 -2.0003 0.9732
-5.2632 3.8192 -2.0002 0.9732
-5.5828 3.3340 -2.0001 0.9732
-6.0861 2.2882 -1.9999 0.9732
-6.4006 -1.1421 -1.9998 0.9732
-6.2733 -1.7088 -1.9998 0.9732
-6.0959 -2.2619 -1.9999 0.9732
-4.5210 -4.6750 -2.0003 0.9732
-2.4025 -5.5098 -1.8488 0.9752
-1.9013 -5.7027 -1.8489 0.9752
-1.3849 -5.8501 -1.8491 0.9752
-0.8573 -5.9509 -1.8493 0.9752
-0.3228 -6.0042 -1.8494 0.9752
0.2143 -6.0095 -1.8496 0.9751
0.7499 -5.9670 -1.8497 0.9751
1.3494 -6.1975 -1.9509 0.9738
1.9441 -6.2024 -1.9992 0.9732
3.0210 -5.7677 -2.0026 0.9731
3.5239 -5.4755 -2.0028 0.9731
4.4419 -4.7625 -2.0031 0.9731
5.5457 -3.4163 -2.0034 0.9731
6.0652 -2.3761 -2.0036 0.9731
6.2533 -1.8254 -2.0036 0.9731
6.4784 -0.6846 -2.0037 0.9731
6.5137 -0.1037 -2.0037 0.9731
6.4970 0.4781 -2.0037 0.9731
6.1379 2.1819 -2.0036 0.9731
5.9185 2.7209 -2.0036 0.9731
4.6960 3.9476 -1.8869 0.9747
4.0274 4.8495 -1.9389 0.9740
3.2031 5.6690 -2.0027 0.9731
