ply
format ascii 1.0
element vertex 1567
property float32 x
property float32 y
property float32 z
property float32 I
end_header
3.6155 -13.5211 0.5519 0.9455
5.0366 -13.7687 0.5781 0.9430
-6.6377 -14.0253 0.2621 0.9398
-2.4469 -13.9337 0.2390 0.9450
2.5669 -13.8115 0.2373 0.9453
3.7869 -13.5174 0.2371 0.9454
5.2194 -13.7601 0.2486 0.9428
-11.3783 -15.0878 0.3192 0.9272
-2.8124 -13.9344 0.2401 0.9447
-1.5022 -13.6318 0.2317 0.9466
2.3783 -14.8851 0.2546 0.9415
8.0948 -14.2690 0.2771 0.9365
11.3514 -13.6193 0.2995 0.9315
16.0753 -5.6789 0.2880 0.9341
-1.1402 7.7663 0.1326 0.9691
-13.2198 -13.8851 0.3239 0.9262
-7.3861 -13.7590 0.2638 0.9394
-5.9721 -13.9976 0.2571 0.9409
-1.8536 -13.6394 0.2325 0.9464
4.3546 -13.5051 0.2397 0.9448
8.9695 -13.6871 0.2764 0.9366
10.7973 -13.6423 0.2939 0.9328
16.0456 -4.5359 0.2817 0.9355
-0.9522 7.8660 0.1338 0.9688
-11.8215 -14.1271 0.3112 0.9290
-6.4039 -14.0156 0.2603 0.9402
-0.9751 -13.7123 0.2322 0.9465
-1.4705 7.8777 0.1354 0.9684
-11.6995 7.6931 0.2365 0.9455
-12.3882 -14.0650 0.3166 0.9278
-6.7055 -13.7442 0.2583 0.9407
-2.6178 -13.9340 0.2395 0.9449
-1.3165 -13.6277 0.2313 0.9467
-8.2629 -14.0563 -0.0918 0.9369
-6.6372 -14.0242 -0.0874 0.9398
-2.4468 -13.9328 -0.0796 0.9450
-1.1532 -13.6242 -0.0770 0.9468
8.2296 -13.6872 -0.0899 0.9381
-1.3402 7.7564 -0.0443 0.9690
-11.3790 -15.0887 -0.1064 0.9272
-8.7496 -14.0571 -0.0932 0.9359
-5.6880 -14.3260 -0.0868 0.9402
-2.8122 -13.9334 -0.0800 0.9447
-1.5022 -13.6318 -0.0772 0.9466
-0.2825 -13.8740 -0.0781 0.9460
2.3788 -14.8883 -0.0849 0.9415
4.8300 -13.7753 -0.0822 0.9433
8.0955 -14.2703 -0.0924 0.9365
11.3504 -13.6181 -0.0998 0.9315
13.7794 -13.8118 -0.1099 0.9249
-1.1348 7.7293 -0.0440 0.9692
-7.3861 -13.7590 -0.0879 0.9394
-5.9717 -13.9966 -0.0857 0.9409
-3.1814 -13.9340 -0.0805 0.9444
-1.8536 -13.6394 -0.0775 0.9464
3.1246 -13.8096 -0.0797 0.9449
4.3546 -13.5051 -0.0799 0.9448
8.9688 -13.6860 -0.0921 0.9366
12.3090 -4.7021 -0.0742 0.9487
-11.8204 -14.1258 -0.1037 0.9290
-2.2078 -13.6470 -0.0778 0.9462
-0.9751 -13.7123 -0.0774 0.9465
2.7593 -13.8102 -0.0793 0.9452
3.9825 -13.5132 -0.0793 0.9452
8.4820 -13.6868 -0.0907 0.9376
10.0510 -13.3820 -0.0942 0.9352
-11.6985 7.6924 -0.0788 0.9455
-8.4892 -14.0567 -0.0925 0.9364
-6.7055 -13.7442 -0.0861 0.9407
-5.6774 -14.8796 -0.0897 0.9383
-2.6176 -13.9331 -0.0798 0.9449
3.6155 -13.5211 -0.0788 0.9456
5.0359 -13.7668 -0.0825 0.9430
8.0601 -13.7729 -0.0898 0.9382
16.1139 -5.4499 -0.0958 0.9342
-8.2623 -14.0552 -0.4591 0.9368
-6.6367 -14.0232 -0.4369 0.9398
-2.4466 -13.9318 -0.3983 0.9450
-1.1532 -13.6242 -0.3850 0.9468
2.5665 -13.8096 -0.3955 0.9453
3.7869 -13.5174 -0.3953 0.9454
8.2289 -13.6861 -0.4497 0.9381
-1.3336 7.7181 -0.2205 0.9691
-12.5523 -13.8707 -0.5267 0.9279
-11.3797 -15.0897 -0.5322 0.9272
-8.7489 -14.0560 -0.4662 0.9359
-6.9384 -13.7493 -0.4336 0.9402
-5.6887 -14.3277 -0.4341 0.9402
-2.8120 -13.9324 -0.4002 0.9447
-1.5022 -13.6318 -0.3862 0.9466
-0.2825 -13.8730 -0.3907 0.9460
3.4224 -13.5253 -0.3928 0.9457
4.8296 -13.7744 -0.4110 0.9433
8.0962 -14.2715 -0.4620 0.9365
-13.2199 -13.8851 -0.5398 0.9262
-11.3934 -14.3378 -0.5157 0.9293
-7.3861 -13.7590 -0.4397 0.9394
-0.6348 -13.8877 -0.3915 0.9459
8.9681 -13.6849 -0.4607 0.9366
10.7954 -13.6400 -0.4898 0.9328
12.3064 -4.7011 -0.3709 0.9486
-0.9425 7.7861 -0.2208 0.9691
-11.8193 -14.1245 -0.5186 0.9290
-6.4029 -14.0135 -0.4338 0.9402
2.7591 -13.8093 -0.3965 0.9452
5.4280 -13.7494 -0.4162 0.9426
8.4813 -13.6857 -0.4534 0.9376
-1.4539 7.7886 -0.2231 0.9688
-11.6974 7.6917 -0.3942 0.9455
-12.3882 -14.0650 -0.5278 0.9277
-8.4885 -14.0556 -0.4624 0.9364
-6.7055 -13.7443 -0.4306 0.9406
-5.6779 -14.8811 -0.4485 0.9383
-1.3165 -13.6277 -0.3855 0.9467
-0.0958 -13.8653 -0.3904 0.9460
2.3974 -13.8099 -0.3947 0.9455
3.6155 -13.5211 -0.3941 0.9455
8.0609 -13.7741 -0.4494 0.9381
9.5387 -13.3931 -0.4630 0.9363
13.8996 -13.5625 -0.5468 0.9252
16.1139 -5.4499 -0.4790 0.9342
-6.6362 -14.0221 -0.7867 0.9398
-2.4464 -13.9309 -0.7173 0.9449
-1.1532 -13.6242 -0.6934 0.9467
3.7869 -13.5174 -0.7119 0.9453
5.2183 -13.7572 -0.7462 0.9428
8.2282 -13.6850 -0.8098 0.9380
-8.7482 -14.0549 -0.8396 0.9358
-1.5022 -13.6318 -0.6955 0.9466
-0.2825 -13.8721 -0.7037 0.9459
8.9690 -12.9585 -0.7992 0.9388
-1.1254 7.6653 -0.3929 0.9694
-11.3942 -14.3388 -0.9288 0.9293
-5.9707 -13.9945 -0.7716 0.9409
-3.1810 -13.9321 -0.7247 0.9444
-1.8536 -13.6394 -0.6981 0.9464
3.1242 -13.8077 -0.7179 0.9449
4.3546 -13.5051 -0.7196 0.9448
10.7945 -13.6388 -0.8821 0.9327
12.3039 -4.7002 -0.6680 0.9486
16.0456 -4.5359 -0.8456 0.9354
-0.9394 7.7606 -0.3964 0.9692
-7.8467 -13.7689 -0.8037 0.9385
-0.9751 -13.7122 -0.6972 0.9464
3.9825 -13.5132 -0.7145 0.9451
5.4276 -13.7485 -0.7496 0.9425
10.0510 -13.3820 -0.8488 0.9352
16.1041 -4.9960 -0.8551 0.9347
-8.4878 -14.0545 -0.8327 0.9364
-6.7055 -13.7442 -0.7756 0.9406
-5.6785 -14.8825 -0.8078 0.9382
-2.6173 -13.9311 -0.7189 0.9448
-0.0958 -13.8643 -0.7031 0.9460
2.3972 -13.8089 -0.7108 0.9454
5.0352 -13.7648 -0.7433 0.9430
8.0616 -13.7754 -0.8094 0.9381
9.0656 -12.7287 -0.7925 0.9393
13.8982 -13.5612 -0.9848 0.9252
-6.6073 -13.9610 -1.1325 0.9399
-5.5996 -15.2154 -1.1888 0.9370
-1.1532 -13.6242 -1.0025 0.9466
14.1707 -13.5025 -1.4352 0.9245
-9.3100 -5.9288 -0.8093 0.9567
-8.7122 -13.9971 -1.2089 0.9360
-6.9384 -13.7493 -1.1292 0.9401
-5.6290 -14.1775 -1.1185 0.9407
-2.8116 -13.9305 -1.0420 0.9446
-0.2824 -13.8711 -1.0173 0.9459
2.3804 -14.8982 -1.1062 0.9413
3.4224 -13.5253 -1.0230 0.9456
4.8290 -13.7724 -1.0701 0.9431
8.0311 -14.1566 -1.1934 0.9368
13.7208 -13.7530 -1.4244 0.9250
-1.1215 7.6385 -0.5661 0.9695
-9.7769 -5.8837 -0.8367 0.9553
-7.3861 -13.7590 -1.1450 0.9393
-3.1808 -13.9311 -1.0477 0.9443
-1.8536 -13.6394 -1.0093 0.9463
13.2957 9.4615 -1.1965 0.9366
-2.2078 -13.6470 -1.0136 0.9461
2.7587 -13.8073 -1.0324 0.9451
3.9825 -13.5132 -1.0330 0.9451
5.4272 -13.7475 -1.0837 0.9424
14.5555 -13.5004 -1.4556 0.9235
16.0870 -4.9907 -1.2350 0.9347
-1.4438 7.7346 -0.5769 0.9689
-11.6954 7.6904 -1.0263 0.9454
-14.5855 6.2161 -1.1625 0.9384
-9.3062 -6.1039 -0.8160 0.9563
-12.3882 -14.0650 -1.3743 0.9276
-8.4523 -13.9957 -1.1988 0.9365
-2.6171 -13.9302 -1.0393 0.9447
-1.3165 -13.6277 -1.0039 0.9466
7.9990 -13.6683 -1.1612 0.9385
9.0664 -12.7298 -1.1459 0.9392
13.8400 -13.5044 -1.4178 0.9254
16.0748 -5.4367 -1.2442 0.9342
-6.6068 -13.9599 -1.4827 0.9398
-5.6001 -15.2169 -1.5567 0.9369
-5.0128 -18.6009 -1.8495 0.9255
-2.4358 -13.8701 -1.3520 0.9450
-1.1532 -13.6242 -1.3127 0.9465
2.5555 -13.7507 -1.3427 0.9453
5.1961 -13.6987 -1.4066 0.9428
12.7040 -14.4805 -1.8494 0.9255
16.0869 -10.5963 -1.8494 0.9255
16.9686 -9.1177 -1.8494 0.9255
17.7149 -7.5664 -1.8494 0.9255
17.2706 -5.6136 -1.7435 0.9296
18.7781 -4.2952 -1.8493 0.9255
-1.3197 7.6382 -0.7442 0.9693
-17.6926 7.8231 -1.8572 0.9252
-18.3204 6.2123 -1.8572 0.9252
-18.4115 -5.6724 -1.8496 0.9255
-9.3100 -5.9288 -1.0597 0.9566
-6.1212 -4.7160 -0.7419 0.9694
-14.1504 -13.0733 -1.8496 0.9255
-12.5523 -13.8707 -1.7960 0.9276
-8.7115 -13.9959 -1.5827 0.9359
-2.7998 -13.8721 -1.3586 0.9447
-1.5022 -13.6318 -1.3166 0.9464
-0.2813 -13.8137 -1.3265 0.9460
1.3289 -19.2182 -1.8494 0.9255
2.3311 -14.5902 -1.4185 0.9424
3.4224 -13.5253 -1.3394 0.9455
4.8083 -13.7134 -1.3951 0.9433
7.9714 -17.5370 -1.8494 0.9255
11.3015 -13.5594 -1.6947 0.9315
13.6052 -13.6372 -1.8494 0.9255
17.5177 -8.0124 -1.8494 0.9255
16.0754 -5.6789 -1.6368 0.9338
18.6634 -4.7692 -1.8493 0.9255
17.2889 8.6737 -1.8570 0.9252
-1.1177 7.6130 -0.7387 0.9696
-18.0105 -6.8398 -1.8496 0.9255
-6.3727 -4.6576 -0.7578 0.9688
-14.4769 -12.7110 -1.8496 0.9255
-12.6747 -13.3125 -1.7647 0.9288
-7.3861 -13.7590 -1.4992 0.9392
-5.9454 -13.9350 -1.4545 0.9409
-3.1677 -13.8741 -1.3663 0.9444
-0.6320 -13.8269 -1.3288 0.9459
2.5569 -19.0935 -1.8494 0.9255
10.7483 -13.5805 -1.6627 0.9328
13.2557 -13.9773 -1.8494 0.9255
15.5300 -11.3969 -1.8494 0.9255
12.1877 -4.6558 -1.2525 0.9489
18.5366 -5.2401 -1.8493 0.9255
17.5029 8.2333 -1.8570 0.9252
-0.9324 7.7027 -0.7449 0.9693
-17.9825 7.1315 -1.8572 0.9252
-18.1778 -6.3817 -1.8496 0.9255
-17.5354 -7.9791 -1.8496 0.9255
-16.7530 -9.5128 -1.8496 0.9255
-15.8367 -10.9704 -1.8496 0.9255
-14.7940 -12.3404 -1.8496 0.9255
-6.3744 -13.9512 -1.4726 0.9402
-4.7621 -18.6666 -1.8495 0.9255
-0.9751 -13.7122 -1.3198 0.9463
3.9825 -13.5132 -1.3525 0.9450
5.4049 -13.6908 -1.4131 0.9426
8.4441 -13.6257 -1.5390 0.9376
10.0510 -13.3820 -1.6067 0.9350
12.8976 -14.3084 -1.8494 0.9255
14.1235 -13.0996 -1.8494 0.9255
15.2366 -11.7864 -1.8494 0.9255
16.2279 -10.3790 -1.8494 0.9255
17.0897 -8.8887 -1.8494 0.9255
17.7057 7.7876 -1.8570 0.9252
16.9398 9.3372 -1.8570 0.9252
11.6372 9.4600 -1.4398 0.9415
-11.2769 8.9538 -1.3824 0.9438
-11.5644 7.6042 -1.3288 0.9459
-16.2825 8.7325 -1.7738 0.9284
-18.3336 -5.9195 -1.8496 0.9255
-17.7318 -7.5327 -1.8496 0.9255
-9.3062 -6.1039 -1.0685 0.9563
-6.0823 -4.8178 -0.7449 0.9693
-13.9733 -13.2625 -1.8495 0.9255
-12.3882 -14.0650 -1.7994 0.9275
-8.4517 -13.9946 -1.5696 0.9364
-1.3165 -13.6277 -1.3144 0.9465
-0.0954 -13.8066 -1.3255 0.9460
1.5872 -19.1986 -1.8494 0.9255
3.6155 -13.5211 -1.3437 0.9453
5.0136 -13.7057 -1.4011 0.9430
8.2065 -17.4281 -1.8494 0.9255
7.9997 -13.6696 -1.5206 0.9383
9.0669 -12.7305 -1.5005 0.9391
12.5313 -14.6302 -1.8494 0.9255
13.7874 -13.4530 -1.8494 0.9255
14.9333 -12.1683 -1.8494 0.9255
18.2477 -6.1715 -1.8494 0.9255
18.7258 -4.5177 -1.8493 0.9255
-7.8905 -13.4227 -1.8495 0.9392
-1.1532 -13.6242 -1.6242 0.9464
2.5554 -13.7497 -1.6612 0.9452
3.7869 -13.5174 -1.6675 0.9450
6.7994 -14.0061 -1.8494 0.9392
10.2677 -11.7035 -1.8494 0.9392
12.1854 -9.6908 -1.8494 0.9392
13.7145 -7.3692 -1.8494 0.9392
14.8064 -4.8127 -1.8494 0.9392
16.3714 -3.7447 -1.9949 0.9346
16.6958 -2.2757 -2.0016 0.9344
16.8323 -0.7761 -2.0016 0.9344
16.8344 0.7298 -2.0016 0.9344
15.5141 6.5761 -2.0016 0.9344
8.5369 6.7510 -1.2928 0.9571
11.1476 12.6362 -2.0016 0.9344
6.7988 9.2567 -1.3643 0.9548
8.7226 14.4175 -2.0016 0.9344
3.5134 9.1864 -1.1683 0.9612
4.5904 16.2137 -2.0017 0.9344
1.6337 16.7718 -2.0017 0.9344
0.1298 16.8507 -2.0017 0.9344
-1.3118 7.5919 -0.9152 0.9694
-4.3402 16.2830 -2.0017 0.9344
-5.7766 15.8305 -2.0017 0.9344
-8.5000 14.5509 -2.0017 0.9344
-6.3737 8.9642 -1.3065 0.9567
-10.9524 12.8074 -2.0018 0.9344
-9.5220 6.4463 -1.3659 0.9547
-15.9594 5.4117 -2.0018 0.9344
-16.8441 -0.5167 -2.0018 0.9344
-16.4836 -3.5041 -2.0018 0.9344
-14.9131 -4.5946 -1.8536 0.9391
-13.8277 -7.1578 -1.8496 0.9392
-6.1220 -4.7167 -0.9180 0.9693
-11.4365 -10.5660 -1.8495 0.9392
-10.4475 -11.5448 -1.8495 0.9392
-8.2277 -13.2187 -1.8495 0.9392
-6.9384 -13.7493 -1.8294 0.9398
1.0740 -15.5325 -1.8495 0.9392
3.4224 -13.5253 -1.6573 0.9454
6.4427 -14.1738 -1.8494 0.9392
7.6823 -13.5419 -1.8494 0.9392
9.9682 -11.9597 -1.8494 0.9392
10.9961 -11.0220 -1.8494 0.9392
12.7809 -8.8906 -1.8494 0.9392
13.5236 -7.7140 -1.8494 0.9392
15.1140 -3.8622 -1.8530 0.9391
16.8073 -1.2019 -2.0016 0.9344
16.5250 3.2949 -2.0016 0.9344
16.1648 4.7571 -2.0016 0.9344
15.6756 6.1813 -2.0016 0.9344
12.5039 9.3837 -1.8570 0.9390
12.5206 11.2772 -2.0016 0.9344
11.4638 12.3500 -2.0016 0.9344
10.3155 13.3242 -2.0016 0.9344
9.0848 14.1920 -2.0016 0.9344
7.7815 14.9465 -2.0016 0.9344
3.5427 16.4744 -2.0017 0.9344
0.5563 16.8420 -2.0017 0.9344
-3.9266 16.3876 -2.0017 0.9344
-9.4144 13.9768 -2.0017 0.9344
-11.7501 12.0797 -2.0018 0.9344
-13.4816 7.9179 -1.8572 0.9390
-14.1347 6.6826 -1.8572 0.9390
-15.8173 5.8140 -2.0018 0.9344
-16.2732 4.3786 -2.0018 0.9344
-16.7925 1.4147 -2.0018 0.9344
-16.1717 -4.5374 -1.9952 0.9346
-14.5562 -5.5280 -1.8496 0.9392
-14.0045 -6.8054 -1.8496 0.9392
-11.7004 -10.2731 -1.8495 0.9392
-10.7364 -11.2767 -1.8495 0.9392
-9.6867 -12.1901 -1.8495 0.9392
-8.5597 -13.0062 -1.8495 0.9392
-7.3643 -13.7184 -1.8495 0.9392
-5.9449 -13.9340 -1.7995 0.9408
-4.8071 -14.8093 -1.8495 0.9392
-1.8536 -13.6394 -1.6351 0.9461
0.6805 -15.5548 -1.8495 0.9392
3.1104 -13.7467 -1.6742 0.9448
4.3546 -13.5051 -1.6856 0.9444
8.5337 -13.0221 -1.8494 0.9392
10.7136 -11.2968 -1.8494 0.9392
11.6793 -10.2951 -1.8494 0.9392
13.3240 -8.0539 -1.8494 0.9392
13.9898 -6.8321 -1.8494 0.9392
14.9818 -4.2352 -1.8494 0.9392
16.5592 -3.1178 -2.0016 0.9344
16.7715 -1.6270 -2.0016 0.9344
16.8497 -0.1231 -2.0016 0.9344
16.7934 1.3817 -2.0016 0.9344
16.6031 2.8755 -2.0016 0.9344
16.2800 4.3463 -2.0016 0.9344
15.8270 5.7825 -2.0016 0.9344
14.1463 6.6543 -1.8570 0.9390
12.7374 9.0642 -1.8570 0.9390
12.8021 10.9566 -2.0016 0.9344
9.4411 13.9575 -2.0016 0.9344
5.4051 15.9606 -2.0017 0.9344
3.9585 16.3795 -2.0017 0.9344
2.4804 16.6676 -2.0017 0.9344
0.9824 16.8225 -2.0017 0.9344
-0.9286 7.6717 -0.9179 0.9694
-3.5106 16.4817 -2.0017 0.9344
-4.6854 9.0427 -1.2098 0.9598
-9.0576 14.2106 -2.0017 0.9344
-11.4405 12.3733 -2.0018 0.9344
-14.8921 5.9059 -1.9030 0.9375
-16.8486 0.3364 -2.0018 0.9344
-16.8114 -1.1692 -2.0018 0.9344
-16.6399 -2.6654 -2.0018 0.9344
-16.3354 -4.1403 -2.0018 0.9344
-14.1723 -6.4488 -1.8496 0.9392
-12.7994 -8.8664 -1.8495 0.9392
-11.9567 -9.9737 -1.8495 0.9392
-11.0184 -11.0013 -1.8495 0.9392
-9.9922 -11.9410 -1.8495 0.9392
2.7470 -13.7487 -1.6654 0.9451
3.9825 -13.5132 -1.6734 0.9448
5.4045 -13.6898 -1.7483 0.9424
8.2014 -13.2340 -1.8494 0.9392
9.3501 -12.4489 -1.8494 0.9392
10.4242 -11.5644 -1.8494 0.9392
11.4150 -10.5875 -1.8494 0.9392
13.1159 -8.3886 -1.8494 0.9392
13.8124 -7.1841 -1.8494 0.9392
14.3986 -5.9222 -1.8494 0.9392
14.8698 -4.6131 -1.8494 0.9392
16.4499 -3.5306 -1.9985 0.9345
16.7249 -2.0510 -2.0016 0.9344
16.8230 0.9562 -2.0016 0.9344
16.6705 2.4543 -2.0016 0.9344
15.9683 5.3800 -2.0016 0.9344
10.1363 6.8334 -1.4521 0.9520
8.0393 9.3638 -1.4660 0.9515
8.5279 14.5335 -2.0016 0.9344
7.1964 15.2369 -2.0016 0.9344
2.9015 16.5994 -2.0017 0.9344
-1.6009 16.7751 -2.0017 0.9344
-4.5588 16.2231 -2.0017 0.9344
-5.9890 15.7514 -2.0017 0.9344
-7.3714 15.1539 -2.0017 0.9344
-13.7783 7.3895 -1.8572 0.9390
-16.0308 5.1966 -2.0018 0.9344
-16.4307 3.7446 -2.0018 0.9344
-16.6994 2.2628 -2.0018 0.9344
-16.4350 -3.7255 -2.0018 0.9344
-14.3310 -6.0880 -1.8496 0.9392
-13.7302 -7.3431 -1.8496 0.9392
-9.3062 -6.1039 -1.3220 0.9562
-11.2934 -10.7189 -1.8495 0.9392
-9.2070 -12.5564 -1.8495 0.9392
-0.0954 -13.8057 -1.6400 0.9459
3.6155 -13.5211 -1.6625 0.9452
5.0132 -13.7047 -1.7334 0.9429
6.6327 -14.0858 -1.8494 0.9392
7.8638 -13.4374 -1.8494 0.9392
11.1433 -10.8731 -1.8494 0.9392
12.0695 -9.8347 -1.8494 0.9392
13.6261 -7.5314 -1.8494 0.9392
-1.1009 -13.0065 -1.8495 0.9486
0.0647 -13.0528 -1.8495 0.9486
1.2298 -12.9948 -1.8495 0.9486
2.3850 -12.8331 -1.8494 0.9486
3.5212 -12.5688 -1.8494 0.9486
8.6080 -9.8118 -1.8494 0.9486
10.9003 -7.1799 -1.8494 0.9486
11.4977 -6.1781 -1.8494 0.9486
12.4132 -4.0348 -1.8494 0.9486
14.1133 0.6119 -2.0016 0.9445
13.7795 3.1121 -2.0016 0.9445
8.5369 6.7510 -1.5421 0.9570
7.1726 6.7969 -1.4001 0.9609
8.6706 9.8285 -1.8570 0.9484
6.7988 9.2567 -1.6273 0.9547
6.2044 12.6917 -2.0016 0.9445
3.5134 9.1864 -1.3936 0.9610
0.1088 14.1269 -2.0017 0.9445
-3.3276 9.1191 -1.3754 0.9615
-6.0084 12.7862 -2.0017 0.9445
-7.1260 12.1988 -2.0017 0.9445
-9.3741 9.1612 -1.8572 0.9484
-12.9211 5.7133 -2.0018 0.9445
-13.3796 4.5369 -2.0018 0.9445
-13.7312 3.3243 -2.0018 0.9445
-14.1212 -0.4332 -2.0018 0.9445
-14.0261 -1.6922 -2.0018 0.9445
-13.4929 -4.1570 -2.0005 0.9446
-12.0819 -4.9418 -1.8495 0.9486
-11.5925 -6.0007 -1.8495 0.9486
-8.7587 -9.6786 -1.8495 0.9486
-6.8977 -11.0819 -1.8495 0.9486
-5.8808 -11.6534 -1.8495 0.9486
-3.7145 -12.5134 -1.8495 0.9486
-2.5825 -12.7950 -1.8495 0.9486
-0.2657 -13.0502 -1.8495 0.9486
3.2019 -12.6540 -1.8494 0.9486
7.4284 -10.7326 -1.8494 0.9486
9.2187 -9.2404 -1.8494 0.9486
10.0068 -8.3804 -1.8494 0.9486
10.7150 -7.4535 -1.8494 0.9486
11.3377 -6.4671 -1.8494 0.9486
13.9444 -2.2616 -2.0016 0.9445
14.0906 -1.0076 -2.0016 0.9445
14.1243 0.2544 -2.0016 0.9445
14.0452 1.5144 -2.0016 0.9445
13.8539 2.7623 -2.0016 0.9445
13.5520 3.9881 -2.0016 0.9445
12.6267 6.3347 -2.0016 0.9445
11.1432 6.8996 -1.8570 0.9484
10.4828 7.8669 -1.8570 0.9484
9.7386 8.7714 -1.8570 0.9484
5.1895 6.7031 -1.2011 0.9663
7.6163 11.8980 -2.0016 0.9445
6.5237 12.5305 -2.0016 0.9445
4.1912 13.4911 -2.0017 0.9445
2.9700 13.8115 -2.0017 0.9445
1.7251 14.0215 -2.0017 0.9445
0.4664 14.1196 -2.0017 0.9445
-3.0488 9.0609 -1.3546 0.9621
-7.8925 11.7174 -2.0017 0.9445
-6.2489 6.4242 -1.2698 0.9644
-10.6645 7.6205 -1.8572 0.9484
-12.5838 5.9494 -1.9722 0.9453
-13.8890 -2.5869 -2.0018 0.9445
-13.6025 -3.8166 -2.0018 0.9445
-9.8090 -8.6125 -1.8495 0.9486
-7.1760 -10.9038 -1.8495 0.9486
-6.1739 -11.5009 -1.8495 0.9486
-5.1224 -12.0061 -1.8495 0.9486
-4.0300 -12.4154 -1.8495 0.9486
-1.7578 -12.9341 -1.8495 0.9486
1.7325 -12.9374 -1.8494 0.9486
2.8806 -12.7310 -1.8494 0.9486
8.1005 -10.2349 -1.8494 0.9486
10.5229 -7.7224 -1.8494 0.9486
11.7285 -5.7278 -1.8494 0.9486
13.8826 -2.6138 -2.0016 0.9445
14.0790 1.1584 -2.0016 0.9445
10.6786 7.5991 -1.8570 0.9484
8.0686 8.2626 -1.6363 0.9544
7.9150 11.7014 -2.0016 0.9445
5.1023 9.2225 -1.4934 0.9583
5.7079 12.9226 -2.0017 0.9445
0.8236 14.1032 -2.0017 0.9445
-4.1649 13.4996 -2.0017 0.9445
-5.3536 13.0739 -2.0017 0.9445
-8.6267 11.1880 -2.0017 0.9445
-8.5392 6.4345 -1.5149 0.9577
-13.5453 4.0150 -2.0018 0.9445
-13.8497 2.7896 -2.0018 0.9445
-14.0938 -0.9802 -2.0018 0.9445
-13.9500 -2.2345 -2.0018 0.9445
-13.6948 -3.4711 -2.0018 0.9445
-12.8951 -4.5271 -1.9364 0.9463
-7.5333 -5.2184 -1.2985 0.9637
-9.2373 -9.2229 -1.8495 0.9486
-8.3770 -10.0108 -1.8495 0.9486
0.2402 -13.0507 -1.8495 0.9486
1.4044 -12.9771 -1.8495 0.9486
2.5574 -12.7998 -1.8494 0.9486
3.6899 -12.5203 -1.8494 0.9486
5.8577 -11.6644 -1.8494 0.9486
8.7392 -9.6951 -1.8494 0.9486
9.5699 -8.8761 -1.8494 0.9486
12.6233 -3.9161 -1.8727 0.9480
14.0215 -1.7194 -2.0016 0.9445
14.1038 0.8016 -2.0016 0.9445
13.9759 2.0576 -2.0016 0.9445
13.7364 3.2971 -2.0016 0.9445
11.8933 6.5556 -1.9242 0.9466
10.1363 6.8334 -1.7321 0.9518
9.2023 10.7185 -2.0016 0.9445
7.1495 12.1843 -2.0016 0.9445
6.0331 12.7740 -2.0016 0.9445
3.6652 13.6434 -2.0017 0.9445
2.4325 13.9162 -2.0017 0.9445
1.1804 14.0779 -2.0017 0.9445
-5.0209 13.2052 -2.0017 0.9445
-7.2894 12.1018 -2.0017 0.9445
-9.4965 9.0343 -1.8572 0.9484
-10.2651 8.1504 -1.8572 0.9484
-9.6243 6.3285 -1.6321 0.9545
-11.5510 6.1949 -1.8572 0.9484
-12.9968 5.5390 -2.0018 0.9445
-13.7747 3.1393 -2.0018 0.9445
-14.1134 0.6395 -2.0018 0.9445
-14.0021 -1.8807 -2.0018 0.9445
-13.4157 -4.3316 -1.9975 0.9446
-11.5107 -6.1561 -1.8495 0.9486
-7.7180 -5.0622 -1.3078 0.9634
-6.0796 -4.8156 -1.0989 0.9692
-9.4678 -8.9862 -1.8495 0.9486
-4.6533 -12.1956 -1.8495 0.9486
-3.5458 -12.5622 -1.8495 0.9486
-1.2552 -12.9925 -1.8495 0.9486
2.2326 -12.8605 -1.8494 0.9486
3.3718 -12.6098 -1.8494 0.9486
4.4841 -12.2583 -1.8494 0.9486
6.5927 -11.2654 -1.8494 0.9486
8.4910 -9.9132 -1.8494 0.9486
11.4236 -6.3141 -1.8494 0.9486
13.7326 -3.3131 -2.0016 0.9445
-4.8026 -10.1477 -1.8495 0.9555
-3.8774 -10.5359 -1.8495 0.9555
-0.9469 -11.1866 -1.8495 0.9555
0.0556 -11.2265 -1.8495 0.9555
3.0285 -10.8103 -1.8494 0.9555
3.9816 -10.4967 -1.8494 0.9555
4.9028 -10.0993 -1.8494 0.9555
5.7848 -9.6212 -1.8494 0.9555
7.4037 -8.4390 -1.8494 0.9555
8.7864 -6.9877 -1.8494 0.9555
10.3240 -4.4096 -1.8494 0.9555
11.8442 -2.7092 -2.0016 0.9519
12.1372 -0.5596 -2.0016 0.9519
12.1387 0.5263 -2.0016 0.9519
12.0432 1.6079 -2.0016 0.9519
11.5653 3.7241 -2.0016 0.9519
10.7187 5.7216 -2.0016 0.9519
9.9303 6.5019 -1.9554 0.9530
7.4575 8.4534 -1.8571 0.9553
6.6730 9.0855 -1.8571 0.9553
5.8352 9.6450 -1.8571 0.9553
3.3099 11.6910 -2.0017 0.9519
-3.1295 11.7408 -2.0017 0.9519
-4.1652 11.4146 -2.0017 0.9519
-4.5954 6.4632 -1.3064 0.9684
-7.3268 8.5677 -1.8571 0.9553
-7.8733 6.4259 -1.6742 0.9596
-11.1131 4.9139 -2.0018 0.9519
-11.5075 3.9021 -2.0018 0.9519
-12.0180 1.7934 -2.0018 0.9519
-12.1301 0.7132 -2.0018 0.9519
-12.1453 -0.3726 -2.0018 0.9519
-12.0635 -1.4554 -2.0017 0.9519
-11.8854 -2.5266 -2.0017 0.9519
-6.1234 -4.7177 -1.2734 0.9691
-8.2463 -7.6186 -1.8495 0.9555
-7.5332 -8.3244 -1.8495 0.9555
-5.9326 -9.5314 -1.8495 0.9555
-5.0579 -10.0229 -1.8495 0.9555
-3.1948 -10.7626 -1.8495 0.9555
-1.2297 -11.1591 -1.8495 0.9555
-0.2286 -11.2243 -1.8495 0.9555
0.7744 -11.1998 -1.8495 0.9555
1.7713 -11.0859 -1.8495 0.9555
2.7539 -10.8835 -1.8494 0.9555
3.7146 -10.5941 -1.8494 0.9555
4.6456 -10.2202 -1.8494 0.9555
5.5394 -9.7646 -1.8494 0.9555
6.3891 -9.2310 -1.8494 0.9555
7.9289 -7.9475 -1.8494 0.9555
8.6067 -7.2079 -1.8494 0.9555
11.1480 -3.9382 -1.9477 0.9532
11.7718 -3.0081 -2.0016 0.9519
11.9934 -1.9452 -2.0016 0.9519
12.0801 1.3025 -2.0016 0.9519
11.9156 2.3758 -2.0016 0.9519
11.3031 4.4571 -2.0016 0.9519
10.8601 5.4484 -2.0016 0.9519
10.3303 6.3963 -2.0016 0.9519
9.0161 6.7662 -1.8570 0.9553
5.1895 6.7031 -1.3965 0.9662
4.6263 11.2352 -2.0017 0.9519
3.6048 11.6035 -2.0017 0.9519
1.1332 9.2107 -1.5288 0.9631
-1.1015 7.5022 -1.2492 0.9697
-3.0488 9.0609 -1.5749 0.9620
-4.8877 11.1244 -2.0017 0.9519
-6.2979 9.3500 -1.8571 0.9553
-7.1075 8.7504 -1.8571 0.9553
-6.2489 6.4242 -1.4764 0.9643
-9.1723 6.5542 -1.8572 0.9553
-10.2330 6.0100 -1.9550 0.9530
-11.4050 4.1921 -2.0018 0.9519
-11.7337 3.1572 -2.0018 0.9519
-11.9687 2.0970 -2.0018 0.9519
-12.1082 1.0200 -2.0018 0.9519
-12.1509 -0.0650 -2.0018 0.9519
-12.0965 -1.1496 -2.0017 0.9519
-11.6992 -3.2826 -2.0017 0.9519
-10.0979 -4.9070 -1.8495 0.9555
-6.3747 -4.6591 -1.3008 0.9685
-7.7415 -8.1310 -1.8495 0.9555
-6.1720 -9.3781 -1.8495 0.9555
-5.3100 -9.8917 -1.8495 0.9555
-2.4990 -10.9451 -1.8495 0.9555
-0.5126 -11.2149 -1.8495 0.9555
1.4901 -11.1272 -1.8495 0.9555
3.4452 -10.6848 -1.8494 0.9555
5.2905 -9.9017 -1.8494 0.9555
7.7252 -8.1457 -1.8494 0.9555
10.0876 -4.9264 -1.8494 0.9555
10.4871 -4.0061 -1.8494 0.9555
11.9403 -2.2481 -2.0016 0.9519
12.0933 -1.1731 -2.0016 0.9519
12.1092 0.9963 -2.0016 0.9519
11.9719 2.0734 -2.0016 0.9519
10.4889 6.1327 -2.0016 0.9519
7.1243 8.7361 -1.8571 0.9553
6.3159 9.3373 -1.8571 0.9553
3.7206 6.7251 -1.2661 0.9693
4.9092 11.1145 -2.0017 0.9519
3.8973 11.5085 -2.0017 0.9519
0.7084 12.1299 -2.0017 0.9519
-0.3774 12.1448 -2.0017 0.9519
-4.6045 11.2446 -2.0017 0.9519
-4.6854 9.0427 -1.6778 0.9596
-7.6533 8.2773 -1.8572 0.9553
-8.3618 7.5610 -1.8572 0.9553
-9.0034 6.7843 -1.8572 0.9553
-9.7063 6.0362 -1.8830 0.9547
-11.2952 4.4795 -2.0018 0.9519
-11.6500 3.4532 -2.0018 0.9519
-11.9118 2.3993 -2.0018 0.9519
-12.1486 0.2426 -2.0018 0.9519
-12.1217 -0.8430 -2.0018 0.9519
-11.4650 -4.0250 -2.0017 0.9519
-10.2189 -4.6499 -1.8495 0.9555
-7.5120 -5.2037 -1.5054 0.9636
-6.4074 -9.2189 -1.8495 0.9555
-3.7354 -10.5871 -1.8495 0.9555
-2.7752 -10.8783 -1.8495 0.9555
-1.7929 -11.0826 -1.8495 0.9555
-0.7963 -11.1984 -1.8495 0.9555
2.1996 -11.0089 -1.8494 0.9555
3.1737 -10.7686 -1.8494 0.9555
5.0382 -10.0324 -1.8494 0.9555
5.9137 -9.5425 -1.8494 0.9555
6.7420 -8.9764 -1.8494 0.9555
7.5165 -8.3386 -1.8494 0.9555
8.8796 -6.8689 -1.8494 0.9555
9.4574 -6.0487 -1.8494 0.9555
11.5920 -3.5962 -1.9994 0.9520
12.0597 -1.4789 -2.0016 0.9519
12.1436 -0.3963 -2.0016 0.9519
12.1305 0.6895 -2.0016 0.9519
12.0205 1.7697 -2.0016 0.9519
11.5142 3.8793 -2.0016 0.9519
11.1219 4.8918 -2.0016 0.9519
10.6408 5.8652 -2.0016 0.9519
8.4863 6.8986 -1.8017 0.9566
6.8926 6.7098 -1.5847 0.9618
5.7050 9.7226 -1.8571 0.9553
5.1890 10.9867 -2.0017 0.9519
3.3929 9.2420 -1.6219 0.9609
-0.0698 12.1504 -2.0017 0.9519
-1.4143 7.5766 -1.2697 0.9692
-4.3184 11.3575 -2.0017 0.9519
-6.2695 10.4085 -2.0017 0.9519
-7.4413 8.4684 -1.8572 0.9553
-8.8288 7.0100 -1.8572 0.9553
-10.7082 5.7429 -2.0017 0.9519
-11.1782 4.7640 -2.0018 0.9519
-11.5589 3.7470 -2.0018 0.9519
-11.8473 2.7000 -2.0018 0.9519
-12.0410 1.6316 -2.0018 0.9519
-12.1386 0.5500 -2.0018 0.9519
-12.1392 -0.5359 -2.0018 0.9519
-7.6868 -5.0417 -1.5144 0.9634
-6.0797 -4.8157 -1.2777 0.9690
-7.4205 -8.4249 -1.8495 0.9555
-6.6387 -9.0538 -1.8495 0.9555
-4.9227 -10.0900 -1.8495 0.9555
-4.0022 -10.4892 -1.8495 0.9555
-2.0729 -11.0337 -1.8495 0.9555
-0.0776 -11.2263 -1.8495 0.9555
1.9202 -11.0611 -1.8494 0.9555
2.9000 -10.8455 -1.8494 0.9555
3.8567 -10.5432 -1.8494 0.9555
5.6703 -9.6892 -1.8494 0.9555
8.0350 -7.8402 -1.8494 0.9555
-4.9865 -8.4827 -1.8495 0.9607
-1.7019 -9.6914 -1.8495 0.9607
-0.8299 -9.8046 -1.8495 0.9607
0.0488 -9.8395 -1.8495 0.9607
4.2971 -8.8516 -1.8494 0.9607
5.0702 -8.4326 -1.8494 0.9607
7.1234 -6.7875 -1.8494 0.9607
7.7009 -6.1244 -1.8494 0.9607
9.3405 -3.9895 -1.9091 0.9595
10.1275 -3.2918 -2.0016 0.9576
10.5515 -1.4382 -2.0016 0.9576
10.6391 0.4612 -2.0016 0.9576
10.5554 1.4092 -2.0016 0.9576
10.3875 2.3460 -2.0016 0.9576
10.1365 3.2640 -2.0016 0.9576
9.3945 5.0147 -2.0016 0.9576
8.9093 5.8335 -2.0016 0.9576
8.1671 6.4586 -1.9571 0.9585
6.5362 7.4090 -1.8571 0.9606
5.8486 7.9630 -1.8571 0.9606
4.0682 6.7242 -1.4772 0.9685
4.3392 8.8763 -1.8571 0.9606
1.8780 6.6334 -1.2958 0.9723
1.0324 10.5993 -2.0017 0.9576
0.0820 10.6492 -2.0017 0.9576
-2.5448 9.5470 -1.8571 0.9606
-3.0511 6.4930 -1.3485 0.9712
-4.9837 8.5315 -1.8571 0.9606
-4.5954 6.4632 -1.4906 0.9682
-7.0663 6.9059 -1.8571 0.9606
-7.6547 6.2474 -1.8571 0.9606
-10.6314 0.6251 -2.0017 0.9576
-10.6448 -0.3266 -2.0017 0.9576
-9.8539 -4.0305 -2.0011 0.9576
-8.7386 -4.5234 -1.8495 0.9607
-6.1238 -4.7180 -1.4530 0.9690
-5.9247 -7.8562 -1.8495 0.9607
-5.1996 -8.3538 -1.8495 0.9607
-1.9467 -9.6452 -1.8495 0.9607
-1.0778 -9.7805 -1.8495 0.9607
-0.2003 -9.8376 -1.8495 0.9607
0.6788 -9.8162 -1.8495 0.9607
2.4137 -9.5389 -1.8494 0.9607
5.5998 -8.0906 -1.8494 0.9607
6.2997 -7.5583 -1.8494 0.9607
6.9493 -6.9657 -1.8494 0.9607
7.5434 -6.3174 -1.8494 0.9607
8.0773 -5.6187 -1.8494 0.9607
8.5467 -4.8751 -1.8494 0.9607
8.9478 -4.0926 -1.8494 0.9607
10.0376 -3.5460 -2.0009 0.9576
10.3175 -2.6365 -2.0016 0.9576
10.6219 -0.7596 -2.0016 0.9576
10.6473 0.1918 -2.0016 0.9576
10.5877 1.1416 -2.0016 0.9576
10.2159 3.0064 -2.0016 0.9576
9.5184 4.7753 -2.0016 0.9576
9.0541 5.6061 -2.0016 0.9576
8.5174 6.3920 -2.0016 0.9576
7.3443 6.6149 -1.8578 0.9606
6.7216 7.2412 -1.8571 0.9606
5.3267 8.3212 -1.8571 0.9606
3.7619 9.1359 -1.8571 0.9606
2.9312 9.4353 -1.8571 0.9606
2.0772 9.6594 -1.8571 0.9606
0.2184 6.6114 -1.2434 0.9734
-1.0994 7.4880 -1.4225 0.9697
-3.9744 9.0458 -1.8571 0.9606
-4.7661 8.6549 -1.8571 0.9606
-6.2294 7.6693 -1.8571 0.9606
-7.4941 6.4392 -1.8571 0.9606
-8.4704 6.0527 -1.9568 0.9585
-9.1831 5.3933 -2.0017 0.9576
-10.6122 0.8940 -2.0017 0.9576
-10.6020 -1.0076 -2.0017 0.9576
-10.4697 -1.9501 -2.0017 0.9576
-9.1391 -4.4411 -1.9099 0.9595
-8.4310 -5.0738 -1.8495 0.9607
-6.3752 -4.6594 -1.4842 0.9684
-6.7850 -7.1265 -1.8495 0.9607
-6.1217 -7.7037 -1.8495 0.9607
-3.8614 -9.0504 -1.8495 0.9607
-1.3250 -9.7500 -1.8495 0.9607
4.6369 -8.6784 -1.8494 0.9607
5.3932 -8.2297 -1.8494 0.9607
6.1064 -7.7154 -1.8494 0.9607
7.3811 -6.5064 -1.8494 0.9607
9.9242 -3.7911 -1.9968 0.9577
10.2887 2.7468 -2.0016 0.9576
10.0024 3.6544 -2.0016 0.9576
9.6362 4.5328 -2.0016 0.9576
9.1931 5.3751 -2.0016 0.9576
8.6765 6.1744 -2.0016 0.9576
6.2441 7.6568 -1.8571 0.9606
4.7829 8.6453 -1.8571 0.9606
3.9919 9.0378 -1.8571 0.9606
2.3210 9.6037 -1.8571 0.9606
1.5675 10.5334 -2.0017 0.9576
-0.3308 10.6443 -2.0017 0.9576
-0.9141 7.5515 -1.4298 0.9695
-3.7441 9.1435 -1.8571 0.9606
-4.5455 8.7727 -1.8571 0.9606
-5.3106 8.3319 -1.8571 0.9606
-6.7077 7.2547 -1.8571 0.9606
-9.8997 3.9260 -2.0017 0.9576
-10.5862 1.1624 -2.0017 0.9576
-10.6477 0.2126 -2.0017 0.9576
-10.6241 -0.7389 -2.0017 0.9576
-10.5157 -1.6844 -2.0017 0.9576
-10.3233 -2.6165 -2.0017 0.9576
-9.6599 -4.3955 -1.9948 0.9577
-7.4907 -5.1889 -1.7128 0.9636
-7.5562 -6.3030 -1.8495 0.9607
-6.9633 -6.9524 -1.8495 0.9607
-6.3147 -7.5463 -1.8495 0.9607
-5.6158 -8.0799 -1.8495 0.9607
-4.0893 -8.9498 -1.8495 0.9607
-1.5714 -9.7134 -1.8495 0.9607
1.0587 -9.7825 -1.8495 0.9607
4.4157 -8.7930 -1.8494 0.9607
5.1831 -8.3636 -1.8494 0.9607
6.5879 -7.3085 -1.8494 0.9607
7.2141 -6.6911 -1.8494 0.9607
8.2890 -5.3014 -1.8494 0.9607
8.7292 -4.5402 -1.8494 0.9607
10.1709 -3.1553 -2.0016 0.9576
10.6434 -0.3473 -2.0016 0.9576
10.6319 0.6043 -2.0016 0.9576
10.5355 1.5511 -2.0016 0.9576
10.0917 3.4000 -2.0016 0.9576
8.8300 5.9528 -2.0016 0.9576
6.4359 7.4963 -1.8571 0.9606
5.7410 8.0410 -1.8571 0.9606
5.0002 8.5214 -1.8571 0.9606
4.2194 8.9338 -1.8571 0.9606
3.3785 9.2028 -1.8427 0.9609
1.7952 6.6824 -1.3006 0.9722
-0.7447 7.8032 -1.4734 0.9686
-2.6740 9.5158 -1.8579 0.9606
-4.3220 8.8850 -1.8571 0.9606
-5.0980 8.4637 -1.8571 0.9606
-6.5220 7.4221 -1.8571 0.9606
-7.1586 6.8102 -1.8571 0.9606
-7.7380 6.1439 -1.8571 0.9606
-8.8984 5.8512 -2.0017 0.9576
-9.3852 5.0334 -2.0017 0.9576
-10.3835 2.3664 -2.0017 0.9576
-10.6389 0.4821 -2.0017 0.9576
-10.6394 -0.4697 -2.0017 0.9576
-10.5550 -1.4177 -2.0017 0.9576
-7.6539 -5.0202 -1.7205 0.9634
-6.0797 -4.8157 -1.4578 0.9689
-7.1370 -6.7739 -1.8495 0.9607
-6.5037 -7.3840 -1.8495 0.9607
-5.0868 -8.4229 -1.8495 0.9607
-4.3145 -8.8434 -1.8495 0.9607
-2.6729 -9.4697 -1.8495 0.9607
-0.9462 -9.7941 -1.8495 0.9607
-0.0680 -9.8394 -1.8495 0.9607
0.8107 -9.8061 -1.8495 0.9607
3.3803 -9.2407 -1.8494 0.9607
4.9698 -8.4921 -1.8494 0.9607
5.7081 -8.0145 -1.8494 0.9607
7.0424 -6.8716 -1.8494 0.9607
8.6115 -4.7597 -1.8494 0.9607
-4.4340 -7.5429 -1.8495 0.9649
-3.0219 -8.2112 -1.8495 0.9649
-1.5134 -8.6177 -1.8495 0.9649
-0.7379 -8.7183 -1.8495 0.9649
1.5987 -8.6021 -1.8495 0.9649
2.3603 -8.4250 -1.8494 0.9649
3.8210 -7.8709 -1.8494 0.9649
5.1599 -7.0659 -1.8494 0.9649
5.7701 -6.5770 -1.8494 0.9649
6.3342 -6.0355 -1.8494 0.9649
7.3066 -4.8128 -1.8494 0.9649
8.6954 -3.7140 -1.9987 0.9621
9.0055 -2.9271 -2.0016 0.9620
9.2309 -2.1114 -2.0016 0.9620
9.4592 -0.4361 -2.0016 0.9620
9.4604 0.4101 -2.0016 0.9620
9.3860 1.2531 -2.0016 0.9620
9.2366 2.0861 -2.0016 0.9620
8.3537 4.4592 -2.0016 0.9620
6.7766 6.4216 -1.9734 0.9626
5.8120 6.5882 -1.8571 0.9647
0.8517 8.7442 -1.8571 0.9647
-0.5825 7.1144 -1.5089 0.9712
-3.0117 8.2534 -1.8571 0.9647
-8.2845 4.5876 -2.0017 0.9620
-8.9683 3.0411 -2.0017 0.9620
-9.2040 2.2283 -2.0017 0.9620
-9.4535 0.5558 -2.0017 0.9620
-9.4017 -1.1343 -2.0017 0.9620
-9.2628 -1.9691 -2.0017 0.9620
-9.0500 -2.7882 -2.0017 0.9620
-8.7650 -3.5851 -2.0017 0.9620
-6.4267 -5.9375 -1.8495 0.9649
-5.8710 -6.4876 -1.8495 0.9649
-4.6236 -7.4282 -1.8495 0.9649
-3.9419 -7.8113 -1.8495 0.9649
-3.2288 -8.1321 -1.8495 0.9649
-1.7310 -8.5766 -1.8495 0.9649
-0.9584 -8.6969 -1.8495 0.9649
-0.1781 -8.7477 -1.8495 0.9649
2.8950 -8.2566 -1.8494 0.9649
4.3172 -7.6101 -1.8494 0.9649
4.9794 -7.1942 -1.8494 0.9649
6.1794 -6.1940 -1.8494 0.9649
6.7077 -5.6175 -1.8494 0.9649
7.1825 -4.9962 -1.8494 0.9649
7.5998 -4.3350 -1.8494 0.9649
9.3471 -1.5160 -2.0016 0.9620
9.4451 -0.6754 -2.0016 0.9620
9.4677 0.1705 -2.0016 0.9620
9.0841 2.6733 -2.0016 0.9620
8.8092 3.4737 -2.0016 0.9620
8.4639 4.2463 -2.0016 0.9620
7.5738 5.6839 -2.0016 0.9620
7.0361 6.3373 -2.0016 0.9620
5.9769 6.4389 -1.8571 0.9647
5.1895 6.7031 -1.7919 0.9659
4.0570 7.7926 -1.8571 0.9647
3.3451 8.1238 -1.8571 0.9647
1.0728 8.7198 -1.8571 0.9647
0.2184 6.6114 -1.3983 0.9733
-0.4024 7.1307 -1.5097 0.9712
-1.0375 7.0664 -1.5097 0.9712
-4.2381 7.6960 -1.8571 0.9647
-4.9083 7.2869 -1.8571 0.9647
-5.5392 6.8196 -1.8571 0.9647
-7.7049 5.5056 -2.0017 0.9620
-8.1657 4.7958 -2.0017 0.9620
-8.8884 3.2671 -2.0017 0.9620
-9.3278 1.6343 -2.0017 0.9620
-9.4364 0.7950 -2.0017 0.9620
-8.5049 -4.1329 -1.9988 0.9621
-7.4969 -4.5116 -1.8495 0.9649
-6.3759 -4.6599 -1.6693 0.9682
-6.5750 -5.7730 -1.8495 0.9649
-5.4434 -6.8502 -1.8495 0.9649
-4.8101 -7.3088 -1.8495 0.9649
-4.1384 -7.7091 -1.8495 0.9649
-1.1782 -8.6698 -1.8495 0.9649
1.1613 -8.6720 -1.8495 0.9649
2.6850 -8.3272 -1.8494 0.9649
3.4178 -8.0542 -1.8494 0.9649
4.1232 -7.7169 -1.8494 0.9649
6.0207 -6.3484 -1.8494 0.9649
7.0537 -5.1764 -1.8494 0.9649
7.4877 -4.5260 -1.8494 0.9649
8.8458 -3.3792 -2.0016 0.9620
9.3058 -1.7521 -2.0016 0.9620
9.4374 0.7765 -2.0016 0.9620
9.3304 1.6159 -2.0016 0.9620
9.1488 2.4425 -2.0016 0.9620
8.8943 3.2496 -2.0016 0.9620
8.5686 4.0307 -2.0016 0.9620
8.1746 4.7796 -2.0016 0.9620
7.7152 5.4903 -2.0016 0.9620
7.1943 6.1572 -2.0016 0.9620
5.5523 6.8085 -1.8571 0.9647
2.8180 8.3213 -1.8571 0.9647
1.6119 6.6694 -1.4504 0.9723
-0.2729 8.7814 -1.8571 0.9647
-2.5901 8.3952 -1.8571 0.9647
-3.3293 8.1305 -1.8571 0.9647
-4.0419 7.8008 -1.8571 0.9647
-4.7222 7.4088 -1.8571 0.9647
-7.5631 5.6989 -2.0017 0.9620
-8.0416 5.0010 -2.0017 0.9620
-8.4560 4.2630 -2.0017 0.9620
-8.8029 3.4910 -2.0017 0.9620
-9.0794 2.6912 -2.0017 0.9620
-9.2834 1.8699 -2.0017 0.9620
-9.4133 1.0336 -2.0017 0.9620
-9.4680 0.1890 -2.0017 0.9620
-9.4470 -0.6570 -2.0017 0.9620
-9.3506 -1.4978 -2.0017 0.9620
-7.1926 -4.9824 -1.8495 0.9649
-5.6151 -6.7102 -1.8495 0.9649
-4.9936 -7.1847 -1.8495 0.9649
-4.3322 -7.6018 -1.8495 0.9649
-2.1629 -8.4780 -1.8495 0.9649
-0.6206 -8.7275 -1.8495 0.9649
0.1610 -8.7480 -1.8495 0.9649
0.9414 -8.6987 -1.8495 0.9649
2.4734 -8.3925 -1.8494 0.9649
3.9265 -7.8188 -1.8494 0.9649
4.6089 -7.4370 -1.8494 0.9649
6.4148 -5.9498 -1.8494 0.9649
6.9204 -5.3533 -1.8494 0.9649
7.7724 -4.0426 -1.8519 0.9648
8.7529 -3.6001 -2.0006 0.9620
9.0441 -2.8057 -2.0016 0.9620
9.4540 0.5373 -2.0016 0.9620
8.9737 3.0234 -2.0016 0.9620
7.3478 5.9731 -2.0016 0.9620
6.5973 6.4223 -1.9462 0.9631
4.4462 7.5773 -1.8571 0.9647
2.4544 6.6855 -1.5054 0.9713
2.2794 8.4847 -1.8571 0.9647
1.5128 8.6544 -1.8571 0.9647
0.7341 8.7549 -1.8571 0.9647
-2.5004 6.5761 -1.4871 0.9716
-4.5332 7.5259 -1.8571 0.9647
-6.4303 6.1174 -1.8761 0.9644
-7.4164 5.8885 -2.0017 0.9620
-8.3454 4.4757 -2.0017 0.9620
-8.7117 3.7128 -2.0017 0.9620
-9.0084 2.9202 -2.0017 0.9620
-9.4601 0.4287 -2.0017 0.9620
-9.2355 -2.0935 -2.0017 0.9620
-8.7159 -3.7026 -2.0017 0.9620
-7.3164 -4.7988 -1.8495 0.9649
-6.0797 -4.8158 -1.6395 0.9688
-6.3463 -6.0234 -1.8495 0.9649
-5.1739 -7.0560 -1.8495 0.9649
-4.5232 -7.4897 -1.8495 0.9649
-3.1191 -8.1747 -1.8495 0.9649
-2.3768 -8.4205 -1.8495 0.9649
-1.6155 -8.5991 -1.8495 0.9649
-0.8413 -8.7090 -1.8495 0.9649
-0.0605 -8.7493 -1.8495 0.9649
0.7209 -8.7197 -1.8495 0.9649
1.4965 -8.6205 -1.8495 0.9649
6.2622 -6.1103 -1.8494 0.9649
7.2490 -4.8992 -1.8494 0.9649
7.6574 -4.2324 -1.8494 0.9649
8.6435 -3.8137 -1.9970 0.9621
8.9701 -3.0338 -2.0016 0.9620
9.2052 -2.2208 -2.0016 0.9620
-3.9880 -6.7841 -1.8495 0.9682
-2.7179 -7.3851 -1.8495 0.9682
-2.0477 -7.5983 -1.8495 0.9682
-0.6637 -7.8413 -1.8495 0.9682
0.0390 -7.8692 -1.8495 0.9682
0.7414 -7.8343 -1.8495 0.9682
1.4379 -7.7368 -1.8495 0.9682
2.7909 -7.3577 -1.8494 0.9682
3.4366 -7.0791 -1.8494 0.9682
5.6970 -5.4284 -1.8494 0.9682
6.1589 -4.8981 -1.8494 0.9682
6.5716 -4.3287 -1.8494 0.9682
7.4739 -4.0159 -1.9941 0.9657
8.0996 -2.6327 -2.0016 0.9656
8.3023 -1.8990 -2.0016 0.9656
8.5077 -0.3922 -2.0016 0.9656
8.4418 1.1271 -2.0016 0.9656
8.3075 1.8762 -2.0016 0.9656
8.1068 2.6104 -2.0016 0.9656
7.8414 3.3238 -2.0016 0.9656
7.5133 4.0106 -2.0016 0.9656
6.6803 5.2829 -2.0016 0.9656
4.6946 6.3918 -1.8639 0.9679
4.0902 6.7607 -1.8571 0.9681
3.4703 7.0988 -1.8571 0.9681
2.8227 7.3803 -1.8571 0.9681
0.7661 7.8645 -1.8571 0.9681
-3.0511 6.4930 -1.6861 0.9710
-3.9857 6.8231 -1.8571 0.9681
-4.5790 6.4400 -1.8571 0.9681
-5.2523 6.1418 -1.8993 0.9673
-6.0913 5.9530 -2.0017 0.9656
-7.0529 4.7748 -2.0017 0.9656
-7.7896 3.4443 -2.0017 0.9656
-8.5025 0.4999 -2.0017 0.9656
-8.4558 -1.0202 -2.0017 0.9656
-8.3310 -1.7710 -2.0017 0.9656
-8.1396 -2.5077 -2.0017 0.9656
-6.8838 -4.3838 -1.9181 0.9670
-6.1245 -4.7186 -1.8170 0.9687
-5.7802 -5.3402 -1.8495 0.9682
-5.2803 -5.8349 -1.8495 0.9682
-4.1584 -6.6810 -1.8495 0.9682
-2.9039 -7.3140 -1.8495 0.9682
0.5429 -7.8505 -1.8495 0.9682
1.2416 -7.7707 -1.8495 0.9682
3.2563 -7.1639 -1.8494 0.9682
4.4785 -6.4705 -1.8494 0.9682
5.5578 -5.5709 -1.8494 0.9682
6.4599 -4.4936 -1.8494 0.9682
7.0877 -4.0429 -1.9177 0.9670
8.2515 -2.1086 -2.0016 0.9656
8.4068 -1.3635 -2.0016 0.9656
8.5153 0.1534 -2.0016 0.9656
8.4676 0.9130 -2.0016 0.9656
8.3523 1.6653 -2.0016 0.9656
7.9230 3.1242 -2.0016 0.9656
6.8119 5.1121 -2.0016 0.9656
6.3283 5.6998 -2.0016 0.9656
5.7942 6.2421 -2.0016 0.9656
4.9476 6.3907 -1.8995 0.9673
3.5406 6.8007 -1.8020 0.9690
3.0086 7.3065 -1.8571 0.9681
1.6612 7.7251 -1.8571 0.9681
0.9649 7.8426 -1.8571 0.9681
-0.4025 7.1313 -1.6787 0.9711
-1.0383 7.0718 -1.6799 0.9711
-2.5199 7.4893 -1.8571 0.9681
-3.8117 6.9218 -1.8571 0.9681
-5.9386 6.1052 -2.0017 0.9656
-6.4600 5.5507 -2.0017 0.9656
-6.9298 4.9518 -2.0017 0.9656
-7.3442 4.3133 -2.0017 0.9656
-7.9942 2.9384 -2.0017 0.9656
-8.3894 1.4699 -2.0017 0.9656
-8.4871 0.7150 -2.0017 0.9656
-8.4789 -0.8058 -2.0017 0.9656
-8.2005 -2.3009 -2.0017 0.9656
-7.9623 -3.0238 -2.0017 0.9656
-7.6605 -3.7226 -2.0017 0.9656
-7.2700 -4.3751 -1.9942 0.9657
-6.3535 -4.6435 -1.8495 0.9682
-5.4263 -5.6994 -1.8495 0.9682
-4.3262 -6.5736 -1.8495 0.9682
-3.7220 -6.9335 -1.8495 0.9682
-3.0882 -7.2381 -1.8495 0.9682
-1.7517 -7.6719 -1.8495 0.9682
-0.3593 -7.8611 -1.8495 0.9682
1.7366 -7.6752 -1.8495 0.9682
4.3132 -6.5818 -1.8494 0.9682
4.8836 -6.1704 -1.8494 0.9682
5.4150 -5.7098 -1.8494 0.9682
5.9031 -5.2035 -1.8494 0.9682
7.6421 -3.7321 -1.9988 0.9657
8.1955 -2.3168 -2.0016 0.9656
8.3696 -1.5758 -2.0016 0.9656
8.5165 -0.0622 -2.0016 0.9656
8.4880 0.6984 -2.0016 0.9656
8.2285 2.1968 -2.0016 0.9656
7.9995 2.9227 -2.0016 0.9656
6.4706 5.5378 -2.0016 0.9656
5.2111 6.3900 -1.9379 0.9667
4.4271 6.5450 -1.8571 0.9681
3.1926 7.2280 -1.8571 0.9681
2.5345 7.4842 -1.8571 0.9681
1.8562 7.6806 -1.8571 0.9681
1.1631 7.8157 -1.8571 0.9681
-0.2454 7.8980 -1.8571 0.9681
-1.3904 6.5278 -1.5686 0.9729
-2.3296 7.5507 -1.8571 0.9681
-3.6353 7.0160 -1.8571 0.9681
-4.8251 6.2577 -1.8571 0.9681
-7.9173 3.1398 -2.0017 0.9656
-8.1660 2.4205 -2.0017 0.9656
-8.3495 1.6818 -2.0017 0.9656
-8.0363 -2.8213 -2.0017 0.9656
-7.7523 -3.5275 -2.0017 0.9656
-7.3899 -4.1961 -1.9972 0.9657
-6.4690 -4.4812 -1.8495 0.9682
-6.0431 -5.0408 -1.8495 0.9682
-5.5689 -5.5602 -1.8495 0.9682
-4.4912 -6.4619 -1.8495 0.9682
-3.8964 -6.8371 -1.8495 0.9682
-2.6183 -7.4210 -1.8495 0.9682
-1.9453 -7.6251 -1.8495 0.9682
-1.2568 -7.7683 -1.8495 0.9682
-0.5582 -7.8495 -1.8495 0.9682
0.1448 -7.8680 -1.8495 0.9682
4.1452 -6.6889 -1.8494 0.9682
5.2687 -5.8450 -1.8494 0.9682
5.7695 -5.3513 -1.8494 0.9682
6.6292 -4.2399 -1.8494 0.9682
7.8765 -3.2396 -2.0016 0.9656
8.3270 -1.7872 -2.0016 0.9656
8.5030 0.4833 -2.0016 0.9656
8.2815 1.9878 -2.0016 0.9656
8.0710 2.7192 -2.0016 0.9656
7.7960 3.4289 -2.0016 0.9656
7.0619 4.7608 -2.0016 0.9656
6.6087 5.3722 -2.0016 0.9656
5.4853 6.3891 -1.9791 0.9660
4.5914 6.4308 -1.8571 0.9681
3.9989 6.8151 -1.8571 0.9681
2.0501 7.6312 -1.8571 0.9681
0.6602 7.8741 -1.8571 0.9681
-0.6781 7.1055 -1.6775 0.9711
-1.3153 7.0459 -1.6846 0.9710
-2.8083 7.3860 -1.8571 0.9681
-3.4565 7.1058 -1.8571 0.9681
-4.0771 6.7688 -1.8571 0.9681
-5.3907 6.1347 -1.9194 0.9670
-6.1708 5.8705 -2.0017 0.9656
-6.6703 5.2961 -2.0017 0.9656
-7.1165 4.6795 -2.0017 0.9656
-7.8353 3.3393 -2.0017 0.9656
-8.1021 2.6264 -2.0017 0.9656
-8.5084 0.3855 -2.0017 0.9656
-8.5089 -0.3756 -2.0017 0.9656
-8.3064 -1.8829 -2.0017 0.9656
-8.1051 -2.6170 -2.0017 0.9656
-7.8391 -3.3301 -2.0017 0.9656
-7.5055 -4.0140 -2.0004 0.9656
-6.6872 -4.3861 -1.8796 0.9677
-5.7078 -5.4175 -1.8495 0.9682
-5.2014 -5.9054 -1.8495 0.9682
-4.6534 -6.3462 -1.8495 0.9682
-4.0682 -6.7363 -1.8495 0.9682
-2.8053 -7.3524 -1.8495 0.9682
-1.4530 -7.7340 -1.8495 0.9682
-0.0544 -7.8691 -1.8495 0.9682
2.0328 -7.6022 -1.8495 0.9682
2.7034 -7.3903 -1.8494 0.9682
3.9746 -6.7917 -1.8494 0.9682
4.5651 -6.4097 -1.8494 0.9682
6.1004 -4.9708 -1.8494 0.9682
7.2920 -4.0304 -1.9581 0.9663
-3.6199 -6.1580 -1.8495 0.9709
-1.8587 -6.8970 -1.8495 0.9709
-1.2355 -7.0354 -1.8495 0.9709
-0.6025 -7.1176 -1.8495 0.9709
0.0354 -7.1430 -1.8495 0.9709
0.6730 -7.1113 -1.8495 0.9709
1.3052 -7.0228 -1.8495 0.9709
3.1195 -6.4258 -1.8494 0.9709
4.2125 -5.7686 -1.8494 0.9709
4.7107 -5.3694 -1.8494 0.9709
5.1713 -4.9274 -1.8494 0.9709
6.1728 -4.0659 -1.9138 0.9699
6.8058 -3.6570 -2.0004 0.9686
7.1094 -3.0366 -2.0016 0.9686
7.3521 -2.3897 -2.0016 0.9686
7.5361 -1.7238 -2.0016 0.9686
7.5408 1.7031 -2.0016 0.9686
7.1177 3.0170 -2.0016 0.9686
6.8200 3.6405 -2.0016 0.9686
6.4677 4.2348 -2.0016 0.9686
5.6115 5.3176 -2.0016 0.9686
5.1143 5.7973 -2.0016 0.9686
3.8474 6.3592 -1.9244 0.9698
1.3299 7.0481 -1.8571 0.9708
0.6954 7.1387 -1.8571 0.9708
-1.2084 6.9940 -1.8377 0.9711
-1.8473 6.9306 -1.8571 0.9708
-3.0333 6.4550 -1.8466 0.9710
-4.3749 6.1530 -1.9548 0.9693
-5.0246 5.8756 -2.0017 0.9686
-5.5291 5.4036 -2.0017 0.9686
-5.9895 4.8884 -2.0017 0.9686
-6.7634 3.7452 -2.0017 0.9686
-7.5140 1.8191 -2.0017 0.9686
-7.7178 0.4538 -2.0017 0.9686
-7.7275 -0.2371 -2.0017 0.9686
-7.6755 -0.9260 -2.0017 0.9686
-7.5621 -1.6076 -2.0017 0.9686
-7.1557 -2.9268 -2.0017 0.9686
-6.5081 -4.1445 -1.9978 0.9686
-5.6708 -4.3691 -1.8535 0.9709
-4.3010 -5.7032 -1.8495 0.9709
-3.2181 -6.3772 -1.8495 0.9709
-2.6359 -6.6390 -1.8495 0.9709
-0.7824 -7.1001 -1.8495 0.9709
0.4928 -7.1260 -1.8495 0.9709
1.1270 -7.0536 -1.8495 0.9709
2.3635 -6.7407 -1.8495 0.9709
3.5246 -6.2129 -1.8494 0.9709
4.5733 -5.4870 -1.8494 0.9709
6.7018 -3.8228 -1.9977 0.9686
7.0303 -3.2155 -2.0016 0.9686
7.7110 -0.5514 -2.0016 0.9686
7.7295 0.1392 -2.0016 0.9686
7.5815 1.5117 -2.0016 0.9686
6.9099 3.4667 -2.0016 0.9686
6.5728 4.0697 -2.0016 0.9686
6.1833 4.6403 -2.0016 0.9686
5.7443 5.1738 -2.0016 0.9686
4.7326 6.1130 -2.0017 0.9686
4.0706 6.3590 -1.9549 0.9693
3.3134 6.3642 -1.8578 0.9708
0.2184 6.6114 -1.7127 0.9730
-1.0293 7.0108 -1.8347 0.9711
-1.6656 6.9513 -1.8508 0.9709
-2.8852 6.5668 -1.8571 0.9708
-4.1520 6.1641 -1.9243 0.9698
-4.8742 6.0009 -2.0017 0.9686
-5.3906 5.5418 -2.0017 0.9686
-5.8638 5.0384 -2.0017 0.9686
-6.2902 4.4948 -2.0017 0.9686
-6.6664 3.9153 -2.0017 0.9686
-7.6151 1.3342 -2.0017 0.9686
-7.7038 0.6490 -2.0017 0.9686
-7.6964 -0.7314 -2.0017 0.9686
-7.4437 -2.0885 -2.0017 0.9686
-6.9535 -3.3790 -2.0017 0.9686
-6.6201 -3.9840 -2.0005 0.9686
-4.4440 -5.5925 -1.8495 0.9709
-2.8032 -6.5701 -1.8495 0.9709
-2.2054 -6.7941 -1.8495 0.9709
-1.5900 -6.9639 -1.8495 0.9709
-0.3262 -7.1356 -1.8495 0.9709
0.9481 -7.0798 -1.8495 0.9709
1.5764 -6.9669 -1.8495 0.9709
3.3662 -6.3001 -1.8494 0.9709
3.9152 -5.9744 -1.8494 0.9709
5.7586 -4.2261 -1.8494 0.9709
6.9466 -3.3925 -2.0016 0.9686
7.2217 -2.7587 -2.0016 0.9686
7.4392 -2.1030 -2.0016 0.9686
7.5972 -1.4304 -2.0016 0.9686
7.6946 -0.7464 -2.0016 0.9686
7.7047 0.6339 -2.0016 0.9686
7.6173 1.3193 -2.0016 0.9686
6.2987 4.4823 -2.0016 0.9686
4.8858 5.9912 -2.0016 0.9686
4.3011 6.3586 -1.9876 0.9688
3.5181 6.3591 -1.8817 0.9704
2.8980 6.5610 -1.8571 0.9708
2.3006 6.7935 -1.8571 0.9708
1.6849 6.9718 -1.8571 0.9708
1.0558 7.0944 -1.8571 0.9708
-0.2228 7.1691 -1.8571 0.9708
-0.8507 7.0275 -1.8328 0.9712
-1.3904 6.5278 -1.7281 0.9728
-3.2998 6.3685 -1.8571 0.9708
-3.9356 6.1746 -1.8958 0.9702
-4.7208 6.1224 -2.0017 0.9686
-6.1744 4.6526 -2.0017 0.9686
-6.5651 4.0827 -2.0017 0.9686
-7.4123 2.1971 -2.0017 0.9686
-7.5789 1.5266 -2.0017 0.9686
-7.7125 -0.5364 -2.0017 0.9686
-7.6338 -1.2228 -2.0017 0.9686
-6.7229 -3.8174 -2.0017 0.9686
-6.2906 -4.3576 -1.9814 0.9689
-5.4854 -4.5756 -1.8495 0.9709
-5.0549 -5.0471 -1.8495 0.9709
-4.0767 -5.8656 -1.8495 0.9709
-3.5368 -6.2061 -1.8495 0.9709
-2.9686 -6.4971 -1.8495 0.9709
-2.3767 -6.7361 -1.8495 0.9709
-1.1408 -7.0514 -1.8495 0.9709
0.1315 -7.1419 -1.8495 0.9709
0.7686 -7.1016 -1.8495 0.9709
1.3995 -7.0046 -1.8495 0.9709
2.0193 -6.8517 -1.8495 0.9709
2.6229 -6.6440 -1.8494 0.9709
3.2056 -6.3833 -1.8494 0.9709
4.2897 -5.7114 -1.8494 0.9709
5.6498 -4.3705 -1.8494 0.9709
7.1496 -2.9407 -2.0016 0.9686
7.7266 -0.2522 -2.0016 0.9686
7.6483 1.1260 -2.0016 0.9686
7.5172 1.8044 -2.0016 0.9686
7.3261 2.4683 -2.0016 0.9686
7.0765 3.1125 -2.0016 0.9686
6.7704 3.7318 -2.0016 0.9686
6.4102 4.3214 -2.0016 0.9686
5.5395 5.3926 -2.0016 0.9686
5.0359 5.8656 -2.0016 0.9686
4.4921 6.2918 -2.0017 0.9686
3.7315 6.3593 -1.9091 0.9700
3.0631 6.4855 -1.8571 0.9708
1.2350 7.0654 -1.8571 0.9708
0.5993 7.1475 -1.8571 0.9708
-0.6722 7.0442 -1.8321 0.9712
-1.3039 6.9851 -1.8398 0.9711
-2.5491 6.7043 -1.8571 0.9708
-4.4962 6.1469 -1.9719 0.9690
-5.1032 5.8075 -2.0017 0.9686
-7.3544 2.3840 -2.0017 0.9686
-7.5378 1.7179 -2.0017 0.9686
-7.6611 1.0381 -2.0017 0.9686
-7.7236 -0.3410 -2.0017 0.9686
-7.6623 -1.0292 -2.0017 0.9686
-7.5398 -1.7091 -2.0017 0.9686
-7.3571 -2.3755 -2.0017 0.9686
-7.1156 -3.0228 -2.0017 0.9686
-6.8173 -3.6460 -2.0017 0.9686
-5.1811 -4.9175 -1.8495 0.9709
-4.7214 -5.3604 -1.8495 0.9709
-3.6928 -6.1146 -1.8495 0.9709
-3.1321 -6.4199 -1.8495 0.9709
-2.5464 -6.6738 -1.8495 0.9709
-1.9404 -6.8745 -1.8495 0.9709
0.5885 -7.1188 -1.8495 0.9709
1.8452 -6.9006 -1.8495 0.9709
3.0430 -6.4624 -1.8494 0.9709
3.6078 -6.1649 -1.8494 0.9709
4.1438 -5.8182 -1.8494 0.9709
5.5374 -4.5121 -1.8494 0.9709
6.0294 -4.0749 -1.8842 0.9704
7.3232 -2.4768 -2.0016 0.9686
7.5151 -1.8131 -2.0016 0.9686
-2.2564 -6.1311 -1.8495 0.9732
-1.1300 -6.4346 -1.8495 0.9732
0.0324 -6.5330 -1.8495 0.9732
1.7624 -6.2908 -1.8495 0.9732
2.8531 -5.8771 -1.8494 0.9732
5.1552 -4.0999 -1.8647 0.9730
6.5023 -2.7773 -2.0016 0.9710
6.7243 -2.1856 -2.0016 0.9710
6.8926 -1.5766 -2.0016 0.9710
7.0639 0.3062 -2.0016 0.9710
6.7303 2.1672 -2.0016 0.9710
5.9154 3.8732 -2.0016 0.9710
4.6776 5.3023 -2.0016 0.9710
4.1855 5.6987 -2.0017 0.9710
3.6601 6.0497 -2.0017 0.9710
3.0935 6.3280 -1.9940 0.9711
2.4193 6.3257 -1.9173 0.9722
1.7905 6.3241 -1.8607 0.9730
0.6360 6.5291 -1.8571 0.9731
-0.5353 6.5382 -1.8571 0.9731
-1.1169 6.4643 -1.8571 0.9731
-2.9097 6.1921 -1.9368 0.9720
-3.5665 6.1055 -2.0017 0.9710
-4.0974 5.7627 -2.0017 0.9710
-5.8553 3.9640 -2.0017 0.9710
-6.4669 2.8595 -2.0017 0.9710
-6.8724 1.6638 -2.0017 0.9710
-6.9935 1.0436 -2.0017 0.9710
-7.0587 0.4150 -2.0017 0.9710
-7.0676 -0.2168 -2.0017 0.9710
-6.9163 -1.4703 -2.0017 0.9710
-6.7574 -2.0819 -2.0017 0.9710
-6.5446 -2.6769 -2.0017 0.9710
-6.2794 -3.2505 -2.0017 0.9710
-5.5817 -4.3004 -1.9947 0.9711
-4.7987 -4.4334 -1.8495 0.9732
-2.9433 -5.8326 -1.8495 0.9732
-2.4108 -6.0720 -1.8495 0.9732
-1.2925 -6.4040 -1.8495 0.9732
-0.7156 -6.4938 -1.8495 0.9732
-0.1330 -6.5317 -1.8495 0.9732
0.4507 -6.5175 -1.8495 0.9732
1.0307 -6.4512 -1.8495 0.9732
1.6026 -6.3334 -1.8495 0.9732
3.7180 -5.3718 -1.8494 0.9732
4.1827 -5.0184 -1.8494 0.9732
4.6141 -4.6249 -1.8494 0.9732
5.0086 -4.1945 -1.8494 0.9732
6.8504 -1.7505 -2.0016 0.9710
6.9794 -1.1320 -2.0016 0.9710
7.0694 0.1273 -2.0016 0.9710
6.9341 1.3826 -2.0016 0.9710
6.7830 1.9961 -2.0016 0.9710
6.5777 2.5937 -2.0016 0.9710
6.0116 3.7222 -2.0016 0.9710
5.6552 4.2440 -2.0016 0.9710
1.3791 6.4134 -1.8571 0.9731
0.2166 6.5565 -1.8571 0.9731
-0.3697 6.5496 -1.8571 0.9731
-0.9529 6.4905 -1.8571 0.9731
-1.5286 6.3795 -1.8571 0.9731
-2.0960 6.2294 -1.8606 0.9730
-2.7241 6.2002 -1.9172 0.9722
-4.9302 5.0685 -2.0017 0.9710
-6.6368 2.4395 -2.0017 0.9710
-6.8280 1.8372 -2.0017 0.9710
-6.9648 1.2203 -2.0017 0.9710
-7.0708 -0.0378 -2.0017 0.9710
-6.9513 -1.2947 -2.0017 0.9710
-4.9503 -4.3465 -1.8649 0.9730
-3.0900 -5.7562 -1.8495 0.9732
-2.5638 -6.0091 -1.8495 0.9732
-0.8798 -6.4736 -1.8495 0.9732
-0.2983 -6.5263 -1.8495 0.9732
1.4418 -6.3720 -1.8495 0.9732
2.5520 -6.0140 -1.8495 0.9732
3.0787 -5.7621 -1.8494 0.9732
4.9008 -4.3200 -1.8494 0.9732
6.6050 -2.5232 -2.0016 0.9710
7.0468 0.5798 -2.0016 0.9710
6.9669 1.2066 -2.0016 0.9710
6.8313 1.8238 -2.0016 0.9710
5.7609 4.0995 -2.0016 0.9710
5.3719 4.5975 -2.0016 0.9710
4.9400 5.0587 -2.0016 0.9710
4.4686 5.4796 -2.0017 0.9710
3.9615 5.8567 -2.0017 0.9710
2.1416 6.3240 -1.8901 0.9726
1.5410 6.3764 -1.8571 0.9731
0.9656 6.4886 -1.8571 0.9731
0.3825 6.5489 -1.8571 0.9731
-0.7883 6.5125 -1.8571 0.9731
-1.9340 6.2685 -1.8571 0.9731
-3.2015 6.1788 -1.9700 0.9715
-3.8005 5.9626 -2.0017 0.9710
-4.3176 5.5995 -2.0017 0.9710
-5.2447 4.7424 -2.0017 0.9710
-5.6471 4.2552 -2.0017 0.9710
-6.7794 2.0095 -2.0017 0.9710
-6.9317 1.3962 -2.0017 0.9710
-7.0287 0.7718 -2.0017 0.9710
-7.0695 0.1411 -2.0017 0.9710
-7.0538 -0.4906 -2.0017 0.9710
-6.9819 -1.1184 -2.0017 0.9710
-6.6717 -2.3422 -2.0017 0.9710
-6.4359 -2.9285 -2.0017 0.9710
-6.1487 -3.4914 -2.0017 0.9710
-5.8062 -4.0220 -1.9995 0.9711
-5.2060 -4.3426 -1.9192 0.9722
-3.7286 -5.3647 -1.8495 0.9732
-1.6150 -6.3304 -1.8495 0.9732
-1.0434 -6.4492 -1.8495 0.9732
0.1202 -6.5320 -1.8495 0.9732
1.2800 -6.4064 -1.8495 0.9732
2.3989 -6.0766 -1.8495 0.9732
