ply
format ascii 1.0
element vertex 1592
property float32 x
property float32 y
property float32 z
property float32 I
end_header
-9.4569 0.1141 -1.9991 0.9621
-8.9010 -3.1992 -1.9993 0.9621
-8.5808 -3.9802 -1.9994 0.9621
-8.1922 -4.7297 -1.9995 0.9621
-7.2229 -6.1103 -1.9998 0.9621
-5.7076 -6.9141 -1.8951 0.9640
-4.9430 -7.2125 -1.8483 0.9649
-4.2807 -7.6253 -1.8485 0.9649
-3.5842 -7.9774 -1.8486 0.9649
-2.1109 -8.4891 -1.8491 0.9649
-1.3457 -8.6444 -1.8493 0.9649
-0.5697 -8.7310 -1.8495 0.9649
0.9903 -8.6954 -1.8499 0.9649
1.7618 -8.5735 -1.8501 0.9648
2.5194 -8.3832 -1.8503 0.9648
3.9691 -7.8041 -1.8507 0.9648
5.2931 -6.9764 -1.8511 0.9648
5.8945 -6.4773 -1.8512 0.9648
7.4001 -4.6874 -1.8516 0.9648
5.9567 -1.8218 -1.3167 0.9749
9.1666 -1.0891 -1.9513 0.9630
9.4783 -0.2747 -2.0044 0.9620
9.4650 0.5714 -2.0043 0.9620
9.3762 1.4130 -2.0043 0.9620
9.2126 2.2433 -2.0043 0.9620
8.9756 3.0556 -2.0042 0.9620
8.2893 4.6007 -2.0040 0.9620
7.8456 5.3211 -2.0039 0.9620
5.7116 6.6855 -1.8587 0.9647
4.4326 7.5921 -1.8583 0.9647
3.7376 7.9562 -1.8581 0.9647
3.0130 8.2569 -1.8579 0.9647
2.2646 8.4917 -1.8577 0.9647
0.7203 8.7569 -1.8573 0.9647
-0.0683 9.4691 -2.0016 0.9620
-0.5285 5.4606 -1.1597 0.9778
-2.5709 9.1104 -2.0010 0.9620
-3.3725 8.8439 -2.0007 0.9620
-4.2938 7.1168 -1.7569 0.9666
-5.7975 6.5912 -1.8555 0.9647
-6.3616 6.0475 -1.8554 0.9648
-7.3335 4.8209 -1.8551 0.9648
-8.0723 3.4414 -1.8549 0.9648
-9.3747 -1.2511 -1.9992 0.9621
-6.8735 -6.5017 -1.9999 0.9621
-6.1972 -7.0103 -1.9778 0.9625
-5.1839 -7.0410 -1.8482 0.9649
-4.5359 -7.4759 -1.8484 0.9649
-1.6372 -8.5936 -1.8492 0.9649
2.9805 -8.2312 -1.8505 0.9648
6.2448 -6.1409 -1.8513 0.9648
6.7680 -5.5600 -1.8515 0.9648
7.2372 -4.9348 -1.8516 0.9648
5.8436 -2.6089 -1.3527 0.9742
6.6986 -1.6488 -1.4582 0.9722
9.4636 -0.5950 -2.0044 0.9620
9.4187 1.0952 -2.0043 0.9620
9.2833 1.9306 -2.0043 0.9620
9.0739 2.7505 -2.0042 0.9620
8.7922 3.5484 -2.0041 0.9620
8.0213 5.0529 -2.0039 0.9620
6.9953 6.3963 -2.0036 0.9620
5.9606 6.5172 -1.8669 0.9645
5.3319 6.9914 -1.8586 0.9647
4.6869 7.4382 -1.8584 0.9647
2.4713 6.1214 -1.3954 0.9734
2.5505 8.4106 -1.8578 0.9647
1.0160 8.7279 -1.8574 0.9647
0.2519 9.4664 -2.0017 0.9620
-2.8442 6.3727 -1.4751 0.9719
-4.2789 7.6668 -1.8559 0.9647
-5.5715 6.7836 -1.8556 0.9647
-6.1537 6.2593 -1.8554 0.9647
-5.9548 4.2096 -1.5415 0.9706
-9.3230 1.5905 -1.9992 0.9621
-9.4276 0.7529 -1.9992 0.9621
-9.4572 -0.0906 -1.9992 0.9621
-9.2910 -1.7689 -1.9992 0.9621
-9.0966 -2.5903 -1.9993 0.9621
-8.8298 -3.3911 -1.9994 0.9621
-6.4896 -6.8591 -1.9960 0.9621
-5.4201 -6.8632 -1.8486 0.9649
-2.6795 -8.3263 -1.8489 0.9649
-1.1583 -8.6718 -1.8493 0.9649
-0.3806 -8.7415 -1.8495 0.9649
0.4003 -8.7417 -1.8498 0.9649
1.1782 -8.6722 -1.8500 0.9649
1.9470 -8.5335 -1.8502 0.9648
2.7004 -8.3269 -1.8504 0.9648
6.0335 -6.3483 -1.8513 0.9648
7.0661 -5.1765 -1.8515 0.9648
7.4999 -4.5262 -1.8517 0.9648
6.2656 -1.7689 -1.3762 0.9737
7.8011 -1.4670 -1.6779 0.9681
9.4380 -0.9146 -2.0044 0.9620
9.4504 0.7762 -2.0043 0.9620
9.3433 1.6156 -2.0043 0.9620
9.1618 2.4422 -2.0042 0.9620
5.5654 6.8074 -1.8586 0.9647
2.0802 8.5385 -1.8577 0.9647
-0.2732 9.4652 -2.0016 0.9620
-1.1159 9.4020 -2.0013 0.9620
-1.9495 9.2640 -2.0011 0.9620
-2.7674 9.0523 -2.0009 0.9620
-2.0645 5.0807 -1.1592 0.9778
-3.1553 6.1318 -1.4577 0.9722
-4.6971 7.4173 -1.8558 0.9647
-5.9387 6.4640 -1.8555 0.9647
-6.9913 5.3057 -1.8552 0.9648
-7.4360 4.6609 -1.8551 0.9648
-7.8216 3.9792 -1.8550 0.9648
-8.1866 3.2826 -1.8644 0.9646
-9.2640 1.9048 -1.9992 0.9621
-9.3968 1.0713 -1.9992 0.9621
-9.4377 -0.6147 -1.9992 0.9621
-9.3454 -1.4537 -1.9992 0.9621
-9.1789 -2.2812 -1.9993 0.9621
-8.9392 -3.0906 -1.9993 0.9621
-8.6285 -3.8755 -1.9994 0.9621
-8.2491 -4.6296 -1.9995 0.9621
-7.8040 -5.3470 -1.9997 0.9621
-7.2967 -6.0219 -1.9998 0.9621
-6.7313 -6.6490 -2.0000 0.9621
-3.6809 -7.9331 -1.8486 0.9649
-2.2140 -8.4626 -1.8490 0.9649
-1.4508 -8.6273 -1.8492 0.9649
0.1045 -8.7498 -1.8497 0.9649
1.6573 -8.5941 -1.8501 0.9648
2.4172 -8.4131 -1.8503 0.9648
3.1580 -8.1649 -1.8505 0.9648
3.8738 -7.8517 -1.8507 0.9648
3.4084 -5.5891 -1.3838 0.9736
5.2077 -7.0402 -1.8511 0.9648
5.8152 -6.5484 -1.8512 0.9648
6.3764 -6.0044 -1.8514 0.9648
6.8868 -5.4123 -1.8515 0.9648
5.9569 -3.1584 -1.4252 0.9728
5.8510 -2.4617 -1.3418 0.9744
5.8267 -1.8599 -1.2929 0.9753
7.0682 -1.5783 -1.5309 0.9708
8.9559 -1.1747 -1.9093 0.9637
9.0121 2.9462 -2.0042 0.9620
8.3448 4.4995 -2.0040 0.9620
5.7926 6.6155 -1.8587 0.9647
5.1792 7.1050 -1.8585 0.9647
4.5247 7.5377 -1.8583 0.9647
2.3678 8.4636 -1.8577 0.9647
1.0646 5.7357 -1.2331 0.9764
0.0470 9.4694 -2.0017 0.9620
-0.4620 5.4667 -1.1597 0.9778
-1.6352 9.3251 -2.0012 0.9620
-2.4598 9.1411 -2.0010 0.9620
-2.7558 7.4996 -1.6889 0.9679
-2.9238 6.1877 -1.4466 0.9724
-5.7170 6.6613 -1.8555 0.9647
-7.6827 4.2414 -1.8550 0.9648
-8.0299 3.5394 -1.8549 0.9648
-9.3552 1.3884 -1.9992 0.9621
-9.4417 0.5487 -1.9991 0.9621
-9.4530 -0.2953 -1.9992 0.9621
-9.3892 -1.1369 -1.9992 0.9621
-8.7544 -3.5815 -1.9994 0.9621
-7.4959 -5.7716 -1.9997 0.9621
-6.9520 -6.4175 -1.9999 0.9621
-6.3311 -6.9885 -1.9933 0.9622
-3.9469 -7.8038 -1.8485 0.9649
-3.2358 -8.1255 -1.8487 0.9649
-0.9704 -8.6951 -1.8494 0.9649
-0.1913 -8.7480 -1.8496 0.9649
0.5895 -8.7312 -1.8498 0.9649
1.3657 -8.6449 -1.8500 0.9649
2.8800 -8.2667 -1.8504 0.9648
3.6060 -7.9779 -1.8506 0.9648
4.3034 -7.6254 -1.8508 0.9648
5.5903 -6.7411 -1.8512 0.9648
6.6997 -5.6419 -1.8515 0.9648
5.8639 -2.7040 -1.3649 0.9739
-7.9346 3.0700 -1.9995 0.9656
-8.1765 2.3503 -1.9995 0.9656
-8.4637 0.8607 -1.9994 0.9656
-8.4820 -0.6562 -1.9994 0.9656
-8.0066 -2.8777 -1.9996 0.9656
-6.4970 -5.4962 -2.0000 0.9656
-3.8503 -6.8586 -1.8486 0.9682
-3.2238 -7.1753 -1.8487 0.9682
-2.5715 -7.4348 -1.8489 0.9682
-1.8986 -7.6353 -1.8491 0.9682
-1.2104 -7.7749 -1.8493 0.9682
-0.5124 -7.8527 -1.8495 0.9682
0.1898 -7.8679 -1.8497 0.9682
0.8906 -7.8205 -1.8499 0.9682
1.5845 -7.7107 -1.8501 0.9682
2.2659 -7.5395 -1.8503 0.9682
2.9294 -7.3082 -1.8504 0.9682
3.3906 -5.4107 -1.5007 0.9741
5.3011 -5.8251 -1.8511 0.9682
5.7997 -5.3297 -1.8512 0.9682
6.6549 -4.2154 -1.8514 0.9681
5.8430 -3.0076 -1.5445 0.9734
5.9565 -1.8217 -1.4639 0.9747
7.3263 -1.5426 -1.7596 0.9697
8.4677 -1.0060 -2.0041 0.9656
8.5117 0.5139 -2.0041 0.9656
8.0717 2.7479 -2.0039 0.9656
7.7942 3.4565 -2.0039 0.9656
5.4513 6.3807 -1.9724 0.9661
3.9864 6.8279 -1.8582 0.9680
3.3614 7.1555 -1.8580 0.9680
2.0367 7.6372 -1.8577 0.9680
-0.0570 7.9015 -1.8571 0.9681
-1.4591 7.7641 -1.8567 0.9681
-2.1453 7.6023 -1.8565 0.9681
-2.8143 7.3801 -1.8563 0.9681
-4.0796 6.7617 -1.8560 0.9681
-3.4915 4.7671 -1.3887 0.9760
-4.0763 4.6343 -1.4505 0.9750
-5.3798 4.2694 -1.6141 0.9722
-6.5965 4.3364 -1.8553 0.9681
-6.9565 3.7308 -1.8552 0.9681
-8.4298 1.1463 -1.9994 0.9656
-8.4993 -0.3691 -1.9994 0.9656
-8.4327 -1.1254 -1.9994 0.9656
-8.2989 -1.8728 -1.9995 0.9656
-8.0992 -2.6053 -1.9996 0.9656
-7.8349 -3.3172 -1.9996 0.9656
-7.1220 -4.6565 -1.9998 0.9656
-6.6789 -5.2732 -2.0000 0.9656
-6.1826 -5.8481 -2.0001 0.9656
-5.6370 -6.3766 -2.0003 0.9656
-3.4644 -7.0619 -1.8487 0.9682
-1.4725 -7.7293 -1.8492 0.9682
-0.7776 -7.8306 -1.8494 0.9682
-0.0763 -7.8695 -1.8496 0.9682
0.6257 -7.8458 -1.8498 0.9682
1.3228 -7.7596 -1.8500 0.9682
2.6805 -7.4028 -1.8504 0.9682
3.3302 -7.1350 -1.8505 0.9682
3.9534 -6.8103 -1.8507 0.9682
6.0865 -5.0002 -1.8513 0.9682
6.5084 -4.4379 -1.8514 0.9681
6.8313 -1.6815 -1.6534 0.9715
8.5104 -0.5351 -2.0041 0.9656
8.3483 1.7361 -2.0040 0.9656
8.1601 2.4735 -2.0040 0.9656
7.9067 3.1910 -2.0039 0.9656
7.5904 3.8831 -2.0038 0.9656
7.2135 4.5441 -2.0037 0.9656
6.7793 5.1688 -2.0036 0.9656
6.2910 5.7523 -2.0034 0.9656
4.7952 6.2876 -1.8584 0.9680
3.6016 7.0380 -1.8581 0.9680
2.9594 7.3304 -1.8579 0.9680
0.2102 7.8992 -1.8571 0.9681
-0.4949 7.8856 -1.8570 0.9681
-1.1958 7.8093 -1.8568 0.9681
-1.8871 7.6708 -1.8566 0.9681
-2.5633 7.4713 -1.8564 0.9681
-3.8487 6.8960 -1.8560 0.9681
-5.0115 6.1017 -1.8557 0.9681
-6.0147 5.1139 -1.8555 0.9681
-7.3961 3.4531 -1.9184 0.9670
-8.2254 2.1728 -1.9995 0.9656
-8.3862 1.4307 -1.9994 0.9656
-8.4803 0.6773 -1.9994 0.9656
-8.5069 -0.0815 -1.9994 0.9656
-8.4659 -0.8396 -1.9994 0.9656
-8.3574 -1.5911 -1.9995 0.9656
-8.1825 -2.3300 -1.9995 0.9656
-7.9425 -3.0503 -1.9996 0.9656
-6.8532 -5.0443 -1.9999 0.9656
-5.8492 -6.1822 -2.0002 0.9656
-4.3199 -6.6054 -1.8549 0.9681
-3.7011 -6.9405 -1.8486 0.9682
-3.0678 -7.2435 -1.8488 0.9682
-2.4100 -7.4889 -1.8490 0.9682
-1.7329 -7.6748 -1.8492 0.9682
-1.0418 -7.7995 -1.8493 0.9682
0.3600 -7.8622 -1.8497 0.9682
1.0597 -7.7996 -1.8499 0.9682
1.7511 -7.6748 -1.8501 0.9682
2.4286 -7.4889 -1.8503 0.9682
3.0869 -7.2432 -1.8505 0.9682
3.5440 -5.3925 -1.5166 0.9738
4.8950 -6.1697 -1.8510 0.9682
5.9138 -5.2030 -1.8512 0.9682
6.3545 -4.6553 -1.8513 0.9682
6.7555 -4.0770 -1.8544 0.9681
5.7898 -2.8233 -1.5139 0.9739
6.2936 -1.7768 -1.5369 0.9735
8.4875 -0.8225 -2.0041 0.9656
8.5270 -0.0625 -2.0041 0.9656
8.4985 0.6980 -2.0041 0.9656
8.2391 2.1962 -2.0040 0.9656
7.7175 3.6243 -2.0038 0.9656
6.4820 5.5365 -2.0035 0.9656
5.1726 6.3268 -1.9206 0.9670
4.3686 6.4396 -1.8288 0.9685
3.8376 6.9125 -1.8582 0.9680
2.7042 6.0958 -1.5673 0.9730
2.5484 7.4827 -1.8578 0.9680
1.4341 5.8862 -1.4239 0.9754
0.4772 7.8879 -1.8572 0.9681
-1.6268 7.7305 -1.8566 0.9681
-2.0466 5.0366 -1.2777 0.9779
-4.2249 6.6716 -1.8559 0.9681
-5.8385 5.3145 -1.8555 0.9681
-6.2886 4.7725 -1.8554 0.9681
-7.0356 3.5793 -1.8552 0.9681
-7.8967 3.1664 -1.9995 0.9656
-8.1473 2.4496 -1.9995 0.9656
-8.3331 1.7134 -1.9994 0.9656
-8.4526 0.9636 -1.9994 0.9656
-8.4894 -0.5529 -1.9994 0.9656
-8.4064 -1.3077 -1.9995 0.9656
-8.2565 -2.0520 -1.9995 0.9656
-8.0409 -2.7800 -1.9996 0.9656
-6.5633 -5.4167 -2.0000 0.9656
-6.0546 -5.9807 -2.0001 0.9656
-3.9334 -6.8111 -1.8485 0.9682
-2.6617 -7.4029 -1.8489 0.9682
-1.9913 -7.6115 -1.8491 0.9682
-1.3049 -7.7595 -1.8493 0.9682
-0.6079 -7.8458 -1.8495 0.9682
0.0940 -7.8696 -1.8497 0.9682
2.1739 -7.5664 -1.8502 0.9682
3.3839 -5.5490 -1.5275 0.9736
6.1934 -4.8673 -1.8513 0.9682
5.8956 -3.1259 -1.5683 0.9730
5.8317 -1.8614 -1.4387 0.9752
7.1981 -1.6073 -1.7334 0.9701
8.4548 -1.1090 -2.0041 0.9656
8.4467 1.1680 -2.0041 0.9656
7.8357 3.3614 -2.0039 0.9656
7.1134 4.6991 -2.0037 0.9656
6.6657 5.3143 -2.0035 0.9656
4.6579 6.3898 -1.8584 0.9680
1.0646 5.7357 -1.3710 0.9763
-0.4549 5.3820 -1.2694 0.9781
-2.0527 7.6280 -1.8565 0.9681
-2.9180 6.1753 -1.6052 0.9723
-3.9970 6.8109 -1.8560 0.9681
-5.6556 5.5090 -1.8556 0.9681
-5.2773 4.2937 -1.5990 0.9724
-6.9106 3.8152 -1.8552 0.9681
-8.0599 2.7237 -1.9995 0.9656
-8.2705 1.9942 -1.9995 0.9656
-8.4457 -1.0227 -1.9994 0.9656
-8.1302 -2.5066 -1.9995 0.9656
-7.8747 -3.2216 -1.9996 0.9656
-7.5564 -3.9110 -1.9997 0.9656
-6.7425 -5.1915 -2.0000 0.9656
-6.2532 -5.7724 -2.0001 0.9656
-5.7141 -6.3074 -2.0002 0.9656
-5.1034 -6.7579 -1.9903 0.9658
-4.1613 -6.6740 -1.8485 0.9682
-3.5500 -7.0191 -1.8486 0.9682
-2.2474 -7.5395 -1.8490 0.9682
-1.5664 -7.7107 -1.8492 0.9682
-0.1721 -7.8679 -1.8496 0.9682
0.5302 -7.8527 -1.8498 0.9682
1.2283 -7.7750 -1.8500 0.9682
2.5902 -7.4347 -1.8503 0.9682
3.2430 -7.1749 -1.8505 0.9682
3.8702 -6.8578 -1.8507 0.9682
5.0275 -6.0624 -1.8510 0.9682
-7.2031 2.7870 -1.9997 0.9686
-7.6834 0.7813 -1.9996 0.9686
-7.2684 -2.6124 -1.9998 0.9686
-7.0068 -3.2501 -1.9999 0.9686
-6.6894 -3.8621 -2.0000 0.9686
-5.8978 -4.9893 -2.0002 0.9686
-4.9186 -5.9583 -2.0005 0.9686
-4.3596 -6.3613 -1.9967 0.9686
-2.9264 -6.5133 -1.8488 0.9709
-2.3342 -6.7489 -1.8490 0.9709
-1.7234 -6.9308 -1.8491 0.9709
-0.4651 -7.1280 -1.8495 0.9709
0.1723 -7.1418 -1.8497 0.9709
2.0567 -6.8435 -1.8502 0.9709
2.6589 -6.6334 -1.8504 0.9709
3.2400 -6.3705 -1.8505 0.9709
3.3804 -5.3945 -1.6483 0.9740
4.8115 -5.2871 -1.8509 0.9709
6.4974 -3.3444 -1.8921 0.9703
6.0485 -1.8499 -1.6377 0.9742
7.7362 -0.2242 -2.0039 0.9685
7.5194 1.8310 -2.0038 0.9685
7.3260 2.4941 -2.0037 0.9685
7.0742 3.1372 -2.0037 0.9685
6.7660 3.7552 -2.0036 0.9685
5.9908 4.8967 -2.0033 0.9685
5.0252 5.8820 -2.0031 0.9685
3.6183 6.1975 -1.8581 0.9708
3.0511 6.4948 -1.8579 0.9708
2.4597 6.7404 -1.8578 0.9708
1.0069 5.8187 -1.5290 0.9759
-2.5547 6.6993 -1.8564 0.9708
-2.4411 5.0075 -1.4424 0.9772
-4.2355 5.7829 -1.8559 0.9708
-4.7339 5.3819 -1.8558 0.9708
-5.1945 4.9381 -1.8557 0.9708
-5.3798 4.2694 -1.7783 0.9720
-5.9992 3.9437 -1.8589 0.9708
-6.7117 3.5995 -1.9719 0.9690
-7.1048 3.0290 -1.9998 0.9686
-7.3464 2.3834 -1.9997 0.9686
-7.6526 1.0407 -1.9996 0.9686
-7.7149 0.3542 -1.9996 0.9686
-7.7158 -0.3350 -1.9996 0.9686
-7.6553 -1.0216 -1.9997 0.9686
-7.5338 -1.7001 -1.9997 0.9686
-6.8161 -3.6337 -1.9999 0.9686
-6.0630 -4.7870 -2.0001 0.9686
-5.6124 -5.3088 -2.0003 0.9686
-5.1171 -5.7885 -2.0004 0.9686
-4.5793 -6.2199 -1.9998 0.9686
-3.1448 -6.4105 -1.8488 0.9709
-2.5610 -6.6659 -1.8489 0.9709
-1.9566 -6.8683 -1.8491 0.9709
-1.3366 -7.0161 -1.8493 0.9709
0.5679 -7.1217 -1.8498 0.9709
1.8241 -6.9088 -1.8501 0.9709
3.0227 -6.4762 -1.8504 0.9709
3.5883 -6.1814 -1.8506 0.9709
4.1255 -5.8373 -1.8507 0.9709
6.1543 -4.1964 -1.9286 0.9697
6.7469 -3.7666 -2.0007 0.9686
5.8481 -2.6109 -1.6582 0.9739
5.6448 -1.9374 -1.5452 0.9756
6.8228 -1.6794 -1.8193 0.9714
7.7367 0.2050 -2.0039 0.9685
7.6876 0.8939 -2.0039 0.9685
7.1763 2.8963 -2.0037 0.9685
6.8892 3.5244 -2.0036 0.9685
6.5472 4.1244 -2.0035 0.9685
4.6912 6.1512 -2.0030 0.9685
3.8259 6.0718 -1.8582 0.9708
2.6862 6.6536 -1.8578 0.9708
0.6644 5.7080 -1.4879 0.9765
-0.8249 5.3873 -1.4111 0.9777
-2.7696 6.2056 -1.7595 0.9723
-3.4938 6.2599 -1.8561 0.9708
-4.0376 5.9230 -1.8560 0.9708
-5.4600 4.6424 -1.8556 0.9708
-6.3597 3.6928 -1.9041 0.9701
-6.9985 3.2675 -1.9998 0.9686
-7.2617 2.6304 -1.9997 0.9686
-7.4671 1.9724 -1.9997 0.9686
-7.6131 1.2988 -1.9996 0.9686
-7.7227 -0.0740 -1.9996 0.9686
-7.4281 -2.1152 -1.9997 0.9686
-6.9349 -3.4011 -1.9999 0.9686
-6.6044 -4.0060 -2.0000 0.9686
-6.2212 -4.5792 -2.0001 0.9686
-5.3097 -5.6120 -2.0003 0.9686
-4.2169 -6.4479 -1.9948 0.9687
-3.4087 -6.3923 -1.8757 0.9705
-2.7848 -6.5753 -1.8489 0.9709
-1.5730 -6.9666 -1.8492 0.9709
0.3268 -7.1365 -1.8497 0.9709
0.9619 -7.0796 -1.8499 0.9709
1.5894 -6.9663 -1.8501 0.9709
3.5351 -5.3790 -1.6666 0.9738
4.4429 -5.5999 -1.8508 0.9709
5.3676 -4.7224 -1.8511 0.9709
5.8402 -4.2785 -1.8745 0.9705
6.0387 -2.9447 -1.7395 0.9726
6.3364 -1.7889 -1.7047 0.9732
7.7392 -0.0567 -2.0039 0.9685
7.6261 1.3187 -2.0038 0.9685
7.4780 1.9933 -2.0038 0.9685
7.2702 2.6520 -2.0037 0.9685
7.0046 3.2895 -2.0036 0.9685
6.6831 3.9007 -2.0035 0.9685
6.3083 4.4808 -2.0034 0.9685
5.4115 5.5293 -2.0032 0.9685
4.1327 6.0918 -1.9060 0.9700
2.3131 6.7919 -1.8577 0.9708
1.6982 6.9705 -1.8576 0.9708
1.0699 7.0934 -1.8574 0.9708
0.4331 7.1599 -1.8572 0.9708
-0.8452 7.1217 -1.8569 0.9708
-2.0963 6.8571 -1.8565 0.9708
-3.8352 6.0563 -1.8561 0.9708
-3.6480 4.7611 -1.5530 0.9755
-4.8492 5.2781 -1.8558 0.9708
-6.0720 3.8060 -1.8555 0.9708
-6.8841 3.5023 -1.9998 0.9686
-7.1687 2.8744 -1.9998 0.9686
-7.3962 2.2238 -1.9997 0.9686
-7.5649 1.5555 -1.9997 0.9686
-7.6733 0.8748 -1.9996 0.9686
-7.6314 -1.1871 -1.9997 0.9686
-7.0458 -3.1646 -1.9998 0.9686
-6.3724 -4.3661 -2.0000 0.9686
-5.9581 -4.9172 -2.0002 0.9686
-4.9907 -5.8980 -2.0004 0.9686
-4.4392 -6.3113 -1.9978 0.9686
-3.7277 -6.4549 -1.9300 0.9697
-1.8076 -6.9092 -1.8491 0.9709
-1.1845 -7.0435 -1.8493 0.9709
3.1622 -6.4094 -1.8505 0.9709
3.3295 -5.4597 -1.6557 0.9739
4.2510 -5.7468 -1.8508 0.9709
4.7467 -5.3452 -1.8509 0.9709
5.6213 -4.4178 -1.8511 0.9709
5.8093 -2.4442 -1.6318 0.9743
5.9051 -1.8849 -1.6049 0.9747
7.5533 -1.6866 -2.0038 0.9685
7.6737 -1.0065 -2.0039 0.9685
7.7329 -0.3183 -2.0039 0.9685
7.7305 0.3724 -2.0039 0.9685
7.3558 2.4047 -2.0037 0.9685
7.1119 3.0509 -2.0037 0.9685
6.8112 3.6727 -2.0036 0.9685
5.5955 5.3433 -2.0032 0.9685
5.0965 5.8205 -2.0031 0.9685
3.6987 6.1617 -1.8607 0.9707
3.1299 6.4573 -1.8580 0.9708
0.0356 7.1725 -1.8571 0.9708
-0.4549 5.3820 -1.3985 0.9779
-1.8633 6.9242 -1.8566 0.9708
-2.4730 6.7299 -1.8564 0.9708
-2.9120 6.1628 -1.7648 0.9722
-3.6284 6.1827 -1.8561 0.9708
-5.9400 4.0092 -1.8555 0.9708
-7.0675 3.1152 -1.9998 0.9686
-7.7193 -0.2411 -1.9996 0.9686
-7.6671 -0.9284 -1.9997 0.9686
-7.5539 -1.6083 -1.9997 0.9686
-7.3807 -2.2755 -1.9997 0.9686
-7.1486 -2.9246 -1.9998 0.9686
-6.8597 -3.5504 -1.9999 0.9686
-5.6765 -5.2401 -2.0002 0.9686
-5.1871 -5.7257 -2.0004 0.9686
-3.2226 -6.3716 -1.8487 0.9709
-2.6419 -6.6342 -1.8489 0.9709
-1.4219 -6.9992 -1.8492 0.9709
1.7399 -6.9305 -1.8501 0.9709
2.3511 -6.7483 -1.8503 0.9709
2.9436 -6.5124 -1.8504 0.9709
3.6888 -5.3565 -1.6839 0.9735
5.0360 -5.0741 -1.8510 0.9709
5.8858 -2.7141 -1.6781 0.9736
5.6308 -2.0095 -1.5480 0.9756
-7.0279 0.7147 -1.9998 0.9711
-7.0431 -0.5449 -1.9998 0.9711
-6.6483 -2.3895 -1.9999 0.9711
-6.1187 -3.5326 -2.0001 0.9711
-4.9665 -5.0267 -2.0004 0.9711
-3.4533 -6.1513 -1.9970 0.9711
-2.1350 -6.1727 -1.8490 0.9732
-1.5762 -6.3390 -1.8492 0.9732
-0.4254 -6.5193 -1.8495 0.9732
0.7394 -6.4924 -1.8498 0.9732
2.4317 -6.0667 -1.8503 0.9732
4.4003 -4.8353 -1.8508 0.9732
4.8908 -4.4944 -1.8804 0.9728
5.9773 -3.7862 -2.0030 0.9710
6.2926 -3.2389 -2.0035 0.9710
6.5565 -2.6651 -2.0036 0.9710
6.9259 -1.4583 -2.0037 0.9710
7.0749 -0.2051 -2.0037 0.9710
6.1877 3.4343 -2.0034 0.9710
5.8566 3.9721 -2.0033 0.9710
5.4788 4.4782 -2.0032 0.9710
4.5958 5.3794 -2.0030 0.9710
1.0069 5.8187 -1.6717 0.9758
-0.0473 6.5598 -1.8571 0.9731
-0.5191 5.3635 -1.5255 0.9778
-1.2114 6.4460 -1.8568 0.9731
-1.4734 5.2211 -1.5358 0.9777
-3.3872 5.6141 -1.8562 0.9731
-4.3299 4.9226 -1.8559 0.9731
-4.7512 4.5167 -1.8558 0.9731
-5.1347 4.0749 -1.8557 0.9731
-5.7963 3.8104 -1.9637 0.9716
-6.2260 3.3390 -2.0000 0.9711
-6.8871 1.5722 -1.9998 0.9711
-6.9997 0.9519 -1.9998 0.9711
-7.0567 0.3240 -1.9998 0.9711
-7.0575 -0.3064 -1.9998 0.9711
-7.0022 -0.9345 -1.9998 0.9711
-6.8911 -1.5551 -1.9999 0.9711
-5.5456 -4.3785 -2.0003 0.9711
-4.6804 -5.2945 -2.0005 0.9710
-4.1900 -5.6911 -2.0007 0.9710
-3.0899 -6.2985 -1.9861 0.9713
-2.3649 -6.1554 -1.8667 0.9730
-1.7896 -6.2819 -1.8491 0.9732
-1.2225 -6.4170 -1.8493 0.9732
-0.6455 -6.5010 -1.8494 0.9732
0.5194 -6.5134 -1.8498 0.9732
1.6683 -6.3187 -1.8501 0.9732
3.2817 -5.6533 -1.8505 0.9732
5.8380 -3.9807 -2.0003 0.9711
6.1794 -3.4498 -2.0035 0.9710
5.8253 -1.9993 -1.7435 0.9747
6.8726 -1.6916 -2.0037 0.9710
7.0639 -0.4441 -2.0037 0.9710
7.0304 0.8175 -2.0037 0.9710
6.9294 1.4411 -2.0036 0.9710
6.7732 2.0531 -2.0036 0.9710
6.3004 3.2232 -2.0035 0.9710
4.2903 5.6256 -2.0029 0.9710
3.7714 5.9853 -2.0027 0.9710
2.4568 6.0852 -1.8578 0.9731
1.3367 6.4238 -1.8575 0.9731
-2.1282 6.2031 -1.8565 0.9731
-3.6930 5.4175 -1.8561 0.9731
-4.1611 5.0663 -1.8560 0.9731
-4.5959 4.6749 -1.8559 0.9731
-6.1096 3.5476 -2.0000 0.9711
-6.8300 1.8042 -1.9999 0.9711
-7.0638 -0.0677 -1.9998 0.9711
-6.9397 -1.3212 -1.9999 0.9711
-5.6904 -4.1884 -2.0002 0.9711
-5.2946 -4.6793 -2.0003 0.9711
-4.3799 -5.5460 -2.0006 0.9710
-3.8682 -5.9149 -2.0007 0.9710
-3.3166 -6.2196 -1.9954 0.9711
-2.0009 -6.2176 -1.8491 0.9732
-0.8649 -6.4753 -1.8494 0.9732
-0.2842 -6.5271 -1.8495 0.9732
0.2989 -6.5271 -1.8497 0.9732
0.8797 -6.4750 -1.8499 0.9732
1.4536 -6.3713 -1.8500 0.9732
3.0887 -5.7608 -1.8505 0.9732
3.5261 -5.3654 -1.8176 0.9737
4.0633 -5.1214 -1.8507 0.9732
5.0589 -4.4508 -1.9075 0.9724
6.3613 -3.1020 -2.0035 0.9710
6.6127 -2.5226 -2.0036 0.9710
6.9559 -1.3081 -2.0037 0.9710
7.0777 -0.0519 -2.0037 0.9710
6.9742 1.2060 -2.0037 0.9710
6.8388 1.8229 -2.0036 0.9710
6.6488 2.4253 -2.0036 0.9710
6.4059 3.0084 -2.0035 0.9710
4.9491 5.0568 -2.0031 0.9710
4.4782 5.4775 -2.0029 0.9710
3.9717 5.8546 -2.0028 0.9710
2.1155 6.2118 -1.8577 0.9731
1.5532 6.3751 -1.8575 0.9731
-0.1893 6.5571 -1.8571 0.9731
-1.1161 5.3038 -1.5343 0.9777
-1.9173 6.2717 -1.8566 0.9731
-2.0466 5.0367 -1.5391 0.9777
-3.0002 5.8305 -1.8563 0.9731
-3.5079 5.5394 -1.8562 0.9731
-4.4353 4.8277 -1.8559 0.9731
-4.8478 4.4127 -1.8558 0.9731
-5.2260 3.9660 -1.8572 0.9731
-5.9863 3.7522 -2.0001 0.9711
-6.7652 2.0341 -1.9999 0.9711
-7.0187 0.8002 -1.9998 0.9711
-7.0621 0.1712 -1.9998 0.9711
-6.9803 -1.0858 -1.9998 0.9711
-6.8558 -1.7039 -1.9999 0.9711
-6.6768 -2.3084 -1.9999 0.9711
-6.4446 -2.8946 -2.0000 0.9711
-6.1611 -3.4578 -2.0001 0.9711
-5.8286 -3.9936 -2.0002 0.9711
-5.4496 -4.4976 -2.0003 0.9711
-5.0272 -4.9658 -2.0004 0.9711
-4.0659 -5.7805 -2.0007 0.9710
-2.2099 -6.1462 -1.8490 0.9732
-1.0833 -6.4421 -1.8493 0.9732
0.0781 -6.5332 -1.8496 0.9732
0.6603 -6.5008 -1.8498 0.9732
1.2374 -6.4166 -1.8500 0.9732
1.8047 -6.2812 -1.8501 0.9732
2.3577 -6.0958 -1.8503 0.9732
2.8920 -5.8618 -1.8504 0.9732
3.3124 -5.4318 -1.8011 0.9739
3.8877 -5.2557 -1.8507 0.9732
4.3411 -4.8885 -1.8508 0.9732
5.5127 -4.3324 -1.9849 0.9713
5.9279 -3.8568 -2.0021 0.9710
6.5236 -2.7447 -2.0036 0.9710
6.9076 -1.5425 -2.0037 0.9710
7.0177 -0.9205 -2.0037 0.9710
7.0719 -0.2911 -2.0037 0.9710
7.0697 0.3405 -2.0037 0.9710
7.0111 0.9695 -2.0037 0.9710
6.7271 2.1992 -2.0036 0.9710
6.2291 3.3588 -2.0034 0.9710
5.9046 3.9006 -2.0033 0.9710
5.5330 4.4112 -2.0032 0.9710
5.1173 4.8867 -2.0031 0.9710
4.6610 5.3231 -2.0030 0.9710
4.1675 5.7171 -2.0028 0.9710
2.8625 5.9057 -1.8579 0.9731
2.3244 6.1369 -1.8577 0.9731
1.0645 5.7357 -1.6515 0.9760
0.6173 6.5315 -1.8573 0.9731
0.0325 6.5600 -1.8571 0.9731
-0.4549 5.3820 -1.5290 0.9778
-1.4100 5.2398 -1.5361 0.9777
-2.2619 6.1554 -1.8565 0.9731
-3.3187 5.6550 -1.8562 0.9731
-4.6960 4.5742 -1.8558 0.9731
-5.0848 4.1371 -1.8557 0.9731
-6.1849 3.4145 -2.0000 0.9711
-6.4645 2.8494 -1.9999 0.9711
-6.8675 1.6559 -1.9998 0.9711
-7.0522 0.4099 -1.9998 0.9711
-7.0130 -0.8492 -1.9998 0.9711
-6.2744 -3.2475 -2.0001 0.9711
-5.9602 -3.7942 -2.0002 0.9711
-4.7444 -5.2371 -2.0005 0.9711
-1.3005 -6.4016 -1.8493 0.9732
-0.1429 -6.5319 -1.8496 0.9732
0.4401 -6.5192 -1.8497 0.9732
1.0197 -6.4545 -1.8499 0.9732
1.5912 -6.3385 -1.8501 0.9732
4.6056 -4.6405 -1.8509 0.9732
5.2319 -4.4058 -1.9363 0.9720
5.7863 -4.0495 -1.9994 0.9711
6.1369 -3.5247 -2.0035 0.9710
6.6658 -2.3789 -2.0036 0.9710
-6.0645 2.3464 -2.0001 0.9732
-6.2494 1.7964 -2.0000 0.9732
-6.3846 1.2320 -2.0000 0.9732
-6.4689 0.6578 -2.0000 0.9732
-6.5018 0.0785 -2.0000 0.9732
-6.4125 -1.0776 -2.0000 0.9732
-6.1195 -2.1994 -2.0001 0.9732
-5.6319 -3.2516 -2.0002 0.9732
-4.9654 -4.2005 -2.0004 0.9731
-4.5713 -4.6268 -2.0005 0.9731
-4.1409 -5.0162 -2.0007 0.9731
-3.6774 -5.3658 -2.0008 0.9731
-3.1846 -5.6727 -2.0009 0.9731
-2.6622 -5.9253 -1.9980 0.9732
-2.1009 -6.0742 -1.9769 0.9735
-1.4794 -5.9494 -1.8856 0.9747
-0.9249 -5.9411 -1.8494 0.9752
1.7312 -5.7605 -1.8501 0.9751
2.2381 -5.5836 -1.8502 0.9751
3.1946 -5.0980 -1.8505 0.9751
5.5022 -3.4852 -2.0033 0.9731
5.7912 -2.9809 -2.0034 0.9731
6.3741 -1.3421 -2.0035 0.9731
6.5112 -0.1887 -2.0035 0.9731
6.4411 0.9707 -2.0035 0.9731
6.3288 1.5411 -2.0035 0.9731
5.3901 3.6557 -2.0032 0.9731
5.0424 4.1215 -2.0031 0.9731
4.6546 4.5544 -2.0030 0.9731
4.2297 4.9509 -2.0029 0.9731
3.2827 5.6227 -2.0026 0.9731
2.7038 5.7556 -1.9559 0.9737
2.0704 5.6737 -1.8577 0.9750
1.5562 5.8353 -1.8575 0.9750
-0.0435 6.0376 -1.8571 0.9750
-0.5191 5.3635 -1.6574 0.9777
-1.1150 5.9330 -1.8568 0.9751
-1.6394 5.8095 -1.8567 0.9751
-2.6448 5.4252 -1.8564 0.9751
-3.1177 5.1674 -1.8563 0.9751
-3.5658 4.8686 -1.8561 0.9751
-3.9854 4.5310 -1.8560 0.9751
-4.3765 4.1605 -1.8573 0.9750
-5.4341 3.5723 -2.0002 0.9732
-5.7307 3.0734 -2.0001 0.9732
-6.3393 1.4472 -2.0000 0.9732
-6.4430 0.8762 -2.0000 0.9732
-6.4452 -0.8601 -2.0000 0.9732
-6.3430 -1.4314 -2.0000 0.9732
-6.1902 -1.9913 -2.0001 0.9732
-5.4432 -3.5588 -2.0003 0.9732
-4.3080 -4.8732 -2.0006 0.9731
-3.8566 -5.2383 -2.0007 0.9731
-3.3744 -5.5616 -2.0009 0.9731
-2.3258 -6.0537 -1.9947 0.9732
-1.7080 -5.9956 -1.9175 0.9742
-0.5942 -5.9835 -1.8494 0.9752
0.4781 -5.9949 -1.8497 0.9751
1.0107 -5.9288 -1.8499 0.9751
1.5354 -5.8155 -1.8500 0.9751
2.0480 -5.6559 -1.8502 0.9751
5.3811 -3.6692 -2.0033 0.9731
6.1609 -2.1145 -2.0035 0.9731
6.3250 -1.5569 -2.0035 0.9731
6.4387 -0.9867 -2.0035 0.9731
6.5116 0.1725 -2.0035 0.9731
6.4703 0.7524 -2.0035 0.9731
6.2335 1.8895 -2.0034 0.9731
6.0401 2.4377 -2.0034 0.9731
5.1790 3.9487 -2.0031 0.9731
4.3948 4.8052 -2.0029 0.9731
2.2912 5.6752 -1.8825 0.9747
1.7526 5.7795 -1.8576 0.9750
1.1958 5.7468 -1.8054 0.9757
0.6982 5.9980 -1.8573 0.9750
0.1606 6.0358 -1.8572 0.9750
-0.9138 5.9675 -1.8569 0.9751
-1.4421 5.8618 -1.8567 0.9751
-2.4599 5.5116 -1.8564 0.9751
-3.3992 4.9864 -1.8562 0.9751
-3.7905 4.6152 -1.8369 0.9753
-4.2303 4.3029 -1.8560 0.9751
-5.6236 3.2655 -2.0002 0.9732
-5.8922 2.7510 -2.0001 0.9732
-6.2868 1.6607 -2.0000 0.9732
-6.4097 1.0935 -2.0000 0.9732
-6.5020 -0.0623 -2.0000 0.9732
-6.3877 -1.2161 -2.0000 0.9732
-6.2540 -1.7808 -2.0000 0.9732
-6.0705 -2.3314 -2.0001 0.9732
-5.8386 -2.8634 -2.0002 0.9732
-5.5603 -3.3727 -2.0003 0.9732
-4.8734 -4.3071 -2.0005 0.9731
-4.0314 -5.1048 -2.0007 0.9731
-3.5605 -5.4442 -2.0008 0.9731
-2.5317 -5.9776 -1.9967 0.9732
-1.3368 -5.9204 -1.8668 0.9749
-0.7961 -5.9598 -1.8494 0.9752
1.3379 -5.8640 -1.8500 0.9751
1.8555 -5.7218 -1.8501 0.9751
2.3585 -5.5340 -1.8503 0.9751
3.3043 -5.0278 -1.8505 0.9751
5.5764 -3.3654 -2.0033 0.9731
5.8544 -2.8549 -2.0034 0.9731
6.2687 -1.7698 -2.0035 0.9731
6.4835 -0.6283 -2.0035 0.9731
6.5138 -0.0477 -2.0035 0.9731
6.4920 0.5332 -2.0035 0.9731
6.1191 2.2321 -2.0034 0.9731
5.3096 3.7714 -2.0032 0.9731
4.1215 5.0412 -2.0028 0.9731
3.6554 5.3883 -2.0027 0.9731
3.1602 5.6923 -2.0026 0.9731
2.5391 5.7236 -1.9259 0.9741
1.4295 5.8675 -1.8575 0.9750
0.9006 5.9711 -1.8574 0.9750
0.3646 6.0271 -1.8572 0.9750
-0.1742 6.0352 -1.8571 0.9750
-0.7115 5.9951 -1.8569 0.9751
-1.7647 5.7726 -1.8566 0.9751
-2.0466 5.0367 -1.6722 0.9775
-3.6126 4.7150 -1.8270 0.9754
-4.0825 4.4436 -1.8560 0.9751
-5.5101 3.4538 -2.0002 0.9732
-5.7959 2.9486 -2.0001 0.9732
-6.3691 1.3096 -2.0000 0.9732
-6.4605 0.7365 -2.0000 0.9732
-6.4886 -0.4226 -2.0000 0.9732
-6.4251 -0.9995 -2.0000 0.9732
-6.3105 -1.5684 -2.0000 0.9732
-6.1457 -2.1248 -2.0001 0.9732
-5.6710 -3.1828 -2.0002 0.9732
-5.0161 -4.1398 -2.0004 0.9731
-4.2016 -4.9654 -2.0006 0.9731
-3.7424 -5.3206 -2.0008 0.9731
-3.2533 -5.6335 -2.0009 0.9731
-2.7351 -5.8947 -1.9987 0.9732
-2.1903 -6.0919 -1.9912 0.9733
-1.5608 -5.9659 -1.8967 0.9745
-0.4645 -5.9951 -1.8495 0.9751
1.6610 -5.7811 -1.8501 0.9751
2.6617 -5.3949 -1.8503 0.9751
3.1323 -5.1365 -1.8505 0.9751
3.5780 -4.8371 -1.8506 0.9751
4.1379 -4.6596 -1.9167 0.9743
4.7256 -4.4499 -1.9965 0.9732
5.7545 -3.0511 -2.0034 0.9731
6.3573 -1.4196 -2.0035 0.9731
6.4586 -0.8471 -2.0035 0.9731
6.5084 -0.2679 -2.0035 0.9731
6.5064 0.3134 -2.0035 0.9731
6.4524 0.8923 -2.0035 0.9731
5.9858 2.5678 -2.0034 0.9731
5.7328 3.0912 -2.0033 0.9731
4.7097 4.4974 -2.0030 0.9731
4.2897 4.8991 -2.0029 0.9731
3.8356 5.2618 -2.0028 0.9731
3.3510 5.5824 -2.0026 0.9731
1.6271 5.8160 -1.8576 0.9750
1.0645 5.7357 -1.7943 0.9759
0.5682 6.0116 -1.8573 0.9750
0.0299 6.0378 -1.8571 0.9750
-1.5686 5.8291 -1.8567 0.9751
-2.0819 5.6656 -1.8565 0.9751
-2.5786 5.4570 -1.8564 0.9751
-3.5063 4.9116 -1.8562 0.9751
-3.9300 4.5792 -1.8560 0.9751
-4.9291 4.0104 -1.9545 0.9738
-5.3903 3.6381 -2.0002 0.9732
-5.6930 3.1429 -2.0002 0.9732
-5.9503 2.6228 -2.0001 0.9732
-6.3212 1.5242 -2.0000 0.9732
-6.4913 0.3773 -2.0000 0.9732
-6.4552 -0.7817 -2.0000 0.9732
-6.2140 -1.9158 -2.0001 0.9732
-4.7791 -4.4116 -2.0005 0.9731
-3.9200 -5.1909 -2.0007 0.9731
-2.9361 -5.8052 -2.0009 0.9731
-2.4001 -6.0271 -1.9954 0.9732
-1.7922 -6.0126 -1.9297 0.9741
-1.1979 -5.8968 -1.8508 0.9751
-0.6669 -5.9758 -1.8494 0.9752
-0.1315 -6.0119 -1.8496 0.9751
0.4051 -6.0002 -1.8497 0.9751
1.4645 -5.8337 -1.8500 0.9751
1.9790 -5.6804 -1.8502 0.9751
2.4777 -5.4817 -1.8503 0.9751
2.9568 -5.2393 -1.8504 0.9751
3.9120 -4.7173 -1.8849 0.9747
4.5255 -4.5597 -1.9760 0.9735
4.9736 -4.1883 -1.9999 0.9732
5.3361 -3.7344 -2.0033 0.9731
-5.7830 1.6623 -2.0001 0.9750
-5.9081 1.1401 -2.0001 0.9750
-6.0166 0.0726 -2.0001 0.9750
-5.9991 -0.4641 -2.0001 0.9750
-5.6627 -2.0353 -2.0002 0.9750
-4.2301 -4.2814 -2.0006 0.9749
-3.8318 -4.6417 -2.0007 0.9749
-2.4672 -5.4913 -2.0011 0.9749
-1.4485 -5.8255 -1.9954 0.9750
-0.3716 -5.6941 -1.8968 0.9762
0.1347 -5.5859 -1.8573 0.9767
0.6297 -5.5291 -1.8498 0.9768
1.1202 -5.4513 -1.8499 0.9768
1.6019 -5.3301 -1.8500 0.9768
2.5576 -5.0287 -1.8753 0.9765
3.6155 -4.7654 -1.9884 0.9751
4.7830 -3.6656 -2.0031 0.9749
5.0909 -3.2247 -2.0032 0.9749
5.3584 -2.7581 -2.0033 0.9749
5.5831 -2.2694 -2.0033 0.9749
5.7633 -1.7627 -2.0034 0.9749
5.8976 -1.2418 -2.0034 0.9749
5.9849 -0.7110 -2.0034 0.9749
6.0245 -0.1746 -2.0034 0.9749
6.0160 0.3632 -2.0034 0.9749
5.9596 0.8981 -2.0034 0.9749
5.8557 1.4259 -2.0033 0.9749
5.7051 1.9422 -2.0033 0.9749
5.5091 2.4431 -2.0032 0.9749
5.2691 2.9244 -2.0032 0.9749
4.9872 3.3824 -2.0031 0.9749
4.6656 3.8134 -2.0030 0.9749
4.3068 4.2140 -2.0029 0.9749
3.9137 4.5810 -2.0028 0.9749
0.9527 5.5059 -1.8574 0.9767
0.4580 5.5685 -1.8572 0.9767
-0.0403 5.5867 -1.8571 0.9767
-0.5191 5.3635 -1.7912 0.9775
-1.0317 5.4899 -1.8568 0.9767
-1.5170 5.3757 -1.8567 0.9767
-1.9901 5.2187 -1.8566 0.9767
-2.4473 5.0201 -1.8564 0.9767
-2.8849 4.7816 -1.8563 0.9767
-4.3499 4.1352 -1.9950 0.9750
-5.3030 2.8440 -2.0003 0.9750
-5.5353 2.3598 -2.0002 0.9750
-6.0107 0.2760 -2.0001 0.9750
-5.8696 -1.3246 -2.0002 0.9750
-5.7283 -1.8427 -2.0002 0.9750
-5.5413 -2.3461 -2.0003 0.9750
-5.3103 -2.8309 -2.0003 0.9750
-4.7234 -3.7294 -2.0005 0.9750
-3.9864 -4.5095 -2.0007 0.9749
-3.5687 -4.8472 -2.0008 0.9749
-3.1225 -5.1464 -2.0009 0.9749
-2.6514 -5.4047 -2.0011 0.9749
-2.1591 -5.6199 -2.0012 0.9749
-1.6459 -5.7775 -1.9969 0.9750
-1.1141 -5.8482 -1.9789 0.9752
-0.0546 -5.6267 -1.8704 0.9766
0.9352 -5.4859 -1.8499 0.9768
1.8950 -5.2334 -1.8501 0.9768
2.3685 -5.0745 -1.8615 0.9767
3.4055 -4.8185 -1.9613 0.9754
5.2620 -2.9376 -2.0032 0.9749
5.5031 -2.4569 -2.0033 0.9749
5.7004 -1.9565 -2.0033 0.9749
6.0151 -0.3782 -2.0034 0.9749
6.0249 0.1596 -2.0034 0.9749
5.9006 1.2271 -2.0034 0.9749
5.7676 1.7483 -2.0033 0.9749
5.5886 2.2555 -2.0033 0.9749
4.4469 4.0661 -2.0029 0.9749
4.0664 4.4461 -2.0028 0.9749
2.7443 5.3627 -2.0025 0.9749
2.2551 5.5857 -2.0023 0.9749
0.6460 5.5500 -1.8573 0.9767
-0.3499 5.5756 -1.8570 0.9767
-1.3344 5.4241 -1.8567 0.9767
-2.2762 5.1001 -1.8565 0.9767
-2.7217 4.8766 -1.8564 0.9767
-3.1455 4.6142 -1.8563 0.9767
-3.5640 4.3393 -1.8665 0.9766
-4.1236 4.1945 -1.9552 0.9755
-4.9140 3.4738 -2.0004 0.9750
-5.2039 3.0217 -2.0003 0.9750
-5.4524 2.5457 -2.0002 0.9750
-5.8176 1.5367 -2.0001 0.9750
-5.9314 1.0119 -2.0001 0.9750
-5.9979 0.4790 -2.0001 0.9750
-6.0168 -0.0576 -2.0001 0.9750
-5.9877 -0.5939 -2.0001 0.9750
-5.9110 -1.1254 -2.0001 0.9750
-5.6174 -2.1574 -2.0002 0.9750
-5.4029 -2.6497 -2.0003 0.9750
-4.8467 -3.5675 -2.0005 0.9750
-4.1365 -4.3720 -2.0007 0.9749
-3.2946 -5.0378 -2.0009 0.9749
-2.3478 -5.5436 -2.0012 0.9749
-1.8417 -5.7230 -1.9985 0.9750
-1.3215 -5.8528 -1.9945 0.9750
-0.7718 -5.7778 -1.9376 0.9757
0.2548 -5.5643 -1.8516 0.9768
0.7492 -5.5143 -1.8498 0.9768
1.2379 -5.4259 -1.8499 0.9768
1.7169 -5.2943 -1.8501 0.9768
2.1837 -5.1240 -1.8515 0.9768
2.6801 -4.9988 -1.8854 0.9764
4.8612 -3.5613 -2.0031 0.9749
5.4168 -2.6415 -2.0033 0.9749
5.9231 -1.1139 -2.0034 0.9749
5.9989 -0.5813 -2.0034 0.9749
6.0268 -0.0442 -2.0034 0.9749
6.0067 0.4933 -2.0034 0.9749
5.6617 2.0653 -2.0033 0.9749
5.4549 2.5617 -2.0032 0.9749
5.2046 3.0378 -2.0032 0.9749
4.9128 3.4896 -2.0031 0.9749
4.2145 4.3062 -2.0029 0.9749
3.3823 4.9857 -2.0026 0.9749
2.9241 5.2670 -2.0025 0.9749
2.4427 5.5064 -2.0024 0.9749
1.8974 5.5711 -1.9563 0.9755
0.8333 5.5251 -1.8573 0.9767
0.3374 5.5770 -1.8572 0.9767
-0.1612 5.5844 -1.8571 0.9767
-1.1503 5.4662 -1.8568 0.9767
-2.0401 5.0207 -1.8014 0.9774
-3.9057 4.2512 -1.9190 0.9760
-4.7938 3.6380 -2.0004 0.9750
-5.3633 2.7286 -2.0002 0.9750
-5.7624 1.7325 -2.0001 0.9750
-6.0153 0.1458 -2.0001 0.9750
-5.8396 -1.4513 -2.0002 0.9750
-5.4893 -2.4655 -2.0003 0.9750
-4.2819 -4.2296 -2.0006 0.9749
-3.4630 -4.9234 -2.0008 0.9749
-3.0104 -5.2129 -2.0010 0.9749
-1.5197 -5.8089 -1.9959 0.9750
-0.9788 -5.8205 -1.9619 0.9754
0.0669 -5.6005 -1.8618 0.9767
2.0078 -5.1912 -1.8502 0.9768
3.0002 -4.9199 -1.9155 0.9760
3.5393 -4.7847 -1.9783 0.9752
3.9918 -4.4951 -1.9983 0.9750
4.3868 -4.1308 -2.0029 0.9749
5.0513 -3.2864 -2.0032 0.9749
5.3244 -2.8231 -2.0032 0.9749
5.5550 -2.3372 -2.0033 0.9749
5.7414 -1.8326 -2.0033 0.9749
5.8821 -1.3135 -2.0034 0.9749
6.0200 0.2900 -2.0034 0.9749
5.9701 0.8256 -2.0034 0.9749
5.8726 1.3545 -2.0034 0.9749
3.1006 5.1653 -2.0026 0.9749
2.6275 5.4208 -2.0024 0.9749
0.0277 5.5869 -1.8571 0.9767
-0.9649 5.5021 -1.8569 0.9767
-2.3860 5.0496 -1.8565 0.9767
-2.8266 4.8164 -1.8563 0.9767
-4.2675 4.1568 -1.9803 0.9752
-4.6681 3.7981 -2.0004 0.9750
-4.9880 3.3666 -2.0003 0.9750
-5.2681 2.9084 -2.0003 0.9750
-5.8495 1.4104 -2.0001 0.9750
-6.0141 -0.1878 -2.0001 0.9750
-5.9735 -0.7233 -2.0001 0.9750
-5.8853 -1.2530 -2.0001 0.9750
-5.7502 -1.7728 -2.0002 0.9750
-5.3443 -2.7661 -2.0003 0.9750
-5.0766 -3.2317 -2.0004 0.9750
-3.1849 -5.1080 -2.0009 0.9749
-2.7169 -5.3719 -2.0011 0.9749
-1.7165 -5.7586 -1.9974 0.9750
-1.1912 -5.8639 -1.9890 0.9751
0.8684 -5.4969 -1.8498 0.9768
2.3012 -5.0912 -1.8572 0.9767
2.8039 -4.9684 -1.8964 0.9762
4.2407 -4.2728 -2.0011 0.9749
4.6093 -3.8815 -2.0031 0.9749
5.4728 -2.5236 -2.0033 0.9749
5.6761 -2.0257 -2.0033 0.9749
-5.2167 2.0184 -2.0003 0.9765
-5.4921 1.0598 -2.0002 0.9765
-5.5929 0.0675 -2.0002 0.9765
-5.5161 -0.9269 -2.0002 0.9765
-5.2640 -1.8920 -2.0003 0.9765
-5.0745 -2.3538 -2.0004 0.9765
-4.8445 -2.7970 -2.0004 0.9765
-2.7392 -4.8794 -2.0010 0.9765
-1.3505 -5.4313 -2.0014 0.9765
-0.8596 -5.5216 -1.9983 0.9765
-0.3634 -5.5692 -1.9958 0.9766
0.6212 -5.4546 -1.9632 0.9769
1.0989 -5.3475 -1.9523 0.9771
1.5742 -5.2381 -1.9560 0.9770
2.9667 -4.7342 -1.9979 0.9765
3.3822 -4.4578 -2.0010 0.9765
4.1240 -3.7898 -2.0029 0.9765
5.1893 -2.1094 -2.0032 0.9765
5.4817 -1.1542 -2.0033 0.9765
5.5996 -0.1623 -2.0033 0.9765
5.5917 0.3376 -2.0033 0.9765
5.4427 1.3253 -2.0032 0.9765
5.1206 2.2708 -2.0031 0.9765
4.6355 3.1439 -2.0030 0.9765
3.6377 4.2580 -2.0027 0.9765
2.3808 5.0680 -2.0024 0.9765
0.9261 5.3517 -1.9422 0.9772
0.4318 5.2498 -1.8837 0.9779
-0.0374 5.1930 -1.8571 0.9782
-0.5003 5.1686 -1.8570 0.9782
-0.9590 5.1031 -1.8569 0.9782
-2.7304 4.5254 -1.8901 0.9778
-3.6950 4.2009 -2.0007 0.9765
-4.0547 3.8545 -2.0006 0.9765
-4.9296 2.6437 -2.0004 0.9765
-5.3205 1.7261 -2.0003 0.9765
-5.5423 0.7537 -2.0002 0.9765
-5.5874 0.2566 -2.0002 0.9765
-5.5442 -0.7399 -2.0002 0.9765
-5.3249 -1.7129 -2.0003 0.9765
-4.9363 -2.6315 -2.0004 0.9765
-4.6822 -3.0613 -2.0005 0.9765
-4.0644 -3.8445 -2.0007 0.9765
-2.0070 -5.2240 -2.0013 0.9765
-1.5334 -5.3825 -2.0014 0.9765
-0.5517 -5.5561 -1.9967 0.9766
-0.0541 -5.5774 -1.9946 0.9766
1.3940 -5.2799 -1.9528 0.9771
2.8035 -4.8294 -1.9969 0.9766
3.9935 -3.9270 -2.0029 0.9765
4.6278 -3.1556 -2.0031 0.9765
5.2984 -1.8185 -2.0032 0.9765
5.4395 -1.3389 -2.0033 0.9765
5.5909 -0.3515 -2.0033 0.9765
5.5644 0.6470 -2.0033 0.9765
5.4845 1.1406 -2.0032 0.9765
5.3608 1.6250 -2.0032 0.9765
5.1945 2.0964 -2.0032 0.9765
4.9867 2.5511 -2.0031 0.9765
4.7392 2.9855 -2.0030 0.9765
4.4540 3.3960 -2.0029 0.9765
3.7797 4.1326 -2.0027 0.9765
3.3960 4.4529 -2.0026 0.9765
-0.7867 5.1372 -1.8585 0.9782
-1.6849 4.9109 -1.8567 0.9782
-3.5467 4.3182 -1.9983 0.9765
-4.2620 3.6237 -2.0005 0.9765
-4.5679 3.2292 -2.0005 0.9765
-4.8374 2.8089 -2.0004 0.9765
-5.0685 2.3664 -2.0003 0.9765
-5.2591 1.9050 -2.0003 0.9765
-5.5756 0.4453 -2.0002 0.9765
-5.5931 -0.0536 -2.0002 0.9765
-5.4947 -1.0461 -2.0003 0.9765
-5.2218 -2.0055 -2.0003 0.9765
-4.7829 -2.9012 -2.0005 0.9765
-4.1920 -3.7049 -2.0006 0.9765
-2.6330 -4.9376 -2.0011 0.9765
-2.1824 -5.1530 -2.0012 0.9765
-1.2322 -5.4573 -2.0007 0.9765
-0.7396 -5.5370 -1.9977 0.9765
-0.2427 -5.5743 -1.9953 0.9766
1.2141 -5.3212 -1.9518 0.9771
2.1721 -5.0967 -1.9812 0.9767
2.6374 -4.9192 -1.9960 0.9766
3.0695 -4.6705 -1.9986 0.9765
3.8584 -4.0597 -2.0029 0.9765
4.5184 -3.3102 -2.0030 0.9765
4.7957 -2.8942 -2.0031 0.9765
5.0348 -2.4552 -2.0032 0.9765
5.3911 -1.5220 -2.0032 0.9765
5.5054 -1.0353 -2.0033 0.9765
5.5758 -0.5403 -2.0033 0.9765
5.4128 1.4428 -2.0032 0.9765
5.2624 1.9196 -2.0032 0.9765
4.8375 2.8236 -2.0031 0.9765
4.5663 3.2435 -2.0030 0.9765
3.9173 4.0026 -2.0028 0.9765
3.5447 4.3357 -2.0027 0.9765
2.7180 4.8957 -2.0024 0.9765
2.2705 5.1182 -2.0023 0.9765
1.8050 5.2999 -2.0022 0.9765
0.8034 5.3266 -1.9264 0.9774
-0.6120 5.1565 -1.8570 0.9782
-1.5193 4.9697 -1.8584 0.9782
-1.9544 4.8098 -1.8566 0.9782
-2.3764 4.6182 -1.8573 0.9782
-4.1371 3.7658 -2.0006 0.9765
-4.4562 3.3818 -2.0005 0.9765
-5.4788 1.1265 -2.0002 0.9765
-5.5815 -0.3635 -2.0002 0.9765
-5.2866 -1.8278 -2.0003 0.9765
-4.3147 -3.5610 -2.0006 0.9765
-2.7984 -4.8456 -2.0010 0.9765
-2.3553 -5.0761 -2.0012 0.9765
-1.4165 -5.4145 -2.0014 0.9765
-0.9269 -5.5118 -1.9987 0.9765
-0.4312 -5.5652 -1.9961 0.9766
1.0340 -5.3622 -1.9529 0.9771
1.5093 -5.2532 -1.9546 0.9770
2.4686 -5.0036 -1.9952 0.9766
2.9083 -4.7691 -1.9976 0.9765
3.3269 -4.4976 -2.0006 0.9765
4.4039 -3.4610 -2.0030 0.9765
5.1633 -2.1724 -2.0032 0.9765
5.4672 -1.2208 -2.0033 0.9765
5.5543 -0.7285 -2.0033 0.9765
5.5954 0.2695 -2.0033 0.9765
5.5491 0.7673 -2.0033 0.9765
5.4585 1.2590 -2.0032 0.9765
5.3244 1.7406 -2.0032 0.9765
4.6735 3.0873 -2.0030 0.9765
3.6893 4.2134 -2.0027 0.9765
3.2988 4.5253 -2.0026 0.9765
2.8820 4.8011 -2.0025 0.9765
1.5084 5.3916 -2.0021 0.9765
0.4975 5.2635 -1.8906 0.9778
0.0257 5.1931 -1.8571 0.9782
-0.4373 5.1744 -1.8570 0.9782
-0.8969 5.1144 -1.8569 0.9782
-1.7907 4.8732 -1.8566 0.9782
-2.2179 4.6939 -1.8565 0.9782
-2.6653 4.5416 -1.8831 0.9779
-3.1544 4.4187 -1.9415 0.9772
-4.8971 2.7036 -2.0004 0.9765
-5.5906 -0.1746 -2.0002 0.9765
-5.5528 -0.6724 -2.0002 0.9765
-5.1772 -2.1180 -2.0003 0.9765
-4.9679 -2.5713 -2.0004 0.9765
-4.1108 -3.7948 -2.0007 0.9765
-3.7563 -4.1464 -2.0008 0.9765
-3.3719 -4.4650 -2.0009 0.9765
-2.0704 -5.1991 -2.0012 0.9765
0.3719 -5.5094 -1.9747 0.9768
1.8060 -5.1838 -1.9630 0.9770
2.2908 -5.0681 -1.9889 0.9767
3.9454 -3.9753 -2.0029 0.9765
4.2843 -3.6078 -2.0030 0.9765
5.0868 -2.3457 -2.0032 0.9765
5.2758 -1.8828 -2.0032 0.9765
-5.1930 0.5281 -2.0003 0.9779
-5.2043 -0.4026 -2.0003 0.9779
-5.1477 -0.8650 -2.0003 0.9779
-5.0501 -1.3206 -2.0004 0.9779
-4.7355 -2.1966 -2.0005 0.9779
-4.5210 -2.6102 -2.0005 0.9779
-4.2704 -3.0029 -2.0006 0.9779
-3.9858 -3.3719 -2.0007 0.9779
-3.6695 -3.7140 -2.0008 0.9779
-3.3239 -4.0265 -2.0009 0.9779
-2.9518 -4.3071 -2.0010 0.9779
-2.1402 -4.7634 -2.0012 0.9779
-1.7071 -4.9356 -2.0013 0.9779
-0.8034 -5.1609 -2.0016 0.9779
-0.3401 -5.2121 -2.0016 0.9779
1.5012 -4.9950 -1.9988 0.9779
2.3675 -4.6550 -2.0013 0.9779
2.7748 -4.4281 -2.0026 0.9779
4.4155 -2.7969 -2.0030 0.9779
4.6474 -2.3921 -2.0031 0.9779
4.8423 -1.9683 -2.0031 0.9779
4.9986 -1.5288 -2.0031 0.9779
5.1151 -1.0770 -2.0032 0.9779
5.1908 -0.6167 -2.0032 0.9779
5.2178 0.3150 -2.0032 0.9779
5.1688 0.7790 -2.0032 0.9779
5.0787 1.2367 -2.0031 0.9779
4.9482 1.6845 -2.0031 0.9779
4.7781 2.1190 -2.0030 0.9779
4.3255 2.9337 -2.0029 0.9779
3.7354 3.6550 -2.0027 0.9779
3.3945 3.9733 -2.0026 0.9779
1.7910 4.9081 -2.0022 0.9779
0.8907 5.1475 -2.0019 0.9779
0.4282 5.2061 -2.0018 0.9779
-0.0370 5.1271 -1.9649 0.9783
-0.4868 5.0297 -1.9365 0.9786
-2.6974 4.4708 -2.0010 0.9779
-3.0851 4.2123 -2.0009 0.9779
-4.0893 3.2452 -2.0006 0.9779
-4.3622 2.8676 -2.0005 0.9779
-4.6003 2.4672 -2.0005 0.9779
-5.0889 1.1617 -2.0003 0.9779
-5.1722 0.7034 -2.0003 0.9779
-5.2143 0.2394 -2.0003 0.9779
-5.1740 -0.6905 -2.0003 0.9779
-5.0919 -1.1491 -2.0004 0.9779
-4.9692 -1.5985 -2.0004 0.9779
-4.8070 -2.0352 -2.0005 0.9779
-4.3694 -2.8568 -2.0006 0.9779
-4.0975 -3.2351 -2.0007 0.9779
-3.7929 -3.5877 -2.0007 0.9779
-2.7086 -4.4643 -2.0011 0.9779
-2.2999 -4.6882 -2.0012 0.9779
-0.9774 -5.1307 -2.0015 0.9779
-0.5161 -5.1977 -2.0017 0.9779
0.4147 -5.2003 -1.9992 0.9779
0.8764 -5.1410 -1.9985 0.9779
1.7762 -4.9054 -1.9993 0.9779
3.0161 -4.2676 -2.0026 0.9779
3.7264 -3.6644 -2.0028 0.9779
4.5638 -2.5479 -2.0030 0.9779
4.7729 -2.1309 -2.0031 0.9779
5.0757 -1.2493 -2.0032 0.9779
5.1669 -0.7918 -2.0032 0.9779
5.2170 -0.3280 -2.0032 0.9779
5.2254 0.1384 -2.0032 0.9779
5.1177 1.0643 -2.0031 0.9779
4.6532 2.3805 -2.0030 0.9779
4.4223 2.7858 -2.0029 0.9779
4.1562 3.1689 -2.0029 0.9779
3.8569 3.5267 -2.0028 0.9779
2.7857 4.4210 -2.0025 0.9779
2.3803 4.6515 -2.0024 0.9779
1.9560 4.8449 -2.0022 0.9779
1.5161 4.9997 -2.0021 0.9779
1.0643 5.1146 -2.0020 0.9779
0.6040 5.1888 -2.0019 0.9779
0.1374 5.1642 -1.9797 0.9781
-0.7609 4.9689 -1.9264 0.9787
-2.0805 4.6615 -1.9562 0.9784
-3.3138 4.0346 -2.0008 0.9779
-3.6601 3.7230 -2.0007 0.9779
-4.5144 2.6213 -2.0005 0.9779
-4.7300 2.2083 -2.0004 0.9779
-4.9079 1.7778 -2.0004 0.9779
-5.0468 1.3331 -2.0003 0.9779
-5.1943 -0.5152 -2.0003 0.9779
-5.1278 -0.9762 -2.0004 0.9779
-5.0204 -1.4296 -2.0004 0.9779
-4.2045 -3.0947 -2.0006 0.9779
-3.9119 -3.4574 -2.0007 0.9779
-3.5883 -3.7926 -2.0008 0.9779
-2.8580 -4.3700 -2.0010 0.9779
-2.0366 -4.8087 -2.0012 0.9779
-1.5999 -4.9714 -2.0014 0.9779
-0.2272 -5.2170 -2.0012 0.9779
0.7022 -5.1681 -1.9987 0.9779
2.4683 -4.6038 -2.0018 0.9779
3.6004 -3.7882 -2.0028 0.9779
3.9239 -3.4523 -2.0029 0.9779
4.2163 -3.0888 -2.0029 0.9779
4.4750 -2.7007 -2.0030 0.9779
5.0305 -1.4202 -2.0031 0.9779
5.2097 0.4279 -2.0032 0.9779
5.0508 1.3463 -2.0031 0.9779
4.9105 1.7912 -2.0031 0.9779
4.7311 2.2219 -2.0030 0.9779
4.2610 3.0266 -2.0029 0.9779
3.6554 3.7349 -2.0027 0.9779
3.3077 4.0458 -2.0026 0.9779
2.9336 4.3243 -2.0025 0.9779
2.5363 4.5684 -2.0024 0.9779
2.1187 4.7761 -2.0023 0.9779
1.2366 5.0758 -2.0020 0.9779
0.3147 5.2015 -1.9969 0.9779
-1.0327 4.9076 -1.9219 0.9787
-3.1755 4.1445 -2.0008 0.9779
-3.5322 3.8446 -2.0007 0.9779
-4.8450 1.9427 -2.0004 0.9779
-4.9988 1.5030 -2.0004 0.9779
-5.1129 1.0513 -2.0003 0.9779
-5.2182 0.1265 -2.0003 0.9779
-5.2088 -0.3393 -2.0003 0.9779
-4.9335 -1.7057 -2.0004 0.9779
-3.7144 -3.6690 -2.0008 0.9779
-3.0040 -4.2708 -2.0010 0.9779
-2.6114 -4.5219 -2.0011 0.9779
-2.1980 -4.7370 -2.0012 0.9779
-1.7670 -4.9144 -2.0013 0.9779
0.5271 -5.1896 -1.9990 0.9779
0.9875 -5.1207 -1.9985 0.9779
1.8822 -4.8665 -1.9996 0.9779
2.7207 -4.4615 -2.0025 0.9779
3.1078 -4.2014 -2.0026 0.9779
4.1094 -3.2295 -2.0029 0.9779
4.9796 -1.5895 -2.0031 0.9779
5.1829 -0.6798 -2.0032 0.9779
5.2229 -0.2150 -2.0032 0.9779
5.1780 0.7160 -2.0032 0.9779
5.0934 1.1748 -2.0031 0.9779
4.3609 2.8809 -2.0029 0.9779
4.0866 3.2581 -2.0028 0.9779
3.4426 3.9317 -2.0027 0.9779
2.6893 4.4802 -2.0024 0.9779
1.4076 5.0312 -2.0021 0.9779
0.0255 5.1405 -1.9699 0.9782
-0.4262 5.0430 -1.9394 0.9786
-0.8672 4.9451 -1.9240 0.9787
-1.3039 4.8454 -1.9229 0.9787
-2.1901 4.6349 -1.9645 0.9783
-2.6428 4.5033 -2.0010 0.9779
-3.0336 4.2495 -2.0009 0.9779
-3.4003 3.9619 -2.0008 0.9779
-3.7398 3.6428 -2.0007 0.9779
-4.3270 2.9205 -2.0005 0.9779
-4.7766 2.1054 -2.0004 0.9779
-4.9452 1.6711 -2.0004 0.9779
-5.1633 0.7662 -2.0003 0.9779
-4.9883 -1.5379 -2.0004 0.9779
-4.8314 -1.9766 -2.0004 0.9779
-4.4038 -2.8034 -2.0006 0.9779
-4.1365 -3.1850 -2.0006 0.9779
-3.1466 -4.1667 -2.0009 0.9779
-2.7627 -4.4309 -2.0010 0.9779
-0.5793 -5.1910 -2.0016 0.9779
0.3514 -5.2053 -1.9993 0.9779
1.2698 -5.0582 -1.9985 0.9779
2.1500 -4.7567 -2.0004 0.9779
2.5681 -4.5505 -2.0024 0.9779
3.3360 -4.0227 -2.0027 0.9779
3.9978 -3.3666 -2.0029 0.9779
4.2822 -2.9968 -2.0030 0.9779
4.5325 -2.6032 -2.0030 0.9779
4.9230 -1.7569 -2.0031 0.9779
-4.5585 1.7638 -2.0005 0.9791
-4.6976 1.3503 -2.0004 0.9791
-4.7992 0.9261 -2.0004 0.9791
-1.9576 0.1991 -0.8053 0.9915
-1.9101 0.0231 -0.7818 0.9918
-2.1035 -0.3535 -0.8730 0.9908
-4.5998 -1.6533 -2.0005 0.9791
-4.2333 -2.4441 -2.0006 0.9791
-3.7322 -3.1573 -2.0008 0.9791
-3.4360 -3.4776 -2.0008 0.9791
-3.1124 -3.7703 -2.0009 0.9791
-2.7640 -4.0330 -2.0010 0.9791
-2.3935 -4.2636 -2.0011 0.9791
-1.5984 -4.6214 -2.0014 0.9791
-0.7523 -4.8324 -2.0016 0.9791
0.1179 -4.8897 -2.0018 0.9791
0.5535 -4.8600 -2.0020 0.9791
0.9846 -4.7916 -2.0021 0.9791
1.4080 -4.6850 -2.0022 0.9791
2.9575 -3.8981 -2.0026 0.9791
4.1342 -2.6187 -2.0029 0.9791
4.6802 -1.4314 -2.0031 0.9791
4.7892 -1.0084 -2.0031 0.9791
4.8853 0.2949 -2.0031 0.9791
4.6329 1.5772 -2.0030 0.9791
4.0500 2.7468 -2.0028 0.9791
3.7888 3.0968 -2.0028 0.9791
2.4668 4.2251 -2.0024 0.9791
2.0802 4.4280 -2.0023 0.9791
1.2605 4.7265 -2.0021 0.9791
0.8340 4.8198 -2.0019 0.9791
0.4010 4.8747 -2.0018 0.9791
-0.0353 4.8907 -2.0017 0.9791
-0.9032 4.8061 -2.0015 0.9791
-1.3280 4.7062 -2.0013 0.9791
-1.7422 4.5688 -2.0012 0.9791
-2.1425 4.3950 -2.0011 0.9791
-2.5257 4.1863 -2.0010 0.9791
-2.8888 3.9442 -2.0009 0.9791
-3.2288 3.6708 -2.0008 0.9791
-3.5430 3.3681 -2.0007 0.9791
-3.8291 3.0387 -2.0007 0.9791
-4.3076 2.3102 -2.0005 0.9791
-4.6493 1.5083 -2.0005 0.9791
-1.9382 0.0890 -0.7941 0.9916
-1.9365 -0.0841 -0.7933 0.9917
-1.9497 -0.2602 -0.8050 0.9915
-4.7679 -1.0759 -2.0005 0.9791
-4.6531 -1.4968 -2.0005 0.9791
-4.5012 -1.9057 -2.0005 0.9791
-4.3135 -2.2995 -2.0006 0.9791
-4.0914 -2.6750 -2.0007 0.9791
-3.5515 -3.3594 -2.0008 0.9791
-2.8987 -3.9371 -2.0010 0.9791
-2.1536 -4.3898 -2.0012 0.9791
-1.3398 -4.7031 -2.0014 0.9791
-0.0474 -4.8908 -2.0018 0.9791
0.8221 -4.8221 -2.0020 0.9791
1.6656 -4.5999 -2.0023 0.9791
2.0692 -4.4334 -2.0024 0.9791
2.8240 -3.9958 -2.0026 0.9791
4.0433 -2.7570 -2.0029 0.9791
4.7523 -1.1698 -2.0031 0.9791
4.8846 -0.3071 -2.0031 0.9791
4.8615 0.5653 -2.0031 0.9791
4.7916 0.9965 -2.0031 0.9791
4.3568 2.2289 -2.0029 0.9791
4.1406 2.6084 -2.0029 0.9791
2.9671 3.8906 -2.0025 0.9791
2.6083 4.1394 -2.0024 0.9791
2.2287 4.3552 -2.0023 0.9791
0.9965 4.7889 -2.0020 0.9791
0.5655 4.8584 -2.0019 0.9791
0.1301 4.8892 -2.0017 0.9791
-0.3063 4.8810 -2.0016 0.9791
-0.7402 4.8340 -2.0015 0.9791
-1.5868 4.6252 -2.0013 0.9791
-1.9928 4.4650 -2.0012 0.9791
-2.3828 4.2693 -2.0011 0.9791
-4.7257 1.2483 -2.0004 0.9791
-1.9557 0.1562 -0.8030 0.9916
-1.9077 -0.0183 -0.7808 0.9918
-4.5630 -1.7524 -2.0005 0.9791
-4.3887 -2.1524 -2.0006 0.9791
-4.1795 -2.5351 -2.0006 0.9791
-3.9369 -2.8978 -2.0007 0.9791
-3.6630 -3.2374 -2.0008 0.9791
-3.0301 -3.8368 -2.0010 0.9791
-2.6761 -4.0919 -2.0011 0.9791
-1.4980 -4.6550 -2.0014 0.9791
-0.2128 -4.8863 -2.0017 0.9791
0.2238 -4.8861 -2.0019 0.9791
0.6585 -4.8470 -2.0020 0.9791
1.5091 -4.6535 -2.0022 0.9791
1.9181 -4.5007 -2.0023 0.9791
3.0412 -3.8332 -2.0026 0.9791
3.9477 -2.8920 -2.0029 0.9791
4.1900 -2.5286 -2.0029 0.9791
4.5727 -1.7444 -2.0030 0.9791
4.8099 -0.9045 -2.0031 0.9791
4.8941 -0.0359 -2.0031 0.9791
4.8778 0.4006 -2.0031 0.9791
4.7290 1.2606 -2.0030 0.9791
4.5977 1.6771 -2.0030 0.9791
4.4297 2.0803 -2.0029 0.9791
4.2265 2.4669 -2.0029 0.9791
3.9896 2.8338 -2.0028 0.9791
3.0970 3.7881 -2.0026 0.9791
1.9838 4.4719 -2.0023 0.9791
-0.1411 4.8887 -2.0017 0.9791
-0.5764 4.8564 -2.0015 0.9791
-1.8407 4.5299 -2.0012 0.9791
-2.6157 4.1305 -2.0010 0.9791
-2.9734 3.8807 -2.0009 0.9791
-3.3074 3.6000 -2.0008 0.9791
-4.3566 2.2164 -2.0005 0.9791
-4.7876 0.9844 -2.0004 0.9791
-1.9495 -0.1270 -0.7996 0.9916
-2.0020 -0.3114 -0.8292 0.9913
-4.6196 -1.5972 -2.0005 0.9791
-4.2627 -2.3924 -2.0006 0.9791
-4.0326 -2.7630 -2.0007 0.9791
-3.7703 -3.1116 -2.0007 0.9791
-3.4780 -3.4355 -2.0008 0.9791
-2.8128 -3.9990 -2.0010 0.9791
-1.6545 -4.6016 -2.0013 0.9791
-1.2377 -4.7310 -2.0015 0.9791
-0.3778 -4.8762 -2.0017 0.9791
0.0584 -4.8908 -2.0018 0.9791
0.4943 -4.8664 -2.0019 0.9791
0.9263 -4.8032 -2.0021 0.9791
1.3509 -4.7018 -2.0022 0.9791
1.7648 -4.5629 -2.0023 0.9791
2.1647 -4.3876 -2.0024 0.9791
2.5474 -4.1773 -2.0025 0.9791
2.9098 -3.9338 -2.0026 0.9791
3.5626 -3.3547 -2.0028 0.9791
3.8476 -3.0238 -2.0028 0.9791
4.1020 -2.6688 -2.0029 0.9791
4.5110 -1.8979 -2.0030 0.9791
4.7766 -1.0666 -2.0031 0.9791
4.8901 -0.2013 -2.0031 0.9791
4.8886 0.2355 -2.0031 0.9791
4.8481 0.6704 -2.0031 0.9791
4.6518 1.5207 -2.0030 0.9791
4.0831 2.6973 -2.0028 0.9791
3.8263 3.0505 -2.0028 0.9791
3.5389 3.3794 -2.0027 0.9791
3.2234 3.6813 -2.0026 0.9791
2.8822 3.9538 -2.0025 0.9791
2.5180 4.1948 -2.0024 0.9791
2.1339 4.4024 -2.0023 0.9791
1.3179 4.7109 -2.0021 0.9791
0.8926 4.8093 -2.0019 0.9791
0.4602 4.8695 -2.0018 0.9791
-0.4119 4.8732 -2.0016 0.9791
-0.8447 4.8168 -2.0015 0.9791
-1.2707 4.7220 -2.0014 0.9791
-2.4746 4.2167 -2.0010 0.9791
-2.8406 3.9791 -2.0009 0.9791
-3.1839 3.7098 -2.0008 0.9791
-3.5018 3.4110 -2.0008 0.9791
