ply
format ascii 1.0
element vertex 1565
property float32 x
property float32 y
property float32 z
property float32 I
end_header
1.7500 -15.7597 2.7959 0.9376
5.9030 -14.8246 2.8136 0.9372
7.3970 -14.6201 2.8891 0.9356
10.8234 -14.3177 3.1648 0.9297
12.0502 -13.2835 3.1624 0.9297
-3.1698 -17.4860 3.1335 0.9304
1.3997 -15.6811 2.7760 0.9381
6.9184 -14.4387 2.8231 0.9370
11.6217 -13.3800 3.1250 0.9305
14.1055 7.4544 2.8131 0.9373
-5.1242 -17.1499 3.1561 0.9299
-3.5264 -17.3170 3.1161 0.9307
-0.3648 -16.5892 2.9258 0.9348
2.4650 -15.5803 2.7814 0.9379
6.5745 -14.5162 2.8099 0.9373
-3.5153 -16.9843 2.6570 0.9322
-0.4103 -16.2882 2.4960 0.9362
2.4264 -15.6606 2.4277 0.9379
5.1893 -15.0217 2.4347 0.9377
6.5237 -14.5275 2.4396 0.9376
8.0686 -14.3732 2.5251 0.9355
13.2987 -13.4463 2.8972 0.9263
-8.0771 3.8410 1.3702 0.9645
-3.9220 -17.0849 2.6854 0.9315
0.6770 -15.8438 2.4294 0.9378
2.0907 -15.7280 2.4306 0.9378
5.0702 -15.7708 2.5378 0.9352
6.1833 -14.6041 2.4295 0.9378
7.7127 -14.4612 2.5108 0.9358
12.9756 7.5904 2.3029 0.9410
-8.0002 4.0182 1.3715 0.9644
-2.8368 -17.8318 2.7661 0.9295
1.7557 -15.8108 2.4370 0.9377
5.9222 -14.8727 2.4524 0.9373
7.3607 -14.5482 2.4977 0.9362
-0.0069 -16.2061 2.4827 0.9365
2.9630 -16.4250 2.5568 0.9347
5.5797 -14.9423 2.4435 0.9375
6.9184 -14.4387 2.4527 0.9373
10.6255 -14.7045 2.7792 0.9292
11.6217 -13.3799 2.7150 0.9308
-9.9457 3.4031 1.6104 0.9584
-5.1241 -17.1498 2.7420 0.9301
-0.3580 -16.2775 2.4942 0.9362
2.4760 -15.6500 2.4273 0.9379
8.1217 -14.3601 2.5274 0.9354
13.4042 -13.4666 2.9108 0.9260
-9.9301 3.4333 1.3682 0.9585
-3.5343 -17.0762 2.2708 0.9321
1.0147 -15.7676 2.0575 0.9383
2.4371 -15.7290 2.0727 0.9378
5.2171 -15.1020 2.0806 0.9376
8.1115 -14.4497 2.1579 0.9353
13.1206 -13.2662 2.4297 0.9275
0.7902 6.2670 0.8226 0.9748
-3.9432 -17.1769 2.2950 0.9314
-0.7695 -16.4474 2.1441 0.9357
2.1018 -15.8116 2.0771 0.9377
7.7535 -14.5377 2.1455 0.9357
12.4891 -13.1846 2.3649 0.9294
-0.6086 19.0623 2.4836 0.9260
-8.0032 4.0197 1.1663 0.9645
-4.2803 -16.9597 2.2778 0.9319
0.3366 -15.9203 2.0736 0.9378
1.7650 -15.8945 2.0825 0.9375
7.3994 -14.6248 2.1343 0.9360
12.0500 -13.2834 2.3355 0.9302
-4.6974 -17.0536 2.3034 0.9311
-3.1088 -17.1497 2.2696 0.9321
-0.0069 -16.2915 2.1215 0.9364
1.3997 -15.6810 2.0501 0.9385
5.6094 -15.0219 2.0881 0.9374
6.9183 -14.4386 2.0849 0.9375
13.6351 -13.1201 2.4641 0.9265
-9.9456 3.4031 1.3688 0.9585
-3.4744 -17.0614 2.2674 0.9322
5.2676 -15.0917 2.0815 0.9376
6.5744 -14.5160 2.0751 0.9377
-9.9301 3.4333 1.1283 0.9586
-3.5340 -17.0748 1.8724 0.9323
1.0147 -15.7675 1.6966 0.9384
5.2167 -15.1009 1.7156 0.9377
6.5237 -14.5273 1.7100 0.9379
11.3447 -13.7336 1.9128 0.9308
13.1739 -13.3202 2.0117 0.9274
-8.1009 3.8523 0.9632 0.9646
0.6770 -15.8436 1.7029 0.9382
2.1016 -15.8104 1.7127 0.9379
5.2506 -16.3318 1.8421 0.9333
10.9231 -13.8196 1.8916 0.9316
12.4890 -13.1845 1.9501 0.9295
-0.6086 19.0612 2.0479 0.9261
-7.9996 4.0179 0.9613 0.9646
-9.1914 -11.0356 1.5422 0.9439
-4.2803 -16.9596 1.8782 0.9321
-2.8839 -18.1280 1.9711 0.9288
0.3366 -15.9202 1.7099 0.9379
5.9531 -14.9504 1.7280 0.9373
7.3989 -14.6237 1.7599 0.9362
10.5796 -13.9951 1.8839 0.9319
10.0334 8.2244 1.3931 0.9491
-8.0766 4.2771 0.9814 0.9639
-0.0070 -16.2903 1.7493 0.9366
13.7068 -13.1891 2.0426 0.9263
-9.9456 3.4031 1.1288 0.9586
-5.1241 -17.1496 1.9220 0.9305
5.2672 -15.0906 1.7163 0.9377
6.5744 -14.5159 1.7112 0.9379
11.4080 -13.7206 1.9161 0.9307
13.2418 -13.3035 2.0156 0.9273
-9.9301 3.4333 0.8894 0.9587
-0.4124 -16.3720 1.3864 0.9364
1.0147 -15.7675 1.3375 0.9385
2.4367 -15.7267 1.3472 0.9381
6.5236 -14.5273 1.3481 0.9381
11.3437 -13.7324 1.5078 0.9310
13.1728 -13.3190 1.5858 0.9276
0.7900 6.2660 0.5346 0.9750
-0.7694 -16.4449 1.3936 0.9360
0.6770 -15.8435 1.3424 0.9383
5.2520 -16.3362 1.4526 0.9334
6.1832 -14.6039 1.3425 0.9383
10.9222 -13.8185 1.4911 0.9317
12.4889 -13.1844 1.5373 0.9297
-0.6086 19.0601 1.6143 0.9263
-7.9921 4.0141 0.7571 0.9647
-4.2802 -16.9595 1.4807 0.9322
-2.8842 -18.1299 1.5541 0.9290
0.3366 -15.9201 1.3480 0.9381
1.7647 -15.8921 1.3536 0.9378
5.9527 -14.9493 1.3621 0.9374
7.3983 -14.6226 1.3873 0.9363
10.5807 -13.9965 1.4853 0.9320
12.0499 -13.2832 1.5182 0.9305
-4.6973 -17.0534 1.4974 0.9315
-3.1096 -17.1538 1.4758 0.9324
1.3997 -15.6808 1.3327 0.9388
10.7970 -14.9418 1.5605 0.9287
13.7056 -13.1880 1.6101 0.9265
-5.1241 -17.1495 1.5152 0.9307
-3.4738 -17.0586 1.4737 0.9325
2.4862 -15.7145 1.3468 0.9381
6.5743 -14.5159 1.3490 0.9380
-5.1882 -17.1638 1.1119 0.9307
1.0147 -15.7674 0.9798 0.9386
2.4365 -15.7255 0.9868 0.9382
8.1096 -14.4463 1.0273 0.9358
11.3428 -13.7313 1.1044 0.9311
-8.0830 3.8438 0.5550 0.9648
-3.9422 -17.1726 1.0926 0.9318
-0.7693 -16.4437 1.0208 0.9362
0.6770 -15.8434 0.9833 0.9384
5.2534 -16.3405 1.0644 0.9335
7.7517 -14.5344 1.0215 0.9361
12.4888 -13.1843 1.1261 0.9298
-7.9793 4.0077 0.5537 0.9648
-4.2802 -16.9594 1.0846 0.9323
-2.8845 -18.1318 1.1385 0.9291
0.3365 -15.9200 0.9874 0.9382
5.9522 -14.9482 0.9977 0.9376
10.5818 -13.9979 1.0881 0.9321
12.0498 -13.2831 1.1121 0.9306
-7.9944 4.2336 0.5610 0.9644
-4.6973 -17.0533 1.0969 0.9316
-3.1100 -17.1560 1.0812 0.9325
1.3997 -15.6807 0.9762 0.9389
10.7979 -14.9431 1.1432 0.9288
11.6214 -13.3796 1.0989 0.9314
13.7044 -13.1868 1.1793 0.9266
-5.1240 -17.1494 1.1099 0.9308
-0.3598 -16.3600 1.0147 0.9365
1.0646 -15.7561 0.9793 0.9387
2.4861 -15.7133 0.9865 0.9382
5.2664 -15.0883 0.9910 0.9380
6.5743 -14.5158 0.9881 0.9381
8.1630 -14.4332 1.0282 0.9357
13.2395 -13.3012 1.1638 0.9275
-5.1881 -17.1637 0.7070 0.9307
-3.5331 -17.0706 0.6874 0.9326
1.0147 -15.7673 0.6230 0.9387
2.4363 -15.7244 0.6274 0.9383
5.2155 -15.0975 0.6298 0.9381
6.5236 -14.5271 0.6279 0.9382
11.3419 -13.7302 0.7022 0.9312
13.1705 -13.3167 0.7385 0.9278
-8.0694 3.8373 0.3523 0.9649
-0.7693 -16.4424 0.6491 0.9362
0.6769 -15.8433 0.6253 0.9385
5.2548 -16.3449 0.6770 0.9336
7.7512 -14.5333 0.6495 0.9362
-7.9622 3.9991 0.3513 0.9650
-9.1881 -11.0316 0.5661 0.9441
-4.2802 -16.9593 0.6897 0.9324
1.7644 -15.8898 0.6304 0.9380
5.9518 -14.9471 0.6344 0.9376
7.3972 -14.6204 0.6461 0.9365
10.5828 -13.9994 0.6920 0.9322
9.9901 8.1888 0.5093 0.9496
-7.9250 4.1968 0.3536 0.9647
-3.1104 -17.1581 0.6876 0.9326
-0.0069 -16.2867 0.6422 0.9369
1.3997 -15.6806 0.6208 0.9389
6.9182 -14.4383 0.6313 0.9379
-9.9456 3.4031 0.4145 0.9588
-5.1240 -17.1493 0.7058 0.9309
-3.4732 -17.0558 0.6863 0.9327
-0.3598 -16.3588 0.6452 0.9366
1.0646 -15.7561 0.6227 0.9387
2.4859 -15.7122 0.6273 0.9383
6.5743 -14.5157 0.6283 0.9382
13.2384 -13.3000 0.7399 0.9276
-9.9301 3.4333 0.1775 0.9588
-5.1881 -17.1636 0.3029 0.9308
-0.4123 -16.3683 0.2766 0.9366
1.0147 -15.7672 0.2669 0.9387
5.2151 -15.0964 0.2698 0.9381
8.1084 -14.4441 0.2798 0.9359
11.3409 -13.7290 0.3008 0.9312
13.1694 -13.3156 0.3164 0.9278
0.7898 6.2645 0.1067 0.9751
-8.0854 3.8450 0.1512 0.9648
-3.9415 -17.1698 0.2976 0.9320
-0.7692 -16.4412 0.2780 0.9363
0.6769 -15.8432 0.2679 0.9385
12.4887 -13.1841 0.3068 0.9299
-7.9327 3.9843 0.1500 0.9651
-9.1870 -11.0303 0.2425 0.9442
-4.2802 -16.9592 0.2955 0.9324
0.3365 -15.9199 0.2690 0.9383
1.7643 -15.8886 0.2700 0.9380
5.9513 -14.9460 0.2717 0.9377
9.9977 8.1951 0.2184 0.9496
-7.8506 4.1574 0.1501 0.9651
-3.1108 -17.1604 0.2946 0.9326
10.7997 -14.9456 0.3115 0.9289
13.7020 -13.1845 0.3212 0.9268
-9.9457 3.4031 0.1776 0.9588
1.0646 -15.7560 0.2668 0.9388
2.4857 -15.7110 0.2687 0.9383
6.5742 -14.5156 0.2692 0.9382
8.1618 -14.4310 0.2801 0.9358
11.4042 -13.7161 0.3013 0.9311
13.2373 -13.2989 0.3170 0.9277
-9.9301 3.4333 -0.0591 0.9588
1.0147 -15.7671 -0.0890 0.9388
2.4360 -15.7220 -0.0896 0.9383
11.3400 -13.7279 -0.1003 0.9313
-8.0855 3.8450 -0.0504 0.9648
-3.9412 -17.1684 -0.0992 0.9320
10.9186 -13.8140 -0.0991 0.9320
12.4886 -13.1841 -0.1022 0.9299
-9.1859 -11.0290 -0.0808 0.9442
1.7642 -15.8874 -0.0900 0.9381
5.9509 -14.9449 -0.0906 0.9377
7.3961 -14.6182 -0.0922 0.9366
12.0496 -13.2829 -0.1010 0.9308
10.0156 8.2098 -0.0729 0.9495
-7.8226 4.1426 -0.0498 0.9652
-3.1112 -17.1625 -0.0982 0.9326
-0.0069 -16.2842 -0.0917 0.9369
1.3997 -15.6805 -0.0886 0.9390
10.8007 -14.9469 -0.1038 0.9289
-9.9457 3.4031 -0.0592 0.9588
-0.3597 -16.3563 -0.0921 0.9367
6.5742 -14.5155 -0.0897 0.9382
11.4033 -13.7149 -0.1004 0.9311
13.2362 -13.2978 -0.1056 0.9277
-9.9301 3.4333 -0.2958 0.9588
-5.1881 -17.1634 -0.5049 0.9308
-3.5322 -17.0664 -0.4907 0.9326
1.0147 -15.7670 -0.4449 0.9387
2.4358 -15.7209 -0.4479 0.9383
6.5235 -14.5269 -0.4484 0.9383
8.1071 -14.4419 -0.4663 0.9359
11.3390 -13.7267 -0.5013 0.9312
0.7897 6.2635 -0.1778 0.9751
-3.9409 -17.1670 -0.4960 0.9319
-0.7691 -16.4387 -0.4634 0.9363
0.6769 -15.8431 -0.4465 0.9385
5.2590 -16.3581 -0.4838 0.9336
7.7494 -14.5300 -0.4637 0.9362
-0.6082 19.0492 -0.5367 0.9266
-7.8723 3.9540 -0.2481 0.9654
-9.1848 -11.0277 -0.4041 0.9442
-4.2801 -16.9590 -0.4925 0.9324
0.3365 -15.9197 -0.4484 0.9383
7.3955 -14.6171 -0.4613 0.9366
12.0495 -13.2828 -0.5050 0.9308
10.0313 8.2226 -0.3652 0.9494
-7.7961 4.1286 -0.2484 0.9653
-3.1116 -17.1648 -0.4912 0.9326
-0.0069 -16.2830 -0.4585 0.9369
1.3997 -15.6804 -0.4433 0.9389
6.9181 -14.4380 -0.4508 0.9379
10.8016 -14.9481 -0.5193 0.9289
-9.9457 3.4031 -0.2960 0.9588
-0.3597 -16.3551 -0.4606 0.9366
2.4853 -15.7087 -0.4478 0.9383
8.1605 -14.4288 -0.4668 0.9358
11.4023 -13.7138 -0.5022 0.9311
-9.9301 3.4333 -0.5328 0.9588
-5.1880 -17.1633 -0.9093 0.9307
-0.4123 -16.3646 -0.8302 0.9365
0.9596 -14.9115 -0.7578 0.9419
2.4356 -15.7197 -0.8067 0.9383
5.2140 -15.0930 -0.8098 0.9380
0.6424 -15.0338 -0.7631 0.9415
7.7488 -14.5289 -0.8351 0.9362
-0.6082 19.0472 -0.9665 0.9265
-4.2801 -16.9589 -0.8870 0.9323
5.9500 -14.9427 -0.8157 0.9376
7.3950 -14.6160 -0.8307 0.9365
12.0494 -13.2827 -0.9095 0.9307
-3.1120 -17.1670 -0.8848 0.9325
-0.0069 -16.2818 -0.8257 0.9369
5.6061 -15.0129 -0.8127 0.9378
11.6210 -13.3792 -0.8987 0.9315
10.3570 8.1226 -0.6675 0.9486
-7.8495 4.3761 -0.4558 0.9646
-9.9457 3.4031 -0.5331 0.9588
-5.1239 -17.1489 -0.9077 0.9308
-0.3597 -16.3538 -0.8296 0.9366
1.0076 -14.9135 -0.7581 0.9419
5.2644 -15.0827 -0.8102 0.9380
6.5741 -14.5154 -0.8081 0.9382
8.1599 -14.4277 -0.8406 0.9358
11.4014 -13.7127 -0.9044 0.9311
13.2339 -13.2955 -0.9513 0.9276
-5.1880 -17.1632 -1.3147 0.9306
0.9597 -14.9121 -1.0957 0.9418
5.1951 -15.0384 -1.1666 0.9382
6.5234 -14.5267 -1.1676 0.9381
11.5387 -1.9185 -0.8577 0.9542
0.7896 6.2624 -0.4628 0.9750
-8.0801 3.8424 -0.6560 0.9648
0.6425 -15.0364 -1.1035 0.9414
5.1337 -15.9681 -1.2298 0.9349
6.1830 -14.6034 -1.1628 0.9384
7.7203 -14.4755 -1.2029 0.9363
10.8766 -13.7608 -1.2861 0.9321
-0.6055 18.9632 -1.3911 0.9267
-7.8418 3.9386 -0.6434 0.9654
-4.2801 -16.9588 -1.2824 0.9323
0.3365 -15.9195 -1.1675 0.9381
5.9274 -14.8859 -1.1748 0.9378
7.3672 -14.5611 -1.1965 0.9366
10.4971 -13.8860 -1.2763 0.9326
12.0494 -13.2827 -1.3149 0.9306
12.1319 -1.4435 -0.8958 0.9522
10.0874 8.2686 -0.9564 0.9490
-3.0834 -17.0093 -1.2675 0.9330
-0.0069 -16.2207 -1.1893 0.9370
1.3996 -15.6802 -1.1543 0.9388
3.0268 -16.7783 -1.2501 0.9339
11.6924 -2.7309 -0.8804 0.9530
11.5089 -1.6218 -0.8522 0.9545
10.3648 8.1288 -0.9658 0.9485
-7.7912 4.3436 -0.6540 0.9649
-9.9457 3.4031 -0.7707 0.9587
-5.1238 -17.1488 -1.3123 0.9307
-0.3584 -16.2938 -1.1950 0.9367
2.4762 -15.6507 -1.1618 0.9384
5.2453 -15.0279 -1.1671 0.9382
6.5741 -14.5153 -1.1684 0.9381
8.1307 -14.3761 -1.2110 0.9359
11.3580 -13.6606 -1.3026 0.9312
11.5350 -1.8800 -0.8569 0.9542
-7.2077 -17.8900 -1.8517 0.9254
-5.1880 -17.1631 -1.7214 0.9305
-3.5187 -17.0008 -1.6667 0.9326
-2.2077 -19.1734 -1.8529 0.9254
2.4266 -15.6615 -1.5215 0.9383
6.5233 -14.5266 -1.5288 0.9380
10.9244 -15.9347 -1.8548 0.9253
14.7589 -12.4683 -1.8549 0.9253
15.8132 -11.0996 -1.8548 0.9253
17.5336 -8.1074 -1.8546 0.9253
10.9433 -2.8434 -1.0855 0.9556
13.9674 10.4061 -1.6722 0.9324
10.8124 9.6716 -1.3927 0.9434
0.7895 6.2619 -0.6059 0.9750
-1.0277 19.1968 -1.8456 0.9257
-6.0783 18.2295 -1.8448 0.9257
-7.6817 17.6118 -1.8447 0.9257
-9.2235 16.8538 -1.8445 0.9257
-8.1156 3.8593 -0.8628 0.9645
-7.5913 -17.7294 -1.8516 0.9254
-5.9786 -18.3410 -1.8520 0.9254
-3.9253 -17.0992 -1.6843 0.9319
-2.6205 -19.1204 -1.8528 0.9254
-0.7662 -16.3775 -1.5740 0.9362
2.0926 -15.7424 -1.5246 0.9382
5.1350 -15.9722 -1.6107 0.9348
6.1829 -14.6033 -1.5225 0.9383
7.7197 -14.4744 -1.5749 0.9362
10.8757 -13.7597 -1.6838 0.9319
16.5290 -10.0009 -1.8547 0.9253
12.4923 -1.2139 -1.2050 0.9508
2.8476 19.2340 -1.8667 0.9248
1.1057 19.1968 -1.8460 0.9256
-4.0219 18.7936 -1.8451 0.9257
-7.3003 17.7738 -1.8447 0.9257
-8.8581 17.0490 -1.8445 0.9257
-10.3689 16.2258 -1.8487 0.9255
-10.9637 -15.8541 -1.8506 0.9255
-9.5059 -16.7742 -1.8510 0.9254
-2.8652 -18.0103 -1.7508 0.9293
-1.3176 -19.2570 -1.8531 0.9254
0.3365 -15.9194 -1.5287 0.9380
1.7571 -15.8236 -1.5285 0.9380
5.5135 -18.5106 -1.8543 0.9253
7.3666 -14.5600 -1.5666 0.9365
10.2270 -16.3905 -1.8548 0.9253
12.0493 -13.2826 -1.7217 0.9305
14.2077 -13.0931 -1.8549 0.9253
17.1684 -8.8561 -1.8546 0.9253
11.2969 -2.3828 -1.1084 0.9547
11.7740 -1.4010 -1.1383 0.9535
16.9175 9.4126 -1.8586 0.9252
16.0050 10.8835 -1.8582 0.9252
1.5194 19.1694 -1.8461 0.9256
-0.1991 19.2249 -1.8458 0.9257
-3.6158 18.8766 -1.8452 0.9257
-6.9155 17.9274 -1.8447 0.9257
-8.4886 17.2364 -1.8446 0.9257
-9.9937 16.4080 -1.8444 0.9257
-8.3477 -17.3837 -1.8514 0.9254
-6.7630 -18.0642 -1.8518 0.9254
-4.6971 -17.0526 -1.6981 0.9314
-1.7324 -19.2232 -1.8530 0.9254
-0.0069 -16.2194 -1.5571 0.9369
3.0283 -16.7867 -1.6376 0.9338
5.1130 -18.6246 -1.8542 0.9253
5.5848 -14.9560 -1.5327 0.9379
6.9180 -14.4378 -1.5370 0.9377
11.6209 -13.3790 -1.7013 0.9313
13.6482 -13.1328 -1.8184 0.9267
15.0630 -12.0990 -1.8549 0.9253
16.0829 -10.7045 -1.8548 0.9253
16.9738 -9.2244 -1.8547 0.9253
11.3521 -2.6514 -1.1192 0.9542
11.2038 -1.5788 -1.0862 0.9556
17.1175 9.0462 -1.8587 0.9251
11.3057 7.3366 -1.2939 0.9473
10.3859 8.1453 -1.2672 0.9483
3.7392 19.4311 -1.8997 0.9236
1.9325 19.1331 -1.8462 0.9256
0.2155 19.2256 -1.8459 0.9256
-3.2081 18.9508 -1.8453 0.9257
-10.2191 -16.3469 -1.8508 0.9255
-8.7200 -17.1986 -1.8513 0.9254
-2.1464 -19.1805 -1.8529 0.9254
-0.3583 -16.2926 -1.5645 0.9366
1.0078 -14.9158 -1.4353 0.9417
4.7101 -18.7299 -1.8541 0.9253
6.5740 -14.5152 -1.5298 0.9380
10.9753 -15.8998 -1.8548 0.9253
13.1840 -13.2454 -1.7942 0.9277
14.7987 -12.4210 -1.8549 0.9253
16.7712 -9.5885 -1.8547 0.9253
18.2066 -6.4498 -1.8544 0.9253
10.9501 -2.8078 -1.0853 0.9556
-9.8298 3.3986 -1.2355 0.9590
-16.3229 4.0538 -1.9978 0.9345
-16.4824 -3.4070 -1.9993 0.9345
-15.6187 -6.2879 -2.0000 0.9344
-14.2561 -8.9705 -2.0008 0.9344
-13.4005 -10.2102 -2.0012 0.9344
-12.4374 -11.3688 -2.0016 0.9344
-11.3744 -12.4370 -2.0020 0.9344
-8.3003 -13.1836 -1.8506 0.9392
-5.8241 -14.4559 -1.8513 0.9392
-1.7837 -15.4909 -1.8523 0.9391
-0.3928 -15.5908 -1.8526 0.9391
5.0948 -14.7480 -1.8534 0.9391
7.6390 -13.6080 -1.8537 0.9391
13.5228 -7.7887 -1.8537 0.9391
9.6452 -2.5061 -1.1838 0.9607
10.2757 -1.7085 -1.2374 0.9589
16.8773 0.2388 -2.0050 0.9343
16.7859 1.7453 -2.0047 0.9343
16.5601 3.2373 -2.0043 0.9343
15.1007 7.5081 -2.0032 0.9343
13.3291 8.1879 -1.8582 0.9389
9.7525 8.7235 -1.5543 0.9487
10.3575 13.2869 -2.0012 0.9344
9.1273 14.1562 -2.0008 0.9344
6.4509 15.5266 -1.9972 0.9345
3.5887 16.4437 -1.9993 0.9345
-2.3961 16.6492 -1.9981 0.9345
-3.8734 16.3667 -1.9978 0.9345
-5.3194 15.9536 -1.9976 0.9345
-6.7228 15.4134 -1.9975 0.9345
-8.0723 14.7502 -1.9973 0.9345
-9.3572 13.9694 -1.9972 0.9345
-10.5674 13.0773 -1.9972 0.9345
-13.6569 9.8076 -1.9972 0.9345
-8.1400 3.8709 -1.0707 0.9643
-15.7714 5.8365 -1.9976 0.9345
-16.2313 4.4047 -1.9978 0.9345
-16.7601 1.4464 -1.9983 0.9345
-16.8246 -0.0566 -1.9985 0.9345
-16.2155 -4.5178 -1.9995 0.9344
-15.7499 -5.9494 -1.9999 0.9344
-12.6790 -11.0975 -2.0015 0.9344
-11.6393 -12.1883 -2.0019 0.9344
-9.7074 -12.1798 -1.8501 0.9392
-8.5822 -13.0009 -1.8505 0.9392
-7.3880 -13.7183 -1.8508 0.9392
-6.1342 -14.3263 -1.8512 0.9392
-4.8307 -14.8198 -1.8515 0.9391
-3.4882 -15.1948 -1.8519 0.9391
-2.1172 -15.4483 -1.8522 0.9391
-0.7288 -15.5781 -1.8525 0.9391
2.0555 -15.4635 -1.8530 0.9391
3.4291 -15.2198 -1.8532 0.9391
4.7755 -14.8541 -1.8534 0.9391
10.7328 -11.3305 -1.8539 0.9391
11.7020 -10.3263 -1.8539 0.9391
12.5774 -9.2394 -1.8538 0.9391
13.3519 -8.0786 -1.8537 0.9391
14.0194 -6.8531 -1.8536 0.9391
14.5744 -5.5729 -1.8535 0.9391
9.7417 -2.7567 -1.2026 0.9600
16.8792 -0.1252 -2.0051 0.9343
16.8203 1.3830 -2.0048 0.9343
15.8433 5.7903 -2.0037 0.9343
12.9395 7.5692 -1.7807 0.9414
9.6781 6.8909 -1.4113 0.9533
9.8164 8.4068 -1.5352 0.9493
6.7940 15.4061 -2.0001 0.9344
3.9426 16.3632 -1.9993 0.9344
-0.5369 16.8149 -1.9984 0.9345
-3.5196 16.4468 -1.9979 0.9345
-4.9743 16.0650 -1.9977 0.9345
-6.3890 15.5550 -1.9975 0.9345
-7.7525 14.9210 -1.9974 0.9345
-12.4859 11.2599 -1.9972 0.9345
-16.4941 3.2938 -1.9980 0.9345
-16.7244 1.8074 -1.9982 0.9345
-16.8214 0.3061 -1.9985 0.9345
-16.7840 -1.1980 -1.9988 0.9345
-16.3084 -4.1670 -1.9994 0.9344
-14.6282 -8.3467 -2.0006 0.9344
-13.8269 -9.6220 -2.0010 0.9344
-12.9147 -10.8209 -2.0014 0.9344
-11.8988 -11.9339 -2.0018 0.9344
-8.8601 -12.8122 -1.8504 0.9392
-6.4413 -14.1900 -1.8511 0.9392
-5.1489 -14.7115 -1.8515 0.9391
-1.0645 -15.5582 -1.8524 0.9391
0.3296 -15.5934 -1.8527 0.9391
5.7725 -14.4969 -1.8535 0.9391
7.0450 -13.9243 -1.8537 0.9391
8.2612 -13.2400 -1.8538 0.9391
9.4112 -12.4495 -1.8538 0.9391
10.4860 -11.5592 -1.8539 0.9391
11.4767 -10.5763 -1.8539 0.9391
12.3753 -9.5086 -1.8538 0.9391
13.1748 -8.3647 -1.8538 0.9391
9.6275 -2.0307 -1.1688 0.9611
16.8468 1.0200 -2.0048 0.9343
15.9652 5.4476 -2.0038 0.9343
12.9342 8.7954 -1.8580 0.9389
12.0267 11.8048 -2.0018 0.9344
9.7301 13.7509 -2.0010 0.9344
5.7324 15.8293 -1.9998 0.9344
4.2947 16.2751 -1.9994 0.9344
1.3295 16.7739 -1.9988 0.9345
-1.6761 16.7380 -1.9982 0.9345
-3.1643 16.5193 -1.9979 0.9345
-6.0523 15.6895 -1.9975 0.9345
-9.9939 13.5209 -1.9972 0.9345
-13.2212 10.3871 -1.9972 0.9345
-14.0967 9.1648 -1.9973 0.9345
-7.6925 4.0737 -1.0340 0.9655
-16.4188 3.6486 -1.9979 0.9345
-16.6811 2.1675 -1.9981 0.9345
-16.8103 0.6687 -1.9984 0.9345
-16.6661 -2.3340 -1.9990 0.9345
-16.3938 -3.8142 -1.9994 0.9344
-15.4591 -6.6731 -2.0001 0.9344
-14.8040 -8.0290 -2.0005 0.9344
-14.0304 -9.3212 -2.0009 0.9344
-13.1444 -10.5395 -2.0013 0.9344
-10.2224 -11.7488 -1.8499 0.9392
-6.7455 -14.0472 -1.8510 0.9392
-4.1397 -15.0290 -1.8517 0.9391
-2.7810 -15.3414 -1.8520 0.9391
-1.3997 -15.5310 -1.8523 0.9391
-0.0067 -15.5964 -1.8526 0.9391
2.7696 -15.3526 -1.8531 0.9391
4.1304 -15.0455 -1.8533 0.9391
6.7430 -14.0727 -1.8536 0.9391
11.2460 -10.8213 -1.8539 0.9391
12.9915 -8.6469 -1.8538 0.9391
14.3211 -6.1964 -1.8536 0.9391
9.6197 -2.2468 -1.1734 0.9610
10.9781 -1.5470 -1.3169 0.9563
16.8592 -0.8528 -2.0052 0.9343
16.7368 2.1602 -2.0046 0.9343
14.2163 7.5130 -1.9100 0.9373
9.9286 7.7866 -1.4988 0.9504
12.2790 11.5433 -2.0019 0.9344
8.7735 14.3770 -2.0007 0.9344
7.4526 15.1003 -2.0003 0.9344
6.0727 15.7027 -1.9999 0.9344
4.6448 16.1794 -1.9995 0.9344
1.6910 16.7420 -1.9988 0.9345
-2.8075 16.5842 -1.9980 0.9345
-4.2773 16.2653 -1.9978 0.9345
-5.7126 15.8166 -1.9976 0.9345
-7.1022 15.2419 -1.9974 0.9345
-8.4349 14.5456 -1.9973 0.9345
-9.7001 13.7333 -1.9972 0.9345
-11.9888 11.7877 -1.9972 0.9345
-13.8957 9.4665 -1.9972 0.9345
-9.8271 3.3625 -1.2338 0.9590
-16.3359 4.0016 -1.9978 0.9345
-16.7914 1.0310 -1.9983 0.9345
-16.8188 -0.4732 -1.9986 0.9345
-16.4715 -3.4597 -1.9993 0.9345
-16.0994 -4.9181 -1.9996 0.9344
-15.5986 -6.3379 -2.0000 0.9344
-14.2275 -9.0161 -2.0008 0.9344
-13.3679 -10.2531 -2.0012 0.9344
-11.3347 -12.4734 -2.0020 0.9344
-8.2582 -13.2101 -1.8506 0.9392
-4.4626 -14.9356 -1.8516 0.9391
-3.1110 -15.2772 -1.8520 0.9391
-1.7342 -15.4966 -1.8523 0.9391
-0.3429 -15.5920 -1.8526 0.9391
2.4378 -15.4084 -1.8531 0.9391
3.8050 -15.1307 -1.8533 0.9391
5.1419 -14.7317 -1.8535 0.9391
6.4379 -14.2146 -1.8536 0.9391
7.6825 -13.5835 -1.8537 0.9391
8.8656 -12.8435 -1.8538 0.9391
9.9778 -12.0005 -1.8539 0.9391
9.9564 -3.5271 -1.2547 0.9583
9.6406 -2.4720 -1.1822 0.9607
10.3585 -1.6882 -1.2467 0.9586
16.7802 1.7989 -2.0047 0.9343
16.5496 3.2902 -2.0043 0.9343
-14.0189 -1.6105 -1.9994 0.9446
-13.5124 -4.0807 -2.0000 0.9446
-11.9526 -7.5211 -2.0009 0.9445
-11.2349 -8.5602 -2.0013 0.9445
-10.4271 -9.5313 -2.0016 0.9445
-6.9580 -11.0516 -1.8504 0.9486
-5.9439 -11.6309 -1.8507 0.9486
-4.8819 -12.1174 -1.8510 0.9486
-0.3292 -13.0672 -1.8521 0.9486
2.0018 -12.9202 -1.8525 0.9486
3.1483 -12.6909 -1.8527 0.9485
4.2698 -12.3599 -1.8528 0.9485
6.4019 -11.4042 -1.8530 0.9485
7.3953 -10.7871 -1.8531 0.9485
8.3296 -10.0836 -1.8532 0.9485
11.8700 -5.4886 -1.8529 0.9485
9.7825 -3.5008 -1.4722 0.9589
10.2751 -1.7084 -1.4759 0.9588
14.1085 -1.0644 -2.0047 0.9444
14.1455 0.2001 -2.0045 0.9444
14.0693 1.4628 -2.0042 0.9445
13.5805 3.9420 -2.0036 0.9445
13.1720 5.1386 -2.0033 0.9445
12.6582 6.2937 -2.0030 0.9445
10.4546 7.7890 -1.8472 0.9487
9.7024 8.6787 -1.8444 0.9488
8.9491 9.5758 -1.8571 0.9484
8.6837 11.1397 -2.0013 0.9445
7.6525 11.8689 -2.0009 0.9445
4.3118 8.2172 -1.3148 0.9632
5.4165 13.0369 -2.0003 0.9446
4.2296 13.4665 -2.0000 0.9446
3.0092 13.7885 -1.9997 0.9446
0.7894 6.2609 -0.8941 0.9748
-2.0094 13.9621 -1.9987 0.9446
-3.2483 13.7255 -1.9985 0.9446
-5.6380 12.9264 -1.9982 0.9446
-6.7699 12.3704 -1.9981 0.9446
-7.8476 11.7157 -1.9980 0.9446
-8.8626 10.9675 -1.9979 0.9446
-9.8068 10.1319 -1.9979 0.9446
-10.6728 9.2153 -1.9979 0.9446
-13.8889 2.4634 -1.9986 0.9446
-14.0549 1.2129 -1.9988 0.9446
-14.1087 -0.0475 -1.9991 0.9446
-13.8788 -2.5581 -1.9996 0.9446
-13.5968 -3.7882 -1.9999 0.9446
-13.2061 -4.9885 -2.0002 0.9446
-12.1115 -7.2613 -2.0009 0.9445
-8.1378 -10.2105 -1.8500 0.9486
-2.9237 -12.7361 -1.8515 0.9486
-0.6109 -13.0567 -1.8520 0.9486
0.5581 -13.0606 -1.8522 0.9486
1.7227 -12.9600 -1.8524 0.9486
2.8739 -12.7555 -1.8526 0.9485
4.0022 -12.4489 -1.8528 0.9485
7.1610 -10.9440 -1.8531 0.9485
8.1102 -10.2608 -1.8532 0.9485
11.1896 -6.7703 -1.8531 0.9485
12.2144 -4.6705 -1.8529 0.9485
9.7051 -2.7464 -1.4291 0.9601
9.7443 -1.8369 -1.4050 0.9607
12.5918 -1.2236 -1.7925 0.9502
14.1470 -0.1049 -2.0045 0.9444
12.7915 6.0195 -2.0031 0.9445
9.6780 6.8909 -1.6834 0.9531
9.7659 8.3635 -1.8218 0.9494
5.6966 12.9176 -2.0004 0.9446
3.3059 13.7209 -1.9997 0.9446
2.0667 13.9594 -1.9995 0.9446
-0.4502 14.1007 -1.9989 0.9446
-2.9516 13.7926 -1.9985 0.9446
-4.1716 13.4726 -1.9983 0.9446
-5.3581 13.0451 -1.9982 0.9446
-6.5017 12.5136 -1.9981 0.9446
-7.5932 11.8822 -1.9980 0.9446
-8.6241 11.1561 -1.9979 0.9446
-7.7843 3.9098 -1.2343 0.9654
-13.5289 3.9864 -1.9984 0.9446
-13.8322 2.7622 -1.9986 0.9446
-14.1060 0.2567 -1.9990 0.9446
-14.0744 -1.0046 -1.9993 0.9446
-7.4274 -10.7404 -1.8502 0.9486
-5.3994 -11.8947 -1.8509 0.9486
-4.3159 -12.3314 -1.8512 0.9486
-3.1976 -12.6696 -1.8514 0.9486
-2.0533 -12.9065 -1.8517 0.9486
-0.8922 -13.0401 -1.8520 0.9486
0.2763 -13.0693 -1.8522 0.9486
2.5981 -12.8142 -1.8526 0.9485
4.8378 -12.1494 -1.8529 0.9485
7.8870 -10.4333 -1.8531 0.9485
8.7877 -9.6871 -1.8532 0.9485
7.2343 -5.5585 -1.2926 0.9638
11.6227 -5.9954 -1.8530 0.9485
9.6078 -2.0266 -1.3913 0.9611
14.1202 0.8549 -2.0043 0.9445
13.9854 2.1126 -2.0041 0.9445
13.7388 3.3530 -2.0038 0.9445
13.3823 4.5662 -2.0035 0.9445
12.9188 5.7426 -2.0032 0.9445
9.8279 8.0559 -1.8005 0.9500
7.0941 12.2094 -2.0008 0.9445
5.9740 12.7922 -2.0004 0.9446
4.8066 13.2727 -2.0001 0.9446
2.3673 13.9120 -1.9995 0.9446
-0.1461 14.1075 -1.9990 0.9446
-5.0757 13.1579 -1.9982 0.9446
-7.3353 12.0433 -1.9980 0.9446
-8.3816 11.3395 -1.9979 0.9446
-9.3609 10.5452 -1.9979 0.9446
-11.8224 7.6861 -1.9980 0.9446
-14.0923 -0.7008 -1.9992 0.9446
-13.9752 -1.9572 -1.9995 0.9446
-13.7465 -3.1983 -1.9998 0.9446
-13.4078 -4.4142 -2.0001 0.9446
-12.4123 -6.7318 -2.0007 0.9446
-11.7633 -7.8151 -2.0010 0.9445
-11.0201 -8.8362 -2.0014 0.9445
-10.1884 -9.7870 -2.0017 0.9445
-8.5698 -9.8493 -1.8498 0.9486
-7.6570 -10.5773 -1.8502 0.9486
-6.6826 -11.2210 -1.8505 0.9486
-4.5806 -12.2350 -1.8511 0.9486
-3.4699 -12.5973 -1.8514 0.9486
-2.3310 -12.8588 -1.8516 0.9486
-1.1731 -13.0174 -1.8519 0.9486
1.1623 -13.0216 -1.8523 0.9486
2.3212 -12.8670 -1.8525 0.9485
3.4616 -12.6093 -1.8527 0.9485
4.5746 -12.2507 -1.8529 0.9485
5.6511 -11.7938 -1.8530 0.9485
6.6823 -11.2424 -1.8531 0.9485
8.5767 -9.8743 -1.8532 0.9485
10.8875 -7.2465 -1.8531 0.9485
11.4908 -6.2447 -1.8530 0.9485
14.1301 -0.7148 -2.0046 0.9444
14.0282 1.8106 -2.0041 0.9445
13.8084 3.0561 -2.0038 0.9445
13.0401 5.4629 -2.0032 0.9445
12.4979 6.6049 -2.0029 0.9445
9.8885 7.7552 -1.7806 0.9505
6.4949 6.1057 -1.2630 0.9646
8.7089 9.7939 -1.8570 0.9484
7.3560 12.0541 -2.0008 0.9445
5.0918 13.1664 -2.0002 0.9446
0.1581 14.1078 -1.9991 0.9446
-4.7908 13.2645 -1.9983 0.9446
-5.9562 12.7826 -1.9981 0.9446
-8.1352 11.5177 -1.9980 0.9446
-9.1313 10.7447 -1.9979 0.9446
-6.8933 5.6602 -1.2638 0.9646
-11.6538 7.9392 -1.9980 0.9446
-13.9460 2.1188 -1.9987 0.9446
-14.1037 -0.3968 -1.9991 0.9446
-13.8118 -2.9010 -1.9997 0.9446
-13.4994 -4.1239 -2.0000 0.9446
-13.0791 -5.3142 -2.0003 0.9446
-11.9286 -7.5593 -2.0010 0.9445
-10.3966 -9.5646 -2.0016 0.9445
-3.7405 -12.5191 -1.8513 0.9486
-2.6076 -12.8051 -1.8516 0.9486
-0.2874 -13.0682 -1.8521 0.9486
0.8813 -13.0432 -1.8523 0.9486
2.0431 -12.9137 -1.8525 0.9486
3.1889 -12.6808 -1.8527 0.9485
5.3953 -11.9127 -1.8529 0.9485
10.0180 -8.4084 -1.8532 0.9485
10.7288 -7.4797 -1.8531 0.9485
11.3536 -6.4911 -1.8530 0.9485
11.8875 -5.4506 -1.8529 0.9485
9.7704 -3.4612 -1.4687 0.9590
9.6562 -2.4760 -1.4124 0.9605
10.3688 -1.6899 -1.4885 0.9584
14.1118 -1.0193 -2.0047 0.9444
14.0645 1.5078 -2.0042 0.9445
13.8716 2.7578 -2.0039 0.9445
-11.7762 2.9246 -1.9989 0.9520
-11.9914 1.8611 -1.9991 0.9520
-12.1108 0.7825 -1.9993 0.9520
-12.1336 -0.3025 -1.9995 0.9520
-11.8888 -2.4575 -2.0000 0.9520
-11.6233 -3.5102 -2.0002 0.9520
-10.2809 -6.4691 -2.0011 0.9520
-9.6633 -7.3627 -2.0014 0.9519
-8.9682 -8.1978 -2.0016 0.9519
-8.1786 -8.9427 -1.9964 0.9521
-4.1984 -10.4208 -1.8508 0.9555
-3.2511 -10.7556 -1.8511 0.9555
-2.2776 -11.0045 -1.8513 0.9555
-1.2856 -11.1653 -1.8515 0.9555
-0.2831 -11.2368 -1.8517 0.9555
0.7219 -11.2183 -1.8519 0.9555
2.7072 -10.9127 -1.8522 0.9554
3.6715 -10.6279 -1.8524 0.9554
4.6065 -10.2581 -1.8525 0.9554
6.3589 -9.2754 -1.8526 0.9554
7.9082 -7.9960 -1.8527 0.9554
8.5908 -7.2575 -1.8527 0.9554
9.7446 -5.6126 -1.8526 0.9554
10.2066 -4.7194 -1.8525 0.9554
11.0539 -3.9558 -1.9341 0.9535
9.6572 -2.5092 -1.6437 0.9604
12.1320 -0.9153 -2.0043 0.9519
12.1641 0.1721 -2.0041 0.9519
12.0987 1.2579 -2.0039 0.9519
11.9365 2.3334 -2.0036 0.9519
11.6788 3.3900 -2.0034 0.9519
11.3278 4.4191 -2.0031 0.9519
10.8862 5.4126 -2.0028 0.9519
9.0425 6.7369 -1.8576 0.9553
8.4033 7.5166 -1.8574 0.9553
4.3118 8.2172 -1.5287 0.9631
3.6382 11.5838 -2.0002 0.9520
0.7893 6.2604 -1.0395 0.9747
0.4365 12.1295 -1.9995 0.9520
-1.7286 12.0112 -1.9991 0.9520
-2.7945 11.8078 -1.9989 0.9520
-4.8504 11.1206 -1.9987 0.9520
-5.8242 10.6423 -1.9986 0.9520
-7.6246 9.4355 -1.9985 0.9520
-8.4369 8.7166 -1.9984 0.9520
-9.8536 7.0763 -1.9985 0.9520
-10.1651 4.8339 -1.8543 0.9554
-12.0909 1.0434 -1.9992 0.9520
-12.1370 -0.0408 -1.9994 0.9520
-10.9323 -5.2894 -2.0007 0.9520
-10.4176 -6.2457 -2.0010 0.9520
-9.8194 -7.1524 -2.0013 0.9519
-9.1426 -8.0022 -2.0016 0.9519
-8.3873 -8.7829 -2.0006 0.9520
-6.9990 -8.7816 -1.8499 0.9555
-2.5143 -10.9525 -1.8512 0.9555
-0.5253 -11.2277 -1.8517 0.9555
1.4814 -11.1443 -1.8520 0.9554
2.4712 -10.9683 -1.8522 0.9554
3.4414 -10.7045 -1.8523 0.9554
4.3842 -10.3549 -1.8525 0.9554
6.1574 -9.4102 -1.8526 0.9554
7.7339 -8.1646 -1.8527 0.9554
8.4323 -7.4410 -1.8527 0.9554
7.3528 -5.4014 -1.5030 0.9637
9.6214 -5.8215 -1.8526 0.9554
10.1026 -4.9385 -1.8525 0.9554
10.6285 -4.0641 -1.8746 0.9549
9.7046 -2.7462 -1.6615 0.9599
9.8722 -1.8610 -1.6550 0.9601
12.1098 -1.1767 -2.0043 0.9519
12.1233 0.9968 -2.0039 0.9519
11.7496 3.1375 -2.0034 0.9519
10.4928 6.1380 -2.0026 0.9519
8.5637 7.3339 -1.8574 0.9553
7.1198 8.7382 -1.8569 0.9553
5.8688 8.6853 -1.7268 0.9584
4.9000 11.1113 -2.0006 0.9520
2.6646 7.8850 -1.3711 0.9668
1.1079 7.4832 -1.2462 0.9698
-1.4693 12.0459 -1.9991 0.9520
-2.5392 11.8655 -1.9990 0.9520
-2.0902 6.7505 -1.1642 0.9718
-8.2470 8.8965 -1.9984 0.9520
-9.0088 8.1242 -1.9985 0.9520
-9.6987 7.2870 -1.9985 0.9520
-7.2179 4.4742 -1.3990 0.9662
-6.3215 3.1751 -1.1654 0.9717
-11.9830 -1.9425 -1.9998 0.9520
-11.4490 -4.0449 -2.0004 0.9520
-9.9710 -6.9388 -2.0012 0.9519
-7.1865 -8.6283 -1.8499 0.9555
-3.7116 -10.6048 -1.8509 0.9555
-2.7498 -10.8954 -1.8512 0.9555
-0.7672 -11.2135 -1.8516 0.9555
0.2376 -11.2384 -1.8518 0.9555
1.2407 -11.1734 -1.8520 0.9554
2.2341 -11.0188 -1.8522 0.9554
3.2097 -10.7760 -1.8523 0.9554
4.1598 -10.4469 -1.8524 0.9554
5.0767 -10.0340 -1.8525 0.9554
5.9530 -9.5407 -1.8526 0.9554
6.7817 -8.9710 -1.8526 0.9554
7.2078 -5.5381 -1.4974 0.9638
9.4938 -6.0276 -1.8526 0.9554
9.9939 -5.1552 -1.8525 0.9554
9.8042 -3.0042 -1.6893 0.9593
12.1608 -0.3525 -2.0042 0.9519
11.5085 3.9269 -2.0032 0.9519
10.6231 5.9105 -2.0027 0.9519
9.4602 6.4330 -1.8847 0.9547
8.7201 7.1479 -1.8575 0.9553
6.2097 6.0951 -1.4334 0.9653
4.8855 5.7387 -1.2416 0.9699
6.5099 9.2000 -1.8567 0.9553
4.1346 11.4169 -2.0003 0.9520
3.0977 11.7391 -2.0001 0.9520
2.0364 11.9674 -1.9998 0.9520
-0.1257 12.1360 -1.9994 0.9520
-1.2092 12.0751 -1.9992 0.9520
-4.3666 11.3196 -1.9987 0.9520
-5.3600 10.8837 -1.9986 0.9520
-6.3106 10.3610 -1.9985 0.9520
-8.8315 8.3165 -1.9984 0.9520
-9.5393 7.4944 -1.9985 0.9520
-11.8453 2.6322 -1.9990 0.9520
-12.1268 0.4824 -1.9993 0.9520
-11.5332 -3.7970 -2.0003 0.9520
-10.6764 -5.7904 -2.0008 0.9520
-10.1179 -6.7219 -2.0011 0.9519
-8.7629 -8.4176 -2.0017 0.9519
-7.5594 -8.6881 -1.8972 0.9544
-6.5853 -9.0970 -1.8501 0.9555
-5.7472 -9.6503 -1.8504 0.9555
-2.0045 -11.0579 -1.8514 0.9555
2.9766 -10.8425 -1.8523 0.9554
3.9335 -10.5340 -1.8524 0.9554
4.8591 -10.1410 -1.8525 0.9554
5.7458 -9.6668 -1.8526 0.9554
6.5866 -9.1151 -1.8526 0.9554
7.3747 -8.4904 -1.8527 0.9554
9.8805 -5.3696 -1.8525 0.9554
10.3201 -4.4652 -1.8524 0.9554
9.8850 -3.2637 -1.7149 0.9587
12.0483 -1.6978 -2.0044 0.9519
12.1557 0.4732 -2.0040 0.9519
12.0634 1.5570 -2.0038 0.9519
11.8747 2.6281 -2.0036 0.9519
11.2145 4.6981 -2.0030 0.9519
10.7484 5.6803 -2.0027 0.9519
7.4905 8.4237 -1.8570 0.9553
6.7070 9.0579 -1.8567 0.9553
5.3749 10.8904 -2.0007 0.9520
4.3799 11.3255 -2.0004 0.9520
2.2940 11.9210 -1.9999 0.9520
1.2198 12.0769 -1.9997 0.9520
0.1360 12.1362 -1.9994 0.9520
-4.1215 11.4113 -1.9988 0.9520
-3.7034 6.3863 -1.2162 0.9705
-6.9988 9.9088 -1.9985 0.9520
-7.5856 4.2290 -1.4307 0.9654
-9.7080 3.3218 -1.6903 0.9593
-11.9973 1.8227 -1.9991 0.9520
-12.1133 0.7438 -1.9993 0.9520
-11.8810 -2.4955 -2.0000 0.9520
-11.6121 -3.5473 -2.0002 0.9520
-11.2503 -4.5711 -2.0005 0.9520
-10.7984 -5.5586 -2.0008 0.9520
-9.6397 -7.3936 -2.0014 0.9519
-8.9420 -8.2264 -2.0017 0.9519
-8.1474 -8.9660 -1.9958 0.9521
-6.7797 -8.9525 -1.8500 0.9555
-5.0798 -10.0190 -1.8506 0.9555
-4.1651 -10.4342 -1.8508 0.9555
-3.2168 -10.7660 -1.8511 0.9555
-1.2499 -11.1694 -1.8515 0.9555
-0.2472 -11.2376 -1.8517 0.9555
2.7421 -10.9040 -1.8522 0.9554
3.7055 -10.6162 -1.8524 0.9554
5.5360 -9.7884 -1.8526 0.9554
7.1899 -8.6474 -1.8527 0.9554
9.2252 -6.4314 -1.8526 0.9554
9.7625 -5.5814 -1.8526 0.9554
9.6476 -2.4738 -1.6408 0.9604
12.1348 -0.8765 -2.0043 0.9519
12.0945 1.2966 -2.0039 0.9519
11.9289 2.3716 -2.0036 0.9519
-9.5775 2.3786 -1.8549 0.9606
-10.6162 0.6859 -1.9996 0.9576
-10.5709 -1.2144 -2.0000 0.9576
-10.1883 -3.0768 -2.0004 0.9576
-9.4804 -4.8419 -2.0009 0.9576
-7.1880 -7.8595 -2.0019 0.9576
-6.0600 -7.9492 -1.8788 0.9601
-5.2446 -8.3300 -1.8502 0.9607
-4.4800 -8.7663 -1.8504 0.9607
-3.6794 -9.1326 -1.8507 0.9607
-2.8492 -9.4259 -1.8509 0.9607
-1.1266 -9.7846 -1.8513 0.9607
-0.2481 -9.8471 -1.8515 0.9607
0.6326 -9.8308 -1.8516 0.9607
1.5085 -9.7357 -1.8518 0.9607
3.2173 -9.3132 -1.8520 0.9607
4.0366 -8.9890 -1.8521 0.9607
6.9297 -7.0066 -1.8523 0.9607
8.0658 -5.6615 -1.8522 0.9607
8.5390 -4.9182 -1.8522 0.9607
9.3782 -4.3364 -1.9420 0.9588
10.4606 2.0449 -2.0034 0.9575
10.2350 2.9709 -2.0032 0.9576
9.9275 3.8728 -2.0029 0.9576
9.5406 4.7436 -2.0027 0.9576
9.0776 5.5763 -2.0024 0.9576
7.3650 6.5879 -1.8573 0.9606
4.0838 9.8293 -2.0006 0.9576
3.1891 10.1537 -2.0004 0.9576
0.7825 6.2065 -1.1758 0.9749
0.3826 10.6324 -1.9998 0.9576
-0.3855 7.2017 -1.3556 0.9711
-4.2520 9.7485 -1.9991 0.9576
-5.1056 9.3293 -1.9990 0.9576
-6.6840 8.2715 -1.9989 0.9576
-8.0492 6.9500 -1.9989 0.9576
-8.0141 5.7553 -1.8545 0.9606
-7.1819 4.2403 -1.5676 0.9666
-7.8745 2.9141 -1.5782 0.9664
-10.4738 1.8577 -1.9994 0.9576
-10.5987 0.9147 -1.9996 0.9576
-10.6390 -0.0358 -1.9997 0.9576
-10.5943 -0.9862 -1.9999 0.9576
-10.2520 -2.8563 -2.0004 0.9576
-7.3555 -7.7025 -2.0019 0.9576
-3.0517 -9.3620 -1.8508 0.9607
-2.2034 -9.5983 -1.8510 0.9607
-1.3373 -9.7578 -1.8512 0.9607
-0.4603 -9.8392 -1.8514 0.9607
0.4205 -9.8419 -1.8516 0.9607
1.2981 -9.7658 -1.8517 0.9607
2.1655 -9.6115 -1.8519 0.9607
3.0157 -9.3803 -1.8520 0.9607
3.8418 -9.0738 -1.8521 0.9607
5.3956 -8.2460 -1.8522 0.9607
6.1108 -7.7312 -1.8523 0.9607
6.7770 -7.1544 -1.8523 0.9607
7.3890 -6.5204 -1.8523 0.9607
8.4311 -5.1012 -1.8522 0.9607
9.9548 -3.8065 -2.0032 0.9575
10.2606 -2.9036 -2.0043 0.9575
10.6607 -0.0790 -2.0039 0.9575
10.6241 0.8735 -2.0037 0.9575
9.6410 4.5370 -2.0028 0.9576
8.6776 6.1786 -2.0022 0.9576
5.5305 8.1846 -1.8567 0.9606
2.4927 10.3457 -2.0002 0.9576
-1.2879 10.5594 -1.9995 0.9576
-2.2259 10.4014 -1.9993 0.9576
-2.0901 6.7503 -1.3282 0.9716
-4.9033 9.4373 -1.9990 0.9576
-6.5041 8.4137 -1.9989 0.9576
-7.2296 7.7990 -1.9989 0.9576
-7.8974 7.1220 -1.9989 0.9576
-7.8881 5.9267 -1.8545 0.9606
-7.2339 4.4842 -1.5997 0.9660
-6.3216 3.1751 -1.3297 0.9716
-8.5177 3.3627 -1.7212 0.9634
-9.4658 2.7892 -1.8548 0.9606
-10.4311 2.0830 -1.9994 0.9576
-10.5763 1.1430 -1.9995 0.9576
-10.6129 -0.7575 -1.9999 0.9576
-10.3109 -2.6345 -2.0003 0.9576
-10.0355 -3.5455 -2.0005 0.9576
-8.1623 -6.8390 -2.0015 0.9576
-5.5985 -8.0957 -1.8501 0.9607
-2.4098 -9.5483 -1.8510 0.9607
0.2082 -9.8485 -1.8515 0.9607
2.8127 -9.4430 -1.8520 0.9607
3.6452 -9.1545 -1.8521 0.9607
4.4486 -8.7926 -1.8522 0.9607
5.9426 -7.8611 -1.8523 0.9607
6.6212 -7.2989 -1.8523 0.9607
9.8554 -4.0142 -2.0002 0.9576
10.5396 1.5921 -2.0035 0.9575
10.0858 3.4414 -2.0031 0.9576
9.7369 4.3281 -2.0028 0.9576
8.8091 5.9902 -2.0023 0.9576
7.6427 6.2647 -1.8575 0.9606
7.0516 6.9214 -1.8572 0.9606
4.8855 5.7387 -1.4166 0.9698
4.9620 8.5401 -1.8565 0.9606
3.6241 10.0073 -2.0005 0.9576
2.7153 10.2898 -2.0003 0.9576
-2.0012 10.4471 -1.9994 0.9576
-2.9262 10.2259 -1.9992 0.9576
-3.8278 9.9230 -1.9991 0.9576
-4.6987 9.5410 -1.9990 0.9576
-6.3212 8.5520 -1.9989 0.9576
-7.7420 7.2906 -1.9989 0.9576
-8.3625 6.5699 -1.9989 0.9576
-6.1924 3.2793 -1.3171 0.9719
-9.4033 2.9926 -1.8548 0.9606
-10.6302 0.4229 -1.9996 0.9576
-10.5379 -1.4758 -2.0000 0.9576
-10.3650 -2.4115 -2.0002 0.9576
-10.1093 -3.3282 -2.0005 0.9576
-9.3580 -5.0753 -2.0010 0.9576
-8.3076 -6.6612 -2.0015 0.9576
-6.9810 -8.0234 -1.9990 0.9576
-4.2617 -8.8749 -1.8505 0.9607
-2.6150 -9.4939 -1.8509 0.9607
-0.0042 -9.8505 -1.8515 0.9607
0.8759 -9.8123 -1.8517 0.9607
2.6084 -9.5013 -1.8519 0.9607
3.4469 -9.2308 -1.8520 0.9607
5.0350 -8.4708 -1.8522 0.9607
6.4623 -7.4399 -1.8523 0.9607
7.1011 -6.8329 -1.8523 0.9607
9.7520 -4.2194 -1.9972 0.9577
10.3837 -2.4252 -2.0043 0.9575
10.6524 0.4147 -2.0038 0.9575
10.5717 1.3645 -2.0036 0.9575
9.8282 4.1173 -2.0029 0.9576
7.7762 6.0986 -1.8575 0.9606
6.4949 6.1057 -1.6755 0.9644
2.9366 10.2292 -2.0003 0.9576
0.6425 6.3612 -1.2017 0.9743
0.1192 10.6384 -1.9997 0.9576
-2.7051 10.2868 -1.9992 0.9576
-3.6130 10.0034 -1.9991 0.9576
-4.4920 9.6402 -1.9990 0.9576
-5.2176 6.1394 -1.5144 0.9677
-7.3448 5.0037 -1.6705 0.9645
-7.1246 3.9720 -1.5332 0.9673
-7.8617 3.5026 -1.6177 0.9656
-9.5851 2.3480 -1.8549 0.9606
-10.5168 1.5978 -1.9994 0.9576
-10.6184 0.6520 -1.9996 0.9576
-10.6352 -0.2992 -1.9998 0.9576
-10.5670 -1.2482 -2.0000 0.9576
-10.4143 -2.1874 -2.0002 0.9576
-10.1784 -3.1094 -2.0004 0.9576
-9.8611 -4.0067 -2.0007 0.9576
-9.4649 -4.8722 -2.0009 0.9576
-8.9930 -5.6989 -2.0012 0.9576
-8.4490 -6.4803 -2.0014 0.9576
-7.1628 -7.8825 -2.0019 0.9576
-6.0068 -7.9320 -1.8702 0.9603
-5.2179 -8.3468 -1.8502 0.9607
-4.4520 -8.7807 -1.8504 0.9607
-2.8191 -9.4350 -1.8509 0.9607
-1.9652 -9.6502 -1.8511 0.9607
-0.2166 -9.8479 -1.8515 0.9607
0.6641 -9.8287 -1.8516 0.9607
3.2471 -9.3029 -1.8520 0.9607
4.0653 -8.9761 -1.8521 0.9607
6.3003 -7.5775 -1.8523 0.9607
6.9521 -6.9845 -1.8523 0.9607
8.0838 -5.6357 -1.8522 0.9607
9.4290 -4.3233 -1.9497 0.9587
10.0519 -3.5609 -2.0044 0.9575
10.3292 -2.6486 -2.0043 0.9575
10.5237 -1.7151 -2.0041 0.9575
10.6591 0.1849 -2.0038 0.9575
-9.3483 1.4509 -1.9997 0.9621
-9.4412 0.6100 -1.9998 0.9621
-9.4587 -0.2358 -2.0000 0.9621
-9.0602 -2.7361 -2.0006 0.9620
-8.7805 -3.5349 -2.0008 0.9620
-8.4305 -4.3056 -2.0010 0.9620
-8.0130 -5.0421 -2.0012 0.9620
-7.5314 -5.7384 -2.0014 0.9620
-5.7337 -7.5213 -1.9991 0.9621
-2.5333 -8.3809 -1.8507 0.9648
-1.0017 -8.6997 -1.8511 0.9648
0.5625 -8.7405 -1.8514 0.9648
1.3411 -8.6560 -1.8515 0.9648
2.1092 -8.5021 -1.8516 0.9648
3.5888 -7.9919 -1.8518 0.9648
4.2886 -7.6396 -1.8519 0.9648
4.9540 -7.2261 -1.8519 0.9648
5.5798 -6.7548 -1.8520 0.9648
6.6928 -5.6540 -1.8520 0.9648
7.1710 -5.0335 -1.8519 0.9648
8.0483 -4.6356 -1.9633 0.9627
9.1760 -2.3842 -2.0040 0.9620
9.3517 -1.5548 -2.0039 0.9620
9.4525 -0.7132 -2.0037 0.9620
9.4776 0.1341 -2.0036 0.9620
9.4269 0.9801 -2.0034 0.9620
9.3008 1.8182 -2.0032 0.9620
9.1003 2.6415 -2.0030 0.9620
8.0716 4.9583 -2.0024 0.9620
6.5490 5.8580 -1.8573 0.9647
5.4008 6.9283 -1.8569 0.9647
3.5432 5.4954 -1.3821 0.9736
3.3693 8.1096 -1.8563 0.9647
2.0178 9.2457 -2.0004 0.9620
0.7772 6.1643 -1.3133 0.9749
0.2651 7.3676 -1.5584 0.9703
-0.3855 7.2019 -1.5245 0.9709
-1.0179 7.0725 -1.5104 0.9712
-2.1785 9.2053 -1.9996 0.9621
-5.9444 7.3563 -1.9992 0.9621
-6.6415 5.7346 -1.8548 0.9648
-7.1274 5.1185 -1.8548 0.9648
-7.1110 4.1985 -1.7456 0.9668
-8.5657 2.3245 -1.8761 0.9644
-9.4257 0.8134 -1.9998 0.9621
-9.1168 -2.5401 -2.0005 0.9620
-8.1197 -4.8680 -2.0012 0.9620
-6.5406 -6.8491 -2.0019 0.9620
-4.1505 -7.7068 -1.8503 0.9648
-2.7134 -8.3242 -1.8507 0.9648
-1.9591 -8.5341 -1.8509 0.9648
1.9253 -8.5455 -1.8516 0.9648
2.6812 -8.3398 -1.8517 0.9648
3.4156 -8.0673 -1.8518 0.9648
5.4329 -6.8735 -1.8520 0.9648
6.0252 -6.3607 -1.8520 0.9648
7.0608 -5.1869 -1.8520 0.9648
7.7769 -4.7054 -1.9214 0.9635
8.8559 -3.3863 -2.0042 0.9620
9.1225 -2.5815 -2.0040 0.9620
9.3161 -1.7561 -2.0039 0.9620
9.4351 -0.9168 -2.0038 0.9620
9.4785 -0.0703 -2.0036 0.9620
9.4461 0.7767 -2.0035 0.9620
9.1554 2.4447 -2.0031 0.9620
8.5724 4.0341 -2.0026 0.9620
4.9179 7.2780 -1.8567 0.9647
4.2476 7.6874 -1.8565 0.9647
3.5435 8.0352 -1.8563 0.9647
2.6646 7.8850 -1.7593 0.9665
2.2167 9.2003 -2.0004 0.9620
0.9170 6.1937 -1.3235 0.9747
0.5441 9.4462 -2.0000 0.9621
-0.3019 9.4562 -1.9999 0.9621
-1.1454 9.3907 -1.9997 0.9621
-1.9796 9.2503 -1.9996 0.9621
-2.0901 6.7503 -1.4937 0.9715
-5.0929 7.9697 -1.9992 0.9621
-5.7844 7.4827 -1.9992 0.9621
-5.9653 6.4351 -1.8548 0.9648
-6.5163 5.8765 -1.8548 0.9648
-7.1625 4.4399 -1.7813 0.9661
-8.4182 2.4805 -1.8551 0.9648
-9.2767 1.8525 -1.9996 0.9621
-9.4058 1.0165 -1.9998 0.9621
-9.4597 0.1722 -1.9999 0.9621
-9.4380 -0.6736 -2.0001 0.9621
-9.3410 -1.5142 -2.0003 0.9621
-8.9242 -3.1529 -2.0007 0.9620
-8.2225 -4.6917 -2.0011 0.9620
-6.6866 -6.7062 -2.0018 0.9620
-6.0614 -7.2776 -2.0020 0.9620
-5.3207 -7.6940 -1.9774 0.9625
-3.6184 -7.9713 -1.8504 0.9648
-2.8922 -8.2635 -1.8506 0.9648
-2.1426 -8.4897 -1.8508 0.9648
-0.5978 -8.7371 -1.8512 0.9648
3.9551 -7.8173 -1.8519 0.9648
5.8867 -6.4892 -1.8520 0.9648
6.4428 -5.9374 -1.8520 0.9648
6.9474 -5.3380 -1.8520 0.9648
7.5165 -4.7723 -1.8820 0.9643
9.0649 -2.7777 -2.0041 0.9620
9.2762 -1.9566 -2.0040 0.9620
9.4133 -1.1201 -2.0038 0.9620
9.4608 0.5728 -2.0035 0.9620
9.3710 1.4156 -2.0033 0.9620
8.2783 4.6059 -2.0025 0.9620
7.1999 5.9017 -1.9679 0.9627
6.2703 6.1546 -1.8572 0.9647
4.8855 5.7388 -1.5931 0.9697
5.0738 7.1705 -1.8568 0.9647
3.7160 7.9572 -1.8564 0.9647
2.4147 9.1506 -2.0005 0.9620
1.5874 9.3288 -2.0003 0.9621
-0.9427 9.4134 -1.9998 0.9621
-1.7797 9.2909 -1.9996 0.9621
-3.4042 8.8250 -1.9994 0.9621
-4.1788 8.4852 -1.9993 0.9621
-4.9199 8.0777 -1.9993 0.9621
-6.3881 6.0156 -1.8548 0.9648
-9.4536 0.3761 -1.9999 0.9621
-9.2174 -2.1445 -2.0004 0.9620
-8.9899 -2.9597 -2.0006 0.9620
-8.6905 -3.7513 -2.0008 0.9620
-7.8860 -5.2391 -2.0013 0.9620
-7.3873 -5.9233 -2.0015 0.9620
-6.2168 -7.1450 -2.0020 0.9620
-4.4787 -7.5203 -1.8502 0.9648
-2.3251 -8.4413 -1.8508 0.9648
0.7787 -8.7241 -1.8514 0.9648
1.5551 -8.6203 -1.8516 0.9648
3.7856 -7.9007 -1.8519 0.9648
5.1314 -7.1013 -1.8520 0.9648
6.8307 -5.4866 -1.8520 0.9648
8.7019 -3.7651 -2.0042 0.9620
9.0030 -2.9725 -2.0041 0.9620
9.2320 -2.1562 -2.0040 0.9620
9.3871 -1.3228 -2.0039 0.9620
9.4670 -0.4789 -2.0037 0.9620
8.7388 3.6609 -2.0028 0.9620
7.9461 5.1564 -2.0023 0.9620
7.4528 5.8450 -2.0021 0.9620
6.4017 6.0181 -1.8573 0.9647
2.6115 9.0966 -2.0005 0.9620
0.1060 9.4608 -2.0000 0.9621
-0.5619 7.1662 -1.5194 0.9710
-2.4057 9.1484 -1.9995 0.9621
-3.2132 8.8964 -1.9994 0.9621
-3.0796 6.6090 -1.5412 0.9706
-3.7034 6.3863 -1.5605 0.9703
-5.4565 7.7252 -1.9992 0.9621
-5.2176 6.1395 -1.7031 0.9676
-6.2569 6.1519 -1.8548 0.9648
-5.9795 3.3336 -1.4471 0.9724
-7.7489 3.4524 -1.7932 0.9659
-8.3032 2.8411 -1.8550 0.9648
-9.3529 1.4210 -1.9997 0.9621
-9.4431 0.5798 -1.9998 0.9621
-9.3972 -1.1100 -2.0002 0.9621
-9.0514 -2.7651 -2.0006 0.9620
-8.7691 -3.5630 -2.0008 0.9620
-7.5131 -5.7625 -2.0015 0.9620
-6.9691 -6.4114 -2.0017 0.9620
-5.7085 -7.5381 -1.9987 0.9621
-4.7284 -7.5637 -1.8855 0.9642
-3.2456 -8.1307 -1.8505 0.9648
-2.5065 -8.3890 -1.8507 0.9648
0.5904 -8.7387 -1.8514 0.9648
1.3688 -8.6517 -1.8515 0.9648
2.1364 -8.4953 -1.8517 0.9648
2.8869 -8.2710 -1.8518 0.9648
3.6144 -7.9804 -1.8518 0.9648
4.9771 -7.2103 -1.8520 0.9648
6.7108 -5.6326 -1.8520 0.9648
7.1871 -5.0105 -1.8519 0.9648
8.6188 -3.9518 -2.0042 0.9620
8.9369 -3.1660 -2.0041 0.9620
9.1835 -2.3548 -2.0040 0.9620
9.4547 -0.6829 -2.0037 0.9620
9.2949 1.8479 -2.0032 0.9620
-7.4681 2.5821 -1.8571 0.9681
-8.2580 2.0509 -1.9998 0.9656
-8.4087 1.3050 -1.9999 0.9656
-8.4922 0.5487 -2.0000 0.9656
-7.5827 -3.8727 -2.0011 0.9656
-7.2071 -4.5350 -2.0013 0.9656
-6.2864 -5.7463 -2.0017 0.9656
-2.9423 -7.3030 -1.8504 0.9682
-1.5960 -7.7114 -1.8508 0.9682
1.2061 -7.7844 -1.8513 0.9682
1.8968 -7.6459 -1.8514 0.9681
2.5724 -7.4463 -1.8515 0.9681
3.2274 -7.1870 -1.8516 0.9681
3.8567 -6.8702 -1.8517 0.9681
4.4551 -6.4983 -1.8517 0.9681
5.0178 -6.0745 -1.8517 0.9681
5.5405 -5.6020 -1.8517 0.9681
8.0278 -2.8728 -2.0039 0.9656
8.2519 -2.1441 -2.0038 0.9656
8.5007 -0.6414 -2.0035 0.9656
8.5234 0.1206 -2.0034 0.9656
8.4779 0.8815 -2.0032 0.9656
8.1843 2.3756 -2.0029 0.9656
7.9386 3.0970 -2.0027 0.9656
6.3486 5.6788 -2.0019 0.9656
5.3953 5.7732 -1.8571 0.9681
4.8575 6.2314 -1.8569 0.9681
4.2810 6.6397 -1.8567 0.9681
0.3060 8.5051 -2.0002 0.9656
-1.9596 8.2802 -1.9998 0.9656
-2.6913 8.0716 -1.9997 0.9656
-3.4015 7.7986 -1.9996 0.9656
-3.7894 6.9242 -1.8551 0.9681
-4.3927 6.5579 -1.8551 0.9681
-6.4112 4.6041 -1.8551 0.9681
-7.1285 3.3899 -1.8552 0.9681
-7.4212 2.7464 -1.8598 0.9680
-8.3785 1.4860 -1.9999 0.9656
-8.4783 0.7317 -2.0000 0.9656
-8.4744 -0.7888 -2.0003 0.9656
-8.3708 -1.5429 -2.0005 0.9656
-8.2002 -2.2847 -2.0006 0.9656
-7.9641 -3.0084 -2.0008 0.9656
-7.6642 -3.7082 -2.0010 0.9656
-6.8834 -5.0138 -2.0014 0.9656
-6.4087 -5.6093 -2.0016 0.9656
-5.3093 -6.6616 -2.0021 0.9656
-4.6922 -7.1080 -2.0017 0.9656
-3.9720 -7.3754 -1.9688 0.9662
-2.4403 -7.4863 -1.8506 0.9682
-1.7619 -7.6751 -1.8507 0.9682
-1.0693 -7.8025 -1.8509 0.9682
1.0380 -7.8084 -1.8513 0.9682
1.7315 -7.6850 -1.8514 0.9681
2.4112 -7.4999 -1.8515 0.9681
3.0717 -7.2549 -1.8516 0.9681
3.7076 -6.9517 -1.8517 0.9681
4.3139 -6.5929 -1.8517 0.9681
4.8857 -6.1812 -1.8517 0.9681
5.4184 -5.7201 -1.8517 0.9681
6.7225 -4.9384 -1.9604 0.9663
7.6605 -3.7447 -2.0040 0.9656
7.9641 -3.0453 -2.0039 0.9656
8.5242 -0.0632 -2.0034 0.9656
8.2338 2.1987 -2.0029 0.9656
6.9396 4.9411 -2.0022 0.9656
3.1872 7.2273 -1.8564 0.9681
1.6890 4.9981 -1.2399 0.9786
1.8499 7.6776 -1.8561 0.9681
-1.7806 8.3206 -1.9998 0.9656
-2.0902 6.7504 -1.6608 0.9714
-3.2326 7.8702 -1.9996 0.9656
-3.9226 7.5497 -1.9995 0.9656
-4.2503 6.6511 -1.8551 0.9681
-3.0500 3.9454 -1.1720 0.9797
-5.3659 5.7885 -1.8550 0.9681
-5.8615 5.2860 -1.8550 0.9681
-4.7114 3.5399 -1.3850 0.9761
-5.5455 3.4375 -1.5334 0.9735
-7.3423 2.8986 -1.8552 0.9681
-8.0269 -2.8359 -2.0008 0.9656
-7.7422 -3.5420 -2.0010 0.9656
-7.3956 -4.2198 -2.0012 0.9656
-6.9898 -4.8641 -2.0014 0.9656
-6.5280 -5.4697 -2.0016 0.9656
-6.0139 -6.0316 -2.0018 0.9656
-5.4516 -6.5454 -2.0020 0.9656
-4.1858 -7.3864 -1.9953 0.9657
-3.2856 -7.2380 -1.8682 0.9679
-2.6011 -7.4318 -1.8505 0.9682
-1.2373 -7.7774 -1.8509 0.9682
-0.5376 -7.8575 -1.8510 0.9682
0.8693 -7.8289 -1.8513 0.9682
2.2489 -7.5501 -1.8515 0.9681
2.9145 -7.3193 -1.8516 0.9681
4.1707 -6.6843 -1.8517 0.9681
7.1869 -4.5630 -2.0008 0.9656
7.5780 -3.9090 -2.0040 0.9656
7.8966 -3.2163 -2.0039 0.9656
8.1520 -2.4979 -2.0038 0.9656
8.4655 -1.0073 -2.0036 0.9656
8.5210 -0.2470 -2.0035 0.9656
7.4452 4.1424 -2.0024 0.9656
6.5879 5.4001 -2.0020 0.9656
5.6780 5.5732 -1.8699 0.9678
3.9687 6.8305 -1.8566 0.9681
2.6894 7.4263 -1.8563 0.9681
2.0150 7.6361 -1.8561 0.9681
-0.0881 8.5098 -2.0001 0.9656
-0.8479 8.4673 -2.0000 0.9656
-1.6008 8.3572 -1.9998 0.9656
-3.0621 7.9381 -1.9996 0.9656
-4.1059 6.7412 -1.8551 0.9681
-4.6916 6.3474 -1.8551 0.9681
-5.7462 5.4111 -1.8550 0.9681
-4.6527 3.6553 -1.3906 0.9760
-6.2874 3.3296 -1.6721 0.9712
-8.4386 1.0965 -1.9999 0.9656
-8.5002 -0.4227 -2.0002 0.9656
-7.4847 -4.0593 -2.0011 0.9656
-6.6442 -5.3275 -2.0015 0.9656
-6.1424 -5.9004 -2.0017 0.9656
-5.5913 -6.4262 -2.0020 0.9656
-4.3484 -7.3016 -1.9973 0.9657
-2.7606 -7.3738 -1.8505 0.9682
-0.7069 -7.8439 -1.8510 0.9682
2.7560 -7.3804 -1.8516 0.9681
4.0256 -6.7727 -1.8517 0.9681
4.6146 -6.3861 -1.8517 0.9681
5.1667 -5.9484 -1.8517 0.9681
5.6775 -5.4631 -1.8517 0.9681
8.0964 -2.6732 -2.0039 0.9656
8.3024 -1.9391 -2.0038 0.9656
8.5138 -0.4307 -2.0035 0.9656
8.4533 1.0911 -2.0032 0.9656
8.3213 1.8417 -2.0030 0.9656
8.1228 2.5775 -2.0028 0.9656
7.8593 3.2925 -2.0027 0.9656
7.1465 4.6376 -2.0023 0.9656
5.9919 5.6328 -1.9328 0.9668
5.2506 5.9048 -1.8571 0.9681
4.7016 6.3496 -1.8569 0.9681
3.2776 5.3709 -1.4788 0.9745
3.4960 7.0835 -1.8565 0.9681
2.8489 7.3667 -1.8563 0.9681
2.1792 7.5911 -1.8561 0.9681
1.4923 7.7547 -1.8560 0.9681
0.6354 6.2910 -1.4860 0.9744
-2.1640 8.2290 -1.9998 0.9656
-3.7034 6.3864 -1.7351 0.9701
-4.5537 6.4471 -1.8551 0.9681
-5.1114 6.0144 -1.8550 0.9681
-5.6282 5.5338 -1.8550 0.9681
-4.4948 3.6908 -1.3669 0.9764
-5.1666 3.5198 -1.4693 0.9746
-6.8943 3.8436 -1.8551 0.9681
-7.2104 3.2124 -1.8552 0.9681
-8.2646 2.0245 -1.9998 0.9656
-8.4525 -0.9984 -2.0003 0.9656
-8.1413 -2.4871 -2.0007 0.9656
-7.1926 -4.5580 -2.0013 0.9656
-5.7284 -6.3040 -2.0019 0.9656
-5.1429 -6.7912 -2.0021 0.9656
-3.7133 -7.3238 -1.9299 0.9668
-2.2542 -7.5446 -1.8506 0.9682
-0.8759 -7.8267 -1.8509 0.9682
0.5310 -7.8588 -1.8512 0.9682
1.2310 -7.7805 -1.8513 0.9682
1.9212 -7.6398 -1.8514 0.9681
2.5962 -7.4380 -1.8515 0.9681
3.8786 -6.8578 -1.8517 0.9681
5.0372 -6.0584 -1.8517 0.9681
6.0798 -5.1030 -1.8655 0.9679
6.9694 -4.8588 -1.9967 0.9657
7.4026 -4.2322 -2.0040 0.9656
7.7508 -3.5539 -2.0040 0.9656
8.2587 -2.1177 -2.0038 0.9656
8.4144 -1.3714 -2.0037 0.9656
8.4750 0.9086 -2.0032 0.9656
-7.4966 1.8618 -2.0000 0.9686
-7.6334 1.1847 -2.0001 0.9686
-7.7091 0.4981 -2.0002 0.9686
-7.7233 -0.1926 -2.0003 0.9686
-7.6758 -0.8818 -2.0005 0.9686
-7.3975 -2.2340 -2.0008 0.9686
-6.8831 -3.5154 -2.0011 0.9686
-6.5422 -4.1166 -2.0013 0.9686
-5.7063 -5.2160 -2.0017 0.9686
-5.2180 -5.7055 -2.0019 0.9686
-4.6879 -6.1494 -2.0021 0.9686
-3.5172 -6.8824 -2.0012 0.9686
-2.8687 -7.1203 -1.9876 0.9688
-0.1800 -7.1465 -1.8509 0.9709
1.7216 -6.9397 -1.8513 0.9709
3.5004 -6.2355 -1.8515 0.9709
4.0435 -5.8980 -1.8515 0.9709
4.5543 -5.5133 -1.8515 0.9709
5.2279 -5.2860 -1.9249 0.9697
7.4897 -1.9460 -2.0036 0.9685
7.6332 -1.2691 -2.0035 0.9685
7.5922 1.4842 -2.0030 0.9685
