ply
format ascii 1.0
element vertex 1594
property float32 x
property float32 y
property float32 z
property float32 I
end_header
9.6108 -4.8618 -2.0244 0.9571
10.4858 -2.1280 -2.0111 0.9574
10.6096 -1.1808 -2.0065 0.9575
10.6481 -0.2286 -2.0019 0.9576
10.6016 0.7210 -1.9973 0.9577
10.2582 2.5827 -1.9883 0.9579
9.9650 3.4804 -1.9840 0.9579
8.0113 5.5297 -1.8297 0.9612
7.4725 6.2116 -1.8264 0.9612
6.8770 6.8425 -1.8234 0.9613
3.7161 6.4934 -1.4062 0.9700
4.3413 9.4554 -1.9556 0.9585
2.5873 10.0624 -1.9529 0.9586
1.6782 10.2490 -1.9521 0.9586
0.4677 6.4010 -1.2063 0.9742
-0.1707 10.3816 -1.9516 0.9586
-1.0968 10.3269 -1.9520 0.9586
-2.0149 10.1917 -1.9527 0.9586
-2.9182 9.9769 -1.9538 0.9586
-3.8000 9.6841 -1.9554 0.9585
-5.4727 8.8728 -1.9595 0.9585
-4.8825 5.4402 -1.3740 0.9707
-6.1082 4.7468 -1.4540 0.9690
-8.8404 5.6821 -1.9753 0.9581
-9.3308 4.8800 -1.9792 0.9580
-9.7494 4.0362 -1.9833 0.9580
-10.0925 3.1567 -1.9876 0.9579
-10.3570 2.2483 -1.9921 0.9578
-10.6402 0.3727 -2.0012 0.9576
-10.5855 -1.5320 -2.0104 0.9574
-10.4301 -2.4763 -2.0150 0.9573
-10.1901 -3.4049 -2.0194 0.9572
-9.8667 -4.3101 -2.0238 0.9571
-8.9794 -6.0199 -2.0320 0.9570
-8.4219 -6.8099 -2.0357 0.9569
-6.5604 -7.6005 -1.8872 0.9600
-5.8642 -8.1672 -1.8898 0.9599
-5.1182 -8.6688 -1.8922 0.9599
-2.6457 -9.7403 -1.8971 0.9598
-1.7666 -9.9422 -1.8980 0.9597
2.7011 -9.7216 -1.8965 0.9598
3.5552 -9.4343 -1.8950 0.9598
6.5988 -7.5561 -1.8856 0.9600
10.1974 -3.3418 -2.0170 0.9573
10.4315 -2.4129 -2.0125 0.9574
10.6246 0.4338 -1.9987 0.9576
10.3313 2.3054 -1.9896 0.9578
8.1628 5.3136 -1.8307 0.9611
-8.9969 -3.1975 -2.0183 0.9617
-8.3159 -4.7639 -2.0258 0.9616
-7.8711 -5.4966 -2.0293 0.9615
-7.3610 -6.1872 -2.0326 0.9614
-5.0646 -7.3443 -1.8858 0.9642
-1.3986 -8.8439 -1.8927 0.9641
1.7839 -8.7711 -1.8920 0.9641
2.5582 -8.5721 -1.8909 0.9641
4.7250 -7.5677 -1.8858 0.9642
5.3750 -7.1071 -1.8836 0.9642
6.2634 -6.9026 -1.9702 0.9626
7.0672 -6.5121 -2.0314 0.9615
7.6130 -5.8497 -2.0294 0.9615
8.5016 -4.3874 -2.0223 0.9616
9.3055 -1.9669 -2.0104 0.9619
9.4682 -0.2799 -2.0023 0.9620
9.4361 0.5651 -1.9982 0.9621
9.1484 2.2248 -1.9902 0.9622
8.8961 3.0266 -1.9863 0.9623
7.0835 3.9314 -1.7125 0.9674
7.1761 4.8680 -1.8330 0.9652
6.7023 5.4803 -1.8301 0.9652
5.3795 7.5791 -1.9646 0.9627
2.3795 8.9534 -1.9583 0.9628
0.5191 6.3935 -1.3559 0.9741
-1.2133 6.4089 -1.3788 0.9737
-2.5297 8.9155 -1.9590 0.9628
-4.0807 8.3363 -1.9619 0.9628
-3.3659 5.5571 -1.3733 0.9738
-4.3144 4.8862 -1.3778 0.9737
-7.8301 5.1227 -1.9779 0.9625
-8.2707 4.4111 -1.9814 0.9624
-8.6473 3.6621 -1.9850 0.9623
-8.9569 2.8812 -1.9888 0.9623
-9.3637 1.2478 -1.9968 0.9621
-9.4751 -0.4387 -2.0050 0.9620
-9.4173 -1.2853 -2.0091 0.9619
-9.0749 -2.9509 -2.0171 0.9617
-8.7921 -3.7563 -2.0210 0.9617
-8.4373 -4.5344 -2.0247 0.9616
-8.0130 -5.2786 -2.0283 0.9615
-6.9691 -6.6404 -2.0348 0.9614
-6.3442 -7.2309 -2.0334 0.9614
-5.2598 -7.2019 -1.8851 0.9642
-3.1731 -8.3619 -1.8905 0.9641
-2.4156 -8.6170 -1.8917 0.9641
-1.6375 -8.8020 -1.8925 0.9641
-0.8456 -8.9152 -1.8930 0.9640
-0.0465 -8.9556 -1.8931 0.9640
1.5458 -8.8173 -1.8922 0.9641
2.3255 -8.6399 -1.8913 0.9641
3.0853 -8.3922 -1.8900 0.9641
3.8187 -8.0764 -1.8884 0.9641
4.5197 -7.6955 -1.8865 0.9642
9.0374 -3.0428 -2.0157 0.9618
9.2544 -2.2196 -2.0117 0.9618
9.3965 -1.3820 -2.0076 0.9619
9.3693 1.1497 -1.9953 0.9621
8.6790 3.5697 -1.9837 0.9624
7.7104 4.0101 -1.8371 0.9651
6.8516 5.2992 -1.8309 0.9652
6.3417 5.8807 -1.8282 0.9653
4.7022 5.2151 -1.4843 0.9717
5.1814 6.8964 -1.8234 0.9653
4.8937 7.8933 -1.9631 0.9627
2.6216 8.8870 -1.9586 0.9628
1.8172 9.0815 -1.9577 0.9628
0.9991 9.2050 -1.9572 0.9629
-1.4756 9.1434 -1.9577 0.9628
-3.0810 8.7447 -1.9598 0.9628
-3.3707 5.9215 -1.4403 0.9725
-4.4117 6.3545 -1.6352 0.9689
-4.0373 4.8299 -1.3306 0.9746
-6.0430 5.0468 -1.6643 0.9683
-7.6845 5.3302 -1.9769 0.9625
-8.1437 4.6311 -1.9803 0.9624
-8.5401 3.8928 -1.9839 0.9624
-9.1313 2.3214 -1.9916 0.9622
-9.3208 1.5001 -1.9956 0.9621
-9.4366 0.6635 -1.9996 0.9621
-9.1461 -2.7023 -2.0159 0.9618
-8.8855 -3.5147 -2.0198 0.9617
-8.5524 -4.3018 -2.0236 0.9616
-8.1488 -5.0569 -2.0272 0.9615
-7.6779 -5.7738 -2.0306 0.9615
-7.1432 -6.4462 -2.0338 0.9614
-4.8052 -7.5212 -1.8866 0.9642
-4.1189 -7.9281 -1.8885 0.9641
-1.8752 -8.7534 -1.8923 0.9641
-1.0867 -8.8885 -1.8928 0.9641
-0.2891 -8.9511 -1.8931 0.9640
0.5109 -8.9405 -1.8929 0.9641
1.3065 -8.8570 -1.8924 0.9641
2.0909 -8.7012 -1.8916 0.9641
3.5995 -8.1792 -1.8889 0.9641
4.3110 -7.8177 -1.8871 0.9642
5.6330 -6.9276 -1.8873 0.9642
6.6901 -6.8709 -2.0271 0.9616
7.8088 -5.5746 -2.0281 0.9615
8.9569 -3.2885 -2.0169 0.9617
9.1965 -2.4710 -2.0129 0.9618
9.3614 -1.6370 -2.0088 0.9619
9.4645 0.0532 -2.0006 0.9620
9.2666 1.7281 -1.9925 0.9622
8.7775 3.3351 -1.9848 0.9623
7.8205 3.8017 -1.8381 0.9651
7.4369 4.4767 -1.8348 0.9651
6.5015 5.7093 -1.8290 0.9652
5.1073 7.7603 -1.9638 0.9627
4.3900 8.1771 -1.9618 0.9628
2.0901 6.4371 -1.4306 0.9727
2.0628 9.0300 -1.9579 0.9628
0.4242 9.2486 -1.9570 0.9629
-0.4030 9.2500 -1.9571 0.9629
-0.8638 6.4608 -1.3778 0.9737
-1.4588 6.4545 -1.3988 0.9733
-2.8424 8.8232 -1.9594 0.9628
-2.7153 6.4040 -1.4703 0.9720
-5.0920 7.7759 -1.9647 0.9627
-4.3473 3.8353 -1.2254 0.9766
-9.0597 2.5663 -1.9904 0.9622
-9.2710 1.7510 -1.9944 0.9622
-9.4614 -0.7723 -2.0066 0.9619
-9.2104 -2.4521 -2.0147 0.9618
-8.9723 -3.2708 -2.0187 0.9617
-7.8276 -5.5609 -2.0296 0.9615
-7.3118 -6.2474 -2.0329 0.9614
-6.7350 -6.8853 -2.0359 0.9614
-5.0056 -7.3858 -1.8860 0.9642
-4.3309 -7.8113 -1.8880 0.9641
-3.6197 -8.1740 -1.8896 0.9641
-2.8777 -8.4705 -1.8910 0.9641
-1.3271 -8.8552 -1.8927 0.9641
-0.5315 -8.9398 -1.8930 0.9640
0.2685 -8.9515 -1.8930 0.9640
2.6273 -8.5506 -1.8908 0.9641
3.3775 -8.2758 -1.8894 0.9641
4.7855 -7.5284 -1.8857 0.9642
7.1219 -6.4568 -2.0320 0.9615
7.6589 -5.7871 -2.0291 0.9615
8.5353 -4.3178 -2.0219 0.9616
9.3194 -1.8912 -2.0101 0.9619
9.4684 -0.2033 -2.0019 0.9620
9.4294 0.6413 -1.9978 0.9621
9.1285 2.2983 -1.9898 0.9622
8.8698 3.0979 -1.9860 0.9623
7.9517 3.6026 -1.8453 0.9649
7.1355 4.9251 -1.8327 0.9652
6.1275 6.0967 -1.8271 0.9653
5.3982 6.4280 -1.7743 0.9663
3.7163 6.4937 -1.5815 0.9699
3.1002 8.7350 -1.9592 0.9628
2.3069 8.9719 -1.9582 0.9628
1.4964 9.1387 -1.9575 0.9628
-0.1522 9.2572 -1.9570 0.9629
-1.7966 9.0872 -1.9580 0.9628
-2.6018 8.8952 -1.9591 0.9628
-3.3877 8.6334 -1.9604 0.9628
-4.1483 8.3037 -1.9621 0.9628
-4.8778 7.9083 -1.9641 0.9627
-4.7764 4.4497 -1.3799 0.9737
-6.0851 4.7288 -1.6290 0.9690
-9.2146 2.0003 -1.9931 0.9622
-9.4618 0.3315 -2.0013 0.9620
-9.4730 -0.5154 -2.0054 0.9620
-9.4083 -1.3616 -2.0094 0.9619
-9.2679 -2.2004 -2.0135 0.9618
-7.9713 -5.3441 -2.0286 0.9615
-6.9161 -6.6974 -2.0350 0.9614
-6.2829 -7.2789 -2.0325 0.9615
-3.8388 -8.0709 -1.8892 0.9641
-2.3459 -8.6366 -1.8918 0.9641
-0.7735 -8.9219 -1.8930 0.9640
0.0259 -8.9557 -1.8931 0.9640
1.6170 -8.8042 -1.8922 0.9641
4.5814 -7.6580 -1.8863 0.9642
5.2404 -7.2099 -1.8841 0.9642
6.0354 -6.9109 -1.9395 0.9632
6.9370 -6.6403 -2.0298 0.9615
7.9946 -5.2929 -2.0267 0.9616
8.4200 -4.5500 -2.0231 0.9616
9.3580 1.2252 -1.9950 0.9621
9.1929 2.0514 -1.9910 0.9622
-7.8097 -3.5898 -2.0201 0.9653
-6.6103 -5.5562 -2.0295 0.9651
-5.5314 -6.6601 -2.0347 0.9651
-3.3075 -7.3087 -1.8854 0.9676
-1.9576 -7.7894 -1.8876 0.9675
0.8922 -7.9847 -1.8883 0.9675
3.6215 -7.1513 -1.8839 0.9676
4.3286 -6.9329 -1.9209 0.9670
5.2036 -6.8804 -2.0274 0.9652
5.8108 -6.4038 -2.0323 0.9651
6.3506 -5.8518 -2.0296 0.9651
6.8376 -5.2540 -2.0266 0.9652
7.2680 -4.6156 -2.0235 0.9652
8.1893 -2.5124 -2.0132 0.9654
8.5155 -0.2518 -2.0022 0.9656
8.4884 0.5083 -1.9985 0.9657
8.3938 1.2616 -1.9949 0.9657
8.2329 2.0022 -1.9913 0.9658
8.0074 2.7243 -1.9879 0.9658
7.7192 3.4223 -1.9845 0.9659
6.4627 4.3840 -1.8354 0.9684
4.0377 3.9530 -1.3280 0.9770
4.6755 5.4769 -1.6924 0.9708
2.8580 7.8507 -1.9636 0.9663
2.1448 8.0704 -1.9626 0.9663
1.4155 8.2267 -1.9619 0.9663
-0.0697 8.3455 -1.9615 0.9663
-0.8144 8.3071 -1.9617 0.9663
-2.2801 8.0359 -1.9632 0.9663
-2.9901 7.8051 -1.9644 0.9662
-3.3719 5.5670 -1.5296 0.9736
-3.7564 5.1094 -1.4904 0.9743
-4.7121 4.4615 -1.5251 0.9737
-7.4463 3.9715 -1.9834 0.9659
-7.7840 3.2965 -1.9867 0.9659
-8.0611 2.5931 -1.9901 0.9658
-8.2751 1.8666 -1.9937 0.9657
-8.4239 1.1226 -1.9973 0.9657
-8.4668 -1.1555 -2.0084 0.9655
-8.1557 -2.6520 -2.0156 0.9654
-7.9001 -3.3751 -2.0190 0.9653
-5.7077 -6.5054 -2.0340 0.9651
-2.1676 -7.7325 -1.8874 0.9675
-0.7587 -7.9995 -1.8885 0.9675
-0.0417 -8.0357 -1.8886 0.9675
0.6756 -8.0065 -1.8884 0.9675
1.3871 -7.9120 -1.8879 0.9675
4.0767 -6.9411 -1.8919 0.9675
5.6323 -6.5555 -2.0312 0.9651
7.1437 -4.8131 -2.0245 0.9652
8.5103 -0.4827 -2.0033 0.9656
8.5038 0.2783 -1.9997 0.9656
8.4296 1.0343 -1.9960 0.9657
8.0825 2.5076 -1.9889 0.9658
6.9424 3.6106 -1.8391 0.9684
6.5821 4.2093 -1.8362 0.9684
6.1711 4.7729 -1.8335 0.9685
4.6893 5.2008 -1.6458 0.9716
4.6688 6.2140 -1.8267 0.9686
4.0914 6.5994 -1.8249 0.9686
3.4831 6.9323 -1.8234 0.9686
3.0702 7.7718 -1.9639 0.9662
2.3630 8.0104 -1.9628 0.9663
-1.3301 8.2419 -1.9621 0.9663
-2.7770 7.8817 -1.9640 0.9662
-2.7686 3.9877 -1.1409 0.9803
-4.4625 4.4605 -1.4829 0.9744
-5.9884 5.0012 -1.8337 0.9684
-6.4204 4.4533 -1.8364 0.9684
-7.3324 4.1697 -1.9824 0.9659
-7.6879 3.5044 -1.9857 0.9659
-8.3858 1.3496 -1.9962 0.9657
-8.4883 0.5969 -1.9999 0.9656
-8.5233 -0.1634 -2.0036 0.9656
-8.3891 -1.6824 -2.0109 0.9655
-7.6836 -3.8648 -2.0214 0.9653
-6.8955 -5.1855 -2.0277 0.9652
-6.4143 -5.7884 -2.0306 0.9651
-5.2899 -6.8456 -2.0333 0.9651
-4.5080 -7.0560 -1.9679 0.9662
-3.6967 -7.1155 -1.8845 0.9676
-3.0492 -7.4226 -1.8860 0.9676
-1.6826 -7.8546 -1.8879 0.9675
-0.2594 -8.0317 -1.8886 0.9675
1.1724 -7.9475 -1.8881 0.9675
1.8763 -7.8080 -1.8873 0.9675
2.5643 -7.6052 -1.8863 0.9676
3.2305 -7.3407 -1.8849 0.9676
3.8694 -7.0170 -1.8833 0.9676
4.6676 -6.9214 -1.9620 0.9663
5.4480 -6.7001 -2.0296 0.9651
6.5489 -5.6216 -2.0284 0.9652
7.4212 -4.3543 -2.0222 0.9653
8.0498 -2.9554 -2.0154 0.9654
8.4989 -0.7134 -2.0045 0.9656
8.3383 1.5550 -1.9935 0.9657
8.1518 2.2890 -1.9899 0.9658
7.9013 3.0022 -1.9865 0.9659
6.6969 4.0313 -1.8371 0.9684
4.2700 6.4880 -1.8254 0.9686
3.6706 6.8371 -1.8238 0.9686
3.2803 7.6873 -1.9643 0.9662
2.0903 6.4377 -1.5908 0.9726
0.3824 8.3370 -1.9615 0.9663
-1.1062 8.2741 -1.9619 0.9663
-2.5619 7.9525 -1.9636 0.9663
-2.7156 6.4046 -1.6349 0.9718
-3.6562 6.8481 -1.8245 0.9686
-3.3732 5.1511 -1.4471 0.9750
-4.2261 4.4596 -1.4440 0.9751
-7.5863 3.7095 -1.9847 0.9659
-7.9005 3.0227 -1.9881 0.9658
-8.3415 1.5754 -1.9951 0.9657
-8.5199 0.0675 -2.0024 0.9656
-8.2785 -2.2040 -2.0134 0.9654
-8.0629 -2.9392 -2.0170 0.9654
-7.7816 -3.6534 -2.0204 0.9653
-7.4366 -4.3404 -2.0237 0.9652
-7.0303 -4.9945 -2.0268 0.9652
-6.5660 -5.6102 -2.0297 0.9651
-5.4779 -6.7053 -2.0349 0.9650
-4.8022 -7.0858 -2.0118 0.9654
-3.8999 -7.0339 -1.8902 0.9675
-3.2485 -7.3357 -1.8855 0.9676
-2.5824 -7.6013 -1.8868 0.9676
-1.8946 -7.8053 -1.8877 0.9675
-1.1908 -7.9458 -1.8883 0.9675
3.0312 -7.4272 -1.8853 0.9676
3.6789 -7.1212 -1.8838 0.9676
7.6690 -3.8795 -2.0199 0.9653
7.9710 -3.1741 -2.0164 0.9654
8.2080 -2.4457 -2.0129 0.9654
8.4812 -0.9439 -2.0056 0.9655
8.5159 -0.1829 -2.0019 0.9656
3.7165 6.4941 -1.7585 0.9697
3.4881 7.5972 -1.9647 0.9662
-0.1372 8.3447 -1.9615 0.9663
-2.3451 8.0176 -1.9633 0.9663
-3.7385 7.4833 -1.9660 0.9662
-3.7836 5.0601 -1.4849 0.9744
-4.1812 3.8952 -1.3430 0.9768
-6.0314 4.6871 -1.7952 0.9691
-6.5770 4.2273 -1.8375 0.9684
-8.4341 1.0546 -1.9976 0.9657
-8.5102 0.2981 -2.0013 0.9656
-8.4586 -1.2242 -2.0087 0.9655
-8.3307 -1.9778 -2.0123 0.9654
-8.1353 -2.7183 -2.0159 0.9654
-7.8737 -3.4395 -2.0194 0.9653
-6.7127 -5.4279 -2.0289 0.9652
-6.2100 -6.0136 -2.0317 0.9651
-5.6555 -6.5521 -2.0342 0.9651
-5.0387 -7.0175 -2.0304 0.9651
-4.1563 -7.0397 -1.9213 0.9670
-3.4452 -7.2434 -1.8851 0.9676
-2.7869 -7.5272 -1.8864 0.9676
0.0233 -8.0358 -1.8886 0.9675
1.4510 -7.9003 -1.8878 0.9675
3.4856 -7.2202 -1.8843 0.9676
4.1511 -6.9387 -1.9003 0.9673
5.0216 -6.9089 -2.0073 0.9655
6.2401 -5.9732 -2.0302 0.9651
7.1814 -4.7545 -2.0242 0.9652
7.8862 -3.3907 -2.0175 0.9653
8.5125 -0.4137 -2.0030 0.9656
8.4998 0.3471 -1.9993 0.9656
8.4195 1.1023 -1.9957 0.9657
8.0607 2.5725 -1.9886 0.9658
7.7856 3.2761 -1.9852 0.9659
6.9119 3.6661 -1.8388 0.9684
-7.0830 -3.2558 -2.0184 0.9683
-6.7742 -3.8807 -2.0214 0.9683
-6.4098 -4.4761 -2.0242 0.9682
-5.5259 -5.5586 -2.0294 0.9681
-5.0133 -6.0363 -2.0316 0.9681
-3.8584 -6.8284 -2.0307 0.9681
-3.1681 -7.0007 -1.9896 0.9687
-1.7736 -7.0572 -1.8840 0.9704
-0.4908 -7.2634 -1.8849 0.9704
0.1594 -7.2782 -1.8849 0.9704
0.8083 -7.2339 -1.8846 0.9704
2.0802 -6.9703 -1.8834 0.9704
2.7697 -6.9467 -1.9363 0.9696
3.5068 -6.9248 -2.0098 0.9684
4.1533 -6.6521 -2.0305 0.9681
5.2672 -5.8047 -2.0295 0.9681
6.5907 -4.1854 -2.0215 0.9683
6.9277 -3.5752 -2.0185 0.9683
7.4296 -2.2793 -2.0122 0.9684
7.6911 -0.9190 -2.0055 0.9685
7.6216 1.1456 -1.9955 0.9687
6.4398 3.5741 -1.9070 0.9700
5.8727 3.9838 -1.8374 0.9711
5.4865 4.4862 -1.8350 0.9711
3.5550 6.0971 -1.8274 0.9713
2.9945 6.3854 -1.8261 0.9713
1.1943 6.9410 -1.8235 0.9713
0.5192 6.3950 -1.6612 0.9738
-0.0634 7.5895 -1.9651 0.9691
-1.2137 6.4108 -1.6893 0.9734
-1.9236 6.7796 -1.8247 0.9713
-2.5225 6.5845 -1.8257 0.9713
-3.1022 6.3374 -1.8269 0.9713
-5.9439 3.8887 -1.8391 0.9711
-6.7649 3.6080 -1.9851 0.9688
-7.6481 1.0192 -1.9977 0.9686
-7.7214 0.3330 -2.0011 0.9686
-7.7332 -0.3581 -2.0044 0.9685
-7.6832 -1.0486 -2.0078 0.9685
-7.5714 -1.7330 -2.0111 0.9684
-7.3984 -2.4057 -2.0143 0.9684
-6.8738 -3.6941 -2.0205 0.9683
-6.1245 -4.8709 -2.0261 0.9682
-5.6724 -5.4049 -2.0286 0.9681
-5.1733 -5.8963 -2.0310 0.9681
-4.6312 -6.3411 -2.0331 0.9681
-3.3984 -6.9985 -2.0144 0.9684
-2.6580 -7.0046 -1.9398 0.9695
-1.9657 -7.0123 -1.8856 0.9704
-1.3312 -7.1555 -1.8845 0.9704
-0.6874 -7.2472 -1.8849 0.9704
-0.0378 -7.2800 -1.8849 0.9704
0.6121 -7.2536 -1.8848 0.9704
1.8907 -7.0246 -1.8835 0.9704
5.1097 -5.9474 -2.0302 0.9681
5.6135 -5.4611 -2.0278 0.9682
6.4777 -4.3644 -2.0224 0.9682
7.6673 -1.1276 -2.0065 0.9685
7.7244 -0.4381 -2.0032 0.9685
7.7198 0.2527 -1.9999 0.9686
7.6537 0.9391 -1.9965 0.9686
7.0974 2.9192 -1.9870 0.9688
5.9809 3.8248 -1.8382 0.9711
5.6082 4.3376 -1.8357 0.9711
5.1923 4.8149 -1.8334 0.9712
3.5623 3.9509 -1.3774 0.9783
4.2443 5.6491 -1.8295 0.9712
3.1670 6.3032 -1.8264 0.9713
2.5901 6.5565 -1.8253 0.9713
1.3820 6.9066 -1.8237 0.9713
0.8190 7.5459 -1.9652 0.9691
0.1422 7.5883 -1.9651 0.9691
-1.2095 7.4950 -1.9657 0.9691
-1.7390 6.8283 -1.8244 0.9713
-2.3427 6.6492 -1.8253 0.9713
-3.3104 5.8155 -1.7326 0.9727
-2.6858 3.8686 -1.2194 0.9807
-5.4422 4.5450 -1.8358 0.9711
-6.9836 3.1833 -1.9872 0.9688
-7.2511 2.5513 -1.9903 0.9687
-7.4619 1.8970 -1.9935 0.9687
-7.6138 1.2254 -1.9967 0.9686
-7.7361 -0.1483 -2.0034 0.9685
-7.7049 -0.8396 -2.0067 0.9685
-7.6118 -1.5265 -2.0101 0.9684
-7.4572 -2.2034 -2.0133 0.9684
-7.2422 -2.8647 -2.0165 0.9683
-5.3294 -5.7521 -2.0303 0.9681
-4.7998 -6.2114 -2.0325 0.9681
-3.6129 -6.9542 -2.0291 0.9681
-2.8768 -7.0031 -1.9603 0.9692
-2.1707 -7.0071 -1.8993 0.9701
-0.2350 -7.2763 -1.8850 0.9704
1.0621 -7.2003 -1.8844 0.9704
1.6999 -7.0742 -1.8838 0.9704
3.0536 -6.9386 -1.9628 0.9692
3.7825 -6.8592 -2.0281 0.9682
4.3884 -6.5073 -2.0322 0.9681
5.4655 -5.6132 -2.0285 0.9681
7.3024 -2.6810 -2.0141 0.9684
7.6378 -1.3356 -2.0076 0.9685
7.7136 -0.6475 -2.0042 0.9685
7.7277 0.0435 -2.0009 0.9686
7.4035 2.0789 -1.9910 0.9687
6.0849 3.6629 -1.8389 0.9711
5.4063 3.9520 -1.7339 0.9727
3.7511 3.9402 -1.4086 0.9778
4.3971 5.5337 -1.8300 0.9712
3.8820 5.8986 -1.8283 0.9712
2.7673 6.4851 -1.8256 0.9713
2.0905 6.4383 -1.7527 0.9724
1.5687 6.8673 -1.8239 0.9713
1.0232 7.5213 -1.9653 0.9691
-2.1614 6.7091 -1.8250 0.9713
-4.2268 4.4603 -1.5910 0.9749
-5.7198 4.2014 -1.8375 0.9711
-6.8917 3.3698 -1.9863 0.9688
-7.1759 2.7455 -1.9893 0.9688
-7.4041 2.0974 -1.9925 0.9687
-7.6842 0.7500 -1.9990 0.9686
-7.7334 0.0613 -2.0024 0.9686
-7.0574 -3.3134 -2.0187 0.9683
-6.7435 -3.9359 -2.0216 0.9683
-5.9524 -5.0859 -2.0271 0.9682
-4.9648 -6.0772 -2.0318 0.9681
-3.1004 -7.0013 -1.9825 0.9689
-1.7165 -7.0715 -1.8841 0.9704
-0.4320 -7.2672 -1.8849 0.9704
1.5096 -7.1269 -1.8862 0.9703
2.8343 -6.9449 -1.9422 0.9695
3.5763 -6.9226 -2.0174 0.9683
4.2078 -6.6196 -2.0309 0.9681
4.7833 -6.2195 -2.0315 0.9681
5.3134 -5.7613 -2.0292 0.9681
6.2371 -4.7128 -2.0241 0.9682
7.4467 -2.2189 -2.0119 0.9684
7.6971 -0.8567 -2.0052 0.9685
7.7300 -0.1660 -2.0019 0.9686
7.6110 1.2070 -1.9952 0.9687
7.2518 2.5328 -1.9889 0.9688
6.9862 3.1651 -1.9858 0.9688
5.0174 4.9922 -1.8326 0.9712
4.0415 5.7928 -1.8288 0.9712
2.2084 3.8588 -1.1512 0.9818
2.9426 6.4090 -1.8259 0.9713
-0.1248 7.5887 -1.9651 0.9691
-1.3663 6.9108 -1.8240 0.9713
-2.5758 6.5642 -1.8258 0.9713
-3.3722 5.4672 -1.6632 0.9738
-4.0023 4.4594 -1.5514 0.9755
-4.7903 4.4626 -1.6951 0.9733
-5.9759 3.8410 -1.8393 0.9711
-7.3410 2.2961 -1.9915 0.9687
-7.5288 1.6343 -1.9947 0.9687
-7.6572 0.9574 -1.9980 0.9686
-7.6756 -1.1109 -2.0081 0.9685
-7.5582 -1.7945 -2.0114 0.9684
-7.3797 -2.4658 -2.0146 0.9684
-6.4918 -4.3522 -2.0236 0.9682
-5.1260 -5.9386 -2.0312 0.9681
-4.5801 -6.3789 -2.0333 0.9681
-3.3291 -6.9992 -2.0068 0.9685
-1.9072 -7.0216 -1.8839 0.9704
-1.2733 -7.1662 -1.8845 0.9704
-0.6288 -7.2526 -1.8849 0.9704
0.0211 -7.2800 -1.8849 0.9704
0.6707 -7.2483 -1.8847 0.9704
1.3146 -7.1575 -1.8842 0.9704
3.3454 -6.9299 -1.9924 0.9687
4.0244 -6.7270 -2.0296 0.9681
5.1571 -5.9052 -2.0300 0.9681
5.6569 -5.4149 -2.0275 0.9682
6.1096 -4.8820 -2.0249 0.9682
6.5120 -4.3113 -2.0221 0.9682
6.8607 -3.7074 -2.0191 0.9683
7.5618 -1.7491 -2.0096 0.9684
7.6750 -1.0654 -2.0062 0.9685
7.7265 -0.3755 -2.0029 0.9685
7.5126 1.6764 -1.9930 0.9687
7.3213 2.3365 -1.9898 0.9687
6.7228 3.5658 -1.9703 0.9690
5.9491 3.8726 -1.8379 0.9711
-6.1906 -3.5463 -2.0197 0.9708
-5.8569 -4.0900 -2.0223 0.9707
-5.0481 -5.0779 -2.0270 0.9707
-2.9620 -6.5453 -2.0338 0.9706
-1.7466 -6.9497 -2.0286 0.9706
-1.1033 -6.9765 -1.9995 0.9711
-0.4712 -6.9737 -1.9787 0.9714
2.6568 -6.6635 -2.0308 0.9706
3.2438 -6.4054 -2.0326 0.9706
3.7995 -6.0855 -2.0310 0.9706
4.3236 -5.7169 -2.0291 0.9706
4.8117 -5.3028 -2.0271 0.9707
6.3316 -3.2676 -2.0171 0.9708
6.5887 -2.6856 -2.0142 0.9709
6.7922 -2.0838 -2.0113 0.9709
6.9407 -1.4670 -2.0083 0.9709
7.0490 0.4221 -1.9991 0.9711
6.8411 1.6637 -1.9931 0.9712
6.6556 2.2644 -1.9902 0.9712
6.4180 2.8454 -1.9874 0.9712
5.3761 3.6469 -1.8391 0.9734
5.0232 4.1073 -1.8369 0.9734
4.6314 4.5342 -1.8349 0.9734
3.7443 5.2754 -1.8314 0.9735
3.2559 5.5841 -1.8299 0.9735
2.2085 6.0666 -1.8277 0.9735
1.6576 6.2369 -1.8269 0.9735
1.0940 6.3581 -1.8264 0.9735
0.5169 6.3667 -1.8083 0.9738
-0.6294 6.4203 -1.8263 0.9735
-1.1005 3.8784 -1.1413 0.9834
-3.3115 5.4674 -1.8095 0.9738
-3.9380 4.4599 -1.6843 0.9756
-7.0253 -0.9588 -2.0072 0.9710
-6.9221 -1.5844 -2.0103 0.9709
-6.5491 -2.7980 -2.0161 0.9708
-5.9632 -3.9283 -2.0215 0.9708
-4.7257 -5.3861 -2.0285 0.9707
-3.6993 -6.1514 -2.0321 0.9706
-3.1377 -6.4616 -2.0335 0.9706
-2.5462 -6.7100 -2.0317 0.9706
-1.2980 -6.9768 -2.0090 0.9709
1.2188 -6.9517 -1.9980 0.9711
2.4744 -6.7305 -2.0300 0.9706
4.6678 -5.4329 -2.0277 0.9707
5.1285 -4.9892 -2.0255 0.9707
5.9194 -3.9882 -2.0206 0.9708
6.5163 -2.8644 -2.0151 0.9708
6.7362 -2.2680 -2.0122 0.9709
6.9015 -1.6553 -2.0092 0.9709
7.0111 -1.0311 -2.0061 0.9710
7.0644 -0.4006 -2.0031 0.9710
7.0611 0.2311 -2.0000 0.9711
6.7175 2.0841 -1.9911 0.9712
6.2226 3.2362 -1.9856 0.9713
4.7541 4.4085 -1.8354 0.9734
3.4068 5.4951 -1.8303 0.9735
2.9007 5.7731 -1.8290 0.9735
2.3725 6.0055 -1.8280 0.9735
-0.4553 6.4347 -1.8262 0.9735
-1.5929 6.2546 -1.8272 0.9735
-2.1458 6.0903 -1.8280 0.9735
-2.6824 5.8780 -1.8291 0.9735
-2.6860 3.8688 -1.3333 0.9806
-4.9823 4.1610 -1.8377 0.9734
-6.3913 2.9133 -1.9884 0.9712
-6.6352 2.3346 -1.9913 0.9712
-6.9652 1.1210 -1.9972 0.9711
-7.0481 0.4956 -2.0002 0.9711
-6.9593 -1.3956 -2.0094 0.9709
-6.8171 -2.0142 -2.0123 0.9709
-5.3122 -4.7938 -2.0257 0.9707
-4.8683 -5.2545 -2.0278 0.9707
-3.3110 -6.3730 -2.0331 0.9706
-1.4946 -6.9769 -2.0199 0.9708
1.0260 -6.9553 -1.9903 0.9712
2.2903 -6.7927 -2.0293 0.9706
4.5203 -5.5591 -2.0283 0.9707
4.9931 -5.1281 -2.0262 0.9707
5.4246 -4.6566 -2.0239 0.9707
6.1504 -3.6087 -2.0187 0.9708
6.4391 -3.0412 -2.0159 0.9708
6.9838 -1.2213 -2.0071 0.9710
7.0681 0.0398 -2.0010 0.9710
7.0256 0.6694 -1.9979 0.9711
6.9274 1.2919 -1.9949 0.9711
6.7744 1.9022 -1.9920 0.9712
6.5682 2.4957 -1.9891 0.9712
6.3105 3.0677 -1.9864 0.9713
5.9140 3.5600 -1.9541 0.9717
5.2420 3.8319 -1.8382 0.9734
3.7513 3.9404 -1.5402 0.9776
3.5553 5.4020 -1.8308 0.9735
2.1019 3.9153 -1.2580 0.9817
0.5431 3.9922 -1.1406 0.9834
0.2955 6.4436 -1.8261 0.9735
-0.8550 6.3947 -1.8264 0.9735
-1.4227 6.2948 -1.8269 0.9735
-2.5581 3.9064 -1.3219 0.9808
-4.3483 3.8362 -1.6415 0.9762
-5.7997 3.5094 -1.9190 0.9722
-6.3073 3.0841 -1.9876 0.9712
-6.5667 2.5124 -1.9904 0.9712
-7.0289 0.6860 -1.9993 0.9711
-7.0604 -0.5763 -2.0054 0.9710
-6.1624 -3.5967 -2.0199 0.9708
-5.8242 -4.1377 -2.0225 0.9707
-5.4382 -4.6466 -2.0250 0.9707
-5.0073 -5.1191 -2.0272 0.9707
-4.0251 -5.9391 -2.0311 0.9706
-3.4817 -6.2796 -2.0327 0.9706
-2.9085 -6.5681 -2.0335 0.9706
-2.3074 -6.7919 -2.0307 0.9706
-1.6902 -6.9630 -2.0284 0.9707
-1.0455 -6.9764 -1.9970 0.9711
-0.4146 -6.9733 -1.9776 0.9714
0.2090 -6.9673 -1.9733 0.9714
2.1048 -6.8501 -2.0287 0.9706
3.2952 -6.3785 -2.0324 0.9706
3.8483 -6.0541 -2.0308 0.9706
4.3693 -5.6812 -2.0289 0.9706
5.2984 -4.8035 -2.0246 0.9707
5.6991 -4.3063 -2.0222 0.9707
6.0529 -3.7755 -2.0195 0.9708
6.3570 -3.2159 -2.0168 0.9708
6.6093 -2.6319 -2.0139 0.9709
7.0698 -0.1518 -2.0019 0.9710
6.9630 1.1042 -1.9958 0.9711
6.8265 1.7187 -1.9928 0.9712
6.1017 3.4513 -1.9845 0.9713
4.9893 4.1474 -1.8367 0.9734
4.5942 4.5711 -1.8347 0.9734
4.1637 4.9580 -1.8328 0.9734
3.7012 5.3051 -1.8312 0.9735
1.0425 6.3666 -1.8263 0.9735
0.4656 6.3735 -1.8091 0.9738
-1.1318 3.8696 -1.1413 0.9834
-2.3592 6.0124 -1.8284 0.9735
-2.8883 5.7815 -1.8296 0.9735
-3.3118 5.3694 -1.7859 0.9741
-3.3752 4.5139 -1.5956 0.9768
-4.0029 4.4601 -1.6966 0.9754
-4.7126 4.3902 -1.8233 0.9736
-6.2189 3.2525 -1.9868 0.9712
-7.0183 -1.0157 -2.0075 0.9710
-6.7459 -2.2540 -2.0135 0.9709
-5.1425 -4.9799 -2.0265 0.9707
-3.0855 -6.4872 -2.0336 0.9706
-1.8787 -6.9167 -2.0290 0.9706
0.0202 -6.9694 -1.9730 0.9714
1.9179 -6.9026 -2.0281 0.9707
3.1219 -6.4668 -2.0329 0.9706
4.2150 -5.7992 -2.0295 0.9706
4.7111 -5.3945 -2.0275 0.9707
5.5824 -4.4607 -2.0229 0.9707
5.9507 -3.9397 -2.0203 0.9708
6.2702 -3.3883 -2.0176 0.9708
6.5384 -2.8112 -2.0148 0.9708
7.0581 0.2882 -1.9998 0.9711
6.9936 0.9156 -1.9967 0.9711
6.4728 2.7237 -1.9880 0.9712
-6.1672 -2.1918 -2.0131 0.9730
-4.6416 -4.6690 -2.0250 0.9728
-3.7441 -5.4295 -2.0286 0.9728
-3.2470 -5.7462 -2.0301 0.9728
-2.1760 -6.2389 -2.0323 0.9727
-0.4455 -6.5931 -2.0325 0.9727
0.1447 -6.6055 -2.0322 0.9727
0.7338 -6.5672 -2.0325 0.9727
1.3174 -6.4775 -2.0331 0.9727
1.8896 -6.3317 -2.0324 0.9727
2.9819 -5.8883 -2.0301 0.9728
3.4930 -5.5945 -2.0286 0.9728
4.8368 -4.4568 -2.0230 0.9729
5.2095 -4.0029 -2.0207 0.9729
6.0612 -2.4706 -2.0132 0.9730
6.2491 -1.9172 -2.0105 0.9730
6.3865 -1.3499 -2.0078 0.9731
6.4725 -0.7734 -2.0050 0.9731
6.1286 2.0851 -1.9911 0.9733
5.6460 3.1336 -1.9861 0.9733
4.6273 3.7836 -1.8385 0.9753
3.4501 4.8608 -1.8334 0.9754
2.0353 5.5908 -1.8300 0.9754
1.5276 5.7479 -1.8293 0.9754
1.0082 5.8597 -1.8288 0.9754
0.4811 5.9255 -1.8285 0.9754
-1.0875 3.8326 -1.2253 0.9835
-2.1291 5.5578 -1.8306 0.9754
-3.8741 4.3875 -1.8003 0.9758
-4.6933 3.7085 -1.8398 0.9753
-5.2705 3.4481 -1.9372 0.9740
-5.9585 2.5234 -1.9903 0.9733
-6.5085 -0.3013 -2.0040 0.9731
-6.0243 -2.5738 -2.0150 0.9730
-4.7649 -4.5402 -2.0244 0.9728
-3.8889 -5.3248 -2.0281 0.9728
-1.7840 -6.3640 -2.0329 0.9727
-1.2092 -6.4998 -2.0335 0.9727
1.1414 -6.5106 -2.0331 0.9727
2.2792 -6.1997 -2.0317 0.9727
3.8322 -5.3632 -2.0275 0.9728
4.2918 -4.9953 -2.0256 0.9728
5.1009 -4.1440 -2.0214 0.9729
5.7427 -3.1635 -2.0166 0.9729
5.9944 -2.6349 -2.0140 0.9730
6.1974 -2.0866 -2.0113 0.9730
6.3503 -1.5231 -2.0086 0.9730
6.4519 -0.9489 -2.0058 0.9731
6.4995 0.2127 -2.0002 0.9732
5.7309 2.9805 -1.9868 0.9733
5.4355 3.4760 -1.9845 0.9734
4.3797 4.0614 -1.8372 0.9753
2.9672 3.9493 -1.5194 0.9795
2.6730 5.3200 -1.8312 0.9754
2.1863 5.5343 -1.8303 0.9754
0.6415 5.9104 -1.8286 0.9754
0.1114 5.9438 -1.8285 0.9754
-0.9474 5.8704 -1.8290 0.9754
-1.9775 5.6125 -1.8303 0.9754
-2.9474 5.1778 -1.8325 0.9754
-2.6861 3.8690 -1.4487 0.9805
-3.6667 4.3866 -1.7585 0.9764
-4.5896 3.8330 -1.8392 0.9753
-5.8856 2.6828 -1.9895 0.9733
-6.1096 2.1496 -1.9921 0.9733
-6.2855 1.5979 -1.9948 0.9732
-6.4875 0.4562 -2.0003 0.9732
-6.4834 -0.7065 -2.0060 0.9731
-6.4034 -1.2842 -2.0088 0.9730
-6.2718 -1.8531 -2.0115 0.9730
-5.5781 -3.4616 -2.0192 0.9729
-4.8847 -4.4081 -2.0237 0.9728
-4.4762 -4.8312 -2.0257 0.9728
-1.3848 -6.4641 -2.0333 0.9727
-0.2133 -6.6041 -2.0323 0.9727
0.3770 -6.5965 -2.0323 0.9727
0.9645 -6.5383 -2.0328 0.9727
1.5442 -6.4263 -2.0329 0.9727
2.6596 -6.0435 -2.0309 0.9727
3.1863 -5.7782 -2.0295 0.9728
3.6865 -5.4665 -2.0280 0.9728
4.1560 -5.1112 -2.0262 0.9728
4.9884 -4.2821 -2.0221 0.9729
5.3447 -3.8155 -2.0198 0.9729
5.6570 -3.3192 -2.0174 0.9729
6.1411 -2.2547 -2.0122 0.9730
6.3093 -1.6953 -2.0094 0.9730
6.4921 -0.5450 -2.0038 0.9731
6.5057 0.0366 -2.0010 0.9731
6.4673 0.6162 -1.9982 0.9732
6.0484 2.2982 -1.9901 0.9733
4.4895 3.9424 -1.8377 0.9753
3.7515 3.9406 -1.6735 0.9775
3.7101 4.6691 -1.8343 0.9754
2.5944 3.9421 -1.4515 0.9804
2.1021 3.9155 -1.3669 0.9816
1.8371 5.6580 -1.8297 0.9754
1.3243 5.7974 -1.8291 0.9754
0.5227 3.8426 -1.1928 0.9839
0.2724 5.9386 -1.8285 0.9754
-0.2587 5.9394 -1.8286 0.9754
-1.8244 5.6632 -1.8301 0.9754
-2.3238 5.4806 -1.8310 0.9754
-2.8054 5.2546 -1.8321 0.9754
-4.8230 3.5427 -1.8406 0.9753
-5.8085 2.8402 -1.9887 0.9733
-6.0467 2.3134 -1.9913 0.9733
-6.2374 1.7669 -1.9940 0.9732
-6.5097 0.0516 -2.0023 0.9731
-6.4974 -0.5304 -2.0051 0.9731
-6.4331 -1.1098 -2.0079 0.9730
-6.3171 -1.6818 -2.0107 0.9730
-5.6678 -3.3080 -2.0185 0.9729
-5.3562 -3.8052 -2.0209 0.9729
-5.0007 -4.2727 -2.0231 0.9728
-4.6041 -4.7068 -2.0252 0.9728
-2.1256 -6.2566 -2.0324 0.9727
-1.5592 -6.4237 -2.0332 0.9727
0.1981 -6.6042 -2.0322 0.9727
0.7869 -6.5613 -2.0326 0.9727
1.3697 -6.4664 -2.0331 0.9727
4.0171 -5.2233 -2.0268 0.9728
4.4631 -4.8394 -2.0249 0.9728
5.5671 -3.4725 -2.0181 0.9729
5.8475 -2.9581 -2.0156 0.9729
6.0803 -2.4212 -2.0130 0.9730
6.3964 -1.2981 -2.0075 0.9731
6.4102 1.0166 -1.9963 0.9732
5.8884 2.6678 -1.9883 0.9733
5.6198 3.1788 -1.9859 0.9733
5.1532 3.5569 -1.9259 0.9741
4.5961 3.8206 -1.8383 0.9753
4.2325 4.2113 -1.8365 0.9753
3.8362 4.5681 -1.8348 0.9753
2.2091 3.8602 -1.3680 0.9816
1.9900 5.6068 -1.8299 0.9754
-0.6280 5.9123 -1.8287 0.9754
-1.1195 3.8274 -1.2266 0.9834
-2.1741 5.5406 -1.8307 0.9754
-2.4084 3.9047 -1.4111 0.9810
-3.3370 4.4628 -1.7140 0.9769
-3.9379 4.3877 -1.8134 0.9756
-4.3724 4.0733 -1.8380 0.9753
-4.7236 3.6708 -1.8400 0.9753
-5.7273 2.9954 -1.9880 0.9733
-5.9794 2.4754 -1.9905 0.9733
-6.1847 1.9344 -1.9931 0.9732
-6.3413 1.3766 -1.9959 0.9732
-6.4478 0.8062 -1.9986 0.9732
-6.5067 -0.3540 -2.0043 0.9731
-6.3577 -1.5094 -2.0098 0.9730
-5.7532 -3.1521 -2.0177 0.9729
-5.4554 -3.6574 -2.0202 0.9729
-5.1130 -4.1344 -2.0224 0.9729
-2.8363 -5.9632 -2.0311 0.9727
-1.1566 -6.5095 -2.0335 0.9727
0.0191 -6.6072 -2.0322 0.9727
0.6088 -6.5796 -2.0324 0.9727
1.1941 -6.5015 -2.0332 0.9727
1.7691 -6.3670 -2.0325 0.9727
2.3292 -6.1808 -2.0316 0.9727
3.3866 -5.6609 -2.0290 0.9728
3.8752 -5.3317 -2.0273 0.9728
5.1337 -4.1022 -2.0212 0.9729
6.4967 0.2653 -1.9999 0.9732
6.3285 1.4122 -1.9944 0.9732
6.1689 1.9688 -1.9917 0.9733
5.9608 2.5082 -1.9891 0.9733
-5.2652 -3.0163 -2.0170 0.9747
-4.2912 -4.3165 -2.0232 0.9747
-3.8922 -4.6864 -2.0250 0.9746
-3.4610 -5.0190 -2.0266 0.9746
-3.0013 -5.3114 -2.0279 0.9746
-2.5167 -5.5613 -2.0291 0.9746
-0.9545 -6.0357 -2.0312 0.9746
-0.4120 -6.0975 -2.0315 0.9746
1.7465 -5.8521 -2.0300 0.9746
3.2289 -5.1715 -2.0266 0.9746
3.6748 -4.8590 -2.0250 0.9746
4.0903 -4.5077 -2.0233 0.9747
4.4720 -4.1207 -2.0214 0.9747
5.1226 -3.2531 -2.0171 0.9747
5.7805 -1.7734 -2.0099 0.9748
5.9082 -1.2488 -2.0073 0.9749
5.9884 -0.7156 -2.0047 0.9749
6.0045 0.3596 -1.9995 0.9750
5.2274 2.9012 -1.9873 0.9751
4.9422 3.3526 -1.9851 0.9751
4.3521 3.5586 -1.8687 0.9766
3.9514 3.8685 -1.8381 0.9770
3.1954 4.5021 -1.8352 0.9770
2.7790 4.7661 -1.8339 0.9770
1.8854 5.1789 -1.8320 0.9770
1.4151 5.3246 -1.8314 0.9770
-0.0460 5.5070 -1.8306 0.9771
-0.5374 5.4814 -1.8308 0.9771
-1.0247 5.4127 -1.8312 0.9770
-1.0876 3.8330 -1.3244 0.9833
-2.8100 3.8221 -1.5769 0.9802
-4.0180 3.8043 -1.8393 0.9769
-4.3873 3.4666 -1.8587 0.9767
-5.2791 2.8156 -1.9888 0.9751
-5.5158 2.3359 -1.9911 0.9751
-5.7093 1.8365 -1.9936 0.9750
-5.8578 1.3213 -1.9961 0.9750
-6.0149 0.2594 -2.0012 0.9749
-5.5716 -2.3804 -2.0140 0.9748
-5.3432 -2.8715 -2.0163 0.9748
-5.0712 -3.3407 -2.0186 0.9747
-4.0167 -4.5781 -2.0245 0.9747
-2.6660 -5.4902 -2.0288 0.9746
-1.6488 -5.8819 -2.0305 0.9746
-0.0317 -6.1114 -2.0315 0.9746
0.5138 -6.0893 -2.0313 0.9746
1.5875 -5.8980 -2.0303 0.9746
2.1067 -5.7303 -2.0294 0.9746
3.5426 -4.9579 -2.0255 0.9746
4.3600 -4.2416 -2.0220 0.9747
5.0343 -3.3918 -2.0178 0.9747
5.3109 -2.9256 -2.0155 0.9748
5.5442 -2.4370 -2.0131 0.9748
5.7325 -1.9301 -2.0106 0.9748
5.8745 -1.4090 -2.0081 0.9749
6.0144 0.1969 -2.0003 0.9750
5.9651 0.7319 -1.9977 0.9750
5.5374 2.2775 -1.9903 0.9751
5.3059 2.7595 -1.9880 0.9751
5.0328 3.2185 -1.9858 0.9751
4.5904 3.5503 -1.9290 0.9758
3.7007 4.1044 -1.8370 0.9770
3.3170 4.4149 -1.8356 0.9770
2.9077 4.6900 -1.8343 0.9770
2.0252 5.1266 -1.8323 0.9770
1.5590 5.2848 -1.8315 0.9770
0.1032 5.5062 -1.8306 0.9771
-0.3887 5.4938 -1.8307 0.9771
-1.3599 5.3396 -1.8316 0.9770
-2.2187 3.8977 -1.4908 0.9813
-2.6862 3.8692 -1.5657 0.9803
-3.5445 4.2404 -1.8371 0.9770
-3.9123 3.9106 -1.8388 0.9770
-4.2499 3.5493 -1.8405 0.9769
-4.9090 3.4050 -1.9859 0.9751
-5.1991 2.9566 -1.9881 0.9751
-5.4485 2.4836 -1.9904 0.9751
-5.6553 1.9898 -1.9928 0.9750
-5.9340 0.9550 -1.9979 0.9750
-6.0033 0.4221 -2.0005 0.9750
-6.0248 -0.1155 -2.0031 0.9749
-5.9983 -0.6537 -2.0057 0.9749
-5.9236 -1.1879 -2.0082 0.9749
-5.1581 -3.2010 -2.0179 0.9747
-4.5161 -4.0755 -2.0221 0.9747
-4.1382 -4.4664 -2.0239 0.9747
-3.7261 -4.8219 -2.0256 0.9746
-3.2833 -5.1390 -2.0271 0.9746
-1.8074 -5.8345 -2.0303 0.9746
-0.7416 -6.0659 -2.0313 0.9746
-0.1973 -6.1083 -2.0315 0.9746
0.3487 -6.1013 -2.0314 0.9746
1.4273 -5.9394 -2.0305 0.9746
1.9509 -5.7861 -2.0297 0.9746
2.9453 -5.3411 -2.0274 0.9746
3.4078 -5.0533 -2.0260 0.9746
3.8421 -4.7251 -2.0244 0.9747
4.6124 -3.9593 -2.0206 0.9747
5.6803 -2.0855 -2.0114 0.9748
5.8364 -1.5682 -2.0089 0.9748
6.0199 0.0339 -2.0011 0.9749
5.9028 1.1008 -1.9959 0.9750
5.7737 1.6212 -1.9934 0.9750
5.3805 2.6156 -1.9887 0.9751
4.8192 3.5229 -1.9843 0.9752
4.1575 3.6509 -1.8392 0.9769
3.7299 3.9179 -1.7981 0.9775
3.4362 4.3244 -1.8360 0.9770
3.0343 4.6104 -1.8346 0.9770
1.7018 5.2412 -1.8317 0.9770
1.2268 5.3705 -1.8312 0.9770
0.2523 5.5014 -1.8306 0.9771
-0.2397 5.5021 -1.8307 0.9771
-0.7299 5.4595 -1.8309 0.9770
-0.8860 3.9200 -1.3359 0.9832
-1.6900 5.2460 -1.8321 0.9770
-3.8039 4.0141 -1.8382 0.9770
-5.1153 3.0953 -1.9874 0.9751
-5.3773 2.6294 -1.9897 0.9751
-5.5973 2.1415 -1.9921 0.9751
-5.7732 1.6354 -1.9946 0.9750
-5.9036 1.1150 -1.9971 0.9750
-5.9873 0.5844 -1.9997 0.9750
-6.0234 0.0477 -2.0023 0.9749
-5.9513 -1.0266 -2.0075 0.9749
-5.8433 -1.5557 -2.0100 0.9748
-5.4870 -2.5761 -2.0149 0.9748
-4.6235 -3.9505 -2.0215 0.9747
-4.2565 -4.3515 -2.0234 0.9747
-2.9584 -5.3358 -2.0280 0.9746
-1.9646 -5.7827 -2.0301 0.9746
-0.9057 -6.0433 -2.0312 0.9746
0.1832 -6.1086 -2.0315 0.9746
1.7937 -5.8376 -2.0300 0.9746
4.5048 -4.0841 -2.0212 0.9747
4.8463 -3.6619 -2.0191 0.9747
5.1482 -3.2112 -2.0169 0.9747
5.4080 -2.7358 -2.0146 0.9748
5.6238 -2.2394 -2.0121 0.9748
5.7940 -1.7264 -2.0096 0.9748
5.9174 -1.2009 -2.0071 0.9749
6.0210 -0.1293 -2.0019 0.9749
5.9327 0.9408 -1.9967 0.9750
4.2838 3.5610 -1.8517 0.9768
3.5529 4.2307 -1.8364 0.9770
3.1587 4.5275 -1.8350 0.9770
2.2095 3.8609 -1.4787 0.9814
1.8434 5.1938 -1.8319 0.9770
1.3720 5.3357 -1.8313 0.9770
0.8900 5.4356 -1.8309 0.9771
0.4013 5.4926 -1.8306 0.9771
-0.0905 5.5065 -1.8306 0.9771
-0.5817 5.4770 -1.8308 0.9771
-1.1197 3.8279 -1.3257 0.9833
-2.0139 5.1323 -1.8326 0.9770
-2.4653 4.9348 -1.8336 0.9770
-2.8978 4.6981 -1.8348 0.9770
-3.3080 4.4240 -1.8362 0.9770
-3.6927 4.1145 -1.8377 0.9770
-4.0490 3.7720 -1.8394 0.9769
-4.4560 3.4628 -1.8759 0.9765
-5.3022 2.7731 -1.9890 0.9751
-5.5351 2.2915 -1.9913 0.9751
-5.9669 0.7461 -1.9989 0.9750
-6.0201 -0.3275 -2.0041 0.9749
-4.7274 -3.8226 -2.0209 0.9747
-3.9798 -4.6108 -2.0246 0.9747
-3.5552 -4.9515 -2.0262 0.9746
-2.1203 -5.7266 -2.0298 0.9746
-1.6013 -5.8952 -2.0306 0.9746
-1.0690 -6.0162 -2.0311 0.9746
-0.5278 -6.0885 -2.0314 0.9746
0.0177 -6.1114 -2.0315 0.9746
1.1037 -6.0091 -2.0309 0.9746
2.1528 -5.7128 -2.0293 0.9746
2.6527 -5.4949 -2.0282 0.9746
3.5824 -4.9288 -2.0254 0.9746
4.7469 -3.7931 -2.0198 0.9747
5.0610 -3.3507 -2.0176 0.9747
5.3338 -2.8823 -2.0153 0.9748
5.5631 -2.3919 -2.0129 0.9748
5.8850 -1.3613 -2.0079 0.9749
5.9753 -0.8295 -2.0053 0.9749
5.9583 0.7801 -1.9975 0.9750
5.8575 1.3071 -1.9949 0.9750
5.7103 1.8224 -1.9925 0.9751
5.5182 2.3220 -1.9901 0.9751
5.2828 2.8020 -1.9878 0.9751
5.0061 3.2588 -1.9856 0.9751
-5.1167 -2.3519 -2.0138 0.9764
-4.6266 -3.2309 -2.0180 0.9763
-3.6149 -4.3526 -2.0233 0.9763
-3.2143 -4.6612 -2.0248 0.9762
-2.3371 -5.1644 -2.0271 0.9762
-1.8676 -5.3547 -2.0280 0.9762
-0.8863 -5.6045 -2.0291 0.9762
-0.3826 -5.6619 -2.0293 0.9762
0.1243 -5.6734 -2.0294 0.9762
1.6218 -5.4343 -2.0280 0.9762
2.5597 -5.0545 -2.0261 0.9762
2.9987 -4.8029 -2.0248 0.9762
3.4130 -4.5129 -2.0234 0.9763
3.7991 -4.1869 -2.0218 0.9763
4.4748 -3.4384 -2.0181 0.9763
5.3716 -1.6480 -2.0093 0.9764
5.4908 -1.1606 -2.0069 0.9764
5.5658 -0.6651 -2.0045 0.9765
5.5231 0.8301 -1.9973 0.9766
5.0883 2.2559 -1.9904 0.9766
4.5966 3.1181 -1.9863 0.9767
4.2959 3.5126 -1.9844 0.9767
3.6756 3.5985 -1.8395 0.9784
2.9728 4.1883 -1.8367 0.9784
2.5854 4.4342 -1.8355 0.9784
2.1782 4.6447 -1.8346 0.9784
1.7542 4.8185 -1.8338 0.9785
-0.7408 3.9131 -1.4242 0.9832
-1.0877 3.8334 -1.4250 0.9832
-1.8350 4.7899 -1.8343 0.9784
-2.6603 4.3921 -1.8363 0.9784
-2.8106 3.8229 -1.6968 0.9800
-3.7374 3.5386 -1.8405 0.9784
-5.1291 2.1721 -1.9919 0.9766
-5.3085 1.7076 -1.9942 0.9766
-5.5406 0.7383 -1.9989 0.9765
-5.5971 -0.2592 -2.0037 0.9765
-5.4750 -1.2532 -2.0085 0.9764
-5.3475 -1.7388 -2.0109 0.9764
-5.1768 -2.2117 -2.0131 0.9764
-4.9641 -2.6678 -2.0153 0.9763
-4.7110 -3.1034 -2.0174 0.9763
-4.4196 -3.5149 -2.0194 0.9763
-4.0919 -3.8989 -2.0212 0.9763
-3.3387 -4.5715 -2.0244 0.9762
-2.4758 -5.0984 -2.0268 0.9762
-2.0118 -5.3015 -2.0278 0.9762
-1.5311 -5.4619 -2.0285 0.9762
-0.5358 -5.6493 -2.0293 0.9762
0.9797 -5.5882 -2.0288 0.9762
1.9563 -5.3213 -2.0275 0.9762
3.2902 -4.6047 -2.0238 0.9762
4.3813 -3.5594 -2.0187 0.9763
4.9342 -2.7182 -2.0145 0.9764
5.1515 -2.2644 -2.0123 0.9764
5.5917 -0.3171 -2.0028 0.9765
4.9344 2.5663 -1.9889 0.9766
4.6808 2.9934 -1.9869 0.9767
3.4426 3.8181 -1.8384 0.9784
2.7051 4.3633 -1.8359 0.9784
2.3036 4.5847 -1.8348 0.9784
1.4505 4.9172 -1.8333 0.9785
0.0960 5.1233 -1.8325 0.9785
-0.8166 5.0599 -1.8329 0.9785
-1.2653 4.9682 -1.8334 0.9785
-1.7043 4.8372 -1.8340 0.9784
-2.6864 3.8694 -1.6845 0.9802
-4.1391 3.4567 -1.9285 0.9774
-4.5656 3.1668 -1.9870 0.9767
-4.8350 2.7495 -1.9891 0.9766
-5.4089 1.3750 -1.9958 0.9766
-5.5805 0.3924 -2.0006 0.9765
-5.6000 -0.1074 -2.0030 0.9765
-5.5748 -0.6075 -2.0054 0.9765
-5.5049 -1.1040 -2.0078 0.9764
-5.2330 -2.0699 -2.0124 0.9764
-4.7919 -2.9737 -2.0168 0.9763
-3.8435 -4.1484 -2.0224 0.9763
-3.4606 -4.4784 -2.0239 0.9762
-2.6126 -5.0287 -2.0265 0.9762
-2.1544 -5.2444 -2.0275 0.9762
-1.6783 -5.4179 -2.0283 0.9762
-1.1884 -5.5476 -2.0289 0.9762
-0.6887 -5.6325 -2.0292 0.9762
-0.1832 -5.6719 -2.0294 0.9762
2.2829 -5.1875 -2.0268 0.9762
4.8604 -2.8518 -2.0152 0.9763
5.0899 -2.4040 -2.0130 0.9764
5.4238 -1.4573 -2.0084 0.9764
5.5831 -0.4687 -2.0036 0.9765
5.0037 2.4324 -1.9896 0.9766
4.0378 3.5457 -1.9216 0.9774
3.1966 4.0229 -1.8375 0.9784
2.1023 3.9160 -1.5894 0.9813
2.0131 4.7176 -1.8342 0.9784
0.5229 3.8436 -1.3871 0.9837
-1.1301 5.0001 -1.8332 0.9785
-1.5724 4.8810 -1.8338 0.9785
-2.4175 4.5281 -1.8356 0.9784
-2.8138 4.2969 -1.8368 0.9784
-3.1884 4.0316 -1.8381 0.9784
-3.5384 3.7339 -1.8396 0.9784
-5.0005 2.4451 -1.9906 0.9766
-5.3677 1.5205 -1.9951 0.9766
-5.4885 1.0366 -1.9974 0.9766
-5.5872 -0.4561 -2.0047 0.9765
-5.2854 -1.9267 -2.0118 0.9764
-4.8692 -2.8419 -2.0161 0.9763
-4.6008 -3.2685 -2.0182 0.9763
-3.5799 -4.3820 -2.0235 0.9762
-2.7474 -4.9552 -2.0262 0.9762
-2.2953 -5.1834 -2.0272 0.9762
-1.3382 -5.5130 -2.0287 0.9762
-0.3368 -5.6648 -2.0294 0.9762
0.6757 -5.6337 -2.0291 0.9762
2.1419 -5.2482 -2.0271 0.9762
3.0373 -4.7782 -2.0247 0.9762
3.4491 -4.4848 -2.0232 0.9763
4.1845 -3.7937 -2.0198 0.9763
5.2256 -2.0809 -2.0114 0.9764
5.5704 -0.6200 -2.0043 0.9765
5.5783 0.3794 -1.9995 0.9765
5.5156 0.8747 -1.9971 0.9766
5.4092 1.3619 -1.9947 0.9766
5.0694 2.2967 -1.9902 0.9766
4.8390 2.7371 -1.9881 0.9767
4.5708 3.1549 -1.9861 0.9767
3.6461 3.6278 -1.8393 0.9784
3.3052 3.9357 -1.8379 0.9784
2.9386 4.2120 -1.8366 0.9784
2.1405 4.6620 -1.8345 0.9784
1.7151 4.8324 -1.8337 0.9785
0.3734 5.1107 -1.8325 0.9785
-0.0842 5.1236 -1.8325 0.9785
-0.5413 5.0961 -1.8327 0.9785
-3.0773 4.1155 -1.8377 0.9784
-3.4350 3.8274 -1.8391 0.9784
-4.9308 2.5788 -1.9899 0.9766
-5.5954 -0.3044 -2.0039 0.9765
-5.5526 -0.8036 -2.0063 0.9764
-5.4652 -1.2975 -2.0087 0.9764
-4.3914 -3.5509 -2.0195 0.9763
-2.8801 -4.8781 -2.0258 0.9762
-1.9689 -5.3178 -2.0278 0.9762
-1.4869 -5.4742 -2.0286 0.9762
-0.4901 -5.6535 -2.0293 0.9762
1.0248 -5.5799 -2.0288 0.9762
3.3271 -4.5776 -2.0237 0.9762
3.7195 -4.2591 -2.0221 0.9763
4.4096 -3.5236 -2.0185 0.9763
4.9556 -2.6779 -2.0143 0.9764
5.1691 -2.2224 -2.0121 0.9764
5.5536 -0.7709 -2.0050 0.9765
5.5934 -0.2719 -2.0026 0.9765
5.5886 0.2282 -2.0002 0.9765
5.5393 0.7252 -1.9978 0.9765
5.4460 1.2153 -1.9954 0.9766
5.1315 2.1593 -1.9909 0.9766
4.9130 2.6058 -1.9887 0.9767
4.6560 3.0308 -1.9867 0.9767
-4.9444 -1.7573 -2.0109 0.9778
-4.7728 -2.1939 -2.0130 0.9777
-4.5625 -2.6137 -2.0150 0.9777
-4.0325 -3.3895 -2.0187 0.9777
-3.7170 -3.7389 -2.0204 0.9777
-3.3709 -4.0588 -2.0219 0.9777
-2.9972 -4.3463 -2.0232 0.9776
-2.5988 -4.5992 -2.0244 0.9776
-1.7413 -4.9925 -2.0262 0.9776
-0.8263 -5.2252 -2.0273 0.9776
0.5875 -5.2574 -2.0273 0.9776
1.5121 -5.0667 -2.0263 0.9776
2.7962 -4.4785 -2.0233 0.9776
4.4389 -2.8189 -2.0151 0.9777
4.6681 -2.4091 -2.0131 0.9777
4.8594 -1.9807 -2.0110 0.9778
5.0114 -1.5375 -2.0088 0.9778
5.1230 -1.0828 -2.0066 0.9778
5.2221 -0.1544 -2.0021 0.9779
5.2092 0.3120 -1.9998 0.9779
5.0595 1.2304 -1.9954 0.9779
4.9242 1.6753 -1.9933 0.9780
4.0111 3.2798 -1.9856 0.9780
3.6140 3.5382 -1.9382 0.9786
3.1162 3.6504 -1.8393 0.9797
2.4145 4.1411 -1.8370 0.9797
1.6383 4.5003 -1.8353 0.9797
1.2297 4.6271 -1.8348 0.9797
0.8117 4.7174 -1.8344 0.9797
0.3873 4.7705 -1.8341 0.9797
-0.8905 4.7038 -1.8346 0.9797
-1.0878 3.8339 -1.5272 0.9831
-1.7137 4.4735 -1.8358 0.9797
-2.1072 4.3047 -1.8367 0.9797
-2.4843 4.1017 -1.8377 0.9797
-2.7833 3.7857 -1.8006 0.9801
-3.6562 3.4617 -1.9295 0.9787
-4.0677 3.2142 -1.9867 0.9780
-4.3424 2.8409 -1.9886 0.9780
-5.1708 0.6891 -1.9991 0.9779
-5.2176 0.2250 -2.0013 0.9779
-5.2227 -0.2418 -2.0036 0.9779
-5.1079 -1.1692 -2.0081 0.9778
-4.9886 -1.6221 -2.0103 0.9778
-4.6303 -2.4884 -2.0144 0.9777
-4.1218 -3.2781 -2.0182 0.9777
-3.8160 -3.6360 -2.0199 0.9777
-2.7220 -4.5264 -2.0241 0.9776
-0.4996 -5.2669 -2.0274 0.9776
-0.0275 -5.2907 -2.0275 0.9776
0.9134 -5.2100 -2.0270 0.9776
1.3744 -5.1063 -2.0265 0.9776
1.8240 -4.9614 -2.0257 0.9776
2.2585 -4.7766 -2.0248 0.9776
2.6743 -4.5534 -2.0237 0.9776
3.4366 -3.9999 -2.0209 0.9777
5.0935 -1.2216 -2.0073 0.9778
5.1764 -0.7613 -2.0050 0.9778
5.2178 -0.2959 -2.0028 0.9779
4.6066 2.3958 -1.9898 0.9780
4.3702 2.7947 -1.9879 0.9780
4.0996 3.1707 -1.9861 0.9780
2.8816 3.8354 -1.8384 0.9797
2.5263 4.0748 -1.8373 0.9797
1.3548 4.5925 -1.8349 0.9797
0.9392 4.6939 -1.8345 0.9797
0.5165 4.7583 -1.8342 0.9797
0.0897 4.7852 -1.8341 0.9797
-0.7627 4.7259 -1.8345 0.9797
-1.1817 4.6401 -1.8349 0.9797
-1.9895 4.3595 -1.8364 0.9797
-2.3719 4.1668 -1.8374 0.9797
-3.0790 3.6835 -1.8398 0.9796
-3.4737 3.4722 -1.8822 0.9792
-4.2626 2.9567 -1.9880 0.9780
-4.5138 2.5669 -1.9899 0.9780
-5.2016 -0.5668 -2.0052 0.9778
-5.1360 -1.0300 -2.0074 0.9778
-5.0291 -1.4859 -2.0096 0.9778
-4.8816 -1.9309 -2.0117 0.9778
-4.4695 -2.7736 -2.0158 0.9777
-4.2080 -3.1644 -2.0176 0.9777
-2.8432 -4.4502 -2.0237 0.9776
-2.4360 -4.6888 -2.0248 0.9776
-1.5648 -5.0513 -2.0265 0.9776
-0.6420 -5.2513 -2.0274 0.9776
1.6891 -5.0096 -2.0260 0.9776
2.1286 -4.8368 -2.0251 0.9776
2.5504 -4.6250 -2.0240 0.9776
2.9512 -4.3762 -2.0228 0.9776
4.2822 -3.0570 -2.0162 0.9777
4.5335 -2.6600 -2.0143 0.9777
4.7480 -2.2425 -2.0123 0.9778
4.9240 -1.8078 -2.0101 0.9778
5.2097 -0.4373 -2.0035 0.9779
5.1221 0.9552 -1.9967 0.9779
5.0109 1.4070 -1.9945 0.9780
4.8602 1.8467 -1.9924 0.9780
4.6712 2.2708 -1.9904 0.9780
4.4455 2.6760 -1.9885 0.9780
4.1851 3.0593 -1.9866 0.9780
2.9851 3.7567 -1.8388 0.9797
2.1025 3.9163 -1.7034 0.9811
1.0661 4.6671 -1.8346 0.9797
0.5229 3.8441 -1.4867 0.9835
0.2193 4.7811 -1.8341 0.9797
-0.5234 3.9146 -1.5135 0.9832
-1.0555 4.6700 -1.8348 0.9797
-2.9774 3.7647 -1.8394 0.9796
-3.3047 3.4873 -1.8411 0.9796
-3.8856 3.4280 -1.9857 0.9780
-5.2246 0.0414 -2.0022 0.9779
-5.2133 -0.4256 -2.0045 0.9778
-5.1603 -0.8902 -2.0067 0.9778
-5.0658 -1.3487 -2.0089 0.9778
-4.9305 -1.7974 -2.0111 0.9778
-4.0053 -3.4222 -2.0189 0.9777
-2.1401 -4.8329 -2.0255 0.9776
-1.2476 -5.1399 -2.0269 0.9776
-0.7840 -5.2318 -2.0273 0.9776
-0.3140 -5.2814 -2.0275 0.9776
0.1586 -5.2883 -2.0275 0.9776
1.5530 -5.0541 -2.0262 0.9776
1.9970 -4.8934 -2.0254 0.9776
2.8322 -4.4555 -2.0232 0.9776
3.5741 -3.8754 -2.0203 0.9777
4.1989 -3.1727 -2.0168 0.9777
4.4611 -2.7827 -2.0149 0.9777
4.8748 -1.9412 -2.0108 0.9778
5.0232 -1.4967 -2.0086 0.9778
5.1977 -0.5785 -2.0041 0.9778
5.2060 0.3540 -1.9996 0.9779
5.1478 0.8164 -1.9974 0.9779
4.7324 2.1441 -1.9910 0.9780
4.5177 2.5554 -1.9890 0.9780
4.2676 2.9456 -1.9872 0.9780
3.9842 3.3119 -1.9854 0.9781
3.5581 3.5402 -1.9235 0.9787
2.7443 3.9334 -1.8380 0.9797
1.9991 4.3540 -1.8360 0.9797
1.6018 4.5133 -1.8353 0.9797
1.1923 4.6368 -1.8347 0.9797
-0.4163 3.9193 -1.5104 0.9833
-0.9285 4.6966 -1.8346 0.9797
-1.7499 4.4596 -1.8359 0.9797
-2.5176 4.0817 -1.8378 0.9797
-2.8580 3.8222 -1.8289 0.9798
-3.7124 3.4584 -1.9443 0.9785
-4.0939 3.1814 -1.9869 0.9780
-4.3656 2.8059 -1.9887 0.9780
-4.6031 2.4075 -1.9907 0.9780
-4.8046 1.9891 -1.9927 0.9780
-5.1768 0.6473 -1.9993 0.9779
-5.2198 0.1829 -2.0015 0.9779
-5.2211 -0.2841 -2.0038 0.9779
-4.9758 -1.6626 -2.0104 0.9778
-4.8126 -2.1023 -2.0126 0.9778
-4.3707 -2.9302 -2.0165 0.9777
-3.4469 -3.9934 -2.0216 0.9777
-2.6855 -4.5485 -2.0242 0.9776
-2.2700 -4.7725 -2.0252 0.9776
-0.4570 -5.2708 -2.0275 0.9776
0.4874 -5.2678 -2.0273 0.9776
1.8640 -4.9463 -2.0256 0.9776
2.2969 -4.7580 -2.0247 0.9776
2.7109 -4.5314 -2.0236 0.9776
3.8062 -3.6434 -2.0191 0.9777
4.6225 -2.4979 -2.0135 0.9777
4.9824 -1.6328 -2.0093 0.9778
5.1027 -1.1803 -2.0071 0.9778
5.2154 0.2129 -2.0003 0.9779
5.1698 0.6768 -1.9981 0.9779
4.3470 2.8297 -1.9877 0.9780
-4.4674 -2.0535 -2.0123 0.9790
-4.2703 -2.4463 -2.0142 0.9790
-4.0385 -2.8201 -2.0160 0.9789
-3.7738 -3.1720 -2.0176 0.9789
-2.8045 -4.0669 -2.0219 0.9789
-2.4316 -4.3033 -2.0230 0.9789
-2.0388 -4.5053 -2.0239 0.9789
-1.6292 -4.6710 -2.0247 0.9788
-1.2061 -4.7992 -2.0253 0.9788
0.1084 -4.9486 -2.0258 0.9788
2.2331 -4.4097 -2.0230 0.9789
2.6164 -4.1905 -2.0219 0.9789
2.9781 -3.9378 -2.0206 0.9789
3.3154 -3.6537 -2.0192 0.9789
4.3693 -2.2549 -2.0124 0.9790
4.5487 -1.8541 -2.0104 0.9790
4.8896 -0.1446 -2.0021 0.9791
4.8273 0.7256 -1.9979 0.9791
4.7383 1.1523 -1.9958 0.9791
4.6119 1.5691 -1.9938 0.9792
4.4492 1.9725 -1.9919 0.9792
4.2514 2.3595 -1.9900 0.9792
3.7577 3.0726 -1.9866 0.9792
3.4658 3.3931 -1.9851 0.9793
2.6011 3.6647 -1.8393 0.9808
2.2418 3.8447 -1.8215 0.9809
1.1523 4.3359 -1.8362 0.9808
0.3630 4.4703 -1.8356 0.9808
-1.0879 3.8343 -1.6312 0.9829
-1.6058 4.1917 -1.8372 0.9808
-1.9744 4.0335 -1.8380 0.9808
-2.3277 3.8431 -1.8389 0.9808
-2.6631 3.6222 -1.8400 0.9808
-3.5238 3.3364 -1.9861 0.9792
-3.8106 3.0110 -1.9877 0.9792
-4.2929 2.2896 -1.9912 0.9792
-4.4844 1.8991 -1.9931 0.9792
-4.6406 1.4928 -1.9951 0.9792
-4.7602 1.0737 -1.9972 0.9791
-1.9498 0.2598 -0.8051 0.9915
-1.9363 0.0835 -0.7932 0.9917
-1.9385 -0.0898 -0.7942 0.9916
-4.7818 -1.0945 -2.0077 0.9790
-2.1598 -4.4478 -2.0236 0.9789
-1.3356 -4.7644 -2.0251 0.9788
-0.9052 -4.8656 -2.0255 0.9788
-0.4674 -4.9276 -2.0258 0.9788
1.7066 -4.6420 -2.0242 0.9789
2.5023 -4.2606 -2.0223 0.9789
3.2159 -3.7430 -2.0197 0.9789
3.5345 -3.4385 -2.0182 0.9789
3.8242 -3.1068 -2.0165 0.9789
4.7684 -1.1437 -2.0069 0.9790
4.5023 1.8518 -1.9924 0.9792
4.3149 2.2441 -1.9906 0.9792
4.0938 2.6179 -1.9888 0.9792
3.1847 3.5321 -1.9464 0.9797
2.6999 3.5936 -1.8396 0.9808
2.3671 3.8180 -1.8386 0.9808
2.0158 4.0121 -1.8377 0.9808
1.6490 4.1743 -1.8369 0.9808
1.2695 4.3034 -1.8363 0.9808
0.0840 4.4841 -1.8356 0.9808
-0.3165 4.4740 -1.8357 0.9808
-0.7147 4.4285 -1.8359 0.9808
-2.2224 3.9041 -1.8386 0.9808
-2.5635 3.6923 -1.8397 0.9808
-2.9111 3.4827 -1.8577 0.9806
-4.2281 2.4044 -1.9907 0.9792
-4.4300 2.0193 -1.9926 0.9792
-4.5970 1.6175 -1.9945 0.9792
-4.7279 1.2019 -1.9965 0.9791
-2.0449 0.3291 -0.8477 0.9911
-1.9519 0.1373 -0.8008 0.9916
-1.9169 -0.0368 -0.7847 0.9917
-1.9567 -0.2132 -0.8056 0.9915
-4.8082 -0.9642 -2.0070 0.9790
-4.7077 -1.3910 -2.0091 0.9790
-4.3940 -2.2101 -2.0130 0.9790
-3.9381 -2.9614 -2.0166 0.9789
-3.6610 -3.3038 -2.0183 0.9789
-3.3540 -3.6200 -2.0198 0.9789
-3.0195 -3.9076 -2.0211 0.9789
-2.2792 -4.3870 -2.0234 0.9789
-0.6007 -4.9130 -2.0257 0.9788
1.1561 -4.8110 -2.0251 0.9788
1.5804 -4.6871 -2.0244 0.9788
1.9916 -4.5255 -2.0236 0.9789
2.3864 -4.3275 -2.0226 0.9789
3.4408 -3.5338 -2.0186 0.9789
4.4443 -2.0990 -2.0116 0.9790
4.8268 -0.8441 -2.0055 0.9790
4.8896 0.0275 -2.0012 0.9791
4.8625 0.4633 -1.9991 0.9791
4.7968 0.8945 -1.9970 0.9791
4.6930 1.3178 -1.9950 0.9792
4.5521 1.7296 -1.9930 0.9792
4.3754 2.1270 -1.9911 0.9792
3.9205 2.8659 -1.9876 0.9792
3.6462 3.2019 -1.9860 0.9792
2.8169 3.5450 -1.8531 0.9806
1.7617 4.1285 -1.8371 0.9808
1.3857 4.2678 -1.8365 0.9808
0.5230 3.8445 -1.5880 0.9834
-1.3761 4.2716 -1.8367 0.9808
-2.1155 3.9623 -1.8383 0.9808
-2.4620 3.7597 -1.8393 0.9808
-2.7896 3.5272 -1.8405 0.9808
-3.2805 3.4617 -1.9519 0.9796
-3.9154 2.8760 -1.9884 0.9792
-4.3724 2.1380 -1.9920 0.9792
-2.2045 0.4164 -0.9182 0.9904
-1.9579 0.1911 -0.8051 0.9915
-1.9564 -0.1597 -0.8033 0.9916
-4.7422 -1.2625 -2.0085 0.9790
-4.6153 -1.6824 -2.0105 0.9790
-4.4510 -2.0897 -2.0125 0.9790
-4.2507 -2.4809 -2.0143 0.9790
-3.7483 -3.2026 -2.0178 0.9789
-3.1237 -3.8236 -2.0207 0.9789
-2.7717 -4.0897 -2.0220 0.9789
-2.0024 -4.5218 -2.0240 0.9789
-1.5914 -4.6842 -2.0247 0.9788
-0.2938 -4.9411 -2.0258 0.9788
0.1484 -4.9476 -2.0258 0.9788
0.5894 -4.9141 -2.0256 0.9788
1.0254 -4.8409 -2.0252 0.9788
1.8685 -4.5784 -2.0239 0.9789
2.2686 -4.3913 -2.0229 0.9789
3.3446 -3.6265 -2.0191 0.9789
3.6521 -3.3110 -2.0175 0.9789
4.1754 -2.6044 -2.0141 0.9790
4.7024 -1.4011 -2.0082 0.9790
4.8037 -0.9748 -2.0061 0.9790
4.8902 -0.1050 -2.0019 0.9791
4.8208 0.7645 -1.9977 0.9791
4.7284 1.1905 -1.9956 0.9791
4.4327 2.0083 -1.9917 0.9792
3.9978 2.7594 -1.9881 0.9792
3.7325 3.1026 -1.9865 0.9792
3.4380 3.4208 -1.9850 0.9793
2.9726 3.5397 -1.8918 0.9802
2.1931 3.8322 -1.8071 0.9811
1.8732 4.0798 -1.8373 0.9808
0.3268 4.4731 -1.8356 0.9808
-0.0737 4.4844 -1.8356 0.9808
-0.4737 4.4603 -1.8357 0.9808
-3.5509 3.3080 -1.9862 0.9792
-4.0894 2.6284 -1.9896 0.9792
-4.6529 1.4553 -1.9953 0.9791
-4.7692 1.0353 -1.9974 0.9791
-1.9303 0.0676 -0.7905 0.9917
-4.7732 -1.1332 -2.0079 0.9790
-4.6577 -1.5563 -2.0099 0.9790
-4.3151 -2.3642 -2.0138 0.9790
-4.0906 -2.7424 -2.0156 0.9789
-3.8327 -3.0991 -2.0173 0.9789
-2.8809 -4.0123 -2.0216 0.9789
-2.5127 -4.2559 -2.0228 0.9789
-2.1239 -4.4653 -2.0237 0.9789
