ply
format ascii 1.0
element vertex 1592
property float32 x
property float32 y
property float32 z
property float32 I
end_header
-4.0190 5.1187 -2.0017 0.9731
-5.2323 3.8698 -2.0017 0.9731
-5.8375 2.8770 -2.0017 0.9731
-6.0711 2.3440 -2.0017 0.9731
-6.2562 1.7923 -2.0017 0.9731
-6.4753 0.6504 -2.0017 0.9731
-6.4877 -0.5122 -2.0017 0.9731
-6.1197 -2.2141 -2.0017 0.9731
-5.3136 -3.7574 -2.0017 0.9731
-4.9427 -4.2051 -1.9960 0.9732
-4.2502 -4.3274 -1.8656 0.9749
-3.8134 -4.6492 -1.8495 0.9751
-2.9252 -5.2535 -1.8495 0.9751
-2.4442 -5.4939 -1.8495 0.9751
-1.9437 -5.6902 -1.8495 0.9751
-1.4276 -5.8411 -1.8495 0.9751
-0.3654 -6.0019 -1.8495 0.9751
0.1723 -6.0105 -1.8495 0.9751
2.2663 -5.5695 -1.8495 0.9751
2.7548 -5.3448 -1.8495 0.9751
3.6619 -4.7693 -1.8495 0.9752
4.5279 -4.1103 -1.8809 0.9747
6.0453 -2.4096 -2.0017 0.9731
6.5063 -0.1398 -2.0017 0.9731
5.3540 3.6996 -2.0017 0.9731
4.6102 4.5933 -2.0017 0.9731
4.1814 4.9868 -2.0017 0.9731
3.2273 5.6513 -2.0017 0.9731
2.7096 5.9170 -2.0017 0.9731
2.1702 6.1354 -2.0017 0.9731
1.6104 6.2929 -1.9979 0.9732
-0.1117 6.2640 -1.9270 0.9741
-0.6729 6.2492 -1.9332 0.9740
-1.8274 6.2103 -1.9911 0.9733
-2.9187 5.8167 -2.0017 0.9731
-3.9072 5.2045 -2.0017 0.9731
-4.3565 4.8346 -2.0017 0.9731
-4.7710 4.4261 -2.0017 0.9731
-5.1473 3.9822 -2.0017 0.9731
-5.4825 3.5065 -2.0017 0.9731
-5.7738 3.0027 -2.0017 0.9731
-6.0189 2.4749 -2.0017 0.9731
-6.2160 1.9274 -2.0017 0.9731
-6.3633 1.3644 -2.0017 0.9731
-6.4973 -0.3716 -2.0017 0.9731
-6.3275 -1.5219 -2.0017 0.9731
-6.1662 -2.0810 -2.0017 0.9731
-5.9557 -2.6235 -2.0017 0.9731
-5.6975 -3.1451 -2.0017 0.9731
-5.3937 -3.6415 -2.0017 0.9731
-5.0371 -4.1008 -1.9978 0.9732
-4.4354 -4.3245 -1.9054 0.9744
-3.4897 -4.8968 -1.8495 0.9751
-2.0664 -5.6468 -1.8495 0.9751
-1.0286 -5.9244 -1.8495 0.9751
0.0421 -6.0129 -1.8495 0.9751
0.5790 -5.9851 -1.8495 0.9751
1.6348 -5.7865 -1.8495 0.9751
2.1452 -5.6173 -1.8495 0.9751
2.6384 -5.4032 -1.8495 0.9751
3.1105 -5.1459 -1.8495 0.9751
3.5578 -4.8475 -1.8495 0.9751
3.9766 -4.5103 -1.8495 0.9752
4.3636 -4.1370 -1.8495 0.9752
5.0866 -4.0241 -1.9949 0.9732
5.7408 -3.0650 -2.0017 0.9731
5.9917 -2.5399 -2.0017 0.9731
6.1946 -1.9945 -2.0017 0.9731
6.3480 -1.4332 -2.0017 0.9731
6.5018 -0.2807 -2.0017 0.9731
6.5008 0.3012 -2.0017 0.9731
6.3435 1.4533 -2.0017 0.9731
6.1883 2.0141 -2.0017 0.9731
5.7311 3.0832 -2.0017 0.9731
5.4328 3.5828 -2.0017 0.9731
5.0910 4.0538 -2.0017 0.9731
3.8340 5.2586 -2.0017 0.9731
3.3489 5.5801 -2.0017 0.9731
2.8370 5.8569 -2.0017 0.9731
2.3025 6.0869 -2.0017 0.9731
1.7495 6.2683 -2.0017 0.9731
0.5874 6.2788 -1.9396 0.9740
-0.5367 6.2530 -1.9304 0.9741
-2.2558 6.1044 -2.0017 0.9731
-2.7921 5.8785 -2.0017 0.9731
-3.3061 5.6056 -2.0017 0.9731
-4.6740 4.5284 -2.0017 0.9731
-5.7074 3.1270 -2.0017 0.9731
-6.1728 2.0615 -2.0017 0.9731
-6.3323 1.5019 -2.0017 0.9731
-6.4411 0.9302 -2.0017 0.9731
-6.4984 0.3511 -2.0017 0.9731
-6.4572 -0.8109 -2.0017 0.9731
-6.3589 -1.3845 -2.0017 0.9731
-6.2098 -1.9470 -2.0017 0.9731
-6.0111 -2.4940 -2.0017 0.9731
-5.7642 -3.0210 -2.0017 0.9731
-5.1295 -3.9944 -1.9997 0.9732
-4.0111 -4.4797 -1.8495 0.9751
-3.1499 -5.1220 -1.8495 0.9751
-2.1882 -5.6007 -1.8495 0.9751
-1.1566 -5.9007 -1.8495 0.9751
-0.0881 -6.0124 -1.8495 0.9751
0.9831 -5.9321 -1.8495 0.9751
2.5208 -5.4591 -1.8495 0.9751
2.9984 -5.2121 -1.8495 0.9751
3.4520 -4.9234 -1.8495 0.9751
4.2730 -4.2305 -1.8495 0.9751
5.3628 -3.6807 -2.0006 0.9731
5.6731 -3.1886 -2.0017 0.9731
6.1500 -2.1282 -2.0017 0.9731
6.5058 0.1604 -2.0017 0.9731
6.3735 1.3156 -2.0017 0.9731
4.3934 4.8011 -2.0017 0.9731
3.9470 5.1743 -2.0017 0.9731
2.9632 5.7941 -2.0017 0.9731
2.4338 6.0357 -2.0017 0.9731
1.3037 6.2896 -1.9757 0.9735
0.7251 6.2812 -1.9448 0.9739
0.1598 6.2703 -1.9292 0.9741
-0.9649 6.2404 -1.9422 0.9739
-1.5413 6.2209 -1.9713 0.9735
-2.1231 6.1519 -2.0017 0.9731
-3.1839 5.6759 -2.0017 0.9731
-3.6782 5.3688 -2.0017 0.9731
-4.9701 4.2014 -2.0017 0.9731
-5.3255 3.7406 -2.0017 0.9731
-5.6384 3.2499 -2.0017 0.9731
-5.9061 2.7332 -2.0017 0.9731
-6.1267 2.1947 -2.0017 0.9731
-6.4893 0.4917 -2.0017 0.9731
-6.3874 -1.2465 -2.0017 0.9731
-6.0637 -2.3632 -2.0017 0.9731
-3.6984 -4.7411 -1.8495 0.9751
-3.2601 -5.0526 -1.8495 0.9751
-1.8038 -5.7361 -1.8495 0.9751
0.7075 5.9801 -2.0017 0.9749
-1.9484 5.6979 -2.0017 0.9749
-2.9312 5.2603 -2.0017 0.9749
-3.3894 4.9774 -2.0017 0.9749
-3.8205 4.6547 -2.0017 0.9749
-4.2210 4.2948 -2.0017 0.9749
-5.2087 3.0219 -2.0017 0.9749
-5.4578 2.5445 -2.0017 0.9749
-6.0033 0.4720 -2.0017 0.9749
-6.0215 -0.0662 -2.0017 0.9749
-5.9915 -0.6038 -2.0017 0.9749
-5.7884 -1.6604 -2.0017 0.9749
-5.6169 -2.1708 -2.0017 0.9749
-5.1410 -3.1357 -2.0017 0.9749
-4.8403 -3.5824 -2.0017 0.9749
-4.0481 -4.3042 -1.9641 0.9754
-3.0298 -4.6666 -1.8495 0.9768
-2.1510 -5.1313 -1.8495 0.9768
-1.2036 -5.4322 -1.8495 0.9768
-0.2177 -5.5596 -1.8495 0.9768
0.2798 -5.5569 -1.8495 0.9768
1.2641 -5.4184 -1.8495 0.9768
1.7431 -5.2838 -1.8495 0.9768
2.2082 -5.1070 -1.8495 0.9768
2.6555 -4.8893 -1.8495 0.9768
3.0817 -4.6325 -1.8495 0.9768
3.4832 -4.3387 -1.8495 0.9768
5.1756 -3.0781 -2.0017 0.9749
5.6407 -2.1080 -2.0017 0.9749
5.8065 -1.5957 -2.0017 0.9749
5.9978 -0.5369 -2.0017 0.9749
5.9255 1.0725 -2.0017 0.9749
5.1746 3.0798 -2.0017 0.9749
4.5440 3.9515 -2.0017 0.9749
3.7683 4.6970 -2.0017 0.9749
3.3336 5.0149 -2.0017 0.9749
2.3880 5.5280 -2.0017 0.9749
0.3008 6.0143 -2.0017 0.9749
-0.7742 5.9718 -2.0017 0.9749
-2.3299 5.5528 -2.0017 0.9749
-2.8166 5.3225 -2.0017 0.9749
-3.2808 5.0496 -2.0017 0.9749
-4.5023 3.9990 -2.0017 0.9749
-4.8415 3.5808 -2.0017 0.9749
-5.1420 3.1340 -2.0017 0.9749
-5.6177 2.1690 -2.0017 0.9749
-5.7890 1.6585 -2.0017 0.9749
-6.0215 0.0642 -2.0017 0.9749
-5.8230 -1.5346 -2.0017 0.9749
-5.6626 -2.0487 -2.0017 0.9749
-5.2077 -3.0236 -2.0017 0.9749
-4.9167 -3.4768 -2.0017 0.9749
-4.2043 -4.2806 -1.9944 0.9750
-3.5385 -4.3140 -1.8547 0.9768
-3.1302 -4.5999 -1.8495 0.9768
-2.2616 -5.0835 -1.8495 0.9768
-1.3209 -5.4048 -1.8495 0.9768
-0.8328 -5.5012 -1.8495 0.9768
0.1594 -5.5616 -1.8495 0.9768
0.6556 -5.5251 -1.8495 0.9768
1.1465 -5.4445 -1.8495 0.9768
1.6283 -5.3203 -1.8495 0.9768
2.5490 -4.9456 -1.8495 0.9768
2.9807 -4.6981 -1.8495 0.9768
3.8040 -4.1306 -1.8666 0.9766
4.4439 -4.0340 -1.9950 0.9750
5.3722 -2.7204 -2.0017 0.9749
5.7706 -1.7210 -2.0017 0.9749
5.9013 -1.1986 -2.0017 0.9749
5.9847 -0.6667 -2.0017 0.9749
6.0079 0.4089 -2.0017 0.9749
5.8392 1.4715 -2.0017 0.9749
5.6844 1.9872 -2.0017 0.9749
5.2401 2.9670 -2.0017 0.9749
4.2658 4.2502 -2.0017 0.9749
3.4414 4.9415 -2.0017 0.9749
2.9863 5.2292 -2.0017 0.9749
2.5072 5.4750 -2.0017 0.9749
-0.1073 6.0209 -2.0017 0.9749
-0.6447 5.9872 -2.0017 0.9749
-4.0311 4.4735 -2.0017 0.9749
-4.4146 4.0955 -2.0017 0.9749
-5.3425 2.7785 -2.0017 0.9749
-5.5694 2.2901 -2.0017 0.9749
-5.7517 1.7834 -2.0017 0.9749
-5.8880 1.2625 -2.0017 0.9749
-6.0187 0.1946 -2.0017 0.9749
-5.9573 -0.8796 -2.0017 0.9749
-5.7057 -1.9256 -2.0017 0.9749
-5.2719 -2.9102 -2.0017 0.9749
-4.9909 -3.3695 -2.0017 0.9749
-4.6699 -3.8018 -2.0017 0.9749
-4.2993 -4.1918 -1.9960 0.9750
-2.3712 -5.0334 -1.8495 0.9768
-1.4377 -5.3750 -1.8495 0.9768
-0.9518 -5.4819 -1.8495 0.9768
1.0284 -5.4680 -1.8495 0.9768
2.4414 -4.9997 -1.8495 0.9768
3.2921 -4.4854 -1.8495 0.9768
3.6796 -4.1734 -1.8495 0.9768
4.3215 -4.0971 -1.9795 0.9752
4.7187 -3.7330 -2.0000 0.9750
5.0375 -3.2993 -2.0017 0.9749
5.3121 -2.8361 -2.0017 0.9749
5.8739 -1.3261 -2.0017 0.9749
6.0153 0.2788 -2.0017 0.9749
5.9664 0.8150 -2.0017 0.9749
5.3031 2.8529 -2.0017 0.9749
5.0270 3.3152 -2.0017 0.9749
3.9681 4.5295 -2.0017 0.9749
2.6251 5.4195 -2.0017 0.9749
2.1305 5.6323 -2.0017 0.9749
1.0943 5.9215 -2.0017 0.9749
-0.5149 5.9998 -2.0017 0.9749
-2.0873 5.6485 -2.0017 0.9749
-3.0591 5.1869 -2.0017 0.9749
-3.5103 4.8929 -2.0017 0.9749
-3.9333 4.5598 -2.0017 0.9749
-5.0015 3.3537 -2.0017 0.9749
-5.2811 2.8935 -2.0017 0.9749
-5.5185 2.4102 -2.0017 0.9749
-5.8593 1.3897 -2.0017 0.9749
-6.0131 0.3248 -2.0017 0.9749
-5.9749 -0.7504 -2.0017 0.9749
-5.7460 -1.8016 -2.0017 0.9749
-5.5621 -2.3077 -2.0017 0.9749
-5.0627 -3.2606 -2.0017 0.9749
-3.8567 -4.3073 -1.9219 0.9759
-2.9147 -4.7394 -1.8495 0.9768
-0.0816 -5.5633 -1.8495 0.9768
0.9097 -5.4890 -1.8495 0.9768
2.7744 -4.8228 -1.8495 0.9768
3.1942 -4.5557 -1.8495 0.9768
3.5884 -4.2521 -1.8495 0.9768
4.1496 -4.1084 -1.9410 0.9757
4.6330 -3.8312 -1.9984 0.9750
5.2494 -2.9505 -2.0017 0.9749
5.6907 -1.9692 -2.0017 0.9749
6.0091 -0.3899 -2.0017 0.9749
5.9826 0.6856 -2.0017 0.9749
5.5867 2.2473 -2.0017 0.9749
4.4459 4.0615 -2.0017 0.9749
4.0653 4.4425 -2.0017 0.9749
3.2099 5.0950 -2.0017 0.9749
2.7419 5.3614 -2.0017 0.9749
1.7441 5.7637 -2.0017 0.9749
0.6906 5.9821 -2.0017 0.9749
-0.3849 6.0095 -2.0017 0.9749
-1.4481 5.8451 -2.0017 0.9749
-1.9645 5.6924 -2.0017 0.9749
-2.4652 5.4941 -2.0017 0.9749
-3.4035 4.9678 -2.0017 0.9749
-3.8337 4.6439 -2.0017 0.9749
-4.2332 4.2828 -2.0017 0.9749
-5.4650 2.5291 -2.0017 0.9749
-5.8278 1.5162 -2.0017 0.9749
-6.0213 -0.0832 -2.0017 0.9749
-5.9898 -0.6208 -2.0017 0.9749
-5.6108 -2.1867 -2.0017 0.9749
-4.0256 -4.3046 -1.9591 0.9755
-3.4222 -4.3870 -1.8495 0.9768
-3.0166 -4.6752 -1.8495 0.9768
-2.5869 -4.9260 -1.8495 0.9768
-2.1365 -5.1374 -1.8495 0.9768
-1.6690 -5.3077 -1.8495 0.9768
0.6577 5.5587 -2.0017 0.9765
-0.3420 5.5870 -2.0017 0.9765
-1.3307 5.4370 -2.0017 0.9765
-1.8111 5.2964 -2.0017 0.9765
-2.7247 4.8896 -2.0017 0.9765
-3.9236 3.9921 -2.0017 0.9765
-4.2645 3.6257 -2.0017 0.9765
-4.5713 3.2302 -2.0017 0.9765
-4.8416 2.8090 -2.0017 0.9765
-5.0732 2.3652 -2.0017 0.9765
-5.2642 1.9026 -2.0017 0.9765
-5.5971 -0.0615 -2.0017 0.9765
-5.4968 -1.0566 -2.0017 0.9765
-5.2211 -2.0178 -2.0017 0.9765
-4.7787 -2.9147 -2.0017 0.9765
-4.4992 -3.3299 -2.0017 0.9765
-3.8275 -4.0696 -1.9979 0.9765
-2.8163 -4.3378 -1.8495 0.9783
-0.2024 -5.1678 -1.8495 0.9783
0.2601 -5.1653 -1.8495 0.9783
0.7204 -5.1214 -1.8495 0.9783
1.6203 -4.9114 -1.8495 0.9783
2.4684 -4.5447 -1.8495 0.9783
2.8688 -4.3125 -1.8522 0.9782
3.3211 -4.1368 -1.8971 0.9777
3.8680 -4.0218 -1.9955 0.9766
4.2241 -3.6708 -2.0013 0.9765
4.8109 -2.8612 -2.0017 0.9765
5.0472 -2.4200 -2.0017 0.9765
5.5082 -0.9951 -2.0017 0.9765
5.5751 -0.4991 -2.0017 0.9765
5.5974 0.0009 -2.0017 0.9765
5.5749 0.5009 -2.0017 0.9765
5.5079 0.9970 -2.0017 0.9765
5.2426 1.9612 -2.0017 0.9765
5.0464 2.4217 -2.0017 0.9765
4.8099 2.8628 -2.0017 0.9765
4.5350 3.2810 -2.0017 0.9765
4.2237 3.6730 -2.0017 0.9765
3.5027 4.3660 -2.0017 0.9765
1.7519 5.3162 -2.0017 0.9765
0.7779 5.5431 -2.0017 0.9765
-0.2209 5.5931 -2.0017 0.9765
-0.7197 5.5510 -2.0017 0.9765
-3.0496 4.6937 -2.0017 0.9765
-4.1850 3.7172 -2.0017 0.9765
-4.5003 3.3285 -2.0017 0.9765
-5.2218 2.0161 -2.0017 0.9765
-5.4972 1.0547 -2.0017 0.9765
-5.5971 0.0597 -2.0017 0.9765
-5.5801 -0.4406 -2.0017 0.9765
-5.4126 -1.4265 -2.0017 0.9765
-5.2636 -1.9043 -2.0017 0.9765
-5.0724 -2.3669 -2.0017 0.9765
-4.5702 -3.2317 -2.0017 0.9765
-4.2633 -3.6271 -2.0017 0.9765
-3.5169 -4.2877 -1.9831 0.9767
-2.9235 -4.2963 -1.8584 0.9782
-2.1023 -4.7253 -1.8495 0.9783
-1.6717 -4.8942 -1.8495 0.9783
-1.2279 -5.0239 -1.8495 0.9783
-0.7742 -5.1135 -1.8495 0.9783
-0.3143 -5.1622 -1.8495 0.9783
0.1482 -5.1697 -1.8495 0.9783
2.7706 -4.3671 -1.8495 0.9783
3.1828 -4.1453 -1.8690 0.9780
4.4640 -3.3769 -2.0017 0.9765
4.7478 -2.9647 -2.0017 0.9765
5.3639 -1.5997 -2.0017 0.9765
5.5630 -0.6197 -2.0017 0.9765
5.5961 -0.1203 -2.0017 0.9765
5.5845 0.3801 -2.0017 0.9765
5.5282 0.8775 -2.0017 0.9765
5.2838 1.8472 -2.0017 0.9765
5.0977 2.3118 -2.0017 0.9765
4.8708 2.7580 -2.0017 0.9765
4.6049 3.1820 -2.0017 0.9765
4.3023 3.5807 -2.0017 0.9765
3.5964 4.2891 -2.0017 0.9765
3.1989 4.5933 -2.0017 0.9765
2.7758 4.8607 -2.0017 0.9765
1.8666 5.2770 -2.0017 0.9765
1.3877 5.4227 -2.0017 0.9765
0.8977 5.5250 -2.0017 0.9765
0.4006 5.5831 -2.0017 0.9765
-2.0534 5.2072 -2.0017 0.9765
-2.5104 5.0029 -2.0017 0.9765
-2.9473 4.7587 -2.0017 0.9765
-3.3606 4.4764 -2.0017 0.9765
-4.4272 3.4251 -2.0017 0.9765
-4.7155 3.0160 -2.0017 0.9765
-5.1769 2.1287 -2.0017 0.9765
-5.3464 1.6577 -2.0017 0.9765
-5.5945 0.1809 -2.0017 0.9765
-5.5883 -0.3196 -2.0017 0.9765
-5.5374 -0.8176 -2.0017 0.9765
-5.4423 -1.3090 -2.0017 0.9765
-5.1225 -2.2565 -2.0017 0.9765
-4.9004 -2.7051 -2.0017 0.9765
-4.6392 -3.1320 -2.0017 0.9765
-4.3408 -3.5339 -2.0017 0.9765
-4.0058 -3.9057 -2.0007 0.9765
-2.6132 -4.4630 -1.8495 0.9783
-1.7773 -4.8568 -1.8495 0.9783
-0.8847 -5.0956 -1.8495 0.9783
0.0362 -5.1717 -1.8495 0.9783
1.4061 -4.9770 -1.8495 0.9783
1.8451 -4.8315 -1.8495 0.9783
2.2693 -4.6473 -1.8495 0.9783
3.6299 -4.1170 -1.9628 0.9770
4.6825 -3.0668 -2.0017 0.9765
4.9377 -2.6362 -2.0017 0.9765
5.1535 -2.1846 -2.0017 0.9765
5.3280 -1.7155 -2.0017 0.9765
5.5483 -0.7400 -2.0017 0.9765
5.4560 1.2499 -2.0017 0.9765
5.3226 1.7323 -2.0017 0.9765
4.9294 2.6518 -2.0017 0.9765
4.3788 3.4867 -2.0017 0.9765
4.0498 3.8639 -2.0017 0.9765
2.8804 4.7994 -2.0017 0.9765
2.4401 5.0375 -2.0017 0.9765
1.9804 5.2354 -2.0017 0.9765
1.0172 5.5042 -2.0017 0.9765
0.5214 5.5731 -2.0017 0.9765
-1.4634 5.4028 -2.0017 0.9765
-1.9402 5.2504 -2.0017 0.9765
-3.2629 4.5481 -2.0017 0.9765
-4.0201 3.8949 -2.0017 0.9765
-4.6491 3.1173 -2.0017 0.9765
-5.3092 1.7731 -2.0017 0.9765
-5.5400 0.8000 -2.0017 0.9765
-5.5939 -0.1986 -2.0017 0.9765
-5.5538 -0.6975 -2.0017 0.9765
-5.1701 -2.1451 -2.0017 0.9765
-4.9578 -2.5983 -2.0017 0.9765
-4.7059 -3.0308 -2.0017 0.9765
-4.0914 -3.8199 -2.0017 0.9765
-3.2015 -4.2926 -1.9150 0.9775
-2.3049 -4.6298 -1.8495 0.9783
-1.8821 -4.8172 -1.8495 0.9783
-1.4442 -4.9661 -1.8495 0.9783
-0.0758 -5.1712 -1.8495 0.9783
1.2980 -5.0063 -1.8495 0.9783
2.5789 -4.4829 -1.8495 0.9783
2.9691 -4.2346 -1.8495 0.9783
3.4824 -4.1265 -1.9309 0.9773
3.9684 -3.9289 -1.9970 0.9766
4.3136 -3.5671 -2.0017 0.9765
4.8795 -2.7425 -2.0017 0.9765
5.5309 -0.8600 -2.0017 0.9765
5.5856 -0.3624 -2.0017 0.9765
5.5957 0.1380 -2.0017 0.9765
5.5610 0.6373 -2.0017 0.9765
5.1930 2.0889 -2.0017 0.9765
4.7384 2.9797 -2.0017 0.9765
2.9836 4.7359 -2.0017 0.9765
2.5487 4.9835 -2.0017 0.9765
2.0933 5.1913 -2.0017 0.9765
1.1361 5.4809 -2.0017 0.9765
0.6419 5.5605 -2.0017 0.9765
-0.3578 5.5860 -2.0017 0.9765
-0.8554 5.5317 -2.0017 0.9765
-1.8261 5.2912 -2.0017 0.9765
-2.2914 5.1069 -2.0017 0.9765
-3.5635 4.3166 -2.0017 0.9765
-4.8496 2.7952 -2.0017 0.9765
-5.0799 2.3508 -2.0017 0.9765
-5.5214 0.9198 -2.0017 0.9765
-5.5815 0.4229 -2.0017 0.9765
-5.5969 -0.0774 -2.0017 0.9765
-5.4938 -1.0721 -2.0017 0.9765
-5.2154 -2.0326 -2.0017 0.9765
-4.7704 -2.9282 -2.0017 0.9765
-3.3468 -4.2904 -1.9459 0.9771
-2.8040 -4.3457 -1.8495 0.9783
-2.4046 -4.5788 -1.8495 0.9783
-1.9859 -4.7753 -1.8495 0.9783
-1.1045 -5.0525 -1.8495 0.9783
-0.6487 -5.1310 -1.8495 0.9783
-0.7836 5.1643 -2.0017 0.9779
-1.2418 5.0736 -2.0017 0.9779
-1.6901 4.9424 -2.0017 0.9779
-2.1248 4.7717 -2.0017 0.9779
-2.5426 4.5628 -2.0017 0.9779
-3.9795 3.3834 -2.0017 0.9779
-4.2658 3.0143 -2.0017 0.9779
-4.5181 2.6212 -2.0017 0.9779
-4.9124 1.7754 -2.0017 0.9779
-5.1499 0.8729 -2.0017 0.9779
-5.2073 0.4094 -2.0017 0.9779
-5.1295 -0.9859 -2.0017 0.9779
-4.8722 -1.8830 -2.0017 0.9779
-4.1985 -3.1074 -2.0017 0.9779
-3.9041 -3.4700 -2.0017 0.9779
-3.2169 -4.0999 -1.9971 0.9779
-2.2639 -4.2815 -1.8560 0.9795
-1.0440 -4.7119 -1.8495 0.9795
-0.6189 -4.7863 -1.8495 0.9795
-0.1889 -4.8225 -1.8495 0.9795
0.2427 -4.8201 -1.8495 0.9795
0.6723 -4.7791 -1.8495 0.9795
1.5120 -4.5832 -1.8495 0.9795
1.9154 -4.4298 -1.8495 0.9795
2.3034 -4.2410 -1.8495 0.9795
3.2592 -4.0597 -1.9951 0.9779
4.2329 -3.0603 -2.0017 0.9779
4.4894 -2.6700 -2.0017 0.9779
5.1401 -0.9286 -2.0017 0.9779
5.2025 -0.4657 -2.0017 0.9779
5.1398 0.9303 -2.0017 0.9779
5.0361 1.3858 -2.0017 0.9779
4.4885 2.6715 -2.0017 0.9779
4.2319 3.0617 -2.0017 0.9779
3.9415 3.4275 -2.0017 0.9779
3.6195 3.7659 -2.0017 0.9779
2.4915 4.5908 -2.0017 0.9779
2.0714 4.7951 -2.0017 0.9779
0.7259 5.1727 -2.0017 0.9779
-0.2062 5.2193 -2.0017 0.9779
-2.0210 4.8166 -2.0017 0.9779
-2.8458 4.3801 -2.0017 0.9779
-3.2257 4.1083 -2.0017 0.9779
-3.5798 3.8037 -2.0017 0.9779
-4.4602 2.7184 -2.0017 0.9779
-4.6853 2.3091 -2.0017 0.9779
-5.0214 1.4386 -2.0017 0.9779
-5.1298 0.9842 -2.0017 0.9779
-5.1972 0.5220 -2.0017 0.9779
-5.2231 0.0557 -2.0017 0.9779
-5.1496 -0.8746 -2.0017 0.9779
-4.9118 -1.7770 -2.0017 0.9779
-4.5172 -2.6227 -2.0017 0.9779
-3.9784 -3.3847 -2.0017 0.9779
-3.6601 -3.7265 -2.0017 0.9779
-3.3069 -4.0317 -1.9983 0.9779
-2.9079 -4.2733 -1.9808 0.9781
-1.1458 -4.6882 -1.8495 0.9795
-0.7224 -4.7718 -1.8495 0.9795
-0.2933 -4.8172 -1.8495 0.9795
0.5687 -4.7925 -1.8495 0.9795
3.1657 -4.1230 -1.9920 0.9780
3.5332 -3.8366 -1.9987 0.9779
3.8675 -3.5108 -2.0017 0.9779
4.1656 -3.1513 -2.0017 0.9779
4.4305 -2.7665 -2.0017 0.9779
4.6599 -2.3597 -2.0017 0.9779
4.8521 -1.9340 -2.0017 0.9779
5.1912 -0.5783 -2.0017 0.9779
5.2113 0.3547 -2.0017 0.9779
5.1587 0.8188 -2.0017 0.9779
5.0650 1.2764 -2.0017 0.9779
4.9307 1.7237 -2.0017 0.9779
4.2972 2.9694 -2.0017 0.9779
4.0148 3.3414 -2.0017 0.9779
3.7002 3.6867 -2.0017 0.9779
3.3561 4.0025 -2.0017 0.9779
2.9851 4.2863 -2.0017 0.9779
2.5903 4.5358 -2.0017 0.9779
2.1747 4.7491 -2.0017 0.9779
0.8377 5.1557 -2.0017 0.9779
0.3738 5.2100 -2.0017 0.9779
-1.9162 4.8592 -2.0017 0.9779
-2.3426 4.6686 -2.0017 0.9779
-3.4966 3.8804 -2.0017 0.9779
-4.4003 2.8144 -2.0017 0.9779
-4.6341 2.4101 -2.0017 0.9779
-4.8309 1.9864 -2.0017 0.9779
-5.1073 1.0951 -2.0017 0.9779
-5.1847 0.6345 -2.0017 0.9779
-5.2206 0.1688 -2.0017 0.9779
-5.2148 -0.2983 -2.0017 0.9779
-4.3291 -2.9227 -2.0017 0.9779
-4.0507 -3.2977 -2.0017 0.9779
-3.3955 -3.9616 -1.9995 0.9779
-2.5051 -4.2784 -1.8999 0.9790
-2.0568 -4.3660 -1.8495 0.9795
-1.2470 -4.6623 -1.8495 0.9795
-0.8256 -4.7550 -1.8495 0.9795
-0.3975 -4.8098 -1.8495 0.9795
0.8920 -4.7430 -1.8495 0.9795
2.1176 -4.3367 -1.8495 0.9795
2.5161 -4.1625 -1.8639 0.9794
3.0323 -4.1314 -1.9639 0.9783
3.7905 -3.5937 -2.0017 0.9779
4.0964 -3.2407 -2.0017 0.9779
4.3695 -2.8618 -2.0017 0.9779
4.6077 -2.4601 -2.0017 0.9779
4.8091 -2.0386 -2.0017 0.9779
4.9719 -1.6009 -2.0017 0.9779
5.0951 -1.1503 -2.0017 0.9779
5.1775 -0.6905 -2.0017 0.9779
5.2184 -0.2253 -2.0017 0.9779
5.2177 0.2418 -2.0017 0.9779
5.1753 0.7069 -2.0017 0.9779
5.0914 1.1664 -2.0017 0.9779
4.5999 2.4746 -2.0017 0.9779
3.7792 3.6057 -2.0017 0.9779
3.4420 3.9289 -2.0017 0.9779
2.2771 4.7009 -2.0017 0.9779
1.4042 5.0311 -2.0017 0.9779
0.9492 5.1364 -2.0017 0.9779
0.0200 5.2233 -2.0017 0.9779
-0.4467 5.2042 -2.0017 0.9779
-0.9098 5.1435 -2.0017 0.9779
-1.8105 4.8995 -2.0017 0.9779
-3.0448 4.2441 -2.0017 0.9779
-3.4118 3.9552 -2.0017 0.9779
-4.0611 3.2849 -2.0017 0.9779
-4.7868 2.0906 -2.0017 0.9779
-4.9544 1.6546 -2.0017 0.9779
-5.1697 0.7466 -2.0017 0.9779
-5.2201 -0.1853 -2.0017 0.9779
-5.1827 -0.6509 -2.0017 0.9779
-5.1038 -1.1112 -2.0017 0.9779
-4.8246 -2.0017 -2.0017 0.9779
-4.6265 -2.4247 -2.0017 0.9779
-3.8180 -3.5646 -2.0017 0.9779
-3.4827 -3.8896 -2.0008 0.9779
-2.6303 -4.2770 -1.9242 0.9787
-1.7563 -4.4953 -1.8495 0.9795
-0.5015 -4.8000 -1.8495 0.9795
0.3606 -4.8127 -1.8495 0.9795
0.7891 -4.7612 -1.8495 0.9795
1.2113 -4.6717 -1.8495 0.9795
1.6237 -4.5448 -1.8495 0.9795
2.0232 -4.3816 -1.8495 0.9795
2.9024 -4.1395 -1.9374 0.9786
3.3598 -3.9812 -1.9964 0.9779
3.7114 -3.6745 -2.0014 0.9779
4.5534 -2.5592 -2.0017 0.9779
4.9361 -1.7081 -2.0017 0.9779
5.1613 -0.8025 -2.0017 0.9779
5.1893 0.5947 -2.0017 0.9779
4.8459 1.9493 -2.0017 0.9779
3.8564 3.5230 -2.0017 0.9779
3.1679 4.1530 -2.0017 0.9779
2.7842 4.4194 -2.0017 0.9779
2.3783 4.6505 -2.0017 0.9779
1.9534 4.8443 -2.0017 0.9779
-1.2561 5.0701 -2.0017 0.9779
-1.7040 4.9376 -2.0017 0.9779
-2.1383 4.7656 -2.0017 0.9779
-2.5555 4.5556 -2.0017 0.9779
-3.9891 3.3721 -2.0017 0.9779
-4.2743 3.0023 -2.0017 0.9779
-4.5255 2.6084 -2.0017 0.9779
-4.7404 2.1937 -2.0017 0.9779
-4.9174 1.7615 -2.0017 0.9779
-5.0551 1.3152 -2.0017 0.9779
-5.2084 0.3946 -2.0017 0.9779
-5.2229 -0.0722 -2.0017 0.9779
-3.8943 -3.4811 -2.0017 0.9779
-3.5678 -3.8150 -2.0017 0.9779
-3.2051 -4.1087 -1.9969 0.9779
-2.2494 -4.2832 -1.8540 0.9795
-1.8532 -4.4562 -1.8495 0.9795
-1.4477 -4.6039 -1.8495 0.9795
-1.0307 -4.7148 -1.8495 0.9795
-0.6054 -4.7880 -1.8495 0.9795
0.5746 4.8569 -2.0017 0.9791
0.1385 4.8888 -2.0017 0.9791
-0.7337 4.8355 -2.0017 0.9791
-1.1627 4.7506 -2.0017 0.9791
-1.5825 4.6277 -2.0017 0.9791
-1.9895 4.4679 -2.0017 0.9791
-2.3807 4.2723 -2.0017 0.9791
-2.7528 4.0425 -2.0017 0.9791
-3.1029 3.7805 -2.0017 0.9791
-3.4282 3.4882 -2.0017 0.9791
-3.7261 3.1680 -2.0017 0.9791
-4.2304 2.4543 -2.0017 0.9791
-4.5996 1.6624 -2.0017 0.9791
-4.7297 1.2448 -2.0017 0.9791
-2.1267 0.3605 -0.8828 0.9907
-1.9091 -0.0210 -0.7814 0.9918
-4.3862 -2.1636 -2.0017 0.9791
-4.1754 -2.5468 -2.0017 0.9791
-3.6556 -3.2491 -2.0017 0.9791
-3.0185 -3.8470 -2.0013 0.9791
-1.3678 -4.3070 -1.8495 0.9807
-0.5795 -4.4816 -1.8495 0.9807
-0.1768 -4.5154 -1.8495 0.9807
0.2272 -4.5132 -1.8495 0.9807
1.0267 -4.4007 -1.8495 0.9807
1.4157 -4.2914 -1.8495 0.9807
1.8073 -4.1799 -1.8638 0.9805
2.2571 -4.1556 -1.9355 0.9798
2.7003 -4.0591 -1.9953 0.9791
3.0583 -3.8095 -1.9994 0.9791
3.3902 -3.5250 -2.0017 0.9791
4.2035 -2.5000 -2.0017 0.9791
4.4101 -2.1145 -2.0017 0.9791
4.5813 -1.7121 -2.0017 0.9791
4.7159 -1.2960 -2.0017 0.9791
4.7155 1.2975 -2.0017 0.9791
4.2027 2.5014 -2.0017 0.9791
3.3891 3.5262 -2.0017 0.9791
3.0605 3.8148 -2.0017 0.9791
2.7075 4.0730 -2.0017 0.9791
2.3328 4.2986 -2.0017 0.9791
1.9395 4.4898 -2.0017 0.9791
0.6797 4.8433 -2.0017 0.9791
-0.1930 4.8870 -2.0017 0.9791
-0.6288 4.8502 -2.0017 0.9791
-1.0596 4.7747 -2.0017 0.9791
-1.4819 4.6609 -2.0017 0.9791
-1.8923 4.5099 -2.0017 0.9791
-2.2876 4.3228 -2.0017 0.9791
-2.6646 4.1012 -2.0017 0.9791
-3.6567 3.2479 -2.0017 0.9791
-3.9322 2.9083 -2.0017 0.9791
-4.5626 1.7616 -2.0017 0.9791
-4.8032 0.9216 -2.0017 0.9791
-1.9577 0.1966 -0.8053 0.9915
-4.7293 -1.2464 -2.0017 0.9791
-4.5991 -1.6639 -2.0017 0.9791
-4.4320 -2.0681 -2.0017 0.9791
-3.1017 -3.7815 -2.0017 0.9791
-2.7464 -4.0359 -1.9980 0.9791
-1.8961 -4.2618 -1.9091 0.9800
-0.6764 -4.4680 -1.8495 0.9807
0.1295 -4.5170 -1.8495 0.9807
0.5324 -4.4874 -1.8495 0.9807
0.9312 -4.4219 -1.8495 0.9807
1.3225 -4.3210 -1.8495 0.9807
2.1451 -4.1619 -1.9163 0.9800
2.9736 -3.8728 -1.9984 0.9791
3.3131 -3.5976 -2.0017 0.9791
4.1484 -2.5904 -2.0017 0.9791
4.3632 -2.2095 -2.0017 0.9791
4.5432 -1.8109 -2.0017 0.9791
4.7929 -0.9735 -2.0017 0.9791
4.8607 -0.5415 -2.0017 0.9791
4.8303 0.7667 -2.0017 0.9791
4.7425 1.1951 -2.0017 0.9791
4.6168 1.6140 -2.0017 0.9791
4.0236 2.7803 -2.0017 0.9791
3.1424 3.7477 -2.0017 0.9791
1.6309 4.6109 -2.0017 0.9791
0.3500 4.8783 -2.0017 0.9791
-0.0872 4.8900 -2.0017 0.9791
-0.5236 4.8627 -2.0017 0.9791
-0.9560 4.7965 -2.0017 0.9791
-1.7942 4.5498 -2.0017 0.9791
-2.5752 4.1579 -2.0017 0.9791
-3.5855 3.3263 -2.0017 0.9791
-4.1202 2.6352 -2.0017 0.9791
-4.5233 1.8600 -2.0017 0.9791
-4.6714 1.4485 -2.0017 0.9791
-1.9537 0.2391 -0.8055 0.9915
-1.9452 -0.1113 -0.7974 0.9916
-1.9429 -0.2869 -0.8038 0.9915
-4.0535 -2.7366 -2.0017 0.9791
-3.5018 -3.4143 -2.0017 0.9791
-3.1828 -3.7134 -2.0017 0.9791
-2.8346 -3.9776 -1.9990 0.9791
-2.4629 -4.2064 -1.9950 0.9792
-2.0074 -4.2611 -1.9278 0.9798
-1.1676 -4.3654 -1.8495 0.9807
-0.7730 -4.4523 -1.8495 0.9807
0.0316 -4.5188 -1.8495 0.9807
0.8352 -4.4410 -1.8495 0.9807
2.0352 -4.1679 -1.8983 0.9802
2.5033 -4.1413 -1.9805 0.9793
3.2344 -3.6685 -2.0017 0.9791
3.5492 -3.3649 -2.0017 0.9791
3.8356 -3.0344 -2.0017 0.9791
4.0914 -2.6796 -2.0017 0.9791
4.5029 -1.9088 -2.0017 0.9791
4.6554 -1.4989 -2.0017 0.9791
4.7707 -1.0771 -2.0017 0.9791
4.8478 -0.6466 -2.0017 0.9791
4.8855 0.2264 -2.0017 0.9791
4.8458 0.6619 -2.0017 0.9791
4.4968 1.9230 -2.0017 0.9791
4.3071 2.3171 -2.0017 0.9791
4.0829 2.6926 -2.0017 0.9791
3.8260 3.0465 -2.0017 0.9791
1.3148 4.7107 -2.0017 0.9791
0.4556 4.8695 -2.0017 0.9791
0.0187 4.8908 -2.0017 0.9791
-0.4182 4.8729 -2.0017 0.9791
-0.8519 4.8160 -2.0017 0.9791
-1.6953 4.5876 -2.0017 0.9791
-3.8026 3.0758 -2.0017 0.9791
-4.0621 2.7238 -2.0017 0.9791
-4.2892 2.3500 -2.0017 0.9791
-4.4820 1.9575 -2.0017 0.9791
-4.6390 1.5493 -2.0017 0.9791
-1.9434 0.1050 -0.7965 0.9916
-4.7789 -1.0405 -2.0017 0.9791
-4.3319 -2.2703 -2.0017 0.9791
-4.1118 -2.6482 -2.0017 0.9791
-3.5749 -3.3376 -2.0017 0.9791
-2.5546 -4.1540 -1.9959 0.9791
-1.2619 -4.3391 -1.8495 0.9807
-0.8692 -4.4345 -1.8495 0.9807
-0.4696 -4.4944 -1.8495 0.9807
-0.0662 -4.5184 -1.8495 0.9807
0.3377 -4.5063 -1.8495 0.9807
1.1342 -4.3743 -1.8495 0.9807
1.5204 -4.2555 -1.8495 0.9807
3.7690 -3.1167 -2.0017 0.9791
4.0324 -2.7676 -2.0017 0.9791
4.4605 -2.0059 -2.0017 0.9791
4.7462 -1.1801 -2.0017 0.9791
4.8327 -0.7514 -2.0017 0.9791
4.8893 0.1206 -2.0017 0.9791
4.8590 0.5568 -2.0017 0.9791
4.7898 0.9887 -2.0017 0.9791
4.6823 1.4126 -2.0017 0.9791
3.8911 2.9630 -2.0017 0.9791
3.6108 3.2987 -2.0017 0.9791
2.2269 4.3544 -2.0017 0.9791
0.1246 4.8892 -2.0017 0.9791
-0.3126 4.8808 -2.0017 0.9791
-0.7474 4.8334 -2.0017 0.9791
-1.5955 4.6232 -2.0017 0.9791
-2.0022 4.4622 -2.0017 0.9791
-4.2373 2.4424 -2.0017 0.9791
-4.6043 1.6494 -2.0017 0.9791
-4.7333 1.2315 -2.0017 0.9791
-4.8003 -0.9368 -2.0017 0.9791
-4.6974 -1.3618 -2.0017 0.9791
-4.5570 -1.7760 -2.0017 0.9791
-4.1682 -2.5586 -2.0017 0.9791
-3.9230 -2.9207 -2.0017 0.9791
-3.6464 -3.2594 -2.0017 0.9791
-3.3406 -3.5721 -2.0017 0.9791
-3.0073 -3.8552 -2.0011 0.9791
-2.2367 -4.2591 -1.9689 0.9794
-1.7727 -4.2625 -1.8894 0.9802
-0.5668 -4.4832 -1.8495 0.9807
-0.2806 4.5844 -2.0017 0.9802
-0.6890 4.5410 -2.0017 0.9802
-2.2357 4.0121 -2.0017 0.9802
-1.5535 0.4089 -0.7001 0.9930
-1.5051 0.2551 -0.6653 0.9934
-1.5003 -0.2884 -0.6658 0.9934
-1.5671 -0.4495 -0.7105 0.9929
-4.1191 -2.0318 -2.0017 0.9802
-3.9211 -2.3917 -2.0017 0.9802
-3.6918 -2.7324 -2.0017 0.9802
-3.4329 -3.0512 -2.0017 0.9802
-2.8352 -3.6134 -2.0017 0.9802
-2.5002 -3.8509 -2.0010 0.9802
-1.7692 -4.2205 -1.9944 0.9802
0.5927 -4.2135 -1.8544 0.9816
1.3790 -4.1802 -1.9184 0.9810
1.7985 -4.1595 -1.9750 0.9804
2.1860 -4.0248 -1.9961 0.9802
2.5411 -3.8198 -1.9994 0.9802
2.8753 -3.5815 -2.0017 0.9802
3.1838 -3.3104 -2.0017 0.9802
3.4668 -3.0127 -2.0017 0.9802
3.9475 -2.3477 -2.0017 0.9802
4.1415 -1.9857 -2.0017 0.9802
4.3023 -1.6078 -2.0017 0.9802
4.4287 -1.2170 -2.0017 0.9802
4.5197 -0.8165 -2.0017 0.9802
4.5745 0.4110 -2.0017 0.9802
4.5195 0.8181 -2.0017 0.9802
4.4283 1.2185 -2.0017 0.9802
3.7211 2.6922 -2.0017 0.9802
3.4658 3.0139 -2.0017 0.9802
2.1908 4.0368 -2.0017 0.9802
0.2294 4.5872 -2.0017 0.9802
-0.1813 4.5894 -2.0017 0.9802
-1.7771 4.2352 -2.0017 0.9802
-2.8364 3.6125 -2.0017 0.9802
-3.4340 3.0501 -2.0017 0.9802
-3.6927 2.7311 -2.0017 0.9802
-3.9219 2.3904 -2.0017 0.9802
-4.1198 2.0304 -2.0017 0.9802
-1.5669 0.4489 -0.7104 0.9929
-1.5000 0.2878 -0.6656 0.9934
-1.5262 0.1533 -0.6685 0.9933
-1.5288 -0.1207 -0.6684 0.9933
-1.5537 -0.4095 -0.7002 0.9930
-1.5960 -0.5774 -0.7397 0.9926
-3.7501 -2.6518 -2.0017 0.9802
-3.4982 -2.9762 -2.0017 0.9802
-2.9128 -3.5512 -2.0017 0.9802
-2.2305 -4.0060 -1.9983 0.9802
-1.4492 -4.2426 -1.9539 0.9806
-0.6417 -4.2388 -1.8684 0.9815
-0.2580 -4.2381 -1.8505 0.9816
0.1216 -4.2420 -1.8495 0.9817
0.5006 -4.2186 -1.8515 0.9816
0.8847 -4.2010 -1.8710 0.9814
1.6947 -4.1649 -1.9596 0.9806
2.0976 -4.0697 -1.9954 0.9802
2.4567 -3.8723 -1.9986 0.9802
3.1113 -3.3785 -2.0017 0.9802
3.4007 -3.0871 -2.0017 0.9802
3.6629 -2.7709 -2.0017 0.9802
3.8958 -2.4327 -2.0017 0.9802
4.2665 -1.7006 -2.0017 0.9802
4.4013 -1.3126 -2.0017 0.9802
4.5010 -0.9142 -2.0017 0.9802
4.5647 -0.5085 -2.0017 0.9802
4.5919 -0.0987 -2.0017 0.9802
4.5823 0.3119 -2.0017 0.9802
4.5361 0.7200 -2.0017 0.9802
4.3356 1.5157 -2.0017 0.9802
4.1829 1.8969 -2.0017 0.9802
3.9967 2.2630 -2.0017 0.9802
1.9123 4.1759 -2.0017 0.9802
1.5316 4.3300 -2.0017 0.9802
0.7366 4.5335 -2.0017 0.9802
-0.4918 4.5665 -2.0017 0.9802
-0.8977 4.5044 -2.0017 0.9802
-1.2965 4.4062 -2.0017 0.9802
-3.3671 3.1237 -2.0017 0.9802
-3.6327 2.8105 -2.0017 0.9802
-3.8692 2.4747 -2.0017 0.9802
-4.0748 2.1192 -2.0017 0.9802
-4.2479 1.7467 -2.0017 0.9802
-1.5785 0.4894 -0.7202 0.9928
-1.5189 0.3257 -0.6770 0.9932
-1.5296 -0.0875 -0.6677 0.9933
-1.5386 -0.3701 -0.6897 0.9931
-4.0210 -2.2196 -2.0017 0.9802
-3.5618 -2.8997 -2.0017 0.9802
-2.9890 -3.4873 -2.0017 0.9802
-2.3177 -3.9584 -1.9991 0.9802
-1.1347 -4.2424 -1.9139 0.9810
-0.7361 -4.2398 -1.8754 0.9814
0.0297 -4.2436 -1.8495 0.9817
0.7907 -4.2045 -1.8645 0.9815
1.1835 -4.1889 -1.8971 0.9812
1.5925 -4.1700 -1.9454 0.9807
3.0375 -3.4451 -2.0017 0.9802
3.3331 -3.1600 -2.0017 0.9802
4.0516 -2.1631 -2.0017 0.9802
4.2287 -1.7926 -2.0017 0.9802
4.3719 -1.4077 -2.0017 0.9802
4.4802 -1.0115 -2.0017 0.9802
4.5880 0.2126 -2.0017 0.9802
4.4769 1.0256 -2.0017 0.9802
4.2230 1.8059 -2.0017 0.9802
4.0448 2.1760 -2.0017 0.9802
3.0266 3.4547 -2.0017 0.9802
2.7058 3.7113 -2.0017 0.9802
2.3635 3.9381 -2.0017 0.9802
2.0023 4.1335 -2.0017 0.9802
1.2347 4.4239 -2.0017 0.9802
0.4278 4.5730 -2.0017 0.9802
0.0176 4.5929 -2.0017 0.9802
-0.3928 4.5761 -2.0017 0.9802
-1.5920 4.3082 -2.0017 0.9802
-2.6773 3.7319 -2.0017 0.9802
-3.0000 3.4778 -2.0017 0.9802
-3.2987 3.1959 -2.0017 0.9802
-4.0280 2.2069 -2.0017 0.9802
-4.2090 1.8383 -2.0017 0.9802
-1.5879 0.5303 -0.7296 0.9927
-1.5362 0.3643 -0.6881 0.9931
-1.5295 0.0826 -0.6676 0.9933
-1.5284 -0.0542 -0.6665 0.9933
-1.5207 -0.1910 -0.6679 0.9933
-1.5800 -0.4954 -0.7216 0.9928
-4.0681 -2.1320 -2.0017 0.9802
-3.6238 -2.8219 -2.0017 0.9802
-3.0638 -3.4217 -2.0017 0.9802
-2.4040 -3.9090 -2.0000 0.9802
-2.0417 -4.1011 -1.9966 0.9802
-1.2338 -4.2426 -1.9256 0.9809
-0.0622 -4.2432 -1.8495 0.9817
0.3171 -4.2318 -1.8495 0.9817
0.6974 -4.2079 -1.8589 0.9816
1.0872 -4.1930 -1.8878 0.9813
2.9621 -3.5101 -2.0017 0.9802
4.1888 -1.8837 -2.0017 0.9802
4.5384 -0.7056 -2.0017 0.9802
4.5833 -0.2974 -2.0017 0.9802
4.5915 0.1132 -2.0017 0.9802
4.5630 0.5229 -2.0017 0.9802
4.3972 1.3266 -2.0017 0.9802
3.8881 2.4450 -2.0017 0.9802
3.6541 2.7825 -2.0017 0.9802
3.1007 3.3884 -2.0017 0.9802
2.4482 3.8860 -2.0017 0.9802
1.7176 4.2597 -2.0017 0.9802
1.3302 4.3961 -2.0017 0.9802
0.9322 4.4973 -2.0017 0.9802
0.5267 4.5626 -2.0017 0.9802
-0.2936 4.5836 -2.0017 0.9802
-1.4984 4.3417 -2.0017 0.9802
-2.2471 4.0058 -2.0017 0.9802
-3.2287 3.2666 -2.0017 0.9802
-3.7585 2.6399 -2.0017 0.9802
-3.9793 2.2936 -2.0017 0.9802
-1.5952 0.5714 -0.7385 0.9926
-1.5516 0.4037 -0.6987 0.9930
-1.5064 0.2510 -0.6656 0.9934
-1.5291 0.1159 -0.6683 0.9933
-1.5256 -0.1581 -0.6685 0.9933
-1.5028 -0.2933 -0.6673 0.9933
-1.5688 -0.4548 -0.7118 0.9929
-4.2794 -1.6678 -2.0017 0.9802
-3.9143 -2.4027 -2.0017 0.9802
-3.6840 -2.7428 -2.0017 0.9802
-3.4243 -3.0609 -2.0017 0.9802
-2.4892 -3.8578 -2.0009 0.9802
-2.1308 -4.0575 -1.9974 0.9802
-0.9272 -4.2414 -1.8921 0.9812
-0.5358 -4.2375 -1.8615 0.9815
-1.0281 4.2004 -2.0017 0.9811
-1.3992 4.0918 -2.0017 0.9811
-1.7591 3.9504 -2.0017 0.9811
-2.7436 3.3426 -2.0017 0.9811
-3.0312 3.0842 -2.0017 0.9811
-3.7405 2.1701 -2.0017 0.9811
-1.3119 0.6116 -0.6700 0.9936
-1.3332 0.4818 -0.6562 0.9938
-1.3146 0.3460 -0.6292 0.9940
-1.3197 0.2237 -0.6196 0.9941
-1.3382 0.1052 -0.6213 0.9941
-1.3350 -0.0147 -0.6180 0.9941
-1.3361 -0.1347 -0.6216 0.9941
-1.3117 -0.2521 -0.6183 0.9941
-1.3222 -0.3793 -0.6367 0.9940
-3.6918 -2.2518 -2.0017 0.9811
-3.4759 -2.5726 -2.0017 0.9811
-3.2322 -2.8728 -2.0017 0.9811
-2.6694 -3.4021 -2.0017 0.9811
-2.3548 -3.6270 -2.0017 0.9811
-1.3052 -4.1101 -1.9961 0.9812
-0.9320 -4.2065 -1.9943 0.9812
-0.5454 -4.2179 -1.9686 0.9814
0.2116 -4.2032 -1.9481 0.9816
0.5897 -4.1919 -1.9595 0.9815
1.7125 -3.9607 -1.9974 0.9812
2.0622 -3.7969 -2.0000 0.9811
2.7072 -3.3721 -2.0017 0.9811
2.9976 -3.1168 -2.0017 0.9811
3.2640 -2.8365 -2.0017 0.9811
3.8993 -1.8696 -2.0017 0.9811
4.0507 -1.5138 -2.0017 0.9811
4.3071 -0.3856 -2.0017 0.9811
4.2552 0.7702 -2.0017 0.9811
4.1694 1.1473 -2.0017 0.9811
4.0502 1.5151 -2.0017 0.9811
3.8987 1.8709 -2.0017 0.9811
3.5035 2.5348 -2.0017 0.9811
3.2631 2.8376 -2.0017 0.9811
2.7061 3.3730 -2.0017 0.9811
1.3534 4.1071 -2.0017 0.9811
0.2160 4.3190 -2.0017 0.9811
-0.5560 4.2885 -2.0017 0.9811
-0.9369 4.2217 -2.0017 0.9811
-1.3102 4.1211 -2.0017 0.9811
-1.6731 3.9876 -2.0017 0.9811
-2.0227 3.8222 -2.0017 0.9811
-2.3560 3.6262 -2.0017 0.9811
-2.6705 3.4012 -2.0017 0.9811
-2.9637 3.1491 -2.0017 0.9811
-3.2332 2.8717 -2.0017 0.9811
-3.8789 1.9117 -2.0017 0.9811
-1.3310 0.5139 -0.6604 0.9937
-1.3362 0.1342 -0.6216 0.9941
-1.3196 -0.2241 -0.6196 0.9941
-1.3147 -0.3465 -0.6293 0.9940
-1.3117 -0.6121 -0.6700 0.9936
-3.5308 -2.4967 -2.0017 0.9811
-3.2936 -2.8021 -2.0017 0.9811
-3.0302 -3.0852 -2.0017 0.9811
-2.4328 -3.5751 -2.0017 0.9811
-2.1037 -3.7782 -2.0017 0.9811
-1.3943 -4.0819 -1.9966 0.9812
-0.6387 -4.2189 -1.9751 0.9814
0.4977 -4.1949 -1.9554 0.9816
0.8805 -4.1813 -1.9779 0.9813
1.2612 -4.1210 -1.9949 0.9812
1.6259 -3.9958 -1.9968 0.9812
1.9788 -3.8393 -1.9993 0.9811
2.9294 -3.1810 -2.0017 0.9811
4.0170 -1.6011 -2.0017 0.9811
4.1440 -1.2359 -2.0017 0.9811
4.2378 -0.8608 -2.0017 0.9811
4.3233 -0.0929 -2.0017 0.9811
4.3143 0.2937 -2.0017 0.9811
4.1932 1.0567 -2.0017 0.9811
4.0821 1.4271 -2.0017 0.9811
3.9383 1.7860 -2.0017 0.9811
3.0634 3.0522 -2.0017 0.9811
2.7785 3.3136 -2.0017 0.9811
2.4714 3.5486 -2.0017 0.9811
2.1445 3.7552 -2.0017 0.9811
1.8005 3.9317 -2.0017 0.9811
1.4420 4.0768 -2.0017 0.9811
0.6936 4.2684 -2.0017 0.9811
-0.8452 4.2410 -2.0017 0.9811
-1.2207 4.1485 -2.0017 0.9811
-3.4203 2.6461 -2.0017 0.9811
-3.8366 1.9953 -2.0017 0.9811
-1.3281 0.4118 -0.6436 0.9939
-1.3323 0.1630 -0.6213 0.9941
-1.3373 0.0432 -0.6194 0.9941
-1.3263 -0.1958 -0.6206 0.9941
-1.3058 -0.3141 -0.6217 0.9941
-1.3331 -0.4499 -0.6513 0.9938
-1.3199 -0.5814 -0.6676 0.9937
-3.7859 -2.0898 -2.0017 0.9811
-3.5840 -2.4197 -2.0017 0.9811
-2.5096 -3.5216 -2.0017 0.9811
-1.8411 -3.9082 -1.9998 0.9811
-1.1137 -4.1638 -1.9951 0.9812
-0.3483 -4.2151 -1.9577 0.9815
0.0294 -4.2077 -1.9477 0.9816
0.4061 -4.1977 -1.9521 0.9816
1.5386 -4.0290 -1.9963 0.9812
1.8946 -3.8800 -1.9987 0.9811
2.2369 -3.7006 -2.0016 0.9811
2.5586 -3.4861 -2.0017 0.9811
2.8598 -3.2436 -2.0017 0.9811
3.1382 -2.9752 -2.0017 0.9811
3.3914 -2.6830 -2.0017 0.9811
3.8147 -2.0367 -2.0017 0.9811
4.1162 -1.3253 -2.0017 0.9811
4.2864 -0.5717 -2.0017 0.9811
4.3203 -0.1865 -2.0017 0.9811
4.3197 0.2002 -2.0017 0.9811
4.2845 0.5853 -2.0017 0.9811
4.1120 1.3383 -2.0017 0.9811
3.8082 2.0487 -2.0017 0.9811
3.3829 2.6937 -2.0017 0.9811
2.8496 3.2527 -2.0017 0.9811
2.5476 3.4942 -2.0017 0.9811
1.8852 3.8918 -2.0017 0.9811
1.1625 4.1652 -2.0017 0.9811
0.0166 4.3243 -2.0017 0.9811
-0.3698 4.3085 -2.0017 0.9811
-0.7532 4.2583 -2.0017 0.9811
-1.1306 4.1740 -2.0017 0.9811
-1.8553 3.9062 -2.0017 0.9811
-2.1968 3.7248 -2.0017 0.9811
-2.5208 3.5137 -2.0017 0.9811
-2.8246 3.2744 -2.0017 0.9811
-3.3622 2.7196 -2.0017 0.9811
-3.7925 2.0779 -2.0017 0.9811
-1.3326 0.4450 -0.6503 0.9938
-1.3044 0.3094 -0.6205 0.9941
-1.3271 0.1917 -0.6207 0.9941
-1.3376 -0.0475 -0.6195 0.9941
-1.3012 -0.2833 -0.6164 0.9941
-1.3289 -0.4166 -0.6446 0.9939
-3.4119 -2.6569 -2.0017 0.9811
-2.8846 -3.2216 -2.0017 0.9811
-2.2653 -3.6835 -2.0017 0.9811
-1.9260 -3.8688 -2.0005 0.9811
-0.4406 -4.2165 -1.9624 0.9815
-0.0617 -4.2097 -1.9488 0.9816
0.6941 -4.1883 -1.9651 0.9815
1.0812 -4.1701 -1.9941 0.9812
1.4507 -4.0603 -1.9958 0.9812
2.1554 -3.7468 -2.0008 0.9811
2.4826 -3.5407 -2.0017 0.9811
2.7889 -3.3048 -2.0017 0.9811
3.5654 -2.4471 -2.0017 0.9811
3.7697 -2.1188 -2.0017 0.9811
3.9439 -1.7736 -2.0017 0.9811
4.0866 -1.4142 -2.0017 0.9811
4.1966 -1.0434 -2.0017 0.9811
4.3153 -0.2800 -2.0017 0.9811
4.3230 0.1066 -2.0017 0.9811
4.2962 0.4923 -2.0017 0.9811
4.0119 1.6138 -2.0017 0.9811
3.8517 1.9658 -2.0017 0.9811
3.1927 2.9167 -2.0017 0.9811
2.9193 3.1902 -2.0017 0.9811
2.3050 3.6588 -2.0017 0.9811
1.9690 3.8501 -2.0017 0.9811
1.6172 4.0106 -2.0017 0.9811
1.2525 4.1390 -2.0017 0.9811
-0.2764 4.3155 -2.0017 0.9811
-1.7703 3.9454 -2.0017 0.9811
-2.7530 3.3348 -2.0017 0.9811
-3.0399 3.0756 -2.0017 0.9811
-3.5387 2.4855 -2.0017 0.9811
-1.3131 0.6077 -0.6697 0.9936
-1.3333 0.4776 -0.6556 0.9938
-1.3206 0.2200 -0.6197 0.9941
-1.3383 0.1014 -0.6212 0.9941
-1.3105 -0.2557 -0.6181 0.9941
-1.3305 -0.5185 -0.6610 0.9937
-3.6854 -2.2622 -2.0017 0.9811
-3.4686 -2.5824 -2.0017 0.9811
-2.3445 -3.6336 -2.0017 0.9811
-2.0101 -3.8276 -2.0012 0.9811
-0.9201 -4.2090 -1.9943 0.9812
-0.5333 -4.2177 -1.9679 0.9814
-0.9701 3.9637 -2.0017 0.9820
-3.1090 2.6432 -2.0017 0.9820
-3.3327 2.3549 -2.0017 0.9820
-3.5297 2.0478 -2.0017 0.9820
-1.1556 0.4176 -0.6027 0.9945
-1.1583 0.3048 -0.5875 0.9947
-1.1949 0.0939 -0.5879 0.9947
-1.1960 -0.0131 -0.5867 0.9947
-1.1928 -0.1202 -0.5881 0.9947
-1.1311 -0.5579 -0.6187 0.9944
-2.5190 -3.2104 -2.0017 0.9820
-2.2221 -3.4226 -2.0017 0.9820
-1.5776 -3.7634 -2.0017 0.9820
-0.8812 -3.9771 -1.9982 0.9820
-0.1593 -4.0668 -1.9964 0.9820
0.9253 -3.9659 -1.9976 0.9820
1.2768 -3.8703 -1.9991 0.9820
1.6190 -3.7445 -2.0011 0.9820
2.2602 -3.3976 -2.0017 0.9820
2.5547 -3.1821 -2.0017 0.9820
3.3069 -2.3909 -2.0017 0.9820
4.0157 -0.7255 -2.0017 0.9820
4.0644 -0.3639 -2.0017 0.9820
4.0643 0.3652 -2.0017 0.9820
3.6790 1.7655 -2.0017 0.9820
3.5066 2.0871 -2.0017 0.9820
3.0792 2.6777 -2.0017 0.9820
2.5536 3.1830 -2.0017 0.9820
2.2591 3.3983 -2.0017 0.9820
1.9464 3.5866 -2.0017 0.9820
1.2772 3.8757 -2.0017 0.9820
0.2038 4.0756 -2.0017 0.9820
-1.2364 3.8889 -2.0017 0.9820
-2.7967 2.9716 -2.0017 0.9820
-3.0510 2.7099 -2.0017 0.9820
-3.2809 2.4265 -2.0017 0.9820
-3.4845 2.1238 -2.0017 0.9820
-1.1312 0.5575 -0.6186 0.9944
-1.1589 0.3320 -0.5914 0.9946
-1.1764 0.2257 -0.5876 0.9947
-1.1960 0.0128 -0.5867 0.9947
-1.1948 -0.0943 -0.5879 0.9947
-1.1583 -0.3053 -0.5876 0.9947
-1.1556 -0.4181 -0.6028 0.9945
-1.1378 -0.5309 -0.6159 0.9944
-3.3319 -2.3560 -2.0017 0.9820
-3.1081 -2.6443 -2.0017 0.9820
-2.8594 -2.9113 -2.0017 0.9820
-1.9852 -3.5653 -2.0017 0.9820
-1.6587 -3.7284 -2.0017 0.9820
-0.9673 -3.9578 -1.9986 0.9820
-0.6095 -4.0258 -1.9973 0.9820
0.1166 -4.0679 -1.9962 0.9820
0.4796 -4.0419 -1.9965 0.9820
0.8391 -3.9845 -1.9974 0.9820
1.5372 -3.7777 -2.0006 0.9820
1.8695 -3.6272 -2.0017 0.9820
3.0214 -2.7428 -2.0017 0.9820
3.9570 0.9972 -2.0017 0.9820
3.8521 1.3467 -2.0017 0.9820
3.3572 2.3198 -2.0017 0.9820
3.1365 2.6104 -2.0017 0.9820
2.8908 2.8802 -2.0017 0.9820
2.6219 3.1269 -2.0017 0.9820
2.0237 3.5436 -2.0017 0.9820
1.6990 3.7102 -2.0017 0.9820
1.3608 3.8471 -2.0017 0.9820
-0.7976 4.0020 -2.0017 0.9820
-1.1519 3.9148 -2.0017 0.9820
-2.1487 3.4692 -2.0017 0.9820
-2.4500 3.2634 -2.0017 0.9820
-1.1489 0.4724 -0.6094 0.9945
-1.1588 0.3593 -0.5951 0.9946
-1.1901 0.1456 -0.5881 0.9947
-1.1965 0.0387 -0.5872 0.9947
-1.1960 -0.0684 -0.5876 0.9947
-1.1860 -0.1751 -0.5880 0.9947
-1.1624 -0.2796 -0.5865 0.9947
-1.1576 -0.3907 -0.5993 0.9946
-1.1435 -0.5037 -0.6129 0.9944
-3.3821 -2.2833 -2.0017 0.9820
-3.1646 -2.5763 -2.0017 0.9820
-2.9218 -2.8487 -2.0017 0.9820
-2.6556 -3.0984 -2.0017 0.9820
-2.0619 -3.5215 -2.0017 0.9820
-1.7391 -3.6916 -2.0017 0.9820
-1.4018 -3.8307 -2.0009 0.9820
-0.3352 -4.0566 -1.9966 0.9820
0.0285 -4.0695 -1.9962 0.9820
0.7525 -4.0012 -1.9971 0.9820
1.1076 -3.9204 -1.9983 0.9820
1.4547 -3.8091 -2.0001 0.9820
1.7905 -3.6669 -2.0017 0.9820
2.1110 -3.4923 -2.0017 0.9820
2.4145 -3.2897 -2.0017 0.9820
2.9613 -2.8076 -2.0017 0.9820
3.9805 -0.8987 -2.0017 0.9820
4.0449 -0.5395 -2.0017 0.9820
4.0769 -0.1760 -2.0017 0.9820
4.0763 0.1889 -2.0017 0.9820
3.9776 0.9113 -2.0017 0.9820
3.8803 1.2629 -2.0017 0.9820
3.7520 1.6045 -2.0017 0.9820
3.4066 2.2466 -2.0017 0.9820
3.1923 2.5419 -2.0017 0.9820
2.6890 3.0694 -2.0017 0.9820
2.4041 3.2974 -2.0017 0.9820
2.0999 3.4989 -2.0017 0.9820
1.4438 3.8168 -2.0017 0.9820
1.0970 3.9305 -2.0017 0.9820
0.7415 4.0128 -2.0017 0.9820
0.3801 4.0630 -2.0017 0.9820
0.0156 4.0807 -2.0017 0.9820
-0.7108 4.0183 -2.0017 0.9820
-1.0669 3.9388 -2.0017 0.9820
-1.4145 3.8277 -2.0017 0.9820
-2.9308 2.8395 -2.0017 0.9820
-3.1727 2.5663 -2.0017 0.9820
-3.3893 2.2726 -2.0017 0.9820
-1.1442 0.4997 -0.6125 0.9945
-1.1578 0.3867 -0.5988 0.9946
-1.1962 0.0646 -0.5876 0.9947
-1.1483 -0.4764 -0.6098 0.9945
-3.2196 -2.5072 -2.0017 0.9820
-2.7221 -3.0401 -2.0017 0.9820
-2.4396 -3.2711 -2.0017 0.9820
-1.8186 -3.6531 -2.0017 0.9820
-1.4848 -3.8004 -2.0014 0.9820
-1.1382 -3.9139 -1.9994 0.9820
-0.7834 -3.9968 -1.9978 0.9820
-0.4230 -4.0487 -1.9968 0.9820
-0.0597 -4.0693 -1.9963 0.9820
0.3041 -4.0584 -1.9963 0.9820
1.7107 -3.7048 -2.0017 0.9820
2.0348 -3.5371 -2.0017 0.9820
3.7217 -1.6736 -2.0017 0.9820
4.0322 -0.6269 -2.0017 0.9820
4.0721 -0.2642 -2.0017 0.9820
4.0541 0.4646 -2.0017 0.9820
3.9068 1.1786 -2.0017 0.9820
3.4544 2.1723 -2.0017 0.9820
3.0128 2.7523 -2.0017 0.9820
2.7548 3.0105 -2.0017 0.9820
2.4749 3.2445 -2.0017 0.9820
2.1752 3.4526 -2.0017 0.9820
1.5261 3.7846 -2.0017 0.9820
0.8283 3.9958 -2.0017 0.9820
-0.2608 4.0724 -2.0017 0.9820
-0.6236 4.0328 -2.0017 0.9820
-2.5979 3.1469 -2.0017 0.9820
-3.3393 2.3455 -2.0017 0.9820
-3.5355 2.0378 -2.0017 0.9820
-1.1559 0.4141 -0.6023 0.9945
-1.1951 0.0906 -0.5879 0.9947
-1.1961 -0.0165 -0.5868 0.9947
-1.1302 -0.5615 -0.6190 0.9944
-3.4778 -2.1348 -2.0017 0.9820
-3.0424 -2.7196 -2.0017 0.9820
-2.7873 -2.9805 -2.0017 0.9820
-2.2124 -3.4289 -2.0017 0.9820
-1.2230 -3.8892 -1.9998 0.9820
-0.5107 -4.0390 -1.9970 0.9820
0.1092 3.8569 -2.0017 0.9828
-1.2484 3.6509 -2.0017 0.9828
-1.5696 3.5248 -2.0017 0.9828
-2.4480 2.9825 -2.0017 0.9828
-2.7046 2.7519 -2.0017 0.9828
-2.9396 2.4993 -2.0017 0.9828
-3.1511 2.2267 -2.0017 0.9828
-1.0409 0.4853 -0.5958 0.9948
-1.0928 0.1852 -0.5750 0.9950
-1.1031 -0.1112 -0.5752 0.9950
-1.0637 -0.3051 -0.5741 0.9950
-1.0325 -0.5093 -0.5973 0.9948
-0.9843 -0.6004 -0.5982 0.9948
-2.6434 -2.8107 -2.0017 0.9828
-2.3818 -3.0356 -2.0017 0.9828
-2.1011 -3.2362 -2.0017 0.9828
-1.4917 -3.5584 -2.0017 0.9828
-1.1678 -3.6775 -2.0017 0.9828
-0.8347 -3.7671 -2.0017 0.9828
-0.4945 -3.8246 -2.0006 0.9828
-0.1509 -3.8523 -2.0000 0.9828
0.8764 -3.7566 -2.0012 0.9828
1.2088 -3.6642 -2.0017 0.9828
1.5313 -3.5415 -2.0017 0.9828
1.8416 -3.3906 -2.0017 0.9828
2.9124 -2.5309 -2.0017 0.9828
3.3163 -1.9723 -2.0017 0.9828
3.4792 -1.6681 -2.0017 0.9828
3.7205 -1.0224 -2.0017 0.9828
3.7970 -0.6860 -2.0017 0.9828
3.8431 -0.3440 -2.0017 0.9828
3.8584 0.0006 -2.0017 0.9828
3.7967 0.6872 -2.0017 0.9828
3.6138 1.3519 -2.0017 0.9828
3.3156 1.9734 -2.0017 0.9828
2.9115 2.5319 -2.0017 0.9828
2.1360 3.2133 -2.0017 0.9828
1.5301 3.5421 -2.0017 0.9828
1.2076 3.6646 -2.0017 0.9828
0.8754 3.7578 -2.0017 0.9828
-0.1523 3.8554 -2.0017 0.9828
-0.8359 3.7668 -2.0017 0.9828
-1.4929 3.5579 -2.0017 0.9828
-2.3828 3.0348 -2.0017 0.9828
-1.0327 0.5089 -0.5972 0.9948
-1.0559 0.4077 -0.5872 0.9949
-1.0638 0.3047 -0.5741 0.9950
-1.1032 0.1108 -0.5752 0.9950
-1.1062 0.0118 -0.5739 0.9950
-1.0927 -0.1856 -0.5750 0.9950
-1.0677 -0.2814 -0.5728 0.9950
-1.0590 -0.3831 -0.5842 0.9949
-2.9388 -2.5002 -2.0017 0.9828
-2.7037 -2.7528 -2.0017 0.9828
-2.1707 -3.1899 -2.0017 0.9828
-1.8770 -3.3711 -2.0017 0.9828
-1.5684 -3.5253 -2.0017 0.9828
-1.2472 -3.6513 -2.0017 0.9828
-0.5773 -3.8134 -2.0008 0.9828
0.1104 -3.8534 -1.9999 0.9828
0.4543 -3.8286 -2.0002 0.9828
0.7948 -3.7742 -2.0009 0.9828
1.1292 -3.6895 -2.0017 0.9828
1.4543 -3.5739 -2.0017 0.9828
1.7677 -3.4297 -2.0017 0.9828
2.0670 -3.2581 -2.0017 0.9828
2.3498 -3.0604 -2.0017 0.9828
2.6138 -2.8382 -2.0017 0.9828
3.7812 -0.7680 -2.0017 0.9828
3.8347 -0.4272 -2.0017 0.9828
3.8575 -0.0829 -2.0017 0.9828
3.8495 0.2620 -2.0017 0.9828
3.8107 0.6049 -2.0017 0.9828
3.7415 0.9429 -2.0017 0.9828
3.6423 1.2733 -2.0017 0.9828
3.3576 1.9011 -2.0017 0.9828
3.1743 2.1935 -2.0017 0.9828
2.7333 2.7233 -2.0017 0.9828
2.4791 2.9566 -2.0017 0.9828
1.2867 3.6376 -2.0017 0.9828
0.9566 3.7380 -2.0017 0.9828
0.2761 3.8486 -2.0017 0.9828
-0.4131 3.8363 -2.0017 0.9828
-1.4155 3.5894 -2.0017 0.9828
-2.0316 3.2803 -2.0017 0.9828
-1.0222 0.5316 -0.5978 0.9948
-1.0631 0.3296 -0.5774 0.9950
-1.1006 0.1347 -0.5752 0.9950
-1.1066 0.0358 -0.5744 0.9950
-1.0093 -0.5572 -0.5981 0.9948
-3.1979 -2.1590 -2.0017 0.9828
-2.7627 -2.6936 -2.0017 0.9828
-2.5110 -2.9296 -2.0017 0.9828
-2.2392 -3.1422 -2.0017 0.9828
-1.6444 -3.4905 -2.0017 0.9828
-0.6598 -3.8005 -2.0011 0.9828
-0.3176 -3.8426 -2.0002 0.9828
0.0270 -3.8549 -1.9999 0.9828
0.7128 -3.7901 -2.0007 0.9828
1.3765 -3.6045 -2.0017 0.9828
1.6930 -3.4671 -2.0017 0.9828
1.9960 -3.3020 -2.0017 0.9828
3.0260 -2.3939 -2.0017 0.9828
3.4037 -1.8172 -2.0017 0.9828
3.5524 -1.5059 -2.0017 0.9828
3.6727 -1.1825 -2.0017 0.9828
3.7637 -0.8497 -2.0017 0.9828
3.8246 -0.5101 -2.0017 0.9828
3.8543 0.1786 -2.0017 0.9828
3.6690 1.1942 -2.0017 0.9828
3.5476 1.5171 -2.0017 0.9828
3.3979 1.8280 -2.0017 0.9828
1.9855 3.3084 -2.0017 0.9828
1.6821 3.4725 -2.0017 0.9828
1.3651 3.6089 -2.0017 0.9828
0.7011 3.7942 -2.0017 0.9828
0.3594 3.8417 -2.0017 0.9828
0.0148 3.8584 -2.0017 0.9828
-0.6721 3.7995 -2.0017 0.9828
-1.0088 3.7242 -2.0017 0.9828
-1.3374 3.6192 -2.0017 0.9828
-1.9601 3.3235 -2.0017 0.9828
-2.7712 2.6848 -2.0017 0.9828
-1.0110 0.5539 -0.5981 0.9948
-1.0472 0.4574 -0.5928 0.9949
-1.0616 0.3545 -0.5806 0.9950
-1.0759 0.2552 -0.5736 0.9950
-1.1002 -0.1382 -0.5752 0.9950
-1.0207 -0.5349 -0.5978 0.9948
-3.0443 -2.3706 -2.0017 0.9828
-2.3068 -3.0930 -2.0017 0.9828
-1.0775 -3.7049 -2.0017 0.9828
-0.7421 -3.7858 -2.0014 0.9828
-0.4007 -3.8351 -2.0004 0.9828
0.2881 -3.8443 -2.0000 0.9828
0.6305 -3.8043 -2.0005 0.9828
0.9683 -3.7347 -2.0015 0.9828
1.2982 -3.6335 -2.0017 0.9828
1.6176 -3.5030 -2.0017 0.9828
2.7419 -2.7147 -2.0017 0.9828
3.8126 -0.5928 -2.0017 0.9828
3.8573 0.0951 -2.0017 0.9828
3.8333 0.4393 -2.0017 0.9828
3.6940 1.1144 -2.0017 0.9828
3.4367 1.7540 -2.0017 0.9828
3.2663 2.0540 -2.0017 0.9828
3.0697 2.3375 -2.0017 0.9828
2.6048 2.8465 -2.0017 0.9828
1.7568 3.4353 -2.0017 0.9828
1.1175 3.6931 -2.0017 0.9828
0.7831 3.7781 -2.0017 0.9828
0.4425 3.8330 -2.0017 0.9828
0.0983 3.8572 -2.0017 0.9828
-0.5896 3.8131 -2.0017 0.9828
-0.9279 3.7452 -2.0017 0.9828
-1.5795 3.5203 -2.0017 0.9828
-1.8877 3.3652 -2.0017 0.9828
-2.4564 2.9755 -2.0017 0.9828
-2.7124 2.7442 -2.0017 0.9828
-2.9467 2.4909 -2.0017 0.9828
-3.1574 2.2177 -2.0017 0.9828
-1.0688 0.2781 -0.5729 0.9950
-1.0933 0.1821 -0.5750 0.9950
-1.1063 -0.0153 -0.5740 0.9950
-1.1029 -0.1143 -0.5752 0.9950
-1.0872 -0.2122 -0.5746 0.9950
-1.0637 -0.3084 -0.5745 0.9950
-1.0553 -0.4113 -0.5876 0.9949
-2.8767 -2.5714 -2.0017 0.9828
-2.6355 -2.8181 -2.0017 0.9828
-2.0919 -3.2421 -2.0017 0.9828
-1.7939 -3.4160 -2.0017 0.9828
-1.4816 -3.5626 -2.0017 0.9828
-1.1574 -3.6807 -2.0017 0.9828
-0.8240 -3.7694 -2.0017 0.9828
-0.4837 -3.8259 -2.0006 0.9828
0.4294 3.6294 -2.0017 0.9835
-1.1825 3.4581 -2.0017 0.9835
-2.0571 3.0208 -2.0017 0.9835
-2.5618 2.6065 -2.0017 0.9835
-2.7844 2.3673 -2.0017 0.9835
-0.8608 0.6082 -0.5773 0.9952
-0.9755 0.3526 -0.5681 0.9953
-1.0145 0.1720 -0.5636 0.9953
-1.0273 -0.0113 -0.5627 0.9953
-1.0243 -0.1032 -0.5639 0.9953
-1.0099 -0.1941 -0.5632 0.9953
-0.9017 -0.5500 -0.5785 0.9952
-0.8461 -0.6262 -0.5766 0.9952
-1.9901 -3.0653 -2.0017 0.9835
-1.7084 -3.2308 -2.0017 0.9835
-1.4129 -3.3705 -2.0017 0.9835
-1.1062 -3.4832 -2.0017 0.9835
1.1450 -3.4707 -2.0017 0.9835
1.4504 -3.3545 -2.0017 0.9835
2.2879 -2.8499 -2.0017 0.9835
2.9617 -2.1413 -2.0017 0.9835
3.1411 -1.8681 -2.0017 0.9835
3.2954 -1.5800 -2.0017 0.9835
3.5240 -0.9684 -2.0017 0.9835
3.5964 -0.6497 -2.0017 0.9835
3.6547 0.0006 -2.0017 0.9835
3.6400 0.3271 -2.0017 0.9835
3.4230 1.2805 -2.0017 0.9835
3.1405 1.8692 -2.0017 0.9835
2.5325 2.6350 -2.0017 0.9835
2.2870 2.8507 -2.0017 0.9835
2.0232 3.0436 -2.0017 0.9835
1.7432 3.2121 -2.0017 0.9835
1.1438 3.4711 -2.0017 0.9835
0.8292 3.5594 -2.0017 0.9835
0.5079 3.6192 -2.0017 0.9835
0.1826 3.6501 -2.0017 0.9835
-0.1442 3.6518 -2.0017 0.9835
-0.7918 3.5679 -2.0017 0.9835
-1.9912 3.0646 -2.0017 0.9835
-2.2570 2.8745 -2.0017 0.9835
-2.5047 2.6614 -2.0017 0.9835
-2.7325 2.4270 -2.0017 0.9835
-0.8464 0.6260 -0.5766 0.9952
-0.9019 0.5497 -0.5785 0.9952
-0.9461 0.4663 -0.5777 0.9952
-0.9723 0.3754 -0.5708 0.9953
-1.0273 0.0110 -0.5627 0.9953
-0.9548 -0.4455 -0.5771 0.9952
-0.9135 -0.5304 -0.5785 0.9952
-0.8606 -0.6085 -0.5773 0.9952
-2.7836 -2.3682 -2.0017 0.9835
-2.5609 -2.6074 -2.0017 0.9835
-2.3177 -2.8257 -2.0017 0.9835
-1.7779 -3.1931 -2.0017 0.9835
-1.4856 -3.3391 -2.0017 0.9835
-0.8677 -3.5502 -2.0017 0.9835
-0.5471 -3.6135 -2.0017 0.9835
-0.2221 -3.6479 -2.0017 0.9835
