ply
format ascii 1.0
element vertex 1593
property float32 x
property float32 y
property float32 z
property float32 I
end_header
11.4702 4.0080 -2.0016 0.9519
11.0665 5.0164 -2.0016 0.9519
9.4165 6.5037 -1.8853 0.9547
7.2456 8.6358 -1.8571 0.9553
5.0631 11.0454 -2.0017 0.9519
4.0565 11.4534 -2.0017 0.9519
1.9543 11.9924 -2.0017 0.9519
-0.2102 12.1489 -2.0017 0.9519
-0.8356 7.7998 -1.2923 0.9687
-5.4424 10.8638 -2.0017 0.9519
-7.5404 8.3802 -1.8571 0.9553
-8.2587 7.6734 -1.8571 0.9553
-9.4920 6.0818 -1.8571 0.9553
-11.2339 4.6307 -2.0017 0.9519
-12.1442 0.4044 -2.0017 0.9519
-12.1318 -0.6817 -2.0017 0.9519
-12.0224 -1.7624 -2.0017 0.9519
-11.5171 -3.8731 -2.0017 0.9519
-10.2883 -4.5186 -1.8512 0.9555
-7.5503 -5.0847 -1.4996 0.9638
-8.0479 -7.8277 -1.8495 0.9555
-7.3167 -8.5151 -1.8495 0.9555
-5.6852 -9.6809 -1.8495 0.9555
-3.8723 -10.5378 -1.8495 0.9555
-2.9158 -10.8415 -1.8495 0.9555
-1.9359 -11.0585 -1.8495 0.9555
0.0622 -11.2265 -1.8495 0.9555
2.0584 -11.0363 -1.8495 0.9555
3.0357 -10.8083 -1.8495 0.9555
3.9888 -10.4940 -1.8495 0.9555
6.6277 -9.0613 -1.8494 0.9555
8.7924 -6.9804 -1.8494 0.9555
9.3807 -6.1673 -1.8494 0.9555
9.8940 -5.3049 -1.8494 0.9555
11.5326 -3.7365 -1.9971 0.9520
11.8470 -2.6977 -2.0016 0.9519
12.0406 -1.6290 -2.0016 0.9519
12.1383 0.5390 -2.0016 0.9519
12.0417 1.6208 -2.0016 0.9519
11.8488 2.6897 -2.0016 0.9519
11.5613 3.7372 -2.0016 0.9519
11.1814 4.7547 -2.0016 0.9519
10.7121 5.7343 -2.0016 0.9519
9.9063 6.5033 -1.9522 0.9531
4.9428 6.7481 -1.3780 0.9667
5.3215 10.9232 -2.0017 0.9519
4.3248 11.3548 -2.0017 0.9519
1.1603 12.0951 -2.0017 0.9519
0.0568 9.1348 -1.5049 0.9636
-1.0099 12.1087 -2.0017 0.9519
-4.1833 11.4079 -2.0017 0.9519
-6.1460 10.4818 -2.0017 0.9519
-4.6290 6.4875 -1.3129 0.9682
-7.9220 6.4427 -1.6822 0.9595
-9.3463 6.3034 -1.8571 0.9553
-11.5145 3.8808 -2.0017 0.9519
-12.0605 -1.4792 -2.0017 0.9519
-9.9596 -5.1817 -1.8495 0.9555
-7.8558 -5.0260 -1.5363 0.9629
-8.2298 -7.6363 -1.8495 0.9555
-7.5150 -8.3407 -1.8495 0.9555
-5.0353 -10.0342 -1.8495 0.9555
-4.1191 -10.4438 -1.8495 0.9555
-3.1699 -10.7699 -1.8495 0.9555
1.7982 -11.0816 -1.8495 0.9555
2.7807 -10.8767 -1.8495 0.9555
4.6712 -10.2085 -1.8494 0.9555
5.5642 -9.7506 -1.8494 0.9555
6.4128 -9.2147 -1.8494 0.9555
7.2100 -8.6052 -1.8494 0.9555
7.9497 -7.9269 -1.8494 0.9555
8.6258 -7.1852 -1.8494 0.9555
9.7665 -5.5361 -1.8494 0.9555
10.2218 -4.6418 -1.8494 0.9555
11.7803 -2.9756 -2.0016 0.9519
11.9989 -1.9117 -2.0016 0.9519
12.1217 -0.8325 -2.0016 0.9519
11.9088 2.4103 -2.0016 0.9519
11.2901 4.4904 -2.0016 0.9519
10.8440 5.4807 -2.0016 0.9519
10.3112 6.4273 -2.0016 0.9519
8.3531 7.5698 -1.8571 0.9553
6.2514 6.7763 -1.5188 0.9633
5.1470 6.6909 -1.3907 0.9664
3.4621 6.7013 -1.2426 0.9699
4.5906 11.2500 -2.0017 0.9519
2.5161 11.8872 -2.0017 0.9519
1.1027 9.2101 -1.5281 0.9631
0.3613 12.1453 -2.0017 0.9519
-1.9954 8.2061 -1.3913 0.9663
-3.0901 9.0822 -1.5804 0.9619
-5.8978 10.6235 -2.0017 0.9519
-8.5763 7.3166 -1.8571 0.9553
-10.3130 6.0073 -1.9662 0.9528
-11.0038 5.1538 -2.0017 0.9519
-11.4201 4.1506 -2.0017 0.9519
-11.9763 2.0528 -2.0017 0.9519
-12.0920 -1.1951 -2.0017 0.9519
-11.9369 -2.2703 -2.0017 0.9519
-11.6865 -3.3272 -2.0017 0.9519
-9.5967 -5.8263 -1.8495 0.9555
-6.3275 -4.6627 -1.2948 0.9686
-7.7091 -8.1616 -1.8495 0.9555
-6.9494 -8.8175 -1.8495 0.9555
-6.1342 -9.4028 -1.8495 0.9555
-5.2699 -9.9130 -1.8495 0.9555
-4.3636 -10.3440 -1.8495 0.9555
-3.4224 -10.6924 -1.8495 0.9555
1.5371 -11.1209 -1.8495 0.9555
2.5241 -10.9391 -1.8495 0.9555
4.4298 -10.3156 -1.8494 0.9555
5.3334 -9.8787 -1.8494 0.9555
6.1943 -9.3630 -1.8494 0.9555
7.7611 -8.1117 -1.8494 0.9555
9.6335 -5.7643 -1.8494 0.9555
12.1502 -0.0324 -2.0016 0.9519
12.1046 1.0528 -2.0016 0.9519
11.9622 2.1296 -2.0016 0.9519
11.3926 4.2236 -2.0016 0.9519
10.9699 5.2242 -2.0016 0.9519
10.4595 6.1830 -2.0016 0.9519
8.5288 7.3712 -1.8571 0.9553
7.8365 8.1035 -1.8571 0.9553
5.0436 9.2239 -1.7319 0.9583
2.7950 11.8248 -2.0017 0.9519
0.6469 12.1334 -2.0017 0.9519
-0.9576 7.5847 -1.2594 0.9695
-3.6422 11.5920 -2.0017 0.9519
-4.7427 9.0374 -1.6814 0.9595
-6.1090 9.4744 -1.8571 0.9553
-7.6971 8.2365 -1.8571 0.9553
-9.8170 6.0320 -1.8981 0.9544
-11.6686 3.3895 -2.0017 0.9519
-11.9247 2.3339 -2.0017 0.9519
-12.1167 -0.9104 -2.0017 0.9519
-11.9870 -1.9888 -2.0017 0.9519
-11.4364 -4.0876 -2.0007 0.9520
-10.1923 -4.7076 -1.8495 0.9555
-9.7311 -5.5990 -1.8495 0.9555
-7.5442 -5.2901 -1.5179 0.9633
-7.8989 -7.9781 -1.8495 0.9555
-7.1549 -8.6516 -1.8495 0.9555
-5.5016 -9.7864 -1.8495 0.9555
-4.6056 -10.2386 -1.8495 0.9555
0.2739 -11.2233 -1.8495 0.9555
1.2751 -11.1540 -1.8495 0.9555
4.1860 -10.4169 -1.8494 0.9555
5.0995 -10.0015 -1.8494 0.9555
5.9723 -9.5061 -1.8494 0.9555
9.4953 -5.9893 -1.8494 0.9555
9.9922 -5.1174 -1.8494 0.9555
11.6216 -3.5246 -2.0006 0.9520
12.1461 -0.3182 -2.0016 0.9519
12.1260 0.7678 -2.0016 0.9519
12.0090 1.8476 -2.0016 0.9519
11.4888 3.9545 -2.0016 0.9519
10.6021 5.9353 -2.0016 0.9519
9.5110 6.5037 -1.8981 0.9544
8.6998 7.1686 -1.8571 0.9553
6.8115 6.7199 -1.5763 0.9620
7.2858 8.6019 -1.8571 0.9553
6.4885 9.2182 -1.8571 0.9553
5.1146 11.0216 -2.0017 0.9519
3.0723 11.7558 -2.0017 0.9519
0.7075 9.1962 -1.5195 0.9633
4.5104 -8.7449 -1.8495 0.9607
6.6670 -7.2365 -1.8494 0.9607
7.2866 -6.6122 -1.8494 0.9607
7.8480 -5.9351 -1.8494 0.9607
8.7786 -4.4443 -1.8494 0.9607
10.2051 -3.0431 -2.0016 0.9576
10.4361 -2.1196 -2.0016 0.9576
10.5837 -1.1791 -2.0016 0.9576
10.3267 2.6011 -2.0016 0.9576
9.6993 4.3966 -2.0016 0.9576
9.2679 5.2453 -2.0016 0.9576
7.7670 6.4610 -1.8990 0.9597
6.7783 6.7497 -1.7980 0.9618
6.3505 7.5689 -1.8571 0.9606
4.9027 8.5779 -1.8571 0.9606
4.1171 8.9815 -1.8571 0.9606
1.5892 9.7516 -1.8571 0.9606
-0.8280 7.7283 -1.4609 0.9689
-3.6189 9.1938 -1.8571 0.9606
-3.2841 6.5555 -1.3781 0.9706
-7.2383 6.7253 -1.8571 0.9606
-9.4442 4.9217 -2.0017 0.9576
-10.1691 3.1631 -2.0017 0.9576
-10.5371 -1.5447 -2.0017 0.9576
-10.3570 -2.4795 -2.0017 0.9576
-7.6382 -6.2033 -1.8495 0.9607
-4.9828 -8.4848 -1.8495 0.9607
-4.2052 -8.8959 -1.8495 0.9607
-3.3939 -9.2359 -1.8495 0.9607
-2.5555 -9.5021 -1.8495 0.9607
-1.6967 -9.6923 -1.8495 0.9607
-0.8244 -9.8051 -1.8495 0.9607
0.0545 -9.8395 -1.8495 0.9607
2.6607 -9.4730 -1.8495 0.9607
3.4960 -9.1976 -1.8495 0.9607
7.7062 -6.1180 -1.8494 0.9607
8.6716 -4.6495 -1.8494 0.9607
10.3834 -2.3644 -2.0016 0.9576
10.5531 -1.4277 -2.0016 0.9576
10.6387 0.4724 -2.0016 0.9576
10.3850 2.3574 -2.0016 0.9576
9.3887 5.0258 -2.0016 0.9576
6.5268 7.4175 -1.8571 0.9606
5.8383 7.9707 -1.8571 0.9606
5.1031 8.4603 -1.8571 0.9606
3.2665 6.7050 -1.4019 0.9701
0.0568 9.1348 -1.7170 0.9635
-0.8851 10.6127 -2.0017 0.9576
-1.3044 7.4806 -1.4273 0.9696
-3.4017 9.2763 -1.8571 0.9606
-3.0581 6.4807 -1.3469 0.9713
-4.6290 6.4875 -1.4980 0.9681
-7.0781 6.8937 -1.8571 0.9606
-8.8293 5.9547 -2.0017 0.9576
-9.3259 5.1424 -2.0017 0.9576
-9.7478 4.2890 -2.0017 0.9576
-10.0919 3.4014 -2.0017 0.9576
-10.5360 1.5518 -2.0017 0.9576
-10.6325 0.6047 -2.0017 0.9576
-10.5705 -1.2964 -2.0017 0.9576
-10.1712 -3.1562 -2.0017 0.9576
-9.8438 -4.0499 -2.0007 0.9576
-6.1444 -4.7548 -1.4603 0.9689
-5.9074 -7.8692 -1.8495 0.9607
-5.1810 -8.3653 -1.8495 0.9607
-4.4132 -8.7946 -1.8495 0.9607
-3.6102 -9.1535 -1.8495 0.9607
-2.7783 -9.4393 -1.8495 0.9607
-1.0548 -9.7830 -1.8495 0.9607
-0.1769 -9.8381 -1.8495 0.9607
0.7024 -9.8145 -1.8495 0.9607
1.5761 -9.7126 -1.8495 0.9607
3.2787 -9.2772 -1.8495 0.9607
4.8768 -8.5460 -1.8494 0.9607
5.6205 -8.0763 -1.8494 0.9607
6.3193 -7.5421 -1.8494 0.9607
6.9676 -6.9476 -1.8494 0.9607
8.0924 -5.5972 -1.8494 0.9607
8.5599 -4.8522 -1.8494 0.9607
10.0496 -3.5192 -2.0014 0.9576
10.5166 -1.6755 -2.0016 0.9576
10.5845 1.1720 -2.0016 0.9576
10.4376 2.1126 -2.0016 0.9576
10.2072 3.0362 -2.0016 0.9576
9.5043 4.8036 -2.0016 0.9576
9.0373 5.6332 -2.0016 0.9576
7.3211 6.6346 -1.8571 0.9606
6.6994 7.2619 -1.8571 0.9606
5.1470 6.6909 -1.5867 0.9662
3.4621 6.7013 -1.4178 0.9698
3.7329 9.1479 -1.8571 0.9606
2.0460 9.6661 -1.8571 0.9606
1.2660 10.5740 -2.0017 0.9576
0.1955 6.5711 -1.2357 0.9736
-1.1263 7.4976 -1.4251 0.9696
-2.3345 9.6006 -1.8571 0.9606
-5.5481 8.1757 -1.8571 0.9606
-6.2561 7.6475 -1.8571 0.9606
-9.2023 5.3603 -2.0017 0.9576
-10.2940 2.7294 -2.0017 0.9576
-10.5980 -1.0475 -2.0017 0.9576
-10.2426 -2.9161 -2.0017 0.9576
-9.9413 -3.8192 -2.0017 0.9576
-9.0481 -4.4403 -1.8944 0.9598
-6.3278 -4.6629 -1.4774 0.9685
-7.3685 -6.5213 -1.8495 0.9607
-5.3763 -8.2412 -1.8495 0.9607
-4.6189 -8.6883 -1.8495 0.9607
-3.8245 -9.0661 -1.8495 0.9607
-2.9995 -9.3714 -1.8495 0.9607
-2.1507 -9.6018 -1.8495 0.9607
-1.2846 -9.7555 -1.8495 0.9607
-0.4082 -9.8312 -1.8495 0.9607
0.4714 -9.8283 -1.8495 0.9607
1.3472 -9.7470 -1.8495 0.9607
2.2123 -9.5877 -1.8495 0.9607
3.0597 -9.3518 -1.8495 0.9607
6.1402 -7.6886 -1.8494 0.9607
7.4100 -6.4736 -1.8494 0.9607
7.9585 -5.7860 -1.8494 0.9607
8.4434 -5.0522 -1.8494 0.9607
8.8608 -4.2779 -1.8494 0.9607
10.6041 -0.9793 -2.0016 0.9576
10.6492 -0.0284 -2.0016 0.9576
10.4844 1.8665 -2.0016 0.9576
9.9851 3.7018 -2.0016 0.9576
7.4818 6.4663 -1.8587 0.9606
4.5194 6.7528 -1.5273 0.9675
3.9470 9.0576 -1.8571 0.9606
3.1224 9.3739 -1.8571 0.9606
0.5669 10.6344 -2.0017 0.9576
-1.4237 6.5193 -1.2543 0.9732
-3.7916 9.1239 -1.8571 0.9606
-5.3543 8.3039 -1.8571 0.9606
-6.7461 7.2189 -1.8571 0.9606
-7.3638 6.5876 -1.8571 0.9606
-8.1468 6.0706 -1.9097 0.9595
-9.0737 5.5753 -2.0017 0.9576
-10.5923 1.1040 -2.0017 0.9576
-10.6486 0.1537 -2.0017 0.9576
-10.6198 -0.7979 -2.0017 0.9576
-10.5061 -1.7431 -2.0017 0.9576
-10.3084 -2.6744 -2.0017 0.9576
-10.0284 -3.5843 -2.0017 0.9576
-9.6040 -4.4359 -1.9884 0.9579
-6.9230 -6.9924 -1.8495 0.9607
-6.2709 -7.5827 -1.8495 0.9607
-4.8219 -8.5773 -1.8495 0.9607
-3.2191 -9.2982 -1.8495 0.9607
-2.3759 -9.5486 -1.8495 0.9607
-1.5137 -9.7226 -1.8495 0.9607
-0.6393 -9.8189 -1.8495 0.9607
1.1176 -9.7760 -1.8495 0.9607
2.8388 -9.4212 -1.8495 0.9607
3.6689 -9.1300 -1.8495 0.9607
4.4695 -8.7659 -1.8495 0.9607
5.2345 -8.3317 -1.8494 0.9607
5.9576 -7.8309 -1.8494 0.9607
6.6332 -7.2675 -1.8494 0.9607
7.2557 -6.6461 -1.8494 0.9607
8.3222 -5.2494 -1.8494 0.9607
9.8089 -3.9620 -1.9884 0.9579
10.1908 -3.0907 -2.0016 0.9576
10.4261 -2.1682 -2.0016 0.9576
10.6455 -0.2789 -2.0016 0.9576
10.5254 1.6194 -2.0016 0.9576
9.7197 4.3514 -2.0016 0.9576
9.2923 5.2020 -2.0016 0.9576
8.7906 6.0111 -2.0016 0.9576
6.8106 6.7190 -1.7982 0.9618
6.3857 7.5392 -1.8571 0.9606
4.9427 8.5550 -1.8571 0.9606
4.1589 8.9622 -1.8571 0.9606
1.6346 9.7441 -1.8571 0.9606
2.5634 -8.3655 -1.8495 0.9649
3.3002 -8.1032 -1.8495 0.9649
4.0107 -7.7761 -1.8495 0.9649
5.3300 -6.9385 -1.8494 0.9649
5.9283 -6.4348 -1.8494 0.9649
7.4219 -4.6332 -1.8494 0.9649
9.2799 -1.8848 -2.0016 0.9620
9.4112 -1.0485 -2.0016 0.9620
9.4476 0.6424 -2.0016 0.9620
9.3525 1.4836 -2.0016 0.9620
9.1826 2.3129 -2.0016 0.9620
8.2411 4.6642 -2.0016 0.9620
7.2799 6.0558 -2.0017 0.9620
5.6469 6.7304 -1.8571 0.9647
2.3685 6.6874 -1.4996 0.9714
1.4131 8.6712 -1.8571 0.9647
-0.1520 8.7843 -1.8571 0.9647
-2.5856 6.5687 -1.4922 0.9716
-4.6210 7.4723 -1.8571 0.9647
-5.2698 7.0298 -1.8571 0.9647
-5.8766 6.5311 -1.8571 0.9647
-6.5773 6.1111 -1.8978 0.9640
-8.7551 3.6089 -2.0017 0.9620
-9.0424 2.8126 -2.0017 0.9620
-9.4549 -0.5313 -2.0017 0.9620
-8.9758 -3.0185 -2.0017 0.9620
-8.6704 -3.8080 -2.0017 0.9620
-7.2574 -4.8874 -1.8495 0.9649
-6.7919 -5.5160 -1.8495 0.9649
-6.2722 -6.1005 -1.8495 0.9649
-5.0868 -7.1190 -1.8495 0.9649
-3.7393 -7.9103 -1.8495 0.9649
-3.0179 -8.2126 -1.8495 0.9649
-0.7330 -8.7188 -1.8495 0.9649
0.0485 -8.7494 -1.8495 0.9649
1.6042 -8.6012 -1.8495 0.9649
3.1087 -8.1786 -1.8495 0.9649
3.8267 -7.8682 -1.8495 0.9649
6.8524 -5.4402 -1.8494 0.9649
7.3109 -4.8065 -1.8494 0.9649
7.7109 -4.1344 -1.8494 0.9649
8.6993 -3.7062 -1.9988 0.9621
9.0084 -2.9186 -2.0016 0.9620
9.4601 0.4201 -2.0016 0.9620
9.3848 1.2632 -2.0016 0.9620
9.2345 2.0963 -2.0016 0.9620
9.0104 2.9126 -2.0016 0.9620
7.9161 5.1967 -2.0017 0.9620
7.4204 5.8829 -2.0017 0.9620
5.8036 6.5957 -1.8571 0.9647
4.5377 7.5229 -1.8571 0.9647
3.1271 8.2102 -1.8571 0.9647
1.8596 6.6037 -1.4502 0.9723
1.6167 8.6356 -1.8571 0.9647
-0.5936 7.1174 -1.5097 0.9712
-3.0581 6.4807 -1.5147 0.9711
-4.4439 7.5789 -1.8571 0.9647
-4.6290 6.4875 -1.6846 0.9679
-5.7213 6.6675 -1.8571 0.9647
-6.2954 6.1313 -1.8576 0.9647
-8.2926 4.5727 -2.0017 0.9620
-8.6678 3.8138 -2.0017 0.9620
-9.4545 0.5377 -2.0017 0.9620
-9.4647 -0.3088 -2.0017 0.9620
-9.3993 -1.1528 -2.0017 0.9620
-9.2588 -1.9876 -2.0017 0.9620
-9.0443 -2.8065 -2.0017 0.9620
-8.3723 -4.3558 -1.9949 0.9622
-7.3703 -4.7154 -1.8495 0.9649
-6.4139 -5.9513 -1.8495 0.9649
-5.8568 -6.5003 -1.8495 0.9649
-5.2529 -6.9974 -1.8495 0.9649
-4.6070 -7.4385 -1.8495 0.9649
-3.2102 -8.1394 -1.8495 0.9649
-2.4705 -8.3935 -1.8495 0.9649
-1.7110 -8.5806 -1.8495 0.9649
-0.1573 -8.7481 -1.8495 0.9649
0.6246 -8.7272 -1.8495 0.9649
2.1671 -8.4768 -1.8495 0.9649
4.3365 -7.5991 -1.8495 0.9649
4.9978 -7.1815 -1.8494 0.9649
5.6192 -6.7065 -1.8494 0.9649
6.1956 -6.1779 -1.8494 0.9649
6.7226 -5.5999 -1.8494 0.9649
8.5956 -3.9033 -1.9955 0.9621
9.4471 -0.6488 -2.0016 0.9620
9.4673 0.1975 -2.0016 0.9620
9.0764 2.6999 -2.0016 0.9620
8.4513 4.2714 -2.0016 0.9620
8.0361 5.0091 -2.0016 0.9620
7.5567 5.7068 -2.0017 0.9620
5.9572 6.4574 -1.8571 0.9647
3.3193 8.1344 -1.8571 0.9647
2.5796 8.3983 -1.8571 0.9647
-0.4260 7.1294 -1.5097 0.9712
-3.5614 8.0315 -1.8571 0.9647
-4.9334 7.2698 -1.8571 0.9647
-7.7244 5.4782 -2.0017 0.9620
-9.1535 2.4270 -2.0017 0.9620
-9.3337 1.5998 -2.0017 0.9620
-9.4694 -0.0861 -2.0017 0.9620
-9.4239 -0.9314 -2.0017 0.9620
-8.4864 -4.1646 -1.9982 0.9621
-7.4792 -4.5407 -1.8495 0.9649
-5.4160 -6.8719 -1.8495 0.9649
-4.7807 -7.3281 -1.8495 0.9649
-4.1071 -7.7257 -1.8495 0.9649
-3.4008 -8.0616 -1.8495 0.9649
-1.9124 -8.5380 -1.8495 0.9649
-1.1422 -8.6746 -1.8495 0.9649
-0.3630 -8.7420 -1.8495 0.9649
1.1979 -8.6671 -1.8495 0.9649
1.9672 -8.5255 -1.8495 0.9649
4.1566 -7.6990 -1.8495 0.9649
4.8275 -7.2971 -1.8495 0.9649
6.0486 -6.3219 -1.8494 0.9649
6.5890 -5.7564 -1.8494 0.9649
7.5080 -4.4924 -1.8494 0.9649
8.2984 -4.0064 -1.9479 0.9630
8.8611 -3.3390 -2.0016 0.9620
9.3138 -1.7094 -2.0016 0.9620
9.4293 -0.8708 -2.0016 0.9620
9.4693 -0.0253 -2.0016 0.9620
9.4338 0.8205 -2.0016 0.9620
9.3228 1.6597 -2.0016 0.9620
9.1374 2.4856 -2.0016 0.9620
8.8789 3.2917 -2.0016 0.9620
8.5495 4.0715 -2.0016 0.9620
7.1645 6.1920 -2.0017 0.9620
6.2132 6.4248 -1.8892 0.9641
1.2493 8.6963 -1.8571 0.9647
-0.8946 7.0859 -1.5097 0.9712
-1.4237 6.5193 -1.4105 0.9731
-2.6335 8.3817 -1.8571 0.9647
-3.3715 8.1130 -1.8571 0.9647
-4.0826 7.7795 -1.8571 0.9647
-4.7611 7.3839 -1.8571 0.9647
-5.4015 6.9292 -1.8571 0.9647
-6.8173 6.0987 -1.9335 0.9633
-8.4789 4.2172 -2.0017 0.9620
-8.8216 3.4432 -2.0017 0.9620
-9.0939 2.6416 -2.0017 0.9620
-9.2935 1.8189 -2.0017 0.9620
-9.4188 0.9817 -2.0017 0.9620
-9.4688 0.1366 -2.0017 0.9620
-9.3421 -1.5500 -2.0017 0.9620
-8.9173 -3.1872 -2.0017 0.9620
-6.6867 -5.6431 -1.8495 0.9649
-6.1560 -6.2177 -1.8495 0.9649
-4.9517 -7.2136 -1.8495 0.9649
-4.2877 -7.6270 -1.8495 0.9649
-2.8625 -8.2681 -1.8495 0.9649
0.9938 -8.6929 -1.8495 0.9649
1.7661 -8.5694 -1.8495 0.9649
2.5243 -8.3774 -1.8495 0.9649
4.6546 -7.4086 -1.8495 0.9649
7.4002 -4.6678 -1.8494 0.9649
9.2710 -1.9280 -2.0016 0.9620
9.4062 -1.0923 -2.0016 0.9620
9.4505 0.5984 -2.0016 0.9620
8.9538 3.0820 -2.0016 0.9620
8.6428 3.8693 -2.0016 0.9620
7.8167 5.3451 -2.0017 0.9620
7.3081 6.0218 -2.0017 0.9620
6.5116 6.4239 -1.9335 0.9633
5.6782 6.7040 -1.8571 0.9647
4.3951 7.6072 -1.8571 0.9647
1.4535 8.6645 -1.8571 0.9647
0.6739 8.7597 -1.8571 0.9647
2.3055 -7.5240 -1.8495 0.9682
3.6072 -6.9938 -1.8495 0.9682
4.7938 -6.2405 -1.8495 0.9682
5.8275 -5.2882 -1.8494 0.9682
6.2765 -4.7466 -1.8494 0.9682
6.6753 -4.1671 -1.8494 0.9682
7.5810 -3.8380 -1.9970 0.9657
7.9117 -3.1529 -2.0016 0.9656
8.1616 -2.4337 -2.0016 0.9656
8.3464 -1.6952 -2.0016 0.9656
8.4644 -0.9430 -2.0016 0.9656
8.4972 0.5778 -2.0016 0.9656
8.4116 1.3343 -2.0016 0.9656
8.2589 2.0802 -2.0016 0.9656
8.0401 2.8095 -2.0016 0.9656
7.0078 4.8401 -2.0017 0.9656
6.5476 5.4466 -2.0017 0.9656
6.0350 6.0096 -2.0017 0.9656
5.3621 6.3908 -1.9606 0.9663
2.6380 7.4484 -1.8571 0.9681
1.2709 7.7989 -1.8571 0.9681
-0.1367 7.9006 -1.8571 0.9681
-1.3118 6.6015 -1.5818 0.9727
-3.5393 7.0649 -1.8571 0.9681
-6.2395 5.7973 -2.0017 0.9656
-6.7323 5.2170 -2.0017 0.9656
-7.1713 4.5949 -2.0017 0.9656
-7.5530 3.9361 -2.0017 0.9656
-8.1328 2.5297 -2.0017 0.9656
-8.4531 1.0425 -2.0017 0.9656
-8.5037 -0.4779 -2.0017 0.9656
-8.4270 -1.2354 -2.0017 0.9656
-8.2830 -1.9830 -2.0017 0.9656
-8.0728 -2.7148 -2.0017 0.9656
-7.7981 -3.4249 -2.0017 0.9656
-6.5273 -4.3958 -1.8495 0.9682
-5.6412 -5.4868 -1.8495 0.9682
-5.1286 -5.9687 -1.8495 0.9682
-4.5751 -6.4028 -1.8495 0.9682
-3.3631 -7.1145 -1.8495 0.9682
-2.7143 -7.3864 -1.8495 0.9682
-0.6593 -7.8417 -1.8495 0.9682
0.0436 -7.8692 -1.8495 0.9682
0.7462 -7.8338 -1.8495 0.9682
2.1279 -7.5761 -1.8495 0.9682
3.4417 -7.0767 -1.8495 0.9682
4.6457 -6.3516 -1.8495 0.9682
6.5754 -4.3230 -1.8494 0.9682
7.4779 -4.0095 -1.9942 0.9657
8.3042 -1.8910 -2.0016 0.9656
8.5081 -0.3835 -2.0016 0.9656
8.1039 2.6196 -2.0016 0.9656
6.6739 5.2911 -2.0017 0.9656
5.6225 6.3898 -2.0004 0.9656
4.0813 6.7661 -1.8571 0.9681
3.4607 7.1036 -1.8571 0.9681
1.8596 6.6037 -1.6124 0.9722
0.7546 7.8657 -1.8571 0.9681
0.0491 7.9017 -1.8571 0.9681
-3.0581 6.4807 -1.6842 0.9710
-3.9969 6.8165 -1.8571 0.9681
-5.2706 6.1422 -1.9022 0.9673
-6.1015 5.9425 -2.0017 0.9656
-7.7958 3.4302 -2.0017 0.9656
-8.0710 2.7202 -2.0017 0.9656
-8.2817 1.9886 -2.0017 0.9656
-8.4262 1.2411 -2.0017 0.9656
-8.3274 -1.7876 -2.0017 0.9656
-6.8506 -4.3829 -1.9114 0.9671
-6.1447 -4.7550 -1.8260 0.9686
-4.7244 -6.2934 -1.8495 0.9682
-2.8873 -7.3206 -1.8495 0.9682
-2.2220 -7.5492 -1.8495 0.9682
-0.1415 -7.8680 -1.8495 0.9682
1.9491 -7.6241 -1.8495 0.9682
3.2743 -7.1557 -1.8495 0.9682
4.4950 -6.4591 -1.8495 0.9682
5.0539 -6.0318 -1.8495 0.9682
5.5724 -5.5564 -1.8494 0.9682
6.4719 -4.4764 -1.8494 0.9682
7.7547 -3.5215 -2.0016 0.9656
8.2574 -2.0858 -2.0016 0.9656
8.5149 0.1776 -2.0016 0.9656
8.4651 0.9373 -2.0016 0.9656
8.1633 2.4283 -2.0016 0.9656
7.2277 4.5052 -2.0017 0.9656
6.3110 5.7191 -2.0017 0.9656
4.9171 6.3921 -1.8953 0.9674
4.2393 6.6683 -1.8571 0.9681
3.4621 6.7013 -1.7727 0.9695
1.6363 7.7305 -1.8571 0.9681
0.1955 6.5711 -1.5450 0.9733
-0.4263 7.1342 -1.6797 0.9711
-1.7057 7.0146 -1.6966 0.9708
-2.5453 7.4807 -1.8571 0.9681
-3.2032 7.2235 -1.8571 0.9681
-3.8355 6.9086 -1.8571 0.9681
-4.4371 6.5385 -1.8571 0.9681
-5.9600 6.0843 -2.0017 0.9656
-6.4795 5.5278 -2.0017 0.9656
-8.0048 2.9093 -2.0017 0.9656
-8.4896 0.6835 -2.0017 0.9656
-8.5167 -0.0774 -2.0017 0.9656
-7.6460 -3.7522 -2.0017 0.9656
-5.8930 -5.2155 -1.8495 0.9682
-5.4037 -5.7209 -1.8495 0.9682
-3.6939 -6.9485 -1.8495 0.9682
-1.7200 -7.6791 -1.8495 0.9682
-1.0273 -7.8020 -1.8495 0.9682
-0.3265 -7.8625 -1.8495 0.9682
1.0774 -7.7952 -1.8495 0.9682
1.7693 -7.6678 -1.8495 0.9682
3.7384 -6.9245 -1.8495 0.9682
4.9106 -6.1490 -1.8495 0.9682
5.4401 -5.6859 -1.8494 0.9682
6.3649 -4.6274 -1.8494 0.9682
6.7851 -4.0599 -1.8583 0.9680
8.2061 -2.2794 -2.0016 0.9656
8.4807 -0.7832 -2.0016 0.9656
8.5168 -0.0227 -2.0016 0.9656
7.9857 2.9606 -2.0016 0.9656
7.3316 4.3340 -2.0017 0.9656
6.4437 5.5691 -2.0017 0.9656
1.8176 7.6899 -1.8571 0.9681
1.1236 7.8215 -1.8571 0.9681
-0.2857 7.8966 -1.8571 0.9681
-0.8952 7.0904 -1.6796 0.9711
-1.4237 6.5193 -1.5683 0.9730
-2.3686 7.5385 -1.8571 0.9681
-3.0324 7.2969 -1.8571 0.9681
-3.6719 6.9969 -1.8571 0.9681
-4.2821 6.6410 -1.8571 0.9681
-6.3477 5.6786 -2.0017 0.9656
-7.2567 4.4588 -2.0017 0.9656
-7.6259 3.7930 -2.0017 0.9656
-8.1790 2.3758 -2.0017 0.9656
-8.4932 -0.6381 -2.0017 0.9656
-8.2442 -2.1389 -2.0017 0.9656
-8.0202 -2.8666 -2.0017 0.9656
-7.7322 -3.5713 -2.0017 0.9656
-6.4432 -4.5181 -1.8495 0.9682
-5.0152 -6.0643 -1.8495 0.9682
-3.8564 -6.8597 -1.8495 0.9682
-3.2283 -7.1767 -1.8495 0.9682
-0.5113 -7.8527 -1.8495 0.9682
0.1920 -7.8670 -1.8495 0.9682
1.5884 -7.7073 -1.8495 0.9682
4.7647 -6.2628 -1.8495 0.9682
5.8028 -5.3153 -1.8494 0.9682
7.5609 -3.8722 -1.9965 0.9657
7.8969 -3.1898 -2.0016 0.9656
8.3384 -1.7341 -2.0016 0.9656
8.4178 1.2951 -2.0016 0.9656
6.5729 5.4160 -2.0017 0.9656
6.0630 5.9814 -2.0017 0.9656
3.9529 6.8419 -1.8571 0.9681
1.9980 7.6450 -1.8571 0.9681
1.3073 7.7929 -1.8571 0.9681
-0.0999 7.9012 -1.8571 0.9681
2.6943 -6.6154 -1.8495 0.9709
4.3514 -5.6646 -1.8495 0.9709
5.2897 -4.8002 -1.8495 0.9709
7.5761 -1.5387 -2.0016 0.9686
7.6353 1.2112 -2.0016 0.9686
7.4967 1.8882 -2.0016 0.9686
5.9433 4.9440 -2.0017 0.9686
4.9690 5.9224 -2.0017 0.9686
3.6354 6.3605 -1.8969 0.9702
2.9888 6.5201 -1.8571 0.9708
1.7812 6.9478 -1.8571 0.9708
-0.1241 7.1715 -1.8571 0.9708
-0.7544 7.0417 -1.8336 0.9712
-1.3118 6.6015 -1.7427 0.9726
-2.0206 6.8821 -1.8571 0.9708
-4.6048 6.1426 -1.9877 0.9688
-5.6637 5.2623 -2.0017 0.9686
-6.1110 4.7355 -2.0017 0.9686
-7.1476 2.9463 -2.0017 0.9686
-7.7189 -0.4338 -2.0017 0.9686
-7.6493 -1.1214 -2.0017 0.9686
-7.3278 -2.4643 -2.0017 0.9686
-7.0784 -3.1088 -2.0017 0.9686
-6.7725 -3.7285 -2.0017 0.9686
-6.3909 -4.3039 -1.9950 0.9687
-5.1206 -4.9804 -1.8495 0.9709
-3.6173 -6.1595 -1.8495 0.9709
-2.4638 -6.7048 -1.8495 0.9709
-1.2317 -7.0361 -1.8495 0.9709
0.0396 -7.1430 -1.8495 0.9709
1.3097 -7.0220 -1.8495 0.9709
1.9315 -6.8769 -1.8495 0.9709
2.5379 -6.6770 -1.8495 0.9709
3.1241 -6.4236 -1.8495 0.9709
3.6853 -6.1190 -1.8495 0.9709
4.2170 -5.7654 -1.8495 0.9709
6.1816 -4.0641 -1.9155 0.9699
6.8094 -3.6510 -2.0005 0.9686
7.1123 -3.0300 -2.0016 0.9686
7.3544 -2.3828 -2.0016 0.9686
7.5378 -1.7165 -2.0016 0.9686
7.6610 -1.0365 -2.0016 0.9686
7.6617 1.0313 -2.0016 0.9686
7.5390 1.7114 -2.0016 0.9686
7.3561 2.3778 -2.0017 0.9686
6.4627 4.2426 -2.0017 0.9686
6.0580 4.8028 -2.0017 0.9686
5.6049 5.3246 -2.0017 0.9686
3.8366 6.3605 -1.9233 0.9698
3.1413 6.4480 -1.8571 0.9708
0.0446 7.1724 -1.8571 0.9708
-1.8582 6.9277 -1.8571 0.9708
-2.4694 6.7341 -1.8571 0.9708
-3.6322 6.1946 -1.8593 0.9708
-4.3907 6.1535 -1.9572 0.9692
-5.0345 5.8671 -2.0017 0.9686
-5.5384 5.3941 -2.0017 0.9686
-6.4096 4.3228 -2.0017 0.9686
-7.0764 3.1136 -2.0017 0.9686
-7.5174 1.8051 -2.0017 0.9686
-7.6486 1.1265 -2.0017 0.9686
-7.5588 -1.6227 -2.0017 0.9686
-6.8583 -3.5682 -2.0017 0.9686
-5.2363 -4.8586 -1.8495 0.9709
-1.3969 -7.0052 -1.8495 0.9709
-0.7657 -7.1019 -1.8495 0.9709
-0.1284 -7.1419 -1.8495 0.9709
0.5099 -7.1248 -1.8495 0.9709
1.1441 -7.0508 -1.8495 0.9709
2.9721 -6.4953 -1.8495 0.9709
3.5403 -6.2039 -1.8495 0.9709
4.5875 -5.4752 -1.8495 0.9709
5.4883 -4.5717 -1.8495 0.9709
5.9011 -4.0816 -1.8578 0.9708
6.7130 -3.8053 -1.9979 0.9686
7.4954 -1.8933 -2.0016 0.9686
7.7291 0.1612 -2.0016 0.9686
7.6839 0.8508 -2.0016 0.9686
7.5772 1.5336 -2.0016 0.9686
7.4099 2.2042 -2.0016 0.9686
6.8997 3.4872 -2.0017 0.9686
6.5607 4.0894 -2.0017 0.9686
6.1693 4.6590 -2.0017 0.9686
5.7285 5.1913 -2.0017 0.9686
5.2420 5.6822 -2.0017 0.9686
2.7099 6.6409 -1.8571 0.9708
1.4853 7.0171 -1.8571 0.9708
0.8527 7.1217 -1.8571 0.9708
0.1955 6.5711 -1.7021 0.9732
-4.1829 6.1638 -1.9287 0.9697
-4.8951 5.9839 -2.0017 0.9686
-5.8815 5.0176 -2.0017 0.9686
-6.6804 3.8913 -2.0017 0.9686
-7.0012 3.2792 -2.0017 0.9686
-7.2661 2.6408 -2.0017 0.9686
-7.4729 1.9814 -2.0017 0.9686
-7.7061 0.6204 -2.0017 0.9686
-7.6936 -0.7604 -2.0017 0.9686
-7.4356 -2.1169 -2.0017 0.9686
-7.2168 -2.7725 -2.0017 0.9686
-6.9404 -3.4059 -2.0017 0.9686
-6.6030 -4.0088 -2.0001 0.9686
-5.9189 -4.3616 -1.9036 0.9701
-3.9029 -5.9826 -1.8495 0.9709
-3.3530 -6.3073 -1.8495 0.9709
-2.7764 -6.5815 -1.8495 0.9709
-1.5613 -6.9704 -1.8495 0.9709
-0.9325 -7.0820 -1.8495 0.9709
-0.2964 -7.1369 -1.8495 0.9709
0.9780 -7.0758 -1.8495 0.9709
1.6060 -6.9602 -1.8495 0.9709
2.2212 -6.7889 -1.8495 0.9709
2.8185 -6.5634 -1.8495 0.9709
3.3934 -6.2855 -1.8495 0.9709
3.9412 -5.9573 -1.8495 0.9709
4.9381 -5.1612 -1.8495 0.9709
5.3793 -4.6996 -1.8495 0.9709
5.7775 -4.2004 -1.8494 0.9709
6.6133 -3.9571 -1.9954 0.9687
7.4488 -2.0690 -2.0016 0.9686
7.7308 -0.0206 -2.0016 0.9686
7.6111 1.3550 -2.0016 0.9686
6.9798 3.3240 -2.0017 0.9686
6.6550 3.9340 -2.0017 0.9686
6.2771 4.5126 -2.0017 0.9686
5.8491 5.0552 -2.0017 0.9686
5.3742 5.5573 -2.0017 0.9686
4.8565 6.0151 -2.0017 0.9686
4.2566 6.3600 -1.9815 0.9689
2.8653 6.5753 -1.8571 0.9708
2.2667 6.8050 -1.8571 0.9708
1.6499 6.9802 -1.8571 0.9708
1.0199 7.0997 -1.8571 0.9708
-0.2593 7.1679 -1.8571 0.9708
-0.8874 7.0292 -1.8344 0.9711
-1.4237 6.5193 -1.7278 0.9728
-2.1500 6.8428 -1.8571 0.9708
-3.3352 6.3553 -1.8583 0.9708
-5.7619 5.1546 -2.0017 0.9686
-6.5870 4.0473 -2.0017 0.9686
-6.9221 3.4429 -2.0017 0.9686
-7.2019 2.8110 -2.0017 0.9686
-7.4242 2.1566 -2.0017 0.9686
-7.6894 0.8015 -2.0017 0.9686
-7.7303 0.1116 -2.0017 0.9686
-7.7093 -0.5792 -2.0017 0.9686
-7.6268 -1.2654 -2.0017 0.9686
-7.0186 -3.2417 -2.0017 0.9686
-6.7010 -3.8556 -2.0017 0.9686
-6.2141 -4.3574 -1.9651 0.9691
-2.9304 -6.5144 -1.8495 0.9709
-1.0988 -7.0581 -1.8495 0.9709
0.1743 -7.1410 -1.8495 0.9709
1.4419 -6.9960 -1.8495 0.9709
3.8000 -6.0484 -1.8495 0.9709
4.3249 -5.6849 -1.8495 0.9709
5.6771 -4.3351 -1.8494 0.9709
6.8809 -3.5240 -2.0016 0.9686
7.3981 -2.2437 -2.0016 0.9686
7.6792 -0.8918 -2.0016 0.9686
7.6409 1.1756 -2.0016 0.9686
7.3099 2.5161 -2.0017 0.9686
6.7457 3.7764 -2.0017 0.9686
6.3815 4.3637 -2.0017 0.9686
5.9663 4.9162 -2.0017 0.9686
5.5035 5.4294 -2.0017 0.9686
3.6748 6.3605 -1.9020 0.9701
3.0211 6.5104 -1.8583 0.9708
2.4261 6.7498 -1.8571 0.9708
1.8136 6.9395 -1.8571 0.9708
1.1866 7.0737 -1.8571 0.9708
0.5502 7.1514 -1.8571 0.9708
-0.0907 7.1720 -1.8571 0.9708
2.4642 -6.0505 -1.8495 0.9732
2.9947 -5.8063 -1.8495 0.9732
3.5012 -5.5156 -1.8495 0.9732
4.4266 -4.8048 -1.8495 0.9732
4.8380 -4.3902 -1.8495 0.9732
5.9910 -3.7400 -1.9994 0.9711
6.3083 -3.1937 -2.0016 0.9710
6.7758 -2.0205 -2.0016 0.9710
6.9292 -1.4073 -2.0016 0.9710
7.0272 -0.7829 -2.0016 0.9710
7.0690 -0.1522 -2.0016 0.9710
6.9833 1.1078 -2.0017 0.9710
6.8565 1.7270 -2.0017 0.9710
5.8179 4.0183 -2.0017 0.9710
5.4358 4.5218 -2.0017 0.9710
4.0428 5.8009 -2.0017 0.9710
2.2405 6.3259 -1.8998 0.9725
1.6291 6.3545 -1.8571 0.9731
1.0551 6.4746 -1.8571 0.9731
-1.2785 6.4343 -1.8571 0.9731
-1.8480 6.2944 -1.8571 0.9731
-3.7190 6.0138 -2.0017 0.9710
-5.9536 3.8147 -2.0017 0.9710
-6.7518 2.1001 -2.0017 0.9710
-6.7020 -2.2538 -2.0017 0.9710
-5.8622 -3.9478 -2.0008 0.9710
-5.3429 -4.3392 -1.9485 0.9718
-4.2578 -4.9552 -1.8495 0.9732
-3.3084 -5.6335 -1.8495 0.9732
-2.7920 -5.9065 -1.8495 0.9732
0.0362 -6.5330 -1.8495 0.9732
0.6195 -6.5036 -1.8495 0.9732
1.1978 -6.4223 -1.8495 0.9732
2.3212 -6.1068 -1.8495 0.9732
3.8569 -5.2731 -1.8495 0.9732
4.3124 -4.9075 -1.8495 0.9732
4.7334 -4.5028 -1.8495 0.9732
5.1620 -4.0981 -1.8659 0.9730
6.2314 -3.3411 -2.0016 0.9710
6.5049 -2.7713 -2.0016 0.9710
6.8942 -1.5699 -2.0016 0.9710
7.0068 -0.9479 -2.0016 0.9710
7.0635 -0.3184 -2.0016 0.9710
6.8952 1.5653 -2.0017 0.9710
6.7279 2.1748 -2.0017 0.9710
5.9108 3.8803 -2.0017 0.9710
5.5407 4.3927 -2.0017 0.9710
5.1262 4.8699 -2.0017 0.9710
4.6709 5.3083 -2.0017 0.9710
4.1781 5.7042 -2.0017 0.9710
3.6520 6.0546 -2.0017 0.9710
2.4098 6.3270 -1.9166 0.9722
0.6265 6.5301 -1.8571 0.9731
-0.5452 6.5374 -1.8571 0.9731
-1.1269 6.4626 -1.8571 0.9731
-1.6995 6.3361 -1.8571 0.9731
-3.5765 6.0996 -2.0017 0.9710
-5.8622 3.9536 -2.0017 0.9710
-6.1919 3.4143 -2.0017 0.9710
-6.7005 2.2583 -2.0017 0.9710
-6.8754 1.6509 -2.0017 0.9710
-6.9954 1.0303 -2.0017 0.9710
-7.0671 -0.2306 -2.0017 0.9710
-7.0183 -0.8608 -2.0017 0.9710
-6.9133 -1.4841 -2.0017 0.9710
-6.5390 -2.6903 -2.0017 0.9710
-6.2727 -3.2635 -2.0017 0.9710
-5.9561 -3.8106 -2.0017 0.9710
-5.5719 -4.3117 -1.9945 0.9711
-4.7891 -4.4437 -1.8495 0.9732
-4.3731 -4.8536 -1.8495 0.9732
-3.9222 -5.2248 -1.8495 0.9732
-1.8447 -6.2673 -1.8495 0.9732
-0.7003 -6.4955 -1.8495 0.9732
-0.1174 -6.5320 -1.8495 0.9732
0.4664 -6.5164 -1.8495 0.9732
1.0464 -6.4487 -1.8495 0.9732
3.2380 -5.6742 -1.8495 0.9732
5.0197 -4.1813 -1.8495 0.9732
5.7955 -4.0086 -1.9949 0.9711
6.4379 -2.9235 -2.0016 0.9710
6.6733 -2.3369 -2.0016 0.9710
6.8553 -1.7316 -2.0016 0.9710
6.9826 -1.1125 -2.0016 0.9710
7.0540 -0.4845 -2.0016 0.9710
6.3105 3.1894 -2.0017 0.9710
5.6424 4.2612 -2.0017 0.9710
5.2394 4.7480 -2.0017 0.9710
4.7944 5.1970 -2.0017 0.9710
3.7934 5.9670 -2.0017 0.9710
1.9424 6.3237 -1.8727 0.9729
1.3584 6.4178 -1.8571 0.9731
0.1951 6.5572 -1.8571 0.9731
-0.9745 6.4873 -1.8571 0.9731
-1.5500 6.3743 -1.8571 0.9731
-2.7495 6.2004 -1.9201 0.9722
-3.4252 6.1696 -1.9977 0.9711
-3.9704 5.8508 -2.0017 0.9710
-4.4771 5.4729 -2.0017 0.9710
-5.3793 4.5891 -2.0017 0.9710
-6.1099 3.5590 -2.0017 0.9710
-6.4033 2.9991 -2.0017 0.9710
-7.0481 0.5674 -2.0017 0.9710
-7.0706 -0.0643 -2.0017 0.9710
-7.0366 -0.6955 -2.0017 0.9710
-6.8006 -1.9361 -2.0017 0.9710
-6.6005 -2.5357 -2.0017 0.9710
-6.0441 -3.6695 -2.0017 0.9710
-4.0440 -5.1311 -1.8495 0.9732
-3.5696 -5.4717 -1.8495 0.9732
-3.0667 -5.7686 -1.8495 0.9732
-1.4279 -6.3751 -1.8495 0.9732
-0.2710 -6.5275 -1.8495 0.9732
0.3130 -6.5256 -1.8495 0.9732
0.8945 -6.4716 -1.8495 0.9732
1.4688 -6.3658 -1.8495 0.9732
2.0315 -6.2092 -1.8495 0.9732
2.5779 -6.0030 -1.8495 0.9732
4.0768 -5.1049 -1.8495 0.9732
6.6165 -2.4932 -2.0016 0.9710
6.8127 -1.8924 -2.0016 0.9710
6.9545 -1.2764 -2.0016 0.9710
6.9612 1.2393 -2.0017 0.9710
6.8227 1.8560 -2.0017 0.9710
6.3837 3.0401 -2.0017 0.9710
6.0867 3.5981 -2.0017 0.9710
4.9153 5.0828 -2.0017 0.9710
3.9327 5.8761 -2.0017 0.9710
3.3922 6.2039 -2.0017 0.9710
2.7577 6.3285 -1.9543 0.9717
1.5090 6.3841 -1.8571 0.9731
0.3492 6.5507 -1.8571 0.9731
-0.8217 6.5084 -1.8571 0.9731
-3.2422 6.1782 -1.9752 0.9714
-3.8317 5.9426 -2.0017 0.9710
-4.3471 5.5767 -2.0017 0.9710
-4.8278 5.1662 -2.0017 0.9710
-5.2699 4.7144 -2.0017 0.9710
-6.0245 3.7017 -2.0017 0.9710
-6.3310 3.1489 -2.0017 0.9710
-6.5869 2.5709 -2.0017 0.9710
-6.7902 1.9724 -2.0017 0.9710
-6.9392 1.3581 -2.0017 0.9710
-7.0328 0.7330 -2.0017 0.9710
-7.0701 0.1020 -2.0017 0.9710
-7.0510 -0.5298 -2.0017 0.9710
-6.8443 -1.7757 -2.0017 0.9710
-6.6583 -2.3798 -2.0017 0.9710
-6.4192 -2.9649 -2.0017 0.9710
-5.1453 -4.3423 -1.9060 0.9724
-4.1636 -5.0346 -1.8495 0.9732
-2.6801 -5.9581 -1.8495 0.9732
-2.1374 -6.1736 -1.8495 0.9732
-1.5775 -6.3398 -1.8495 0.9732
-0.4245 -6.5193 -1.8495 0.9732
0.7420 -6.4908 -1.8495 0.9732
1.3187 -6.3986 -1.8495 0.9732
1.8849 -6.2553 -1.8495 0.9732
2.9676 -5.8202 -1.8495 0.9732
4.4041 -4.8254 -1.8495 0.9732
4.8175 -4.4128 -1.8495 0.9732
5.3510 -4.0861 -1.9060 0.9724
5.9721 -3.7670 -1.9989 0.9711
6.5560 -2.6481 -2.0016 0.9710
6.9225 -1.4396 -2.0016 0.9710
7.0234 -0.8156 -2.0016 0.9710
7.0565 0.4468 -2.0016 0.9710
6.8645 1.6950 -2.0017 0.9710
6.1697 3.4539 -2.0017 0.9710
5.8366 3.9911 -2.0017 0.9710
5.0335 4.9657 -2.0017 0.9710
4.0698 5.7820 -2.0017 0.9710
-0.0829 6.5595 -1.8571 0.9731
1.7617 -5.7491 -1.8495 0.9752
6.0454 -2.4092 -2.0017 0.9731
6.3776 -1.2953 -2.0017 0.9731
6.4678 -0.7206 -2.0017 0.9731
6.5063 -0.1401 -2.0017 0.9731
6.1435 2.1467 -2.0017 0.9731
5.9273 2.6868 -2.0017 0.9731
5.0031 4.1618 -2.0017 0.9731
4.6114 4.5920 -2.0017 0.9731
4.1829 4.9855 -2.0017 0.9731
3.2293 5.6501 -2.0017 0.9731
2.1727 6.1345 -2.0017 0.9731
1.6132 6.2924 -1.9980 0.9732
0.4534 6.2758 -1.9353 0.9740
-1.2381 6.2310 -1.9540 0.9738
-1.8232 6.2099 -1.9907 0.9733
-2.3837 6.0557 -2.0017 0.9731
-2.9149 5.8186 -2.0017 0.9731
-3.4229 5.5350 -2.0017 0.9731
-4.7677 4.4298 -2.0017 0.9731
-5.1442 3.9863 -2.0017 0.9731
-5.4796 3.5110 -2.0017 0.9731
-5.7713 3.0076 -2.0017 0.9731
-6.2143 1.9329 -2.0017 0.9731
-6.4590 0.7966 -2.0017 0.9731
-6.4977 -0.3651 -2.0017 0.9731
-6.4391 -0.9440 -2.0017 0.9731
-6.1685 -2.0744 -2.0017 0.9731
-5.9586 -2.6170 -2.0017 0.9731
-5.7011 -3.1386 -2.0017 0.9731
-5.3980 -3.6352 -2.0017 0.9731
-3.9188 -4.5607 -1.8495 0.9751
-3.4959 -4.8924 -1.8495 0.9751
-3.0450 -5.1851 -1.8495 0.9751
-2.0740 -5.6440 -1.8495 0.9751
-1.5617 -5.8067 -1.8495 0.9751
0.0333 -6.0129 -1.8495 0.9751
0.5702 -5.9859 -1.8495 0.9751
1.1025 -5.9111 -1.8495 0.9751
3.1022 -5.1509 -1.8495 0.9752
3.5498 -4.8533 -1.8495 0.9752
3.9691 -4.5169 -1.8495 0.9752
5.0793 -4.0325 -1.9948 0.9732
5.7354 -3.0752 -2.0017 0.9731
6.1909 -2.0058 -2.0017 0.9731
6.4490 -0.8725 -2.0017 0.9731
6.5012 -0.2931 -2.0017 0.9731
6.4496 0.8681 -2.0017 0.9731
6.3463 1.4406 -2.0017 0.9731
6.1923 2.0016 -2.0017 0.9731
5.7375 3.0713 -2.0017 0.9731
5.4403 3.5714 -2.0017 0.9731
5.0996 4.0430 -2.0017 0.9731
4.7182 4.4823 -2.0017 0.9731
3.8455 5.2501 -2.0017 0.9731
3.3613 5.5726 -2.0017 0.9731
1.7640 6.2642 -2.0017 0.9731
0.6023 6.2785 -1.9400 0.9739
-0.5215 6.2530 -1.9300 0.9741
-1.0873 6.2360 -1.9470 0.9739
-1.6672 6.2158 -1.9794 0.9734
-2.2406 6.1101 -2.0017 0.9731
-3.2918 5.6140 -2.0017 0.9731
-3.7800 5.2976 -2.0017 0.9731
-5.0490 4.1062 -2.0017 0.9731
-5.3956 3.6389 -2.0017 0.9731
-6.3281 1.5195 -2.0017 0.9731
-6.4385 0.9483 -2.0017 0.9731
-6.5045 -0.2122 -2.0017 0.9731
-6.0185 -2.4761 -2.0017 0.9731
-5.7733 -3.0037 -2.0017 0.9731
-5.4820 -3.5073 -2.0017 0.9731
-5.1424 -3.9793 -1.9999 0.9732
-4.6573 -4.3214 -1.9542 0.9738
-4.0250 -4.4673 -1.8495 0.9751
-3.6100 -4.8089 -1.8495 0.9751
-3.1661 -5.1120 -1.8495 0.9751
-2.2062 -5.5937 -1.8495 0.9751
-0.6446 -5.9784 -1.8495 0.9751
-0.1081 -6.0120 -1.8495 0.9751
0.4292 -5.9977 -1.8495 0.9751
2.0036 -5.6693 -1.8495 0.9752
2.5019 -5.4677 -1.8495 0.9752
3.8617 -4.6090 -1.8495 0.9752
4.9055 -4.0863 -1.9637 0.9736
5.3486 -3.6995 -2.0003 0.9732
6.1421 -2.1509 -2.0017 0.9731
6.4925 -0.4459 -2.0017 0.9731
6.4682 0.7162 -2.0017 0.9731
6.3784 1.2910 -2.0017 0.9731
6.2377 1.8555 -2.0017 0.9731
6.0470 2.4051 -2.0017 0.9731
5.5227 3.4425 -2.0017 0.9731
5.1933 3.9219 -2.0017 0.9731
4.4127 4.7832 -2.0017 0.9731
3.9679 5.1582 -2.0017 0.9731
3.4914 5.4920 -2.0017 0.9731
2.9870 5.7818 -2.0017 0.9731
2.4588 6.0255 -2.0017 0.9731
1.9108 6.2210 -2.0017 0.9731
0.1865 6.2703 -1.9295 0.9741
-0.3739 6.2569 -1.9279 0.9741
-0.9375 6.2408 -1.9411 0.9739
-2.0963 6.1611 -2.0017 0.9731
-3.6544 5.3851 -2.0017 0.9731
-4.1207 5.0372 -2.0017 0.9731
-5.6235 3.2757 -2.0017 0.9731
-6.1165 2.2230 -2.0017 0.9731
-6.2906 1.6679 -2.0017 0.9731
-6.4144 1.0995 -2.0017 0.9731
-6.4870 0.5222 -2.0017 0.9731
-6.4764 -0.6401 -2.0017 0.9731
-6.2592 -1.7820 -2.0017 0.9731
-5.8424 -2.8671 -2.0017 0.9731
-5.2391 -3.8607 -2.0017 0.9731
-3.2854 -5.0361 -1.8495 0.9751
-2.8226 -5.3094 -1.8495 0.9751
-2.3371 -5.5403 -1.8495 0.9751
-1.8330 -5.7268 -1.8495 0.9751
-0.2495 -6.0078 -1.8495 0.9751
1.3519 -5.8590 -1.8495 0.9751
1.8698 -5.7149 -1.8495 0.9752
4.1569 -4.3447 -1.8495 0.9752
5.8605 -2.8294 -2.0017 0.9731
6.2704 -1.7417 -2.0017 0.9731
6.4802 -0.5985 -2.0017 0.9731
6.4833 0.5639 -2.0017 0.9731
6.2796 1.7082 -2.0017 0.9731
5.2841 3.7987 -2.0017 0.9731
4.5240 4.6781 -2.0017 0.9731
4.0882 5.0635 -2.0017 0.9731
3.6196 5.4083 -2.0017 0.9731
0.9027 6.2835 -1.9525 0.9738
0.3344 6.2734 -1.9323 0.9741
-0.2265 6.2607 -1.9269 0.9741
-0.7885 6.2453 -1.9362 0.9740
-2.4974 6.0096 -2.0017 0.9731
-4.0011 5.1327 -2.0017 0.9731
-4.4435 4.7549 -2.0017 0.9731
-4.8503 4.3391 -2.0017 0.9731
-5.2185 3.8886 -2.0017 0.9731
-5.5449 3.4070 -2.0017 0.9731
-6.2496 1.8154 -2.0017 0.9731
-6.4897 -0.4876 -2.0017 0.9731
-6.4202 -1.0652 -2.0017 0.9731
-6.2994 -1.6343 -2.0017 0.9731
-6.1283 -2.1903 -2.0017 0.9731
-4.9603 -4.1861 -1.9964 0.9732
-3.8321 -4.6338 -1.8495 0.9751
-3.4030 -4.9575 -1.8495 0.9751
-2.9467 -5.2416 -1.8495 0.9751
-1.9672 -5.6821 -1.8495 0.9751
-1.4519 -5.8351 -1.8495 0.9751
-0.9250 -5.9415 -1.8495 0.9751
-0.3907 -6.0003 -1.8495 0.9751
0.1467 -6.0112 -1.8495 0.9751
0.6830 -5.9741 -1.8495 0.9751
1.2137 -5.8892 -1.8495 0.9751
1.7348 -5.7573 -1.8495 0.9752
4.0535 -4.4412 -1.8495 0.9752
4.4905 -4.1132 -1.8730 0.9748
5.1585 -3.9391 -1.9963 0.9732
5.7923 -2.9665 -2.0017 0.9731
6.3715 -1.3250 -2.0017 0.9731
6.4643 -0.7507 -2.0017 0.9731
6.4321 0.9896 -2.0017 0.9731
6.1535 2.1181 -2.0017 0.9731
5.9397 2.6591 -2.0017 0.9731
5.6785 3.1790 -2.0017 0.9731
5.3719 3.6734 -2.0017 0.9731
5.0224 4.1384 -2.0017 0.9731
3.2556 5.6350 -2.0017 0.9731
2.7394 5.9032 -2.0017 0.9731
2.2013 6.1243 -2.0017 0.9731
0.4829 6.2763 -1.9362 0.9740
-0.0792 6.2643 -1.9269 0.9741
2.0986 -5.1529 -1.8495 0.9768
3.3894 -4.4123 -1.8495 0.9768
4.4446 -4.0333 -1.9950 0.9750
4.8029 -3.6322 -2.0017 0.9749
5.1081 -3.1888 -2.0017 0.9749
5.5939 -2.2292 -2.0017 0.9749
5.7706 -1.7208 -2.0017 0.9749
5.9012 -1.1985 -2.0017 0.9749
6.0203 -0.1296 -2.0017 0.9749
5.8393 1.4708 -2.0017 0.9749
5.6847 1.9864 -2.0017 0.9749
5.2406 2.9660 -2.0017 0.9749
4.6294 3.8510 -2.0017 0.9749
4.2670 4.2490 -2.0017 0.9749
3.4431 4.9403 -2.0017 0.9749
2.5093 5.4741 -2.0017 0.9749
2.0104 5.6763 -2.0017 0.9749
0.9686 5.9434 -2.0017 0.9749
0.4339 6.0062 -2.0017 0.9749
-1.1736 5.9064 -2.0017 0.9749
-1.6964 5.7779 -2.0017 0.9749
-2.6972 5.3840 -2.0017 0.9749
-4.0279 4.4765 -2.0017 0.9749
-4.4116 4.0989 -2.0017 0.9749
-4.7600 3.6886 -2.0017 0.9749
-5.0704 3.2487 -2.0017 0.9749
-5.9766 0.7371 -2.0017 0.9749
-6.0185 0.2004 -2.0017 0.9749
-6.0124 -0.3379 -2.0017 0.9749
-5.5135 -2.4215 -2.0017 0.9749
-3.2348 -4.5270 -1.8495 0.9768
-2.8176 -4.7978 -1.8495 0.9768
-2.3778 -5.0302 -1.8495 0.9768
-1.9191 -5.2225 -1.8495 0.9768
-1.4450 -5.3730 -1.8495 0.9768
-0.4662 -5.5444 -1.8495 0.9768
0.0308 -5.5638 -1.8495 0.9768
0.5276 -5.5388 -1.8495 0.9768
1.0201 -5.4696 -1.8495 0.9768
1.5045 -5.3566 -1.8495 0.9768
1.9769 -5.2008 -1.8495 0.9768
2.4334 -5.0035 -1.8495 0.9768
2.8705 -4.7662 -1.8495 0.9768
3.2847 -4.4908 -1.8495 0.9768
4.3083 -4.0985 -1.9766 0.9752
5.0317 -3.3081 -2.0017 0.9749
5.7286 -1.8560 -2.0017 0.9749
5.8714 -1.3370 -2.0017 0.9749
6.0158 0.2671 -2.0017 0.9749
5.8723 1.3330 -2.0017 0.9749
5.3089 2.8419 -2.0017 0.9749
3.9779 4.5208 -2.0017 0.9749
3.5583 4.8580 -2.0017 0.9749
2.1434 5.6274 -2.0017 0.9749
1.6322 5.7964 -2.0017 0.9749
1.1081 5.9190 -2.0017 0.9749
0.5751 5.9943 -2.0017 0.9749
-1.0344 5.9323 -2.0017 0.9749
-1.5600 5.8163 -2.0017 0.9749
-3.0459 5.1947 -2.0017 0.9749
-4.3139 4.2015 -2.0017 0.9749
-4.9926 3.3671 -2.0017 0.9749
-5.2733 2.9078 -2.0017 0.9749
-5.7065 1.9233 -2.0017 0.9749
-5.8554 1.4060 -2.0017 0.9749
-5.9576 0.8775 -2.0017 0.9749
-6.0122 0.3419 -2.0017 0.9749
-5.7513 -1.7847 -2.0017 0.9749
-5.5690 -2.2912 -2.0017 0.9749
-4.4057 -4.0880 -1.9978 0.9750
-2.9296 -4.7302 -1.8495 0.9768
-1.5710 -5.3375 -1.8495 0.9768
1.3781 -5.3905 -1.8495 0.9768
2.7576 -4.8324 -1.8495 0.9768
3.1782 -4.5668 -1.8495 0.9768
4.6186 -3.8473 -1.9981 0.9750
5.8383 -1.4747 -2.0017 0.9749
5.9467 -0.9474 -2.0017 0.9749
5.7718 1.7169 -2.0017 0.9749
5.3743 2.7163 -2.0017 0.9749
5.1103 3.1854 -2.0017 0.9749
4.8054 3.6290 -2.0017 0.9749
4.0832 4.4260 -2.0017 0.9749
3.6716 4.7730 -2.0017 0.9749
3.2307 5.0818 -2.0017 0.9749
2.7639 5.3500 -2.0017 0.9749
2.2751 5.5755 -2.0017 0.9749
1.2470 5.8913 -2.0017 0.9749
0.1791 6.0192 -2.0017 0.9749
-0.3592 6.0111 -2.0017 0.9749
-0.8946 5.9550 -2.0017 0.9749
-1.9397 5.7009 -2.0017 0.9749
-3.3814 4.9828 -2.0017 0.9749
-3.8129 4.6610 -2.0017 0.9749
-4.9120 3.4836 -2.0017 0.9749
-5.6597 2.0570 -2.0017 0.9749
-5.8208 1.5433 -2.0017 0.9749
-5.9927 -0.5923 -2.0017 0.9749
-5.6213 -2.1596 -2.0017 0.9749
-4.8478 -3.5723 -2.0017 0.9749
-3.4441 -4.3699 -1.8495 0.9768
-3.0401 -4.6600 -1.8495 0.9768
-2.1626 -5.1265 -1.8495 0.9768
-1.6961 -5.2991 -1.8495 0.9768
-1.2161 -5.4294 -1.8495 0.9768
0.2665 -5.5575 -1.8495 0.9768
0.7618 -5.5115 -1.8495 0.9768
1.2509 -5.4214 -1.8495 0.9768
1.7301 -5.2881 -1.8495 0.9768
3.0699 -4.6403 -1.8495 0.9768
3.4720 -4.3476 -1.8495 0.9768
4.5229 -3.9514 -1.9964 0.9750
4.8706 -3.5410 -2.0017 0.9749
5.4228 -2.6181 -2.0017 0.9749
5.6349 -2.1233 -2.0017 0.9749
5.9228 -1.0871 -2.0017 0.9749
5.9962 -0.5538 -2.0017 0.9749
6.0217 -0.0161 -2.0017 0.9749
5.9991 0.5218 -2.0017 0.9749
5.8106 1.5806 -2.0017 0.9749
5.6462 2.0932 -2.0017 0.9749
5.4367 2.5891 -2.0017 0.9749
5.1838 3.0643 -2.0017 0.9749
4.1861 4.3287 -2.0017 0.9749
3.7828 4.6853 -2.0017 0.9749
2.4056 5.5204 -2.0017 0.9749
-0.2177 6.0179 -2.0017 0.9749
-3.7022 4.7493 -2.0017 0.9749
-4.4881 4.0150 -2.0017 0.9749
-5.1307 3.1525 -2.0017 0.9749
-5.3918 2.6818 -2.0017 0.9749
-6.0049 -0.4512 -2.0017 0.9749
-5.4669 -2.5250 -2.0017 0.9749
-4.2221 -4.2644 -1.9947 0.9750
-3.5662 -4.3122 -1.8601 0.9767
-2.7266 -4.8501 -1.8495 0.9768
-1.8203 -5.2577 -1.8495 0.9768
-1.3435 -5.3993 -1.8495 0.9768
-0.8559 -5.4977 -1.8495 0.9768
-0.3615 -5.5522 -1.8495 0.9768
0.1357 -5.5622 -1.8495 0.9768
0.6319 -5.5279 -1.8495 0.9768
1.1231 -5.4494 -1.8495 0.9768
1.6053 -5.3273 -1.8495 0.9768
2.9599 -4.7112 -1.8495 0.9768
3.3688 -4.4281 -1.8495 0.9768
3.7723 -4.1331 -1.8601 0.9767
5.8956 -1.2260 -2.0017 0.9749
5.9815 -0.6946 -2.0017 0.9749
6.0197 -0.1577 -2.0017 0.9749
6.0097 0.3805 -2.0017 0.9749
5.9517 0.9157 -2.0017 0.9749
5.8461 1.4436 -2.0017 0.9749
5.6939 1.9599 -2.0017 0.9749
5.4961 2.4605 -2.0017 0.9749
4.6473 3.8293 -2.0017 0.9749
3.8920 4.5950 -2.0017 0.9749
1.5152 -4.9448 -1.8495 0.9783
2.7717 -4.3663 -1.8495 0.9783
4.7481 -2.9641 -2.0017 0.9765
5.1997 -2.0721 -2.0017 0.9765
5.3640 -1.5995 -2.0017 0.9765
5.4854 -1.1141 -2.0017 0.9765
5.5629 -0.6198 -2.0017 0.9765
5.5961 -0.1205 -2.0017 0.9765
5.5282 0.8769 -2.0017 0.9765
5.4278 1.3671 -2.0017 0.9765
5.0981 2.3109 -2.0017 0.9765
4.8713 2.7570 -2.0017 0.9765
3.9663 3.9496 -2.0017 0.9765
3.5977 4.2880 -2.0017 0.9765
3.2004 4.5922 -2.0017 0.9765
2.7775 4.8597 -2.0017 0.9765
2.3325 5.0883 -2.0017 0.9765
1.8687 5.2763 -2.0017 0.9765
1.3901 5.4221 -2.0017 0.9765
0.9003 5.5246 -2.0017 0.9765
0.4033 5.5829 -2.0017 0.9765
-1.0909 5.4901 -2.0017 0.9765
-1.5769 5.3708 -2.0017 0.9765
-2.5071 5.0046 -2.0017 0.9765
-2.9441 4.7607 -2.0017 0.9765
-3.3575 4.4788 -2.0017 0.9765
-4.1007 3.8100 -2.0017 0.9765
-4.4245 3.4286 -2.0017 0.9765
-4.7130 3.0198 -2.0017 0.9765
-4.9639 2.5868 -2.0017 0.9765
-5.1751 2.1332 -2.0017 0.9765
-5.3449 1.6625 -2.0017 0.9765
-5.5554 0.6852 -2.0017 0.9765
-5.5383 -0.8119 -2.0017 0.9765
-5.4437 -1.3032 -2.0017 0.9765
-5.3055 -1.7842 -2.0017 0.9765
-5.1250 -2.2509 -2.0017 0.9765
-4.6428 -3.1267 -2.0017 0.9765
-2.6190 -4.4597 -1.8495 0.9783
-2.2103 -4.6757 -1.8495 0.9783
-0.8918 -5.0943 -1.8495 0.9783
-0.4333 -5.1536 -1.8495 0.9783
2.2619 -4.6509 -1.8495 0.9783
2.6682 -4.4303 -1.8495 0.9783
3.0532 -4.1743 -1.8495 0.9783
4.3838 -3.4803 -2.0017 0.9765
4.6771 -3.0749 -2.0017 0.9765
4.9330 -2.6450 -2.0017 0.9765
5.3249 -1.7252 -2.0017 0.9765
5.4576 -1.2428 -2.0017 0.9765
5.5468 -0.7504 -2.0017 0.9765
5.4585 1.2391 -2.0017 0.9765
5.3260 1.7216 -2.0017 0.9765
5.1510 2.1904 -2.0017 0.9765
4.9348 2.6416 -2.0017 0.9765
4.6792 3.0718 -2.0017 0.9765
4.3862 3.4774 -2.0017 0.9765
3.6976 4.2022 -2.0017 0.9765
3.3075 4.5156 -2.0017 0.9765
2.8911 4.7930 -2.0017 0.9765
2.4515 5.0320 -2.0017 0.9765
1.9923 5.2308 -2.0017 0.9765
0.5345 5.5719 -2.0017 0.9765
0.0348 5.5973 -2.0017 0.9765
-0.9615 5.5143 -2.0017 0.9765
-1.4501 5.4064 -2.0017 0.9765
-1.9271 5.2553 -2.0017 0.9765
-2.8313 4.8286 -2.0017 0.9765
-4.0099 3.9054 -2.0017 0.9765
-4.3427 3.5317 -2.0017 0.9765
-4.6407 3.1298 -2.0017 0.9765
-4.9017 2.7029 -2.0017 0.9765
-5.1235 2.2543 -2.0017 0.9765
-5.4428 1.3069 -2.0017 0.9765
-5.5559 -0.6814 -2.0017 0.9765
-5.3460 -1.6589 -2.0017 0.9765
-4.9656 -2.5835 -2.0017 0.9765
-3.2226 -4.2928 -1.9196 0.9775
-2.3196 -4.6225 -1.8495 0.9783
-1.0114 -5.0720 -1.8495 0.9783
-0.5544 -5.1420 -1.8495 0.9783
-0.0930 -5.1710 -1.8495 0.9783
0.8284 -5.1050 -1.8495 0.9783
1.7233 -4.8762 -1.8495 0.9783
2.1519 -4.7028 -1.8495 0.9783
3.4592 -4.1285 -1.9261 0.9774
5.5276 -0.8807 -2.0017 0.9765
5.5842 -0.3835 -2.0017 0.9765
5.5961 0.1167 -2.0017 0.9765
5.5634 0.6160 -2.0017 0.9765
5.4861 1.1104 -2.0017 0.9765
5.2011 2.0686 -2.0017 0.9765
4.9956 2.5248 -2.0017 0.9765
4.7501 2.9609 -2.0017 0.9765
4.4667 3.3733 -2.0017 0.9765
4.1476 3.7587 -2.0017 0.9765
3.7954 4.1141 -2.0017 0.9765
3.4128 4.4366 -2.0017 0.9765
3.0030 4.7237 -2.0017 0.9765
2.5692 4.9730 -2.0017 0.9765
2.1148 5.1825 -2.0017 0.9765
-0.3339 5.5875 -2.0017 0.9765
-0.8315 5.5353 -2.0017 0.9765
-1.3225 5.4390 -2.0017 0.9765
-1.8030 5.2991 -2.0017 0.9765
-2.2690 5.1169 -2.0017 0.9765
-2.7169 4.8939 -2.0017 0.9765
-4.5658 3.2381 -2.0017 0.9765
-5.4105 1.4346 -2.0017 0.9765
-5.5170 0.9457 -2.0017 0.9765
-5.5794 0.4492 -2.0017 0.9765
-5.5973 -0.0509 -2.0017 0.9765
-5.4989 -1.0458 -2.0017 0.9765
-5.3836 -1.5327 -2.0017 0.9765
-5.2252 -2.0074 -2.0017 0.9765
-4.7847 -2.9049 -2.0017 0.9765
-4.5062 -3.3205 -2.0017 0.9765
-3.3814 -4.2904 -1.9535 0.9771
-2.4277 -4.5666 -1.8495 0.9783
-1.5766 -4.9257 -1.8495 0.9783
-0.6752 -5.1275 -1.8495 0.9783
-0.2146 -5.1674 -1.8495 0.9783
0.7081 -5.1231 -1.8495 0.9783
1.6082 -4.9154 -1.8495 0.9783
2.0407 -4.7521 -1.8495 0.9783
3.8573 -4.0315 -1.9953 0.9766
4.5273 -3.2915 -2.0017 0.9765
4.8032 -2.8740 -2.0017 0.9765
5.2378 -1.9737 -2.0017 0.9765
5.3932 -1.4981 -2.0017 0.9765
5.5973 -0.0149 -2.0017 0.9765
5.5763 0.4850 -2.0017 0.9765
5.2483 1.9457 -2.0017 0.9765
4.2349 3.6601 -2.0017 0.9765
3.5162 4.3551 -2.0017 0.9765
3.1133 4.6517 -2.0017 0.9765
2.2361 5.1314 -2.0017 0.9765
1.2876 5.4473 -2.0017 0.9765
0.7960 5.5405 -2.0017 0.9765
0.2980 5.5895 -2.0017 0.9765
-1.1943 5.4686 -2.0017 0.9765
-2.6011 4.9564 -2.0017 0.9765
-3.0333 4.7043 -2.0017 0.9765
-3.4413 4.4146 -2.0017 0.9765
-3.8218 4.0897 -2.0017 0.9765
-4.1718 3.7320 -2.0017 0.9765
-5.0118 2.4928 -2.0017 0.9765
-5.2144 2.0352 -2.0017 0.9765
-5.5673 0.5803 -2.0017 0.9765
-5.4181 -1.4057 -2.0017 0.9765
-5.2709 -1.8839 -2.0017 0.9765
-5.0816 -2.3471 -2.0017 0.9765
-4.2777 -3.6101 -2.0017 0.9765
-3.9340 -3.9734 -1.9995 0.9765
-2.1217 -4.7166 -1.8495 0.9783
-1.2488 -5.0188 -1.8495 0.9783
-0.3360 -5.1609 -1.8495 0.9783
0.1262 -5.1703 -1.8495 0.9783
1.4921 -4.9519 -1.8495 0.9783
1.9284 -4.7988 -1.8495 0.9783
2.3492 -4.6074 -1.8495 0.9783
4.1231 -3.7767 -1.9995 0.9765
4.4487 -3.3970 -2.0017 0.9765
4.7343 -2.9862 -2.0017 0.9765
4.9820 -2.5515 -2.0017 0.9765
5.3564 -1.6245 -2.0017 0.9765
5.5600 -0.6457 -2.0017 0.9765
5.5954 -0.1466 -2.0017 0.9765
5.5862 0.3537 -2.0017 0.9765
5.5323 0.8512 -2.0017 0.9765
5.2926 1.8217 -2.0017 0.9765
4.3198 3.5595 -2.0017 0.9765
3.9847 3.9310 -2.0017 0.9765
2.8002 4.8466 -2.0017 0.9765
2.3562 5.0774 -2.0017 0.9765
1.8933 5.2675 -2.0017 0.9765
1.4153 5.4155 -2.0017 0.9765
-0.0708 5.5970 -2.0017 0.9765
1.4139 -4.6144 -1.8495 0.9795
3.1675 -4.1234 -1.9925 0.9780
3.5340 -3.8359 -1.9988 0.9779
4.6601 -2.3592 -2.0017 0.9779
5.2221 -0.1124 -2.0017 0.9779
5.0651 1.2758 -2.0017 0.9779
4.5458 2.5727 -2.0017 0.9779
4.0156 3.3404 -2.0017 0.9779
2.1766 4.7482 -2.0017 0.9779
1.2972 5.0597 -2.0017 0.9779
0.3764 5.2098 -2.0017 0.9779
-0.0904 5.2226 -2.0017 0.9779
-1.0180 5.1232 -2.0017 0.9779
-1.4715 5.0118 -2.0017 0.9779
-2.3396 4.6701 -2.0017 0.9779
-2.7473 4.4425 -2.0017 0.9779
-3.1331 4.1794 -2.0017 0.9779
-3.8266 3.5554 -2.0017 0.9779
-4.3981 2.8180 -2.0017 0.9779
-4.6321 2.4139 -2.0017 0.9779
-5.1063 1.0998 -2.0017 0.9779
-5.1682 -0.7576 -2.0017 0.9779
-5.0798 -1.2161 -2.0017 0.9779
-4.7825 -2.1004 -2.0017 0.9779
-4.5758 -2.5191 -2.0017 0.9779
-3.0262 -4.2351 -1.9947 0.9779
-2.5128 -4.2788 -1.9016 0.9790
-1.6646 -4.5300 -1.8495 0.9795
-0.8322 -4.7539 -1.8495 0.9795
-0.4043 -4.8092 -1.8495 0.9795
0.4576 -4.8044 -1.8495 0.9795
0.8849 -4.7443 -1.8495 0.9795
1.3050 -4.6464 -1.8495 0.9795
2.1108 -4.3401 -1.8495 0.9795
3.0227 -4.1325 -1.9621 0.9783
3.4406 -3.9154 -1.9974 0.9779
4.3645 -2.8694 -2.0017 0.9779
4.6033 -2.4682 -2.0017 0.9779
5.1761 -0.7003 -2.0017 0.9779
5.1766 0.6968 -2.0017 0.9779
5.0937 1.1563 -2.0017 0.9779
4.9701 1.6066 -2.0017 0.9779
4.6050 2.4651 -2.0017 0.9779
4.0930 3.2450 -2.0017 0.9779
3.7869 3.5976 -2.0017 0.9779
3.4505 3.9214 -2.0017 0.9779
3.0865 4.2139 -2.0017 0.9779
2.6979 4.4727 -2.0017 0.9779
1.8592 4.8813 -2.0017 0.9779
1.4158 5.0278 -2.0017 0.9779
0.9612 5.1342 -2.0017 0.9779
-0.8972 5.1457 -2.0017 0.9779
-2.2291 4.7239 -2.0017 0.9779
-2.6421 4.5059 -2.0017 0.9779
-3.4015 3.9640 -2.0017 0.9779
-4.3306 2.9206 -2.0017 0.9779
-4.5741 2.5222 -2.0017 0.9779
-5.0790 1.2196 -2.0017 0.9779
-5.1677 0.7611 -2.0017 0.9779
-5.2206 -0.1703 -2.0017 0.9779
-5.1845 -0.6359 -2.0017 0.9779
-4.9887 -1.5480 -2.0017 0.9779
-4.8305 -1.9874 -2.0017 0.9779
-4.6338 -2.4108 -2.0017 0.9779
-4.3999 -2.8150 -2.0017 0.9779
-4.1310 -3.1967 -2.0017 0.9779
-3.8290 -3.5528 -2.0017 0.9779
-2.6491 -4.2773 -1.9280 0.9787
-1.3627 -4.6298 -1.8495 0.9795
