ply
format ascii 1.0
element vertex 1592
property float32 x
property float32 y
property float32 z
property float32 I
end_header
5.7487 1.7928 -2.0017 0.9749
5.3384 2.7861 -2.0017 0.9749
5.0685 3.2514 -2.0017 0.9749
4.7582 3.6907 -2.0017 0.9749
4.4099 4.1006 -2.0017 0.9749
4.0264 4.4777 -2.0017 0.9749
3.6107 4.8192 -2.0017 0.9749
2.6966 5.3843 -2.0017 0.9749
1.6965 5.7779 -2.0017 0.9749
1.1742 5.9062 -2.0017 0.9749
0.6424 5.9874 -2.0017 0.9749
0.1056 6.0209 -2.0017 0.9749
-0.9664 5.9438 -2.0017 0.9749
-1.4929 5.8338 -2.0017 0.9749
-2.0076 5.6773 -2.0017 0.9749
-2.5062 5.4756 -2.0017 0.9749
-2.9848 5.2301 -2.0017 0.9749
-3.8670 4.6162 -2.0017 0.9749
-4.9515 3.4271 -2.0017 0.9749
-5.4819 2.4924 -2.0017 0.9749
-5.6824 1.9933 -2.0017 0.9749
-5.9462 0.9514 -2.0017 0.9749
-6.0074 0.4170 -2.0017 0.9749
-5.9859 -0.6575 -2.0017 0.9749
-5.3775 -2.7102 -2.0017 0.9749
-5.1142 -3.1792 -2.0017 0.9749
-4.8101 -3.6229 -2.0017 0.9749
-4.4611 -4.0318 -1.9988 0.9750
-3.9837 -4.3059 -1.9499 0.9756
-2.9924 -4.6908 -1.8495 0.9768
-0.6720 -5.5232 -1.8495 0.9768
0.3205 -5.5547 -1.8495 0.9768
0.8149 -5.5039 -1.8495 0.9768
1.3028 -5.4092 -1.8495 0.9768
1.7803 -5.2714 -1.8495 0.9768
2.2436 -5.0915 -1.8495 0.9768
2.6890 -4.8709 -1.8495 0.9768
3.5120 -4.3154 -1.8495 0.9768
4.5602 -3.9114 -1.9970 0.9750
4.9023 -3.4969 -2.0017 0.9749
5.8159 -1.5608 -2.0017 0.9749
6.0216 0.0353 -2.0017 0.9749
5.9944 0.5725 -2.0017 0.9749
5.9194 1.1052 -2.0017 0.9749
5.7972 1.6290 -2.0017 0.9749
5.6287 2.1398 -2.0017 0.9749
5.4153 2.6336 -2.0017 0.9749
4.8609 3.5543 -2.0017 0.9749
4.5244 3.9738 -2.0017 0.9749
2.8482 5.3056 -2.0017 0.9749
2.3634 5.5386 -2.0017 0.9749
1.8597 5.7274 -2.0017 0.9749
-1.3269 5.8738 -2.0017 0.9749
-1.8457 5.7320 -2.0017 0.9749
-2.3499 5.5444 -2.0017 0.9749
-2.8352 5.3126 -2.0017 0.9749
-3.2980 5.0384 -2.0017 0.9749
-5.4090 2.6469 -2.0017 0.9749
-6.0217 0.0501 -2.0017 0.9749
-6.0021 -0.4875 -2.0017 0.9749
-5.9347 -1.0211 -2.0017 0.9749
-5.8199 -1.5467 -2.0017 0.9749
-5.6586 -2.0598 -2.0017 0.9749
-5.4522 -2.5565 -2.0017 0.9749
-4.9109 -3.4850 -2.0017 0.9749
-4.1978 -4.2867 -1.9943 0.9750
-3.5299 -4.3158 -1.8533 0.9768
-2.7009 -4.8644 -1.8495 0.9768
-1.7932 -5.2670 -1.8495 0.9768
0.6585 -5.5248 -1.8495 0.9768
-3.5761 4.3061 -2.0017 0.9765
-3.9461 3.9698 -2.0017 0.9765
-5.0857 2.3384 -2.0017 0.9765
-5.2740 1.8752 -2.0017 0.9765
-5.4203 1.3971 -2.0017 0.9765
-5.5234 0.9079 -2.0017 0.9765
-5.5824 0.4114 -2.0017 0.9765
-5.5968 -0.0884 -2.0017 0.9765
-5.5666 -0.5875 -2.0017 0.9765
-5.4919 -1.0819 -2.0017 0.9765
-5.3735 -1.5677 -2.0017 0.9765
-5.2121 -2.0409 -2.0017 0.9765
-5.0092 -2.4979 -2.0017 0.9765
-4.4854 -3.3485 -2.0017 0.9765
-4.1687 -3.7354 -2.0017 0.9765
-3.8110 -4.0842 -1.9976 0.9765
-2.8000 -4.3483 -1.8495 0.9783
-2.4008 -4.5808 -1.8495 0.9783
-1.9825 -4.7768 -1.8495 0.9783
-1.5483 -4.9346 -1.8495 0.9783
-1.1018 -5.0531 -1.8495 0.9783
-0.6465 -5.1312 -1.8495 0.9783
-0.1860 -5.1685 -1.8495 0.9783
2.8753 -4.2988 -1.8495 0.9783
3.3371 -4.1363 -1.9006 0.9777
3.8776 -4.0132 -1.9956 0.9766
4.2325 -3.6618 -2.0014 0.9765
4.8166 -2.8514 -2.0017 0.9765
5.2468 -1.9498 -2.0017 0.9765
5.3998 -1.4738 -2.0017 0.9765
5.5098 -0.9861 -2.0017 0.9765
5.5758 -0.4905 -2.0017 0.9765
5.5974 0.0090 -2.0017 0.9765
5.5066 1.0039 -2.0017 0.9765
5.2405 1.9667 -2.0017 0.9765
5.0441 2.4265 -2.0017 0.9765
4.5324 3.2845 -2.0017 0.9765
4.2212 3.6759 -2.0017 0.9765
3.8764 4.0379 -2.0017 0.9765
3.0969 4.6627 -2.0017 0.9765
2.2187 5.1389 -2.0017 0.9765
1.7513 5.3164 -2.0017 0.9765
0.7784 5.5430 -2.0017 0.9765
0.2806 5.5904 -2.0017 0.9765
-1.2101 5.4651 -2.0017 0.9765
-1.6930 5.3353 -2.0017 0.9765
-2.1623 5.1629 -2.0017 0.9765
-3.4526 4.4058 -2.0017 0.9765
-5.2187 2.0241 -2.0017 0.9765
-5.3785 1.5503 -2.0017 0.9765
-5.4954 1.0642 -2.0017 0.9765
-5.5970 0.0703 -2.0017 0.9765
-5.5810 -0.4294 -2.0017 0.9765
-5.4158 -1.4146 -2.0017 0.9765
-5.0781 -2.3548 -2.0017 0.9765
-3.9289 -3.9781 -1.9995 0.9765
-2.9424 -4.2967 -1.8623 0.9781
-2.5298 -4.5109 -1.8495 0.9783
-2.1172 -4.7186 -1.8495 0.9783
-0.3325 -5.1611 -1.8495 0.9783
1.4942 -4.9512 -1.8495 0.9783
2.7522 -4.3787 -1.8495 0.9783
3.7514 -4.1097 -1.9899 0.9766
4.1230 -3.7767 -1.9995 0.9765
4.4484 -3.3974 -2.0017 0.9765
4.7338 -2.9869 -2.0017 0.9765
4.9815 -2.5525 -2.0017 0.9765
5.1894 -2.0978 -2.0017 0.9765
5.3559 -1.6264 -2.0017 0.9765
5.4796 -1.1420 -2.0017 0.9765
5.5597 -0.6484 -2.0017 0.9765
4.6237 3.1546 -2.0017 0.9765
4.3238 3.5547 -2.0017 0.9765
3.2279 4.5729 -2.0017 0.9765
2.8069 4.8427 -2.0017 0.9765
1.9014 5.2646 -2.0017 0.9765
0.9353 5.5187 -2.0017 0.9765
0.4391 5.5802 -2.0017 0.9765
-0.5599 5.5694 -2.0017 0.9765
-1.0546 5.4972 -2.0017 0.9765
-2.0150 5.2222 -2.0017 0.9765
-2.9112 4.7808 -2.0017 0.9765
-3.3262 4.5020 -2.0017 0.9765
-4.3999 3.4602 -2.0017 0.9765
-4.6911 3.0538 -2.0017 0.9765
-4.9449 2.6230 -2.0017 0.9765
-5.1592 2.1713 -2.0017 0.9765
-5.3324 1.7022 -2.0017 0.9765
-5.5500 0.7272 -2.0017 0.9765
-5.5909 -0.2709 -2.0017 0.9765
-5.3195 -1.7421 -2.0017 0.9765
-4.9251 -2.6599 -2.0017 0.9765
-4.6681 -3.0888 -2.0017 0.9765
-3.6720 -4.2020 -1.9956 0.9766
-3.1234 -4.2943 -1.8989 0.9777
-2.6623 -4.4469 -1.8535 0.9782
-2.2501 -4.6567 -1.8495 0.9783
-0.9364 -5.0863 -1.8495 0.9783
-0.0173 -5.1718 -1.8495 0.9783
0.4443 -5.1527 -1.8495 0.9783
1.3531 -4.9916 -1.8495 0.9783
1.7931 -4.8510 -1.8495 0.9783
3.0140 -4.2028 -1.8495 0.9783
3.5541 -4.1225 -1.9465 0.9771
4.0106 -3.8886 -1.9977 0.9765
4.3502 -3.5222 -2.0017 0.9765
4.6472 -3.1199 -2.0017 0.9765
4.9071 -2.6928 -2.0017 0.9765
5.1278 -2.2442 -2.0017 0.9765
5.3076 -1.7776 -2.0017 0.9765
5.5941 0.1916 -2.0017 0.9765
5.5547 0.6900 -2.0017 0.9765
5.3435 1.6664 -2.0017 0.9765
4.9622 2.5898 -2.0017 0.9765
3.3563 4.4795 -2.0017 0.9765
2.9431 4.7612 -2.0017 0.9765
2.5065 5.0048 -2.0017 0.9765
1.5770 5.3707 -2.0017 0.9765
-0.8983 5.5249 -2.0017 0.9765
-1.3877 5.4227 -2.0017 0.9765
-1.8661 5.2772 -2.0017 0.9765
-2.7744 4.8615 -2.0017 0.9765
-3.1972 4.5945 -2.0017 0.9765
-3.5944 4.2909 -2.0017 0.9765
-3.9630 3.9530 -2.0017 0.9765
-5.0956 2.3167 -2.0017 0.9765
-5.2820 1.8528 -2.0017 0.9765
-5.5841 0.3876 -2.0017 0.9765
-5.5640 -0.6112 -2.0017 0.9765
-4.9986 -2.5192 -2.0017 0.9765
-4.4711 -3.3676 -2.0017 0.9765
-4.1528 -3.7531 -2.0017 0.9765
-2.7815 -4.3602 -1.8495 0.9783
-1.9621 -4.7852 -1.8495 0.9783
-0.6246 -5.1340 -1.8495 0.9783
-0.1640 -5.1692 -1.8495 0.9783
0.7575 -5.1160 -1.8495 0.9783
1.2110 -5.0280 -1.8495 0.9783
1.6548 -4.8999 -1.8495 0.9783
2.4995 -4.5277 -1.8495 0.9783
2.8935 -4.2866 -1.8495 0.9783
3.3649 -4.1346 -1.9063 0.9776
3.8952 -3.9972 -1.9959 0.9766
4.2486 -3.6442 -2.0017 0.9765
5.0621 -2.3887 -2.0017 0.9765
5.4061 -1.4508 -2.0017 0.9765
5.5140 -0.9626 -2.0017 0.9765
5.5779 -0.4668 -2.0017 0.9765
5.5973 0.0329 -2.0017 0.9765
5.3887 1.5142 -2.0017 0.9765
5.0337 2.4480 -2.0017 0.9765
4.7952 2.8874 -2.0017 0.9765
4.2055 3.6938 -2.0017 0.9765
1.7287 5.3238 -2.0017 0.9765
0.7548 5.5463 -2.0017 0.9765
0.2568 5.5915 -2.0017 0.9765
-0.7412 5.5482 -2.0017 0.9765
-1.2334 5.4599 -2.0017 0.9765
-2.1843 5.1537 -2.0017 0.9765
-2.6354 4.9382 -2.0017 0.9765
-3.0656 4.6834 -2.0017 0.9765
-3.4713 4.3911 -2.0017 0.9765
-3.8493 4.0638 -2.0017 0.9765
-4.1966 3.7041 -2.0017 0.9765
-4.7882 2.8992 -2.0017 0.9765
-5.2273 2.0019 -2.0017 0.9765
-5.4999 1.0408 -2.0017 0.9765
-5.5708 0.5458 -2.0017 0.9765
-5.5973 0.0465 -2.0017 0.9765
-5.5164 -0.9492 -2.0017 0.9765
-5.4097 -1.4377 -2.0017 0.9765
-4.8357 -2.8191 -2.0017 0.9765
-4.2576 -3.6338 -2.0017 0.9765
-2.9159 -4.2970 -1.8570 0.9782
-2.5106 -4.5216 -1.8495 0.9783
-1.6668 -4.8959 -1.8495 0.9783
-1.2233 -5.0251 -1.8495 0.9783
-0.7700 -5.1142 -1.8495 0.9783
0.1514 -5.1696 -1.8495 0.9783
0.6121 -5.1354 -1.8495 0.9783
-3.6824 3.7045 -2.0017 0.9779
-3.9983 3.3612 -2.0017 0.9779
-4.2823 2.9910 -2.0017 0.9779
-4.7458 2.1821 -2.0017 0.9779
-5.0581 1.3037 -2.0017 0.9779
-5.2093 0.3838 -2.0017 0.9779
-5.0144 -1.4629 -2.0017 0.9779
-4.6744 -2.3309 -2.0017 0.9779
-4.4478 -2.7388 -2.0017 0.9779
-3.8901 -3.4858 -2.0017 0.9779
-3.5635 -3.8190 -2.0017 0.9779
-3.2008 -4.1119 -1.9969 0.9779
-2.2453 -4.2841 -1.8536 0.9795
-1.8500 -4.4575 -1.8495 0.9795
-1.4448 -4.6048 -1.8495 0.9795
-1.0281 -4.7154 -1.8495 0.9795
-0.1736 -4.8230 -1.8495 0.9795
0.2575 -4.8193 -1.8495 0.9795
0.6865 -4.7771 -1.8495 0.9795
1.5248 -4.5789 -1.8495 0.9795
2.7743 -4.1479 -1.9123 0.9789
3.2692 -4.0521 -1.9952 0.9779
3.9502 -3.4175 -2.0017 0.9779
4.2394 -3.0513 -2.0017 0.9779
4.8961 -1.8195 -2.0017 0.9779
5.1416 -0.9202 -2.0017 0.9779
5.2032 -0.4577 -2.0017 0.9779
5.2233 0.0084 -2.0017 0.9779
5.2017 0.4745 -2.0017 0.9779
5.1386 0.9368 -2.0017 0.9779
5.0345 1.3916 -2.0017 0.9779
4.8902 1.8353 -2.0017 0.9779
4.2295 3.0650 -2.0017 0.9779
3.9391 3.4302 -2.0017 0.9779
3.6173 3.7680 -2.0017 0.9779
2.8899 4.3510 -2.0017 0.9779
2.4901 4.5916 -2.0017 0.9779
1.6342 4.9611 -2.0017 0.9779
0.7263 5.1726 -2.0017 0.9779
-0.2047 5.2193 -2.0017 0.9779
-0.6696 5.1803 -2.0017 0.9779
-1.1292 5.0998 -2.0017 0.9779
-1.5798 4.9787 -2.0017 0.9779
-2.8421 4.3825 -2.0017 0.9779
-3.2218 4.1114 -2.0017 0.9779
-3.5759 3.8075 -2.0017 0.9779
-3.9014 3.4732 -2.0017 0.9779
-4.4566 2.7244 -2.0017 0.9779
-4.6820 2.3158 -2.0017 0.9779
-4.8699 1.8888 -2.0017 0.9779
-5.1963 0.5315 -2.0017 0.9779
-5.2080 -0.4007 -2.0017 0.9779
-5.1515 -0.8638 -2.0017 0.9779
-4.9159 -1.7658 -2.0017 0.9779
-4.7387 -2.1974 -2.0017 0.9779
-4.5237 -2.6115 -2.0017 0.9779
-4.2726 -3.0048 -2.0017 0.9779
-3.6704 -3.7164 -2.0017 0.9779
-3.3188 -4.0226 -1.9985 0.9779
-2.9266 -4.2736 -1.9849 0.9781
-1.5748 -4.5620 -1.8495 0.9795
-1.1615 -4.6843 -1.8495 0.9795
-0.7388 -4.7693 -1.8495 0.9795
-0.3103 -4.8162 -1.8495 0.9795
1.3943 -4.6204 -1.8495 0.9795
1.8010 -4.4775 -1.8495 0.9795
2.1934 -4.2989 -1.8495 0.9795
3.5159 -3.8517 -1.9985 0.9779
4.4174 -2.7873 -2.0017 0.9779
4.6485 -2.3820 -2.0017 0.9779
4.8426 -1.9576 -2.0017 0.9779
4.9979 -1.5177 -2.0017 0.9779
5.1631 0.7907 -2.0017 0.9779
4.7693 2.1300 -2.0017 0.9779
3.7227 3.6639 -2.0017 0.9779
2.6193 4.5191 -2.0017 0.9779
1.3288 5.0515 -2.0017 0.9779
0.8728 5.1499 -2.0017 0.9779
0.4097 5.2073 -2.0017 0.9779
-0.0566 5.2230 -2.0017 0.9779
-0.5224 5.1972 -2.0017 0.9779
-1.4380 5.0215 -2.0017 0.9779
-3.8013 3.5825 -2.0017 0.9779
-4.1058 3.2290 -2.0017 0.9779
-4.9760 1.5885 -2.0017 0.9779
-5.0979 1.1381 -2.0017 0.9779
-5.2190 0.2138 -2.0017 0.9779
-5.2173 -0.2528 -2.0017 0.9779
-5.1739 -0.7174 -2.0017 0.9779
-5.0892 -1.1762 -2.0017 0.9779
-4.9640 -1.6257 -2.0017 0.9779
-3.4343 -3.9300 -2.0001 0.9779
-3.0624 -4.2104 -1.9952 0.9779
-1.7036 -4.5155 -1.8495 0.9795
-0.8738 -4.7464 -1.8495 0.9795
-0.0162 -4.8261 -1.8495 0.9795
0.4146 -4.8083 -1.8495 0.9795
0.8420 -4.7521 -1.8495 0.9795
2.0706 -4.3594 -1.8495 0.9795
2.4580 -4.1685 -1.8545 0.9795
2.9662 -4.1361 -1.9505 0.9784
3.4025 -3.9467 -1.9969 0.9779
4.3366 -2.9114 -2.0017 0.9779
4.5791 -2.5128 -2.0017 0.9779
5.2153 -0.2878 -2.0017 0.9779
5.2202 0.1788 -2.0017 0.9779
5.1834 0.6439 -2.0017 0.9779
5.1053 1.1039 -2.0017 0.9779
4.6306 2.4167 -2.0017 0.9779
4.3965 2.8203 -2.0017 0.9779
3.4925 3.8840 -2.0017 0.9779
3.1320 4.1802 -2.0017 0.9779
2.7464 4.4430 -2.0017 0.9779
2.3390 4.6703 -2.0017 0.9779
1.4716 5.0118 -2.0017 0.9779
0.5572 5.1935 -2.0017 0.9779
0.0916 5.2226 -2.0017 0.9779
-0.3748 5.2099 -2.0017 0.9779
-1.2950 5.0603 -2.0017 0.9779
-2.1739 4.7495 -2.0017 0.9779
-2.5890 4.5366 -2.0017 0.9779
-3.6981 3.6888 -2.0017 0.9779
-4.0126 3.3441 -2.0017 0.9779
-4.2950 2.9727 -2.0017 0.9779
-4.5431 2.5776 -2.0017 0.9779
-4.7550 2.1619 -2.0017 0.9779
-4.9290 1.7290 -2.0017 0.9779
-5.0636 1.2822 -2.0017 0.9779
-5.1578 0.8253 -2.0017 0.9779
-5.2109 0.3617 -2.0017 0.9779
-5.2223 -0.1047 -2.0017 0.9779
-5.1206 -1.0314 -2.0017 0.9779
-4.8557 -1.9252 -2.0017 0.9779
-4.6645 -2.3508 -2.0017 0.9779
-4.4361 -2.7577 -2.0017 0.9779
-3.8752 -3.5023 -2.0017 0.9779
-3.5472 -3.8341 -2.0017 0.9779
-3.1829 -4.1250 -1.9967 0.9779
-1.8310 -4.4654 -1.8495 0.9795
-1.4252 -4.6109 -1.8495 0.9795
-0.5829 -4.7908 -1.8495 0.9795
1.1301 -4.6920 -1.8495 0.9795
1.5442 -4.5724 -1.8495 0.9795
2.3324 -4.2251 -1.8495 0.9795
3.2868 -4.0386 -1.9954 0.9779
3.6430 -3.7384 -2.0004 0.9779
4.2523 -3.0333 -2.0017 0.9779
4.7238 -2.2291 -2.0017 0.9779
5.1455 -0.8983 -2.0017 0.9779
4.6973 2.2844 -2.0017 0.9779
4.2164 3.0830 -2.0017 0.9779
3.6012 3.7834 -2.0017 0.9779
2.8714 4.3633 -2.0017 0.9779
2.0500 4.8042 -2.0017 0.9779
1.6131 4.9680 -2.0017 0.9779
0.7043 5.1756 -2.0017 0.9779
-0.2269 5.2184 -2.0017 0.9779
-0.6917 5.1774 -2.0017 0.9779
-1.6010 4.9720 -2.0017 0.9779
-2.0383 4.8093 -2.0017 0.9779
-2.8607 4.3704 -2.0017 0.9779
-3.2393 4.0977 -2.0017 0.9779
-3.5920 3.7922 -2.0017 0.9779
-3.9161 3.4566 -2.0017 0.9779
-4.6918 2.2959 -2.0017 0.9779
-4.8779 1.8681 -2.0017 0.9779
-5.0252 1.4253 -2.0017 0.9779
-5.1323 0.9712 -2.0017 0.9779
-5.1985 0.5093 -2.0017 0.9779
-5.2063 -0.4228 -2.0017 0.9779
-5.0482 -1.3416 -2.0017 0.9779
-4.7293 -2.2176 -2.0017 0.9779
-4.2598 -3.0229 -2.0017 0.9779
-3.9730 -3.3910 -2.0017 0.9779
-3.6546 -3.7320 -2.0017 0.9779
-3.3012 -4.0362 -1.9982 0.9779
-2.9003 -4.2740 -1.9794 0.9781
-1.9569 -4.4116 -1.8495 0.9795
-1.1415 -4.6892 -1.8495 0.9795
-0.2898 -4.8175 -1.8495 0.9795
0.1412 -4.8241 -1.8495 0.9795
0.5712 -4.7922 -1.8495 0.9795
-2.7765 4.0263 -2.0017 0.9791
-3.1247 3.7625 -2.0017 0.9791
-3.4480 3.4687 -2.0017 0.9791
-4.0097 2.8005 -2.0017 0.9791
-4.2436 2.4316 -2.0017 0.9791
-4.6082 1.6385 -2.0017 0.9791
-4.6951 -1.3698 -2.0017 0.9791
-4.5541 -1.7833 -2.0017 0.9791
-4.3768 -2.1825 -2.0017 0.9791
-2.6414 -4.1020 -1.9968 0.9791
-0.5648 -4.4835 -1.8495 0.9807
-0.1625 -4.5160 -1.8495 0.9807
0.6428 -4.4729 -1.8495 0.9807
3.0677 -3.8023 -1.9995 0.9791
3.9695 -2.8571 -2.0017 0.9791
4.2086 -2.4914 -2.0017 0.9791
4.4141 -2.1059 -2.0017 0.9791
4.5844 -1.7037 -2.0017 0.9791
4.7182 -1.2878 -2.0017 0.9791
4.8907 0.0079 -2.0017 0.9791
4.7140 1.3030 -2.0017 0.9791
4.4073 2.1202 -2.0017 0.9791
3.9602 2.8699 -2.0017 0.9791
3.6883 3.2118 -2.0017 0.9791
2.3316 4.2992 -2.0017 0.9791
1.9386 4.4902 -2.0017 0.9791
1.5302 4.6452 -2.0017 0.9791
0.2452 4.8847 -2.0017 0.9791
-1.0573 4.7752 -2.0017 0.9791
-1.4792 4.6618 -2.0017 0.9791
-1.8893 4.5112 -2.0017 0.9791
-2.6611 4.1035 -2.0017 0.9791
-3.0167 3.8496 -2.0017 0.9791
-3.6530 3.2521 -2.0017 0.9791
-3.9286 2.9131 -2.0017 0.9791
-4.1729 2.5509 -2.0017 0.9791
-4.8016 0.9298 -2.0017 0.9791
-1.9576 0.2002 -0.8054 0.9915
-1.9547 -0.1504 -0.8024 0.9916
-4.6029 -1.6534 -2.0017 0.9791
-4.4370 -2.0575 -2.0017 0.9791
-4.2357 -2.4453 -2.0017 0.9791
-4.0006 -2.8135 -2.0017 0.9791
-3.1125 -3.7726 -2.0017 0.9791
-1.9124 -4.2623 -1.9120 0.9800
-0.6918 -4.4656 -1.8495 0.9807
-0.2905 -4.5096 -1.8495 0.9807
0.1130 -4.5175 -1.8495 0.9807
0.9143 -4.4254 -1.8495 0.9807
1.3055 -4.3262 -1.8495 0.9807
1.6864 -4.1924 -1.8495 0.9807
3.2972 -3.6121 -2.0017 0.9791
3.8868 -2.9685 -2.0017 0.9791
4.5343 -1.8330 -2.0017 0.9791
4.6797 -1.4211 -2.0017 0.9791
4.7879 -0.9978 -2.0017 0.9791
4.7490 1.1688 -2.0017 0.9791
4.4656 1.9943 -2.0017 0.9791
4.2699 2.3849 -2.0017 0.9791
3.1657 3.7280 -2.0017 0.9791
2.0652 4.4334 -2.0017 0.9791
0.8172 4.8220 -2.0017 0.9791
-0.0530 4.8905 -2.0017 0.9791
-0.4892 4.8663 -2.0017 0.9791
-0.9215 4.8032 -2.0017 0.9791
-1.3464 4.7018 -2.0017 0.9791
-2.1608 4.3876 -2.0017 0.9791
-2.9063 3.9336 -2.0017 0.9791
-4.0989 2.6683 -2.0017 0.9791
-4.6592 1.4873 -2.0017 0.9791
-1.9347 0.0792 -0.7925 0.9917
-1.9399 -0.0940 -0.7949 0.9916
-4.7652 -1.1013 -2.0017 0.9791
-4.6479 -1.5222 -2.0017 0.9791
-4.3033 -2.3241 -2.0017 0.9791
-4.0788 -2.6989 -2.0017 0.9791
-3.2183 -3.6828 -2.0017 0.9791
-2.5045 -4.1830 -1.9954 0.9791
-2.0591 -4.2613 -1.9370 0.9798
-1.6086 -4.2636 -1.8650 0.9805
-1.2115 -4.3535 -1.8495 0.9807
-0.8182 -4.4442 -1.8495 0.9807
-0.0151 -4.5189 -1.8495 0.9807
0.3882 -4.5022 -1.8495 0.9807
2.4443 -4.1453 -1.9696 0.9794
2.8433 -3.9649 -1.9969 0.9791
3.5113 -3.4045 -2.0017 0.9791
3.8011 -3.0775 -2.0017 0.9791
4.0605 -2.7261 -2.0017 0.9791
4.2876 -2.3529 -2.0017 0.9791
4.4804 -1.9609 -2.0017 0.9791
4.7576 -1.1332 -2.0017 0.9791
4.8398 -0.7041 -2.0017 0.9791
4.8879 0.1674 -2.0017 0.9791
4.8534 0.6029 -2.0017 0.9791
4.6690 1.4561 -2.0017 0.9791
4.1166 2.6407 -2.0017 0.9791
3.2701 3.6367 -2.0017 0.9791
2.9326 3.9140 -2.0017 0.9791
2.1901 4.3730 -2.0017 0.9791
1.3779 4.6927 -2.0017 0.9791
0.9536 4.7969 -2.0017 0.9791
0.5218 4.8629 -2.0017 0.9791
0.0857 4.8901 -2.0017 0.9791
-0.7849 4.8274 -2.0017 0.9791
-1.2125 4.7381 -2.0017 0.9791
-2.0355 4.4471 -2.0017 0.9791
-3.1407 3.7492 -2.0017 0.9791
-3.7571 3.1312 -2.0017 0.9791
-4.4523 2.0243 -2.0017 0.9791
-4.7412 1.2006 -2.0017 0.9791
-1.9515 0.1355 -0.8006 0.9916
-1.9566 -0.2149 -0.8056 0.9915
-4.7945 -0.9657 -2.0017 0.9791
-4.6892 -1.3897 -2.0017 0.9791
-4.5465 -1.8026 -2.0017 0.9791
-4.3675 -2.2011 -2.0017 0.9791
-4.1537 -2.5821 -2.0017 0.9791
-2.9866 -3.8706 -2.0009 0.9791
-1.7481 -4.2632 -1.8858 0.9803
-1.3345 -4.3174 -1.8495 0.9807
-0.9439 -4.4192 -1.8495 0.9807
-0.5458 -4.4858 -1.8495 0.9807
-0.1433 -4.5166 -1.8495 0.9807
1.0581 -4.3933 -1.8495 0.9807
1.8414 -4.1787 -1.8689 0.9805
3.0841 -3.7896 -1.9997 0.9791
3.4133 -3.5027 -2.0017 0.9791
3.7122 -3.1841 -2.0017 0.9791
4.4230 -2.0872 -2.0017 0.9791
4.5916 -1.6841 -2.0017 0.9791
4.8179 -0.8411 -2.0017 0.9791
4.8686 0.4650 -2.0017 0.9791
4.7084 1.3230 -2.0017 0.9791
4.5715 1.7379 -2.0017 0.9791
4.3982 2.1389 -2.0017 0.9791
3.9480 2.8867 -2.0017 0.9791
3.6746 3.2275 -2.0017 0.9791
3.0424 3.8293 -2.0017 0.9791
1.9195 4.4984 -2.0017 0.9791
1.5104 4.6517 -2.0017 0.9791
1.0893 4.7679 -2.0017 0.9791
0.6595 4.8461 -2.0017 0.9791
0.2244 4.8857 -2.0017 0.9791
-0.2125 4.8862 -2.0017 0.9791
-0.6476 4.8477 -2.0017 0.9791
-1.4991 4.6554 -2.0017 0.9791
-1.9085 4.5031 -2.0017 0.9791
-2.3027 4.3148 -2.0017 0.9791
-2.6786 4.0921 -2.0017 0.9791
-3.6668 3.2365 -2.0017 0.9791
-3.9410 2.8964 -2.0017 0.9791
-4.3931 2.1497 -2.0017 0.9791
-4.5674 1.7491 -2.0017 0.9791
-4.7052 1.3346 -2.0017 0.9791
-1.9064 0.0158 -0.7803 0.9918
-1.9562 -0.1589 -0.8033 0.9916
-2.1369 -0.3677 -0.8874 0.9907
-4.5958 -1.6729 -2.0017 0.9791
-4.4282 -2.0764 -2.0017 0.9791
-4.2252 -2.4632 -2.0017 0.9791
-3.7201 -3.1751 -2.0017 0.9791
-3.4219 -3.4944 -2.0017 0.9791
-3.0964 -3.7858 -2.0017 0.9791
-2.7411 -4.0394 -1.9979 0.9791
-2.3644 -4.2583 -1.9934 0.9792
-1.8907 -4.2625 -1.9084 0.9800
-1.0689 -4.3907 -1.8495 0.9807
0.5348 -4.4871 -1.8495 0.9807
-3.5157 2.9555 -2.0017 0.9802
-3.7655 2.6300 -2.0017 0.9802
-3.9851 2.2835 -2.0017 0.9802
-4.1730 1.9187 -2.0017 0.9802
-1.5945 0.5669 -0.7375 0.9926
-1.5501 0.3995 -0.6976 0.9930
-1.5256 -0.0241 -0.6649 0.9934
-1.5697 -0.4579 -0.7126 0.9929
-4.1103 -2.0496 -2.0017 0.9802
-3.6805 -2.7476 -2.0017 0.9802
-3.4206 -3.0651 -2.0017 0.9802
-3.1334 -3.3581 -2.0017 0.9802
-2.8213 -3.6243 -2.0017 0.9802
-0.9249 -4.2419 -1.8921 0.9812
-0.5339 -4.2380 -1.8616 0.9815
-0.1526 -4.2410 -1.8495 0.9817
0.2264 -4.2376 -1.8495 0.9817
0.9921 -4.1974 -1.8797 0.9814
1.3920 -4.1802 -1.9201 0.9810
1.8118 -4.1594 -1.9772 0.9804
2.5507 -3.8136 -1.9995 0.9802
2.8839 -3.5746 -2.0017 0.9802
3.7277 -2.6831 -2.0017 0.9802
4.1453 -1.9777 -2.0017 0.9802
4.3052 -1.5999 -2.0017 0.9802
4.5752 -0.4025 -2.0017 0.9802
4.5929 0.0074 -2.0017 0.9802
4.5739 0.4172 -2.0017 0.9802
4.5184 0.8237 -2.0017 0.9802
4.4269 1.2236 -2.0017 0.9802
4.3000 1.6138 -2.0017 0.9802
3.9447 2.3525 -2.0017 0.9802
3.1807 3.3133 -2.0017 0.9802
2.1896 4.0374 -2.0017 0.9802
1.8206 4.2167 -2.0017 0.9802
1.4370 4.3623 -2.0017 0.9802
1.0420 4.4732 -2.0017 0.9802
-0.5888 4.5551 -2.0017 0.9802
-1.7743 4.2364 -2.0017 0.9802
-2.8330 3.6152 -2.0017 0.9802
-3.1443 3.3480 -2.0017 0.9802
-3.4305 3.0540 -2.0017 0.9802
-3.6894 2.7357 -2.0017 0.9802
-4.1169 2.0363 -2.0017 0.9802
-4.2822 1.6608 -2.0017 0.9802
-1.5290 -0.1176 -0.6683 0.9933
-1.5522 -0.4054 -0.6992 0.9930
-1.5954 -0.5731 -0.7388 0.9926
-4.1668 -1.9322 -2.0017 0.9802
-3.5062 -2.9668 -2.0017 0.9802
-2.9229 -3.5428 -2.0017 0.9802
-2.5951 -3.7895 -2.0017 0.9802
-2.2429 -3.9994 -1.9984 0.9802
-1.4648 -4.2432 -1.9563 0.9806
-1.0520 -4.2426 -1.9050 0.9811
-0.6568 -4.2395 -1.8697 0.9815
-0.2731 -4.2385 -1.8511 0.9816
0.1062 -4.2424 -1.8495 0.9817
0.4847 -4.2199 -1.8512 0.9816
0.8682 -4.2022 -1.8701 0.9815
1.2632 -4.1860 -1.9056 0.9811
1.6759 -4.1664 -1.9572 0.9806
2.0807 -4.0781 -1.9953 0.9802
3.0964 -3.3922 -2.0017 0.9802
3.8843 -2.4509 -2.0017 0.9802
4.5912 -0.1228 -2.0017 0.9802
4.5839 0.2873 -2.0017 0.9802
4.5400 0.6952 -2.0017 0.9802
4.4598 1.0976 -2.0017 0.9802
4.0098 2.2396 -2.0017 0.9802
3.7940 2.5885 -2.0017 0.9802
2.9729 3.5010 -2.0017 0.9802
2.3032 3.9737 -2.0017 0.9802
1.9394 4.1634 -2.0017 0.9802
0.7674 4.5284 -2.0017 0.9802
-0.8654 4.5107 -2.0017 0.9802
-1.2644 4.4155 -2.0017 0.9802
-1.6534 4.2850 -2.0017 0.9802
-2.7293 3.6941 -2.0017 0.9802
-3.0481 3.4358 -2.0017 0.9802
-3.3425 3.1501 -2.0017 0.9802
-4.0575 2.1523 -2.0017 0.9802
-1.5824 0.5051 -0.7239 0.9928
-1.5259 0.3406 -0.6814 0.9932
-1.5191 0.1991 -0.6677 0.9933
-1.5289 0.0626 -0.6669 0.9933
-1.5293 -0.0741 -0.6673 0.9933
-1.5168 -0.2103 -0.6674 0.9933
-1.5318 -0.3540 -0.6852 0.9932
-1.5856 -0.5193 -0.7271 0.9927
-4.0413 -2.1826 -2.0017 0.9802
-3.3188 -3.1750 -2.0017 0.9802
-3.0223 -3.4585 -2.0017 0.9802
-2.7016 -3.7144 -2.0017 0.9802
-1.6007 -4.2428 -1.9763 0.9804
-0.7807 -4.2408 -1.8793 0.9814
-0.3940 -4.2377 -1.8548 0.9816
0.3645 -4.2280 -1.8495 0.9817
1.9633 -4.1336 -1.9944 0.9802
3.2974 -3.1971 -2.0017 0.9802
3.8132 -2.5601 -2.0017 0.9802
4.2076 -1.8414 -2.0017 0.9802
4.3551 -1.4586 -2.0017 0.9802
4.4679 -1.0642 -2.0017 0.9802
4.5859 -0.2530 -2.0017 0.9802
4.5902 0.1572 -2.0017 0.9802
4.5579 0.5662 -2.0017 0.9802
4.4892 0.9707 -2.0017 0.9802
4.3846 1.3674 -2.0017 0.9802
4.0717 2.1250 -2.0017 0.9802
3.3635 3.1276 -2.0017 0.9802
3.0710 3.4153 -2.0017 0.9802
2.7540 3.6757 -2.0017 0.9802
2.4150 3.9068 -2.0017 0.9802
2.0567 4.1067 -2.0017 0.9802
1.2940 4.4069 -2.0017 0.9802
0.8955 4.5048 -2.0017 0.9802
0.4900 4.5667 -2.0017 0.9802
-1.1387 4.4496 -2.0017 0.9802
-1.5312 4.3302 -2.0017 0.9802
-2.2765 3.9891 -2.0017 0.9802
-2.9494 3.5209 -2.0017 0.9802
-3.2518 3.2436 -2.0017 0.9802
-3.5283 2.9405 -2.0017 0.9802
-3.9948 2.2665 -2.0017 0.9802
-4.1811 1.9010 -2.0017 0.9802
-1.5091 0.2415 -0.6661 0.9934
-1.5294 0.1062 -0.6681 0.9933
-1.5263 -0.0306 -0.6653 0.9934
-1.5244 -0.1674 -0.6684 0.9933
-1.5082 -0.3038 -0.6705 0.9933
-1.5720 -0.4659 -0.7146 0.9929
-4.2696 -1.6928 -2.0017 0.9802
-4.1015 -2.0671 -2.0017 0.9802
-3.4075 -3.0796 -2.0017 0.9802
-3.1191 -3.3714 -2.0017 0.9802
-2.4689 -3.8702 -2.0007 0.9802
-2.1100 -4.0679 -1.9972 0.9802
0.2445 -4.2366 -1.8495 0.9817
1.0108 -4.1967 -1.8813 0.9813
1.4115 -4.1793 -1.9225 0.9809
1.8324 -4.1583 -1.9804 0.9804
2.2138 -4.0102 -1.9964 0.9802
2.8991 -3.5623 -2.0017 0.9802
3.7391 -2.6672 -2.0017 0.9802
3.9622 -2.3229 -2.0017 0.9802
4.3120 -1.5816 -2.0017 0.9802
4.5769 -0.3830 -2.0017 0.9802
4.1304 2.0087 -2.0017 0.9802
3.9346 2.3692 -2.0017 0.9802
3.4508 3.0309 -2.0017 0.9802
2.8571 3.5961 -2.0017 0.9802
1.8026 4.2244 -2.0017 0.9802
1.4184 4.3684 -2.0017 0.9802
1.0230 4.4776 -2.0017 0.9802
-0.1995 4.5886 -2.0017 0.9802
-1.0120 4.4801 -2.0017 0.9802
-1.7923 4.2288 -2.0017 0.9802
-3.1585 3.3346 -2.0017 0.9802
-3.4435 3.0394 -2.0017 0.9802
-3.7010 2.7200 -2.0017 0.9802
-3.9289 2.3789 -2.0017 0.9802
-4.1255 2.0188 -2.0017 0.9802
-1.5654 0.4440 -0.7091 0.9929
-1.5287 -0.1242 -0.6684 0.9933
-1.5965 -0.5812 -0.7405 0.9926
-4.1585 -1.9499 -2.0017 0.9802
-3.4935 -2.9817 -2.0017 0.9802
-2.9078 -3.5552 -2.0017 0.9802
-2.5790 -3.8005 -2.0017 0.9802
-1.4446 -4.2432 -1.9535 0.9806
-1.0328 -4.2425 -1.9030 0.9811
0.1242 -4.2419 -1.8495 0.9817
-3.0486 3.0669 -2.0017 0.9811
-3.3102 2.7827 -2.0017 0.9811
-3.5453 2.4762 -2.0017 0.9811
-3.7521 2.1499 -2.0017 0.9811
-1.3126 0.3383 -0.6274 0.9940
-1.3213 0.2172 -0.6198 0.9941
-3.8699 -1.9298 -2.0017 0.9811
-3.4653 -2.5869 -2.0017 0.9811
-2.9502 -3.1617 -2.0017 0.9811
-2.0069 -3.8292 -2.0012 0.9811
-1.2909 -4.1144 -1.9961 0.9812
-0.9178 -4.2095 -1.9943 0.9812
-0.5314 -4.2183 -1.9680 0.9814
-0.1516 -4.2121 -1.9510 0.9816
0.6025 -4.1920 -1.9604 0.9815
0.9874 -4.1777 -1.9871 0.9813
1.3619 -4.0899 -1.9954 0.9812
2.0722 -3.7917 -2.0001 0.9811
2.4041 -3.5944 -2.0017 0.9811
3.7211 -2.2029 -2.0017 0.9811
3.9029 -1.8620 -2.0017 0.9811
4.0535 -1.5063 -2.0017 0.9811
4.1717 -1.1386 -2.0017 0.9811
4.2567 -0.7618 -2.0017 0.9811
4.3077 -0.3789 -2.0017 0.9811
4.3243 0.0070 -2.0017 0.9811
4.3064 0.3928 -2.0017 0.9811
4.2542 0.7756 -2.0017 0.9811
4.1680 1.1521 -2.0017 0.9811
4.0486 1.5194 -2.0017 0.9811
3.8968 1.8747 -2.0017 0.9811
3.7140 2.2149 -2.0017 0.9811
3.2612 2.8398 -2.0017 0.9811
1.7141 3.9701 -2.0017 0.9811
0.6013 4.2823 -2.0017 0.9811
-0.1695 4.3210 -2.0017 0.9811
-0.5544 4.2887 -2.0017 0.9811
-0.9349 4.2221 -2.0017 0.9811
-1.3079 4.1218 -2.0017 0.9811
-1.6705 3.9887 -2.0017 0.9811
-2.0198 3.8237 -2.0017 0.9811
-2.3529 3.6282 -2.0017 0.9811
-2.6673 3.4038 -2.0017 0.9811
-3.4736 2.5757 -2.0017 0.9811
-3.6896 2.2555 -2.0017 0.9811
-3.8762 1.9172 -2.0017 0.9811
-1.3308 0.5161 -0.6607 0.9937
-1.3359 0.1366 -0.6216 0.9941
-1.3138 -0.3432 -0.6286 0.9940
-1.3333 -0.4789 -0.6558 0.9938
-1.3127 -0.6087 -0.6698 0.9936
-3.5372 -2.4876 -2.0017 0.9811
-3.0387 -3.0768 -2.0017 0.9811
-2.4434 -3.5679 -2.0017 0.9811
-2.1152 -3.7717 -2.0017 0.9811
-1.7680 -3.9405 -1.9992 0.9811
-1.4076 -4.0775 -1.9967 0.9812
-1.0371 -4.1828 -1.9948 0.9812
-0.2715 -4.2144 -1.9548 0.9816
0.1053 -4.2065 -1.9477 0.9816
2.9154 -3.1938 -2.0017 0.9811
3.1887 -2.9209 -2.0017 0.9811
3.8485 -1.9720 -2.0017 0.9811
4.0091 -1.6207 -2.0017 0.9811
4.2334 -0.8822 -2.0017 0.9811
4.2952 -0.5009 -2.0017 0.9811
4.3228 -0.1157 -2.0017 0.9811
4.2745 0.6546 -2.0017 0.9811
4.1990 1.0334 -2.0017 0.9811
4.0901 1.4040 -2.0017 0.9811
3.3404 2.7462 -2.0017 0.9811
3.0820 3.0333 -2.0017 0.9811
2.7990 3.2963 -2.0017 0.9811
2.4937 3.5329 -2.0017 0.9811
2.1685 3.7413 -2.0017 0.9811
1.1001 4.1821 -2.0017 0.9811
0.3392 4.3110 -2.0017 0.9811
-0.0468 4.3241 -2.0017 0.9811
-0.8148 4.2469 -2.0017 0.9811
-1.1905 4.1573 -2.0017 0.9811
-1.5567 4.0345 -2.0017 0.9811
-1.9105 3.8795 -2.0017 0.9811
-2.2491 3.6935 -2.0017 0.9811
-2.5697 3.4781 -2.0017 0.9811
-3.3992 2.6732 -2.0017 0.9811
-3.6241 2.3592 -2.0017 0.9811
-1.3300 0.4246 -0.6463 0.9939
-1.2987 0.2899 -0.6160 0.9942
-1.3379 0.0548 -0.6198 0.9941
-1.3228 -0.5684 -0.6664 0.9937
-3.1247 -2.9893 -2.0017 0.9811
-2.8455 -3.2563 -2.0017 0.9811
-1.8799 -3.8905 -2.0001 0.9811
-1.5232 -4.0374 -1.9975 0.9812
-0.7770 -4.2208 -1.9866 0.9813
-0.0141 -4.2093 -1.9484 0.9816
1.1272 -4.1583 -1.9943 0.9812
1.4951 -4.0447 -1.9961 0.9812
1.8522 -3.8997 -1.9984 0.9812
2.8236 -3.2752 -2.0017 0.9811
3.1046 -3.0102 -2.0017 0.9811
3.3608 -2.7211 -2.0017 0.9811
3.9615 -1.7338 -2.0017 0.9811
4.2066 -1.0020 -2.0017 0.9811
4.3177 -0.2382 -2.0017 0.9811
4.2913 0.5331 -2.0017 0.9811
4.2266 0.9139 -2.0017 0.9811
4.1282 1.2874 -2.0017 0.9811
3.9969 1.6507 -2.0017 0.9811
3.1668 2.9447 -2.0017 0.9811
2.8914 3.2155 -2.0017 0.9811
2.2738 3.6783 -2.0017 0.9811
1.9365 3.8665 -2.0017 0.9811
1.2183 4.1492 -2.0017 0.9811
0.8432 4.2414 -2.0017 0.9811
0.4613 4.2997 -2.0017 0.9811
-0.3103 4.3132 -2.0017 0.9811
-0.6940 4.2683 -2.0017 0.9811
-1.7997 3.9321 -2.0017 0.9811
-2.4700 3.5495 -2.0017 0.9811
-3.0617 3.0539 -2.0017 0.9811
-3.3220 2.7686 -2.0017 0.9811
-3.5558 2.4611 -2.0017 0.9811
-3.7612 2.1340 -2.0017 0.9811
-1.3157 0.5982 -0.6690 0.9936
-1.3336 0.4678 -0.6542 0.9938
-1.3109 0.3319 -0.6259 0.9941
-1.3227 0.2116 -0.6200 0.9941
-1.3385 0.0929 -0.6210 0.9941
-1.3347 -0.1466 -0.6215 0.9941
-2.9367 -3.1742 -2.0017 0.9811
-2.6418 -3.4236 -2.0017 0.9811
-1.9905 -3.8375 -2.0010 0.9811
-1.6378 -3.9942 -1.9982 0.9812
-0.5132 -4.2180 -1.9669 0.9814
1.0060 -4.1769 -1.9887 0.9812
1.3794 -4.0842 -1.9954 0.9812
1.7402 -3.9491 -1.9976 0.9812
2.0884 -3.7831 -2.0003 0.9811
3.2823 -2.8154 -2.0017 0.9811
3.5204 -2.5112 -2.0017 0.9811
4.0598 -1.4891 -2.0017 0.9811
4.1765 -1.1209 -2.0017 0.9811
4.2599 -0.7437 -2.0017 0.9811
4.3093 -0.3606 -2.0017 0.9811
4.3047 0.4112 -2.0017 0.9811
4.2509 0.7937 -2.0017 0.9811
4.1631 1.1698 -2.0017 0.9811
3.7046 2.2307 -2.0017 0.9811
3.4907 2.5524 -2.0017 0.9811
3.2490 2.8537 -2.0017 0.9811
2.6900 3.3858 -2.0017 0.9811
2.0453 3.8101 -2.0017 0.9811
0.9631 4.2157 -2.0017 0.9811
0.5831 4.2849 -2.0017 0.9811
-0.1879 4.3203 -2.0017 0.9811
-0.5726 4.2863 -2.0017 0.9811
-0.9528 4.2181 -2.0017 0.9811
-1.6875 3.9815 -2.0017 0.9811
-2.6818 3.3924 -2.0017 0.9811
-3.6992 2.2398 -2.0017 0.9811
-1.3128 0.2484 -0.6185 0.9941
-1.3365 0.1310 -0.6216 0.9941
-1.3380 -0.1087 -0.6214 0.9941
-1.3155 -0.3496 -0.6300 0.9940
-1.3330 -0.4852 -0.6567 0.9938
-3.7359 -2.1780 -2.0017 0.9811
-3.5266 -2.5026 -2.0017 0.9811
-3.2892 -2.8074 -2.0017 0.9811
-2.4282 -3.5783 -2.0017 0.9811
-2.0992 -3.7807 -2.0017 0.9811
-1.7511 -3.9478 -1.9991 0.9811
-1.3902 -4.0833 -1.9966 0.9812
-1.0193 -4.1870 -1.9947 0.9812
-0.6353 -4.2195 -1.9751 0.9814
-0.2535 -4.2140 -1.9541 0.9816
0.5000 -4.1954 -1.9557 0.9815
0.8825 -4.1818 -1.9783 0.9813
-3.1236 2.6259 -2.0017 0.9820
-3.3455 2.3367 -2.0017 0.9820
-1.1827 0.1944 -0.5879 0.9947
-1.1952 0.0881 -0.5879 0.9947
-1.1961 -0.0189 -0.5868 0.9947
-1.1923 -0.1258 -0.5881 0.9947
-1.1590 -0.3381 -0.5922 0.9946
-3.2700 -2.4412 -2.0017 0.9820
-3.0391 -2.7232 -2.0017 0.9820
-2.7840 -2.9836 -2.0017 0.9820
-2.2093 -3.4309 -2.0017 0.9820
-1.8943 -3.6144 -2.0017 0.9820
-1.5642 -3.7690 -2.0017 0.9820
-1.2205 -3.8899 -1.9998 0.9820
-0.8678 -3.9800 -1.9982 0.9820
-0.5089 -4.0392 -1.9970 0.9820
0.2172 -4.0639 -1.9963 0.9820
0.5791 -4.0292 -1.9967 0.9820
0.9367 -3.9633 -1.9977 0.9820
1.2876 -3.8668 -1.9992 0.9820
1.6292 -3.7402 -2.0012 0.9820
2.2687 -3.3919 -2.0017 0.9820
3.0860 -2.6699 -2.0017 0.9820
3.3120 -2.3838 -2.0017 0.9820
3.8251 -1.4215 -2.0017 0.9820
3.9367 -1.0745 -2.0017 0.9820
4.0807 0.0066 -2.0017 0.9820
4.0638 0.3707 -2.0017 0.9820
4.0145 0.7319 -2.0017 0.9820
3.9332 1.0872 -2.0017 0.9820
3.3043 2.3945 -2.0017 0.9820
2.8260 2.9438 -2.0017 0.9820
1.9454 3.5871 -2.0017 0.9820
1.2767 3.8758 -2.0017 0.9820
-0.1599 4.0776 -2.0017 0.9820
-0.5232 4.0470 -2.0017 0.9820
-1.5764 3.7639 -2.0017 0.9820
-1.9060 3.6083 -2.0017 0.9820
-2.7936 2.9746 -2.0017 0.9820
-3.4817 2.1284 -2.0017 0.9820
-1.1307 0.5593 -0.6188 0.9944
-1.1590 0.3341 -0.5916 0.9946
-1.1759 0.2277 -0.5875 0.9947
-1.1950 -0.0919 -0.5879 0.9947
-1.1820 -0.1982 -0.5879 0.9947
-1.1582 -0.3025 -0.5872 0.9947
-1.1558 -0.4152 -0.6024 0.9945
-3.3379 -2.3475 -2.0017 0.9820
-3.1151 -2.6359 -2.0017 0.9820
-2.5970 -3.1477 -2.0017 0.9820
-1.6705 -3.7231 -2.0017 0.9820
-1.3308 -3.8550 -2.0005 0.9820
-0.9806 -3.9547 -1.9986 0.9820
-0.6233 -4.0238 -1.9973 0.9820
-0.2617 -4.0617 -1.9965 0.9820
0.4645 -4.0436 -1.9965 0.9820
1.1771 -3.9008 -1.9986 0.9820
1.5219 -3.7836 -2.0005 0.9820
2.1716 -3.4549 -2.0017 0.9820
2.7511 -3.0138 -2.0017 0.9820
3.2430 -2.4768 -2.0017 0.9820
3.4511 -2.1775 -2.0017 0.9820
3.7832 -1.5294 -2.0017 0.9820
3.9046 -1.1857 -2.0017 0.9820
3.9948 -0.8325 -2.0017 0.9820
4.0792 -0.1091 -2.0017 0.9820
4.0727 0.2553 -2.0017 0.9820
3.5626 1.9899 -2.0017 0.9820
3.3708 2.2998 -2.0017 0.9820
2.3532 3.3338 -2.0017 0.9820
2.0463 3.5305 -2.0017 0.9820
1.7231 3.6990 -2.0017 0.9820
1.3862 3.8381 -2.0017 0.9820
1.0381 3.9464 -2.0017 0.9820
-0.4082 4.0602 -2.0017 0.9820
-1.1234 3.9230 -2.0017 0.9820
-2.4249 3.2821 -2.0017 0.9820
-2.9697 2.7988 -2.0017 0.9820
-1.1585 0.3698 -0.5965 0.9946
-1.1678 0.2607 -0.5869 0.9947
-1.1964 0.0490 -0.5874 0.9947
-1.1963 -0.0580 -0.5875 0.9947
-1.1655 -0.2694 -0.5868 0.9947
-3.4032 -2.2518 -2.0017 0.9820
-2.9487 -2.8209 -2.0017 0.9820
-2.4003 -3.3001 -2.0017 0.9820
-1.7754 -3.6742 -2.0017 0.9820
-0.0136 -4.0697 -1.9963 0.9820
0.3496 -4.0548 -1.9964 0.9820
0.7103 -4.0087 -1.9970 0.9820
1.0658 -3.9316 -1.9982 0.9820
1.7507 -3.6860 -2.0017 0.9820
2.0727 -3.5151 -2.0017 0.9820
2.6645 -3.0907 -2.0017 0.9820
3.1715 -2.5678 -2.0017 0.9820
3.7383 -1.6361 -2.0017 0.9820
4.0382 -0.5875 -2.0017 0.9820
4.0745 -0.2248 -2.0017 0.9820
4.0495 0.5030 -2.0017 0.9820
3.8956 1.2149 -2.0017 0.9820
3.6176 1.8880 -2.0017 0.9820
3.2244 2.5010 -2.0017 0.9820
2.9884 2.7788 -2.0017 0.9820
2.7285 3.0344 -2.0017 0.9820
2.1456 3.4711 -2.0017 0.9820
0.7957 4.0024 -2.0017 0.9820
-0.2928 4.0702 -2.0017 0.9820
-0.6549 4.0278 -2.0017 0.9820
-1.0117 3.9533 -2.0017 0.9820
-1.6983 3.7105 -2.0017 0.9820
-2.6205 3.1282 -2.0017 0.9820
-2.8891 2.8819 -2.0017 0.9820
-3.3554 2.3224 -2.0017 0.9820
-3.5493 2.0137 -2.0017 0.9820
-1.1566 0.4057 -0.6012 0.9946
-1.1955 0.0830 -0.5878 0.9947
-1.1963 -0.0240 -0.5869 0.9947
-1.1512 -0.4565 -0.6075 0.9945
-3.4657 -2.1544 -2.0017 0.9820
-3.2596 -2.4551 -2.0017 0.9820
-3.0275 -2.7361 -2.0017 0.9820
-2.7713 -2.9954 -2.0017 0.9820
-2.4929 -3.2307 -2.0017 0.9820
-1.2039 -3.8949 -1.9997 0.9820
1.3041 -3.8615 -1.9993 0.9820
1.9722 -3.5725 -2.0017 0.9820
3.0974 -2.6567 -2.0017 0.9820
3.3221 -2.3697 -2.0017 0.9820
3.8311 -1.4052 -2.0017 0.9820
3.9412 -1.0577 -2.0017 0.9820
4.0806 0.0240 -2.0017 0.9820
4.0622 0.3880 -2.0017 0.9820
3.9285 1.1039 -2.0017 0.9820
3.8143 1.4501 -2.0017 0.9820
3.6697 1.7847 -2.0017 0.9820
3.4958 2.1050 -2.0017 0.9820
2.8134 2.9558 -2.0017 0.9820
2.2432 3.4088 -2.0017 0.9820
1.9301 3.5954 -2.0017 0.9820
0.9089 3.9782 -2.0017 0.9820
0.5503 4.0434 -2.0017 0.9820
-0.5404 4.0448 -2.0017 0.9820
-1.5924 3.7572 -2.0017 0.9820
-2.2349 3.4143 -2.0017 0.9820
-3.2882 2.4166 -2.0017 0.9820
-3.4907 2.1136 -2.0017 0.9820
-1.1321 0.5540 -0.6183 0.9944
-1.1531 0.4416 -0.6057 0.9945
-1.1770 0.2227 -0.5876 0.9947
-1.1931 0.1169 -0.5881 0.9947
-1.1947 -0.0970 -0.5879 0.9947
-1.1810 -0.2032 -0.5878 0.9947
-2.5835 -3.1587 -2.0017 0.9820
-2.2914 -3.3767 -2.0017 0.9820
-0.9637 -3.9587 -1.9986 0.9820
-0.6062 -4.0263 -1.9973 0.9820
-0.2444 -4.0628 -1.9965 0.9820
0.1191 -4.0679 -1.9963 0.9820
0.8408 -3.9842 -1.9974 0.9820
-2.4651 2.9683 -2.0017 0.9828
-2.9535 2.4829 -2.0017 0.9828
-1.0596 0.3768 -0.5834 0.9949
-1.1054 0.0815 -0.5750 0.9950
-1.1026 -0.1164 -0.5752 0.9950
-1.0637 -0.3103 -0.5748 0.9950
-1.0551 -0.4131 -0.5878 0.9949
-3.0919 -2.3082 -2.0017 0.9828
-2.8736 -2.5749 -2.0017 0.9828
-2.0890 -3.2441 -2.0017 0.9828
-0.8220 -3.7699 -2.0017 0.9828
-0.4820 -3.8261 -2.0006 0.9828
-0.1386 -3.8527 -2.0000 0.9828
0.8873 -3.7542 -2.0012 0.9828
1.2190 -3.6608 -2.0017 0.9828
2.6810 -2.7748 -2.0017 0.9828
3.6167 -1.3440 -2.0017 0.9828
3.7981 -0.6797 -2.0017 0.9828
3.7190 1.0280 -2.0017 0.9828
3.1243 2.2641 -2.0017 0.9828
2.9098 2.5339 -2.0017 0.9828
2.4130 3.0108 -2.0017 0.9828
2.1347 3.2141 -2.0017 0.9828
1.8394 3.3918 -2.0017 0.9828
0.1934 3.8536 -2.0017 0.9828
-0.1512 3.8555 -2.0017 0.9828
-0.4947 3.8266 -2.0017 0.9828
-0.8342 3.7672 -2.0017 0.9828
-1.1670 3.6777 -2.0017 0.9828
-1.8022 3.4117 -2.0017 0.9828
-2.3799 3.0370 -2.0017 0.9828
-2.6415 2.8126 -2.0017 0.9828
-2.8819 2.5656 -2.0017 0.9828
-3.0993 2.2982 -2.0017 0.9828
-0.9837 0.6014 -0.5981 0.9948
-1.0556 0.4094 -0.5874 0.9949
-1.0637 0.3066 -0.5743 0.9950
-1.0875 0.2106 -0.5747 0.9950
-1.1063 0.0139 -0.5740 0.9950
-1.1052 -0.0850 -0.5750 0.9950
-1.0414 -0.4829 -0.5955 0.9948
-2.9455 -2.4924 -2.0017 0.9828
-2.4555 -2.9763 -2.0017 0.9828
-1.2591 -3.6472 -2.0017 0.9828
-0.9286 -3.7450 -2.0017 0.9828
-0.5904 -3.8115 -2.0009 0.9828
-0.2479 -3.8475 -2.0001 0.9828
0.7803 -3.7772 -2.0009 0.9828
1.4399 -3.5797 -2.0017 0.9828
2.3366 -3.0705 -2.0017 0.9828
2.6013 -2.8497 -2.0017 0.9828
3.2631 -2.0589 -2.0017 0.9828
3.4339 -1.7595 -2.0017 0.9828
3.5772 -1.4461 -2.0017 0.9828
3.6919 -1.1211 -2.0017 0.9828
3.8570 -0.1032 -2.0017 0.9828
3.8508 0.2414 -2.0017 0.9828
3.8139 0.5841 -2.0017 0.9828
3.7466 0.9221 -2.0017 0.9828
3.5230 1.5734 -2.0017 0.9828
2.9805 2.4503 -2.0017 0.9828
2.2250 3.1522 -2.0017 0.9828
1.9349 3.3382 -2.0017 0.9828
1.6293 3.4976 -2.0017 0.9828
0.9816 3.7315 -2.0017 0.9828
-0.0418 3.8582 -2.0017 0.9828
-0.3859 3.8391 -2.0017 0.9828
-0.7270 3.7894 -2.0017 0.9828
-1.3890 3.5998 -2.0017 0.9828
-2.8080 2.6463 -2.0017 0.9828
-3.0329 2.3852 -2.0017 0.9828
-1.0181 0.5401 -0.5979 0.9948
-1.0502 0.4420 -0.5911 0.9949
-1.0626 0.3392 -0.5787 0.9950
-1.0799 0.2411 -0.5740 0.9950
-1.0776 -0.2491 -0.5738 0.9950
-1.0621 -0.3478 -0.5798 0.9950
-1.0142 -0.5478 -0.5980 0.9948
-2.2695 -3.1204 -2.0017 0.9828
-1.9820 -3.3105 -2.0017 0.9828
-1.6787 -3.4741 -2.0017 0.9828
-1.3620 -3.6101 -2.0017 0.9828
-1.0344 -3.7172 -2.0017 0.9828
-0.6984 -3.7938 -2.0012 0.9828
0.3312 -3.8410 -2.0000 0.9828
1.0095 -3.7240 -2.0017 0.9828
1.6554 -3.4853 -2.0017 0.9828
1.9598 -3.3236 -2.0017 0.9828
2.2486 -3.1355 -2.0017 0.9828
2.5194 -2.9223 -2.0017 0.9828
3.3826 -1.8562 -2.0017 0.9828
3.7534 -0.8940 -2.0017 0.9828
3.8561 0.1321 -2.0017 0.9828
3.8290 0.4756 -2.0017 0.9828
3.7713 0.8154 -2.0017 0.9828
3.6834 1.1487 -2.0017 0.9828
3.5662 1.4728 -2.0017 0.9828
3.2476 2.0833 -2.0017 0.9828
3.0488 2.3648 -2.0017 0.9828
2.8256 2.6274 -2.0017 0.9828
2.3136 3.0879 -2.0017 0.9828
1.0870 3.7021 -2.0017 0.9828
0.7523 3.7844 -2.0017 0.9828
0.0676 3.8579 -2.0017 0.9828
-0.6192 3.8084 -2.0017 0.9828
-1.2863 3.6377 -2.0017 0.9828
-2.2039 3.1671 -2.0017 0.9828
-2.7318 2.7249 -2.0017 0.9828
-3.1727 2.1959 -2.0017 0.9828
-1.0029 0.5690 -0.5982 0.9948
-1.0435 0.4744 -0.5946 0.9948
-1.0601 0.3719 -0.5828 0.9950
-1.0710 0.2712 -0.5732 0.9950
-1.0946 0.1751 -0.5751 0.9950
-1.1056 0.0767 -0.5749 0.9950
-1.1022 -0.1211 -0.5752 0.9950
-1.0856 -0.2187 -0.5745 0.9950
-1.0636 -0.3152 -0.5755 0.9950
-1.0285 -0.5183 -0.5975 0.9948
-0.9791 -0.6086 -0.5981 0.9948
-3.0821 -2.3214 -2.0017 0.9828
-2.0751 -3.2529 -2.0017 0.9828
-1.7766 -3.4251 -2.0017 0.9828
-1.4638 -3.5700 -2.0017 0.9828
-1.1394 -3.6864 -2.0017 0.9828
-0.8059 -3.7732 -2.0016 0.9828
-0.4657 -3.8281 -2.0006 0.9828
0.5648 -3.8143 -2.0004 0.9828
0.9033 -3.7505 -2.0013 0.9828
1.2346 -3.6556 -2.0017 0.9828
1.5559 -3.5308 -2.0017 0.9828
2.1587 -3.1980 -2.0017 0.9828
2.4355 -2.9926 -2.0017 0.9828
2.6928 -2.7633 -2.0017 0.9828
3.1411 -2.2406 -2.0017 0.9828
3.6224 -1.3286 -2.0017 0.9828
3.7265 -1.0001 -2.0017 0.9828
3.8009 -0.6636 -2.0017 0.9828
3.8450 -0.3217 -2.0017 0.9828
3.7145 1.0438 -2.0017 0.9828
3.3054 1.9904 -2.0017 0.9828
2.8990 2.5462 -2.0017 0.9828
2.6602 2.7948 -2.0017 0.9828
2.4002 3.0210 -2.0017 0.9828
2.1210 3.2231 -2.0017 0.9828
1.8250 3.3996 -2.0017 0.9828
0.5203 3.8232 -2.0017 0.9828
-0.8502 3.7636 -2.0017 0.9828
-1.5057 3.5526 -2.0017 0.9828
-2.1132 3.2283 -2.0017 0.9828
-2.3928 3.0269 -2.0017 0.9828
-2.6534 2.8013 -2.0017 0.9828
-3.1091 2.2850 -2.0017 0.9828
-1.0563 0.4045 -0.5868 0.9949
-1.0638 0.3017 -0.5736 0.9950
-1.1061 0.0092 -0.5739 0.9950
-1.1049 -0.0897 -0.5751 0.9950
-1.0587 -0.3854 -0.5845 0.9949
-1.0402 -0.4878 -0.5960 0.9948
-3.1467 -2.2330 -2.0017 0.9828
-2.9348 -2.5049 -2.0017 0.9828
-2.6996 -2.7568 -2.0017 0.9828
-2.4428 -2.9867 -2.0017 0.9828
-1.8730 -3.3733 -2.0017 0.9828
-1.5645 -3.5270 -2.0017 0.9828
-1.2435 -3.6526 -2.0017 0.9828
-0.5742 -3.8138 -2.0008 0.9828
-0.2315 -3.8485 -2.0001 0.9828
0.7964 -3.7739 -2.0009 0.9828
-2.0747 3.0087 -2.0017 0.9835
-2.5765 2.5920 -2.0017 0.9835
-0.9165 0.5251 -0.5785 0.9952
-0.9570 0.4400 -0.5769 0.9952
-0.9762 0.3471 -0.5675 0.9953
-1.0155 0.1669 -0.5637 0.9953
-1.0274 -0.0162 -0.5628 0.9953
-0.9826 -0.2867 -0.5606 0.9953
-0.9714 -0.3804 -0.5714 0.9953
-0.9441 -0.4708 -0.5778 0.9952
-0.8993 -0.5538 -0.5785 0.9952
-2.9286 -2.1863 -2.0017 0.9835
-2.2449 -2.8839 -2.0017 0.9835
-1.9786 -3.0727 -2.0017 0.9835
-1.4009 -3.3755 -2.0017 0.9835
-0.7786 -3.5708 -2.0017 0.9835
0.1950 -3.6495 -2.0017 0.9835
1.4595 -3.3506 -2.0017 0.9835
1.7526 -3.2070 -2.0017 0.9835
2.2948 -2.8444 -2.0017 0.9835
2.5395 -2.6282 -2.0017 0.9835
2.9662 -2.1350 -2.0017 0.9835
3.1449 -1.8618 -2.0017 0.9835
3.2985 -1.5737 -2.0017 0.9835
3.4257 -1.2731 -2.0017 0.9835
3.5257 -0.9623 -2.0017 0.9835
3.5975 -0.6438 -2.0017 0.9835
3.6546 0.0059 -2.0017 0.9835
3.6395 0.3320 -2.0017 0.9835
3.5954 0.6555 -2.0017 0.9835
3.5226 0.9737 -2.0017 0.9835
3.4216 1.2841 -2.0017 0.9835
3.2934 1.5843 -2.0017 0.9835
2.9593 2.1445 -2.0017 0.9835
2.5310 2.6364 -2.0017 0.9835
2.2856 2.8518 -2.0017 0.9835
2.0220 3.0444 -2.0017 0.9835
1.4486 3.3553 -2.0017 0.9835
0.8291 3.5594 -2.0017 0.9835
-1.1054 3.4835 -2.0017 0.9835
-1.4118 3.3710 -2.0017 0.9835
-2.7297 2.4301 -2.0017 0.9835
-0.9455 0.4677 -0.5777 0.9952
-0.9720 0.3770 -0.5710 0.9953
-0.9837 0.2836 -0.5607 0.9953
-1.0095 0.1955 -0.5632 0.9953
-1.0242 0.1047 -0.5639 0.9953
-0.9921 -0.2591 -0.5616 0.9953
-2.7899 -2.3608 -2.0017 0.9835
-1.4961 -3.3344 -2.0017 0.9835
-1.1926 -3.4546 -2.0017 0.9835
-0.2350 -3.6471 -2.0017 0.9835
0.0914 -3.6535 -2.0017 0.9835
0.4171 -3.6308 -2.0017 0.9835
0.7394 -3.5791 -2.0017 0.9835
1.0558 -3.4988 -2.0017 0.9835
1.6610 -3.2554 -2.0017 0.9835
1.9448 -3.0942 -2.0017 0.9835
2.2132 -2.9083 -2.0017 0.9835
2.4639 -2.6992 -2.0017 0.9835
3.0908 -1.9502 -2.0017 0.9835
3.5778 -0.7456 -2.0017 0.9835
3.6475 0.2286 -2.0017 0.9835
3.6125 0.5532 -2.0017 0.9835
3.0189 2.0597 -2.0017 0.9835
2.8231 2.3209 -2.0017 0.9835
1.8327 3.1619 -2.0017 0.9835
1.5432 3.3129 -2.0017 0.9835
0.9298 3.5344 -2.0017 0.9835
-0.3655 3.6364 -2.0017 0.9835
-0.6886 3.5892 -2.0017 0.9835
-1.0061 3.5135 -2.0017 0.9835
-1.3156 3.4097 -2.0017 0.9835
-2.1718 2.9394 -2.0017 0.9835
-2.6597 2.5066 -2.0017 0.9835
-2.8727 2.2592 -2.0017 0.9835
-0.8847 0.5759 -0.5781 0.9952
-0.9327 0.4947 -0.5783 0.9952
-0.9665 0.4068 -0.5744 0.9952
-0.9796 0.3127 -0.5632 0.9953
-1.0025 0.2238 -0.5626 0.9953
-1.0276 0.0421 -0.5633 0.9953
-1.0274 -0.0498 -0.5634 0.9953
-1.0198 -0.1414 -0.5639 0.9953
-0.8801 -0.5824 -0.5780 0.9952
-2.4049 -2.7520 -2.0017 0.9835
-2.1497 -2.9556 -2.0017 0.9835
-1.5901 -3.2907 -2.0017 0.9835
-0.9798 -3.5209 -2.0017 0.9835
-0.3383 -3.6390 -2.0017 0.9835
-0.0122 -3.6546 -2.0017 0.9835
1.5680 -3.3012 -2.0017 0.9835
3.0343 -2.0371 -2.0017 0.9835
3.2039 -1.7582 -2.0017 0.9835
3.4654 -1.1607 -2.0017 0.9835
3.6166 -0.5262 -2.0017 0.9835
3.6491 -0.2013 -2.0017 0.9835
3.2400 1.6909 -2.0017 0.9835
3.0761 1.9733 -2.0017 0.9835
2.8878 2.2399 -2.0017 0.9835
2.4436 2.7176 -2.0017 0.9835
1.6366 3.2678 -2.0017 0.9835
0.3899 3.6338 -2.0017 0.9835
-0.2623 3.6453 -2.0017 0.9835
-0.9061 3.5406 -2.0017 0.9835
-1.2184 3.4456 -2.0017 0.9835
-1.8115 3.1742 -2.0017 0.9835
-2.3469 2.8016 -2.0017 0.9835
-2.5875 2.5810 -2.0017 0.9835
-0.9187 0.5212 -0.5785 0.9952
-0.9586 0.4358 -0.5768 0.9952
-0.9944 0.2518 -0.5618 0.9953
-1.0163 0.1626 -0.5637 0.9953
-1.0275 -0.0206 -0.5629 0.9953
-1.0234 -0.1124 -0.5639 0.9953
-0.9811 -0.2908 -0.5605 0.9953
-0.9707 -0.3849 -0.5719 0.9952
-2.9193 -2.1988 -2.0017 0.9835
-2.4819 -2.6827 -2.0017 0.9835
-1.9655 -3.0811 -2.0017 0.9835
-1.6828 -3.2442 -2.0017 0.9835
-1.3865 -3.3814 -2.0017 0.9835
-1.0793 -3.4917 -2.0017 0.9835
-0.1159 -3.6528 -2.0017 0.9835
0.5353 -3.6153 -2.0017 0.9835
1.4737 -3.3444 -2.0017 0.9835
1.7663 -3.1995 -2.0017 0.9835
2.0447 -3.0291 -2.0017 0.9835
2.5506 -2.6174 -2.0017 0.9835
2.9753 -2.1223 -2.0017 0.9835
3.1528 -1.8484 -2.0017 0.9835
3.3051 -1.5596 -2.0017 0.9835
3.5297 -0.9473 -2.0017 0.9835
3.6419 -0.3048 -2.0017 0.9835
3.6546 0.0215 -2.0017 0.9835
3.5926 0.6707 -2.0017 0.9835
3.1309 1.8853 -2.0017 0.9835
2.9501 2.1571 -2.0017 0.9835
2.7459 2.4118 -2.0017 0.9835
2.5197 2.6472 -2.0017 0.9835
2.2734 2.8615 -2.0017 0.9835
2.0090 3.0529 -2.0017 0.9835
1.7286 3.2200 -2.0017 0.9835
1.4344 3.3614 -2.0017 0.9835
0.1677 3.6508 -2.0017 0.9835
-0.1588 3.6512 -2.0017 0.9835
-0.4840 3.6225 -2.0017 0.9835
-2.7400 2.4185 -2.0017 0.9835
-0.8484 0.6235 -0.5767 0.9952
-0.9035 0.5471 -0.5785 0.9952
-0.9727 0.3725 -0.5705 0.9953
-0.9852 0.2794 -0.5609 0.9953
-1.0246 0.1004 -0.5638 0.9953
-0.9752 -0.3550 -0.5684 0.9953
-2.7799 -2.3726 -2.0017 0.9835
-2.5570 -2.6112 -2.0017 0.9835
-2.3138 -2.8290 -2.0017 0.9835
-2.0521 -3.0241 -2.0017 0.9835
-1.7741 -3.1952 -2.0017 0.9835
-1.4819 -3.3408 -2.0017 0.9835
-1.1779 -3.4597 -2.0017 0.9835
-0.2195 -3.6481 -2.0017 0.9835
0.1070 -3.6531 -2.0017 0.9835
-2.2150 2.6672 -2.0017 0.9841
-2.4442 2.4589 -2.0017 0.9841
-2.6539 2.2310 -2.0017 0.9841
-0.7996 0.5585 -0.5631 0.9955
-0.8814 0.4053 -0.5601 0.9955
-0.9033 0.3212 -0.5535 0.9956
-0.9574 -0.0151 -0.5528 0.9956
-0.9397 -0.1851 -0.5530 0.9956
-0.7852 -0.5862 -0.5657 0.9955
-2.5821 -2.3137 -2.0017 0.9841
-2.3653 -2.5349 -2.0017 0.9841
-2.1297 -2.7358 -2.0017 0.9841
-1.6094 -3.0708 -2.0017 0.9841
-1.3290 -3.2022 -2.0017 0.9841
-0.7386 -3.3874 -2.0017 0.9841
-0.4334 -3.4398 -2.0017 0.9841
0.1850 -3.4621 -2.0017 0.9841
0.4932 -3.4317 -2.0017 0.9841
1.3845 -3.1785 -2.0017 0.9841
1.9275 -2.8818 -2.0017 0.9841
2.6219 -2.2684 -2.0017 0.9841
2.8139 -2.0253 -2.0017 0.9841
2.9834 -1.7662 -2.0017 0.9841
3.1291 -1.4929 -2.0017 0.9841
1.8683 -0.6943 -1.1507 0.9908
1.9500 -0.5322 -1.1670 0.9907
2.0162 -0.3608 -1.1825 0.9906
2.0371 -0.1792 -1.1806 0.9906
2.0205 0.0033 -1.1665 0.9907
2.0141 0.3672 -1.1820 0.9906
2.9777 1.7758 -2.0017 0.9841
2.6146 2.2768 -2.0017 0.9841
2.1682 2.7053 -2.0017 0.9841
1.9182 2.8880 -2.0017 0.9841
1.3743 3.1830 -2.0017 0.9841
0.4821 3.4333 -2.0017 0.9841
0.1738 3.4627 -2.0017 0.9841
-0.1359 3.4644 -2.0017 0.9841
-0.4445 3.4384 -2.0017 0.9841
-1.6193 3.0656 -2.0017 0.9841
-2.1385 2.7289 -2.0017 0.9841
-0.7867 0.5834 -0.5654 0.9955
-0.8297 0.5072 -0.5615 0.9955
-0.8706 0.4306 -0.5608 0.9955
-0.8990 0.3487 -0.5567 0.9956
-0.9574 0.0120 -0.5528 0.9956
-0.9562 -0.0736 -0.5537 0.9956
-0.9453 -0.1585 -0.5534 0.9956
-0.9243 -0.2414 -0.5516 0.9956
-0.9029 -0.3243 -0.5539 0.9956
-0.8423 -0.4863 -0.5615 0.9955
-0.7981 -0.5613 -0.5633 0.9955
-2.6467 -2.2395 -2.0017 0.9841
-2.2064 -2.6743 -2.0017 0.9841
-1.4193 -3.1632 -2.0017 0.9841
-0.8344 -3.3651 -2.0017 0.9841
-0.5308 -3.4261 -2.0017 0.9841
0.3957 -3.4444 -2.0017 0.9841
1.2938 -3.2165 -2.0017 0.9841
1.5757 -3.0882 -2.0017 0.9841
2.0996 -2.7590 -2.0017 0.9841
2.5565 -2.3418 -2.0017 0.9841
2.7553 -2.1043 -2.0017 0.9841
3.0855 -1.5810 -2.0017 0.9841
2.0357 -0.2374 -1.1833 0.9906
2.0297 -0.0543 -1.1723 0.9907
2.0358 0.1276 -1.1776 0.9906
1.9671 0.4841 -1.1696 0.9907
3.0269 1.6906 -2.0017 0.9841
2.8639 1.9540 -2.0017 0.9841
2.6781 2.2017 -2.0017 0.9841
2.2441 2.6427 -2.0017 0.9841
1.7386 2.9996 -2.0017 0.9841
1.4640 3.1427 -2.0017 0.9841
0.8820 3.3529 -2.0017 0.9841
0.5793 3.4183 -2.0017 0.9841
-1.2481 3.2346 -2.0017 0.9841
-1.8032 2.9612 -2.0017 0.9841
-2.0602 2.7885 -2.0017 0.9841
-2.3009 2.5935 -2.0017 0.9841
-0.7730 0.6079 -0.5678 0.9955
-0.8923 0.3755 -0.5589 0.9955
-0.9071 0.2896 -0.5498 0.9956
-0.9510 0.1246 -0.5537 0.9956
-0.9499 -0.1317 -0.5537 0.9956
-0.9321 -0.2154 -0.5523 0.9956
-0.8899 -0.3824 -0.5592 0.9955
-0.8555 -0.4620 -0.5614 0.9955
-0.8104 -0.5363 -0.5611 0.9955
-0.7693 -0.6144 -0.5684 0.9955
-2.2814 -2.6107 -2.0017 0.9841
-2.0393 -2.8038 -2.0017 0.9841
-1.7810 -2.9746 -2.0017 0.9841
-1.2238 -3.2438 -2.0017 0.9841
-0.6277 -3.4097 -2.0017 0.9841
-0.3209 -3.4521 -2.0017 0.9841
0.9071 -3.3462 -2.0017 0.9841
1.4875 -3.1317 -2.0017 0.9841
1.7610 -2.9865 -2.0017 0.9841
2.0205 -2.8174 -2.0017 0.9841
2.2638 -2.6259 -2.0017 0.9841
2.4891 -2.4134 -2.0017 0.9841
2.8785 -1.9325 -2.0017 0.9841
1.8564 -0.8124 -1.1699 0.9907
1.9015 -0.6369 -1.1578 0.9908
1.9717 -0.4696 -1.1702 0.9907
2.0296 -0.2953 -1.1841 0.9906
2.0317 0.0696 -1.1737 0.9907
2.0345 0.2527 -1.1836 0.9906
1.9894 0.4301 -1.1751 0.9906
1.8622 0.7691 -1.1632 0.9907
2.7395 2.1249 -2.0017 0.9841
2.5390 2.3609 -2.0017 0.9841
2.0789 2.7746 -2.0017 0.9841
1.5525 3.1000 -2.0017 0.9841
1.2697 3.2261 -2.0017 0.9841
0.9768 3.3266 -2.0017 0.9841
0.3699 3.4472 -2.0017 0.9841
-0.2488 3.4581 -2.0017 0.9841
-0.5564 3.4221 -2.0017 0.9841
-0.8595 3.3588 -2.0017 0.9841
-1.1558 3.2687 -2.0017 0.9841
-1.4429 3.1525 -2.0017 0.9841
-1.7185 3.0112 -2.0017 0.9841
-1.9803 2.8458 -2.0017 0.9841
-2.4547 2.4485 -2.0017 0.9841
-2.6634 2.2197 -2.0017 0.9841
-0.8459 0.4799 -0.5615 0.9955
-0.8829 0.4014 -0.5599 0.9955
-0.9039 0.3171 -0.5530 0.9956
-0.9466 0.1515 -0.5535 0.9956
-0.9535 -0.1047 -0.5538 0.9956
-0.8977 -0.3559 -0.5575 0.9955
-0.8676 -0.4373 -0.5609 0.9955
-0.8258 -0.5134 -0.5614 0.9955
-1.5963 -3.0776 -2.0017 0.9841
-1.0238 -3.3124 -2.0017 0.9841
-0.7242 -3.3905 -2.0017 0.9841
-0.4187 -3.4416 -2.0017 0.9841
0.1997 -3.4612 -2.0017 0.9841
1.1093 -3.2847 -2.0017 0.9841
1.3980 -3.1726 -2.0017 0.9841
1.6756 -3.0352 -2.0017 0.9841
1.9397 -2.8736 -2.0017 0.9841
2.1884 -2.6890 -2.0017 0.9841
2.4196 -2.4830 -2.0017 0.9841
2.6316 -2.2572 -2.0017 0.9841
2.9909 -1.7534 -2.0017 0.9841
3.1354 -1.4796 -2.0017 0.9841
